e,e,e,e,e,e,e,e,e,e,e,e,e,e,e,e,e,e,e,e,e,e,e,e,e,e,e,e,e,e,e,e,e,e,e,e,e,e,e,e,e,e,e,e,e,e,e,e,e,e,e,e,e,e,e,e,e,e,e,e,e,e,e,e,e,e,e,e,e,e,e,e,e,e,e,e,e,e,e,e,e,e,e,e,e,e,e,e,e,e,e,e,e,e,e,e,e,e,e,e,e,e,e,e,e,e,e,e,e,e,e,e,e,e,e,e,e,e,2.27,5.21,7.95,11.97,17.73,25.41,30.86,34.79,38.07,41.29,44.67,48.04,50.73,52.17,51.59,49.06,45.52,41.83,38.70,36.12,33.58,31.29,29.41,28.19,27.76,26.86,25.26,22.96,21.21,20.00,19.16,18.60,18.65,20.56,24.04,26.59,23.36,21.48,20.66,20.33,19.97,19.55,19.01,18.39,17.70,16.90,15.43,13.81,12.19,10.73,9.94,9.64,9.50,9.35,9.23,9.15,9.11,9.08,9.01,9.02,8.95,8.82,8.67,8.56,8.44,8.30,8.15,8.00,7.91,7.79,7.63,7.48,7.37,7.25,7.11,6.96,6.80,6.71,6.55,6.29,5.94,6.04,6.14,6.19,6.19,6.22,6.44,6.94,7.72,8.57,9.28,10.88,13.62,17.61,21.17,24.54,27.74,30.84,34.09,37.30,40.46,43.56,46.50,49.78,51.56,52.27,52.54,52.15,51.63,49.96,47.15,45.11,43.24,41.34,39.62,38.53,37.61,37.28,37.26,37.38,37.66,37.75,37.20,35.90,34.05,32.39,30.91,29.58,28.35,27.19,26.07,24.77,23.07,20.38,18.24,16.34,14.45,12.25
e,e,e,e,e,e,e,e,e,e,e,e,e,e,e,e,e,e,e,e,e,e,e,e,e,e,e,e,e,e,e,e,e,e,e,e,e,e,e,e,e,e,e,e,e,e,e,e,e,e,e,e,e,e,e,e,e,e,e,e,e,e,e,e,e,e,e,e,e,e,e,e,e,e,e,e,e,e,e,e,e,e,e,e,e,e,e,e,e,e,e,e,e,e,e,e,e,e,e,e,e,e,e,e,e,e,e,e,e,e,e,e,e,e,e,e,e,1.98,4.40,7.44,11.61,17.19,23.03,27.70,31.89,35.74,39.34,42.77,45.96,49.18,51.95,53.61,53.09,50.37,46.98,43.72,41.20,39.38,37.43,35.20,32.85,31.02,30.44,29.88,28.70,26.29,23.54,21.74,20.65,20.09,20.00,21.35,24.41,26.52,22.18,20.26,19.46,19.16,18.82,18.35,17.76,17.14,16.47,15.62,14.16,12.66,11.22,9.90,9.58,9.43,9.31,9.17,9.10,9.02,9.01,9.02,8.87,8.78,8.65,8.50,8.35,8.19,8.10,7.98,7.83,7.68,7.58,7.46,7.31,7.16,7.00,6.90,6.79,6.64,6.49,6.39,6.24,5.99,5.68,5.65,5.69,5.74,5.75,5.82,6.09,6.62,7.41,8.26,9.04,10.39,12.87,17.11,21.09,24.87,28.37,31.56,34.68,37.63,40.56,43.50,46.34,49.38,51.17,52.02,52.39,52.01,51.34,50.04,48.18,46.58,45.03,43.40,41.84,40.62,40.31,40.21,40.16,40.05,39.80,39.38,38.65,37.50,35.70,34.21,32.79,31.42,30.11,28.94,27.77,26.27,24.26,21.56,19.40,17.50,15.62,13.43
e,e,e,e,e,e,e,e,e,e,e,e,e,e,e,e,e,e,e,e,e,e,e,e,e,e,e,e,e,e,e,e,e,e,e,e,e,e,e,e,e,e,e,e,e,e,e,e,e,e,e,e,e,e,e,e,e,e,e,e,e,e,e,e,e,e,e,e,e,e,e,e,e,e,e,e,e,e,e,e,e,e,e,e,e,e,e,e,e,e,e,e,e,e,e,e,e,e,e,e,e,e,e,e,e,e,e,e,e,e,e,e,e,e,e,e,e,4.75,7.49,11.32,16.96,21.92,25.77,28.46,32.20,36.00,39.86,43.69,47.14,50.18,52.92,54.73,54.36,51.45,48.60,46.24,44.61,43.09,41.27,39.07,36.61,34.44,33.38,32.24,30.58,28.08,25.58,24.06,23.33,23.14,22.95,24.82,25.62,24.49,21.24,19.75,18.78,18.16,17.73,17.16,16.55,15.90,15.20,14.35,12.93,11.74,10.78,9.90,9.53,9.29,9.12,8.98,8.96,8.89,8.81,8.70,8.55,8.41,8.30,8.18,8.03,7.87,7.78,7.67,7.51,7.36,7.22,7.11,6.99,6.84,6.68,6.58,6.48,6.32,6.17,6.08,5.92,5.68,5.43,5.25,5.24,5.31,5.37,5.39,5.72,6.30,7.09,7.94,8.72,9.67,11.64,15.84,20.11,24.32,28.23,31.65,34.37,37.08,39.72,42.33,45.07,47.78,49.86,51.18,51.69,51.36,50.29,48.77,47.16,46.29,45.35,44.00,42.69,42.21,41.95,41.80,41.63,41.38,41.04,40.55,39.95,39.12,37.71,36.25,34.83,33.45,32.08,30.81,29.54,27.91,25.82,23.71,21.21,19.15,17.45,15.66
e,e,e,e,e,e,e,e,e,e,e,e,e,e,e,e,e,e,e,e,e,e,e,e,e,e,e,e,e,e,e,e,e,e,e,e,e,e,e,e,e,e,e,e,e,e,e,e,e,e,e,e,e,e,e,e,e,e,e,e,e,e,e,e,e,e,e,e,e,e,e,e,e,e,e,e,e,e,e,e,e,e,e,e,e,e,e,e,e,e,e,e,e,e,e,e,e,e,e,e,e,e,e,e,e,e,e,e,e,e,e,e,e,e,e,e,4.28,7.71,11.71,17.05,22.92,27.09,29.69,31.37,34.39,37.62,41.17,45.00,48.58,51.55,54.39,56.48,56.45,53.77,51.41,49.49,47.94,46.27,44.37,42.18,39.74,37.31,35.52,33.69,31.63,29.23,27.45,26.27,25.81,25.98,26.00,26.90,26.11,23.70,21.14,19.92,18.88,18.01,17.32,16.62,15.94,15.23,14.45,13.54,12.34,11.39,10.65,9.93,9.49,9.16,8.93,8.78,8.73,8.63,8.52,8.38,8.23,8.07,7.97,7.86,7.71,7.56,7.44,7.32,7.19,7.04,6.88,6.77,6.67,6.52,6.37,6.27,6.16,6.00,5.85,5.73,5.56,5.34,5.17,4.83,4.78,4.88,4.95,4.95,5.34,5.98,6.77,7.62,8.25,8.87,10.48,14.49,18.86,23.39,27.70,31.42,33.89,36.30,38.63,40.94,43.45,45.87,47.90,49.33,49.98,49.61,48.46,47.10,45.88,45.09,44.45,43.53,42.68,42.58,42.43,42.30,42.19,42.09,41.90,41.56,41.10,40.44,39.37,38.19,36.87,35.48,34.10,32.78,31.55,30.04,28.17,26.40,24.12,22.18,20.63,19.25
e,e,e,e,e,e,e,e,e,e,e,e,e,e,e,e,e,e,e,e,e,e,e,e,e,e,e,e,e,e,e,e,e,e,e,e,e,e,e,e,e,e,e,e,e,e,e,e,e,e,e,e,e,e,e,e,e,e,e,e,e,e,e,e,e,e,e,e,e,e,e,e,e,e,e,e,e,e,e,e,e,e,e,e,e,e,e,e,e,e,e,e,e,e,e,e,e,e,e,e,e,e,e,e,e,e,e,e,e,e,e,e,e,e,e,e,5.94,10.79,16.79,24.20,29.37,32.61,34.53,35.94,38.03,40.28,43.11,46.61,50.24,53.21,56.24,58.71,59.18,57.04,55.16,53.31,51.22,49.06,46.90,44.70,42.38,39.76,37.06,34.45,32.03,29.89,29.19,28.38,28.13,28.66,29.12,27.90,26.02,23.86,21.70,20.64,19.58,18.50,17.44,16.59,15.80,14.99,14.11,13.11,12.24,11.48,10.76,9.99,9.45,9.02,8.74,8.58,8.43,8.27,8.16,8.06,7.91,7.75,7.65,7.55,7.39,7.24,7.08,6.96,6.87,6.72,6.56,6.46,6.35,6.20,6.05,5.95,5.84,5.68,5.53,5.37,5.18,4.98,4.91,4.39,4.30,4.43,4.50,4.50,4.97,5.66,6.45,7.30,7.67,8.03,9.38,13.09,17.41,22.17,26.86,30.96,33.28,35.34,37.35,39.40,41.56,43.72,45.44,46.70,47.48,47.02,46.03,45.12,44.40,43.16,42.60,42.22,42.00,42.00,42.00,41.95,42.02,42.32,42.47,42.44,42.12,41.53,40.75,40.05,38.92,37.53,36.14,34.83,33.74,32.56,31.13,29.51,27.89,26.27,24.83,23.91
e,e,e,e,e,e,e,e,e,e,e,e,e,e,e,e,e,e,e,e,e,e,e,e,e,e,e,e,e,e,e,e,e,e,e,e,e,e,e,e,e,e,e,e,e,e,e,e,e,e,e,e,e,e,e,e,e,e,e,e,e,e,e,e,e,e,e,e,e,e,e,e,e,e,e,e,e,e,e,e,e,e,e,e,e,e,e,e,e,e,e,e,e,e,e,e,e,e,e,e,e,e,e,e,4.54,5.00,5.26,5.30,4.47,e,e,e,e,e,4.70,6.63,10.58,15.66,21.59,28.47,33.01,36.21,38.49,40.29,42.87,45.47,48.05,50.60,53.20,55.98,58.74,60.93,61.59,60.03,58.09,55.96,53.77,51.56,49.27,46.90,44.19,40.33,37.95,35.99,34.20,32.50,31.70,30.55,29.66,29.36,29.33,28.11,26.44,24.51,22.40,21.29,20.26,19.19,18.08,17.23,16.44,15.65,14.77,13.57,12.55,11.65,10.83,10.06,9.52,9.12,8.80,8.49,8.14,7.95,7.84,7.74,7.59,7.44,7.30,7.18,7.07,6.92,6.76,6.64,6.55,6.40,6.24,6.14,6.04,5.88,5.73,5.59,5.47,5.36,5.21,5.05,4.86,4.66,4.59,4.07,3.95,4.03,4.05,4.05,4.60,5.34,6.10,6.81,6.43,6.69,8.13,11.05,15.51,20.28,25.07,29.46,32.02,34.09,35.77,37.32,39.34,41.21,42.76,43.89,44.49,44.12,43.42,42.70,42.04,41.20,40.56,40.12,39.87,39.77,39.87,40.25,40.71,41.05,41.31,41.53,41.66,41.69,41.66,40.97,40.15,39.27,38.32,37.20,36.17,35.01,33.70,32.57,31.66,31.00,30.40,29.52
e,e,e,e,e,e,e,e,e,e,e,e,e,e,e,e,e,e,e,e,e,e,e,e,e,e,e,e,e,e,e,e,e,e,e,e,e,e,e,e,e,e,e,e,e,e,e,e,e,e,e,e,e,e,e,e,e,e,e,e,e,e,e,e,e,e,e,e,e,e,e,e,e,e,e,e,e,e,e,e,e,e,e,e,e,e,e,e,e,e,e,e,e,e,e,e,e,e,e,4.55,6.06,6.87,7.16,7.99,8.65,8.80,8.43,8.31,7.72,7.10,7.56,7.02,6.95,7.78,9.72,11.88,15.93,20.75,26.01,31.92,36.15,39.40,41.97,44.23,47.06,49.78,52.19,54.27,56.34,58.92,61.48,63.49,64.13,62.89,60.89,58.58,56.32,54.06,51.65,49.02,45.92,41.62,39.47,37.86,36.47,35.14,34.27,32.84,31.31,30.05,29.47,28.21,26.69,25.00,23.09,21.95,20.90,19.83,18.72,17.89,17.10,16.29,15.35,14.06,12.92,11.88,10.96,10.12,9.58,9.24,8.91,8.50,8.03,7.77,7.57,7.40,7.27,7.12,6.96,6.83,6.75,6.60,6.44,6.33,6.23,6.08,5.93,5.80,5.70,5.56,5.41,5.25,5.13,5.04,4.89,4.74,4.54,4.34,4.27,3.77,3.58,3.59,3.61,3.65,4.25,5.02,5.73,6.14,5.06,5.27,6.86,9.23,13.39,18.04,22.79,27.23,30.23,32.34,33.84,35.08,36.72,38.25,39.51,40.43,40.97,40.70,40.19,39.57,38.94,38.32,37.73,37.30,37.04,36.91,37.08,37.66,38.26,38.63,39.21,39.96,40.71,41.35,41.76,41.41,41.05,40.62,39.98,39.14,38.32,37.43,36.50,35.88,35.56,35.50,35.38,34.72
e,e,e,e,e,e,e,e,e,e,e,e,e,e,e,e,e,e,e,e,e,e,e,e,e,e,e,e,e,e,e,e,e,e,e,e,e,e,e,e,e,e,e,e,e,e,e,e,e,e,e,e,e,e,e,e,e,e,e,e,e,e,e,e,e,e,e,e,e,e,e,e,e,e,e,e,e,e,e,e,e,e,e,e,e,e,e,e,e,e,e,e,e,e,e,e,e,e,e,7.31,9.51,11.69,13.02,13.86,14.18,13.93,12.87,12.36,12.41,12.84,13.31,13.39,13.42,14.01,15.64,18.34,22.19,26.10,29.91,34.29,38.66,42.05,44.82,47.61,50.40,52.92,55.26,57.48,59.70,62.10,64.55,66.47,66.82,65.57,63.54,61.18,58.87,56.56,54.02,51.03,47.57,43.86,41.81,40.20,38.86,37.82,36.90,35.27,33.10,30.73,29.51,28.14,26.74,25.29,23.77,22.60,21.50,20.42,19.36,18.58,17.80,16.90,15.81,14.56,13.34,12.21,11.17,10.19,9.65,9.37,9.08,8.62,8.16,7.78,7.38,7.03,6.95,6.80,6.64,6.52,6.43,6.28,6.12,6.01,5.92,5.76,5.61,5.46,5.33,5.24,5.09,4.93,4.81,4.72,4.57,4.42,4.22,4.03,3.95,3.50,3.20,3.09,3.17,3.31,3.93,4.70,5.33,5.24,3.54,3.75,5.58,7.70,10.98,15.32,19.89,24.05,27.74,29.94,31.47,32.63,33.57,34.69,35.49,36.12,36.76,36.59,36.14,35.53,34.85,34.23,33.85,33.53,33.29,33.20,33.42,33.89,34.33,34.67,35.90,37.53,39.11,40.34,40.80,41.23,41.49,41.43,40.95,40.51,40.13,39.81,39.58,39.51,39.65,39.69,39.59,39.37
e,e,e,e,e,e,e,e,e,e,e,e,e,e,e,e,e,e,e,e,e,e,e,e,e,e,e,e,e,e,e,e,e,e,e,e,e,e,e,e,e,e,e,e,e,e,e,e,e,e,e,e,e,e,e,e,e,e,e,e,e,e,e,e,e,e,e,e,e,e,e,e,e,e,e,e,e,e,e,e,e,e,e,e,e,e,e,e,e,e,e,e,e,e,e,e,4.66,6.67,11.14,16.61,21.15,22.76,23.63,22.90,21.64,20.29,18.24,17.72,17.84,18.29,18.88,19.05,19.73,20.86,22.40,25.13,27.76,30.38,33.11,36.25,40.31,43.75,46.73,49.67,52.71,55.50,58.23,61.05,63.97,66.37,68.14,69.14,69.24,68.22,66.33,63.97,61.53,59.08,56.13,52.82,49.37,46.21,44.50,43.07,41.84,40.83,39.47,37.49,34.98,32.18,29.89,28.39,27.04,25.78,24.78,23.63,22.50,21.37,20.26,19.32,18.51,17.52,16.30,15.02,13.74,12.58,11.51,10.47,9.84,9.52,9.23,8.81,8.34,7.91,7.48,7.10,6.80,6.52,6.32,6.20,6.11,5.96,5.81,5.67,5.55,5.44,5.29,5.13,5.00,4.92,4.77,4.61,4.47,4.36,4.24,4.10,3.90,3.70,3.58,3.25,2.87,2.64,2.73,2.97,3.61,4.21,4.50,4.35,e,e,3.94,6.11,8.85,12.31,15.89,19.16,22.00,23.97,25.48,26.73,27.88,28.73,29.23,29.60,30.02,29.99,29.90,29.81,29.76,29.74,29.43,29.10,28.76,28.34,28.53,28.84,29.22,29.72,30.99,32.59,34.42,36.32,37.93,39.70,40.69,41.01,40.93,40.89,40.71,40.50,40.39,40.78,40.99,40.91,40.62,40.34
e,e,e,e,e,e,e,e,e,e,e,e,e,e,e,e,e,e,e,e,e,e,e,e,e,e,e,e,e,e,e,e,e,e,e,e,e,e,e,e,e,e,e,e,e,e,e,e,e,e,e,e,e,e,e,e,e,e,e,e,e,e,e,e,e,e,e,e,e,e,e,e,e,e,e,e,e,e,e,e,e,e,e,e,e,e,e,e,e,e,e,e,1.44,2.92,3.88,5.69,8.61,12.13,18.41,25.66,31.14,31.99,32.20,30.18,27.64,25.39,22.77,22.48,22.73,23.22,24.10,24.45,25.62,27.09,28.50,30.89,32.52,34.18,36.21,38.75,42.13,45.32,48.31,51.23,54.50,57.58,60.73,64.08,67.58,70.00,71.25,71.55,71.38,70.70,69.02,66.72,64.17,61.55,58.21,54.66,51.27,48.69,47.35,46.11,44.88,43.67,41.80,39.41,36.62,33.57,30.47,28.79,27.53,26.52,25.89,24.77,23.63,22.48,21.30,20.17,19.21,18.10,16.79,15.47,14.16,12.99,11.95,10.94,10.25,9.78,9.39,8.98,8.52,8.06,7.64,7.23,6.78,6.38,6.10,5.91,5.78,5.64,5.49,5.33,5.19,5.11,4.97,4.81,4.68,4.59,4.45,4.30,4.14,4.00,3.92,3.78,3.58,3.37,3.21,3.00,2.56,2.22,2.29,2.62,3.26,3.64,3.56,3.23,e,e,2.47,4.80,7.11,9.74,12.25,14.33,16.05,17.52,18.78,19.92,21.14,21.73,22.04,22.23,22.50,23.17,23.65,24.08,24.51,24.93,24.75,24.49,24.13,23.51,23.60,23.78,24.11,24.69,25.86,27.45,29.44,31.76,34.27,37.02,38.76,39.75,40.40,40.82,40.87,40.75,40.71,41.31,41.51,41.31,40.89,40.55
e,e,e,e,e,e,e,e,e,e,e,e,e,e,e,e,e,e,e,e,e,e,e,e,e,e,e,e,e,e,e,e,e,e,e,e,e,e,e,e,e,e,e,e,e,e,e,e,e,e,e,e,e,e,e,e,e,e,e,e,e,e,e,e,e,e,e,e,e,e,e,e,e,e,e,e,e,e,e,e,e,e,e,e,e,e,e,e,e,e,e,e,3.81,5.34,6.66,9.58,14.70,21.96,27.52,31.71,34.18,34.59,34.20,32.14,29.53,27.07,24.99,25.33,26.08,27.03,28.55,29.50,30.55,31.66,32.75,34.11,35.60,37.26,39.36,42.63,44.65,46.94,49.47,52.06,55.43,58.72,62.14,65.75,69.29,71.68,73.04,73.45,72.99,72.77,71.42,69.29,66.77,63.90,60.36,56.65,53.32,51.43,50.47,49.34,47.87,46.02,43.56,40.72,37.67,34.52,31.37,29.44,28.37,27.79,27.11,26.03,24.98,23.85,22.57,21.29,19.91,18.55,17.23,15.92,14.61,13.47,12.53,11.77,11.08,10.25,9.56,9.11,8.64,8.23,7.81,7.37,6.97,6.52,6.10,5.71,5.40,5.31,5.17,5.01,4.87,4.79,4.65,4.49,4.34,4.20,4.11,3.98,3.82,3.68,3.60,3.46,3.26,3.05,2.89,2.73,2.28,1.87,1.84,2.28,2.83,2.96,2.50,1.57,e,e,1.53,4.16,6.17,8.34,9.85,10.30,10.78,11.27,11.72,12.20,12.88,13.21,13.45,13.70,14.11,16.75,18.20,18.93,19.25,19.52,19.67,19.69,19.54,19.17,19.06,19.15,19.42,19.88,20.80,22.74,24.89,27.07,29.43,32.12,34.66,36.98,39.02,40.09,40.48,40.61,40.72,40.97,41.08,40.89,40.55,40.36
e,e,e,e,e,e,e,e,e,e,e,e,e,e,e,e,e,e,e,e,e,e,e,e,e,e,e,e,e,e,e,e,e,e,e,e,e,e,e,e,e,e,e,e,e,e,e,e,e,e,e,e,e,e,e,e,e,e,e,e,e,e,e,e,e,e,e,e,e,e,e,e,e,e,e,e,e,e,e,e,e,2.58,4.32,5.62,4.81,e,e,4.98,4.08,3.72,3.63,4.43,6.50,9.09,12.54,16.82,22.07,28.75,33.02,35.80,37.20,37.32,36.28,33.93,31.21,28.74,27.17,27.79,28.78,29.93,31.48,32.93,34.22,35.34,36.31,37.29,39.22,41.53,44.10,47.21,48.83,50.56,52.42,54.21,56.27,59.26,62.79,66.57,70.13,72.69,74.56,75.63,75.60,75.17,73.72,71.62,69.23,66.08,62.14,58.30,55.26,54.25,53.55,52.47,50.58,47.49,44.65,41.89,39.03,36.05,33.32,31.20,29.97,29.30,28.42,27.38,26.32,25.11,23.71,22.46,20.59,18.88,17.54,16.23,15.24,14.34,13.53,12.83,11.85,10.69,9.78,9.28,8.82,8.39,7.96,7.54,7.12,6.69,6.24,5.79,5.38,5.16,4.90,4.69,4.55,4.43,4.31,4.18,4.02,3.87,3.79,3.66,3.50,3.36,3.28,3.14,2.94,2.72,2.53,2.44,2.01,1.56,1.45,1.95,2.15,2.09,1.70,0.66,e,e,1.49,3.94,5.98,7.60,8.38,8.24,8.39,8.61,8.88,9.09,8.98,8.35,8.16,8.35,8.91,12.98,14.86,15.56,15.74,15.97,16.20,16.30,16.23,15.99,15.87,15.92,16.15,16.59,17.55,19.26,21.08,22.92,25.06,27.59,30.24,32.82,35.13,36.98,38.32,39.32,40.06,40.47,40.56,40.44,40.02,39.10
e,e,e,e,e,e,e,e,e,e,e,e,e,e,e,e,e,e,e,e,e,e,e,e,e,e,e,e,e,e,e,e,e,e,e,e,e,e,e,e,e,e,e,e,e,e,e,e,e,e,e,e,e,e,e,e,e,e,e,e,e,e,e,e,e,e,e,e,e,e,e,e,e,e,e,e,e,e,e,e,e,3.08,5.68,7.89,8.24,7.87,8.30,9.06,8.85,8.57,8.57,9.05,10.33,13.90,19.35,24.66,29.39,34.23,37.16,39.13,40.12,40.03,38.31,35.62,32.81,30.47,29.37,30.11,31.19,32.38,33.77,35.61,37.27,38.66,39.74,40.68,43.22,46.25,49.29,51.95,53.60,55.02,56.24,57.18,57.59,59.87,63.23,67.05,70.59,73.39,75.87,77.77,78.44,77.64,75.93,73.76,71.39,67.97,63.73,59.90,57.30,57.09,56.61,55.61,53.38,49.16,45.99,43.36,40.71,37.88,35.60,33.35,31.85,30.93,29.83,28.80,27.71,26.46,24.99,23.79,21.40,19.28,17.87,16.64,16.02,15.38,14.65,13.85,12.51,11.08,9.99,9.44,8.98,8.52,8.11,7.71,7.26,6.86,6.42,5.96,5.51,5.11,4.72,4.43,4.25,4.07,3.98,3.86,3.70,3.55,3.47,3.34,3.18,3.04,2.95,2.82,2.62,2.39,2.16,2.14,1.75,1.27,1.05,1.53,e,e,e,e,e,e,1.77,3.92,6.08,7.09,7.24,6.90,7.05,7.29,7.61,7.72,6.88,5.24,4.47,4.46,5.12,10.12,12.16,12.76,12.84,13.05,13.27,13.36,13.32,13.16,13.10,13.13,13.35,13.87,14.97,16.30,17.70,19.19,21.07,23.32,25.71,28.04,30.14,32.50,34.72,36.59,37.97,38.72,38.82,38.76,38.20,36.44
e,e,e,e,e,e,e,e,e,e,e,e,e,e,e,e,e,e,e,e,e,e,e,e,e,e,e,e,e,e,e,e,e,e,e,e,e,e,e,e,e,e,e,e,e,e,e,e,e,e,e,e,e,e,e,e,e,e,e,e,e,e,e,e,e,e,e,e,e,e,e,e,e,e,e,e,e,e,e,e,e,4.51,7.68,10.48,14.32,16.35,18.41,19.96,19.46,18.83,18.95,19.19,19.27,21.57,25.14,29.42,34.07,38.71,41.04,42.28,42.66,42.31,39.99,37.08,34.43,32.57,31.81,32.43,33.29,34.30,35.69,37.53,39.59,41.74,43.81,45.29,48.02,50.98,53.77,56.19,58.26,59.96,61.19,61.82,61.44,61.96,63.93,67.35,70.79,73.84,76.72,79.19,80.65,79.78,77.91,75.35,72.34,68.76,64.96,61.87,60.00,59.88,59.59,58.94,57.19,53.50,49.83,46.56,43.35,40.15,37.68,35.31,33.74,32.76,31.56,30.38,29.41,28.44,27.27,25.77,22.86,20.22,18.54,17.86,17.25,16.56,15.62,14.23,12.75,11.23,10.07,9.44,8.98,8.56,8.20,7.85,7.44,7.00,6.55,6.10,5.69,5.25,4.85,4.47,4.09,3.77,3.66,3.54,3.38,3.23,3.15,3.02,2.86,2.71,2.58,2.47,2.31,2.07,1.84,1.77,1.43,0.96,0.58,0.67,e,e,e,e,e,e,2.01,4.11,6.28,6.52,5.98,5.56,5.71,6.07,6.46,6.58,5.79,4.20,2.79,2.03,2.47,6.88,8.77,9.52,9.81,9.87,10.03,10.11,10.06,9.91,9.94,9.97,10.32,11.20,12.40,13.75,15.14,16.56,18.09,19.73,21.20,22.66,24.28,25.45,27.12,28.67,29.85,30.95,31.10,30.92,30.24,28.58
e,e,e,e,e,e,e,e,e,e,e,e,e,e,e,e,e,e,e,e,e,e,e,e,e,e,e,e,e,e,e,e,e,e,e,e,e,e,e,e,e,e,e,e,e,e,e,e,e,e,e,e,e,e,e,e,e,e,e,e,e,e,e,e,e,e,e,e,e,e,e,e,e,e,e,e,e,e,e,e,e,7.34,11.87,15.83,21.08,24.41,27.00,28.53,28.03,27.24,27.02,26.56,25.59,27.48,30.55,34.29,38.42,42.54,44.61,45.42,45.15,43.98,41.31,38.50,36.24,34.95,34.65,35.12,35.65,36.26,37.23,39.18,41.71,44.49,47.17,49.34,52.21,55.18,57.99,60.54,63.00,65.27,66.89,67.31,66.32,65.70,66.35,68.56,71.48,74.57,77.60,80.31,82.33,81.61,79.83,77.18,73.80,69.91,66.57,64.28,63.22,63.32,63.34,62.97,61.47,57.98,53.70,49.55,45.75,42.46,39.83,37.34,35.67,34.58,33.25,32.04,31.10,30.28,29.39,28.00,25.02,22.22,20.31,19.29,18.36,17.34,16.09,14.50,12.95,11.37,10.13,9.45,9.01,8.59,8.20,7.82,7.41,7.00,6.60,6.21,5.85,5.41,4.99,4.56,4.11,3.72,3.48,3.26,3.06,2.91,2.80,2.68,2.55,2.39,2.24,2.15,1.99,1.75,1.52,1.44,1.13,0.68,e,e,e,e,e,e,e,e,2.45,4.42,5.97,5.64,4.73,4.22,4.43,4.90,5.32,5.42,4.73,3.31,1.88,e,e,e,e,e,e,e,e,e,e,e,e,e,5.73,6.41,7.88,10.17,12.30,14.02,15.41,16.77,17.82,18.76,19.82,20.40,21.35,22.30,23.10,23.95,24.06,23.93,23.42,22.21
e,e,e,e,e,e,e,e,e,e,e,e,e,e,e,e,e,e,e,e,e,e,e,e,e,e,e,e,e,e,e,e,e,e,e,e,e,e,e,e,e,e,e,e,e,e,e,e,e,e,e,e,e,e,e,e,e,e,e,e,e,e,e,e,e,e,e,e,e,e,e,e,e,e,e,e,e,e,e,0.34,4.76,11.15,17.49,22.91,28.16,32.03,34.46,35.48,35.17,34.34,33.50,32.10,30.23,32.30,35.70,39.22,42.54,45.92,47.96,48.53,47.60,45.25,42.40,39.90,38.20,37.51,37.75,38.04,38.18,38.26,38.57,40.67,43.72,47.02,50.04,52.98,55.98,59.00,62.00,64.95,67.78,70.81,73.08,73.35,71.86,70.56,69.97,70.47,72.58,75.54,78.51,81.25,83.65,83.23,81.72,79.18,75.64,71.33,68.46,67.02,66.79,67.17,67.55,67.42,66.00,62.49,57.55,52.39,47.99,44.79,42.01,39.43,37.63,36.38,34.92,33.75,32.79,32.02,31.35,30.33,27.60,24.89,22.76,20.82,19.36,17.83,16.23,14.69,13.14,11.48,10.18,9.45,9.07,8.61,8.15,7.69,7.22,6.90,6.59,6.28,5.97,5.58,5.14,4.68,4.23,3.85,3.39,3.02,2.75,2.59,2.44,2.34,2.23,2.07,1.92,1.82,1.67,1.44,1.20,1.12,0.84,e,e,e,e,e,e,e,e,1.70,3.04,4.79,5.31,4.54,3.48,2.89,3.21,3.77,4.18,4.23,3.70,2.53,1.51,e,e,e,e,e,e,e,e,e,e,e,e,e,e,e,e,e,e,11.46,12.89,14.22,15.20,15.87,16.33,16.71,16.87,17.05,17.34,17.57,17.60,17.60,17.45,16.91
e,e,e,e,e,e,e,e,e,e,e,e,e,e,e,e,e,e,e,e,e,e,e,e,e,e,e,e,e,e,e,e,e,e,e,e,e,e,e,e,e,e,e,e,e,e,e,e,e,e,e,e,e,e,e,e,e,e,e,e,e,e,e,e,e,e,e,e,e,e,e,e,e,e,e,e,e,e,e,5.60,10.77,16.35,21.50,26.00,31.00,35.30,38.64,40.49,40.08,39.54,38.96,38.27,37.65,39.12,41.26,43.88,46.70,49.18,50.74,50.72,49.23,46.60,43.79,41.77,40.48,39.89,40.28,40.47,40.57,40.67,40.93,43.08,46.08,49.41,52.67,55.75,58.94,62.19,65.47,68.81,72.47,76.03,78.58,79.08,77.00,75.69,75.23,75.57,76.25,77.57,79.65,82.24,84.79,84.66,83.55,81.41,78.22,74.25,71.62,70.37,70.26,70.44,70.76,70.43,68.67,64.73,60.09,54.93,50.26,46.64,43.86,41.40,39.46,37.93,36.51,35.39,34.42,33.38,32.09,30.62,28.37,25.92,23.55,21.36,19.57,17.89,16.28,14.68,13.09,11.46,10.18,9.45,9.07,8.61,8.15,7.69,7.22,6.81,6.40,6.03,5.71,5.38,5.06,4.73,4.36,3.98,3.57,3.15,2.76,2.40,2.15,2.02,1.91,1.75,1.60,1.46,1.31,1.12,0.88,0.75,0.55,e,e,e,e,e,e,e,e,2.53,3.69,4.86,4.54,3.42,2.22,1.59,2.26,2.72,2.96,2.94,2.60,2.04,1.44,e,e,e,e,e,e,e,e,e,e,e,e,e,e,e,e,e,e,6.95,9.61,11.35,12.42,13.06,13.52,13.90,14.06,14.17,14.34,14.57,14.60,14.55,14.29,13.65
e,e,e,e,e,e,e,e,e,e,e,e,e,e,e,e,e,e,e,e,e,e,e,e,e,e,e,e,e,e,e,e,e,e,e,e,e,e,e,e,e,e,e,e,e,e,e,e,e,e,e,e,e,e,e,e,e,e,e,e,e,e,e,e,e,e,e,e,e,e,e,e,e,e,e,e,e,2.48,5.09,10.19,15.54,20.41,24.78,28.90,33.98,38.82,42.96,45.57,45.38,45.04,44.62,44.26,44.17,45.08,46.33,48.12,50.27,52.08,53.28,52.61,50.53,47.80,45.22,43.64,42.63,42.09,42.58,42.87,43.11,43.32,43.50,45.48,48.40,51.76,55.15,58.38,61.74,65.21,68.81,72.66,76.72,80.38,83.06,84.16,82.73,81.46,80.56,80.05,79.58,79.87,81.22,83.42,85.88,86.45,85.76,83.81,80.71,77.04,74.77,73.75,73.65,73.68,73.34,72.26,69.90,65.75,61.43,56.37,51.65,47.93,45.38,43.12,41.11,39.38,37.99,36.78,35.57,34.17,32.48,30.78,28.76,26.43,23.88,21.45,19.55,17.88,16.31,14.68,13.06,11.44,10.18,9.45,9.04,8.60,8.15,7.69,7.22,6.76,6.31,5.90,5.55,5.19,4.88,4.59,4.29,3.92,3.58,3.19,2.78,2.39,2.03,1.81,1.63,1.43,1.28,1.12,0.97,0.79,0.54,e,e,e,e,e,e,e,e,e,2.16,3.12,3.94,4.42,3.66,2.34,e,e,e,e,e,e,e,e,e,e,e,e,e,e,e,e,e,e,e,e,e,e,e,e,e,e,e,e,e,e,8.65,9.46,10.06,10.66,10.90,11.01,11.12,11.26,11.34,11.22,10.81,9.95
e,e,e,e,e,e,e,e,e,e,e,e,e,e,e,e,e,e,e,e,e,e,e,e,e,e,e,e,e,e,e,e,e,e,e,e,e,e,e,e,e,e,e,e,e,e,e,e,e,e,e,e,e,e,e,e,e,e,e,e,e,e,e,e,e,e,e,e,e,e,e,e,e,e,e,e,e,6.45,9.59,14.00,18.91,23.15,27.23,31.59,37.11,42.60,47.44,50.71,51.11,50.89,50.49,50.04,49.67,50.04,50.83,51.90,53.18,54.54,55.52,54.17,51.45,48.83,46.70,45.49,44.65,44.08,44.62,45.25,45.83,46.23,46.31,47.86,50.66,54.06,57.46,60.84,64.35,68.03,72.00,76.49,80.43,83.72,86.38,88.48,89.13,87.99,85.98,83.82,82.52,82.47,83.27,84.80,86.92,88.66,88.41,86.40,83.09,79.67,77.91,77.14,76.95,76.89,75.20,72.73,69.47,65.37,61.40,56.54,52.01,48.57,46.51,44.54,42.56,40.72,39.33,37.89,36.16,34.31,32.48,30.78,28.72,26.34,23.71,21.03,19.28,17.78,16.31,14.68,13.06,11.44,10.18,9.44,8.98,8.58,8.15,7.69,7.22,6.76,6.34,5.93,5.48,5.02,4.57,4.23,3.98,3.66,3.41,3.12,2.83,2.58,2.13,1.73,1.40,1.11,0.96,0.80,0.65,0.46,0.16,e,e,e,e,e,e,e,e,e,2.81,3.44,3.71,3.40,2.63,1.32,e,e,e,e,e,e,e,e,e,e,e,e,e,e,e,e,e,e,e,e,e,e,e,e,e,e,e,e,e,e,3.72,4.97,5.87,6.91,7.33,7.52,7.64,7.58,7.76,7.60,6.95,5.75
e,e,e,e,e,e,e,e,e,e,e,e,e,e,e,e,e,e,e,e,e,e,e,e,e,e,e,e,e,e,e,e,e,e,e,e,e,e,e,e,e,e,e,e,e,e,e,e,e,e,e,e,e,e,e,e,e,e,e,e,e,e,e,e,e,e,e,e,e,e,e,e,e,e,e,e,6.45,9.71,13.21,17.40,21.65,25.67,29.79,34.29,39.58,44.84,49.34,52.64,54.30,54.16,53.90,53.70,53.67,53.98,54.58,55.41,56.42,57.56,57.69,56.02,53.31,50.66,48.66,47.45,46.60,46.06,46.60,47.23,47.87,48.47,49.00,50.90,53.49,56.45,59.52,62.88,66.43,70.33,74.62,79.17,83.22,86.57,89.56,92.60,93.58,92.04,89.68,87.57,86.05,85.20,85.47,86.72,88.36,90.55,90.10,87.93,85.18,83.33,82.34,81.57,80.60,78.97,76.08,72.50,68.45,64.18,59.66,54.48,50.42,48.25,46.42,44.47,42.65,41.07,39.86,38.23,36.40,34.49,32.64,30.81,28.65,26.24,23.65,21.04,19.23,17.63,16.09,14.51,13.02,11.44,10.18,9.44,8.98,8.58,8.15,7.69,7.22,6.76,6.35,5.93,5.47,5.01,4.54,4.15,3.81,3.42,3.13,2.83,2.53,2.25,1.92,1.59,1.28,1.01,0.77,0.53,0.33,e,e,e,e,e,e,e,e,e,1.13,1.98,2.65,2.90,2.76,2.33,1.60,e,e,e,e,e,e,e,e,e,e,e,e,e,e,e,e,e,e,e,e,e,e,e,e,e,e,e,e,e,e,e,e,e,e,e,e,e,e,e,e,3.51,e,e
e,e,e,e,e,e,e,e,e,e,e,e,e,e,e,e,e,e,e,e,e,e,e,e,e,e,e,e,e,e,e,e,e,e,e,e,e,e,e,e,e,e,e,e,e,e,e,e,e,e,e,e,e,e,e,e,e,e,e,e,e,e,e,e,e,e,e,e,e,e,e,e,e,2.92,4.29,5.73,9.14,12.78,16.55,20.49,24.26,28.18,32.36,36.88,41.86,46.74,50.96,54.41,57.11,57.24,57.22,57.26,57.50,57.74,58.21,58.91,59.83,60.90,60.37,58.36,55.60,52.98,51.00,49.64,48.67,48.10,48.64,49.31,50.03,50.82,51.69,54.04,56.61,59.29,62.04,65.21,68.54,72.41,76.87,81.61,85.85,89.41,92.73,96.32,97.37,95.53,93.00,91.04,89.35,87.90,87.81,88.92,90.43,92.80,92.31,90.19,87.89,87.24,86.68,85.48,83.32,80.05,76.12,71.68,67.01,62.46,57.34,52.34,49.01,47.79,46.18,44.29,42.64,41.31,40.19,38.45,36.57,34.65,32.76,30.81,28.63,26.25,23.73,21.22,19.30,17.60,16.01,14.45,13.01,11.44,10.18,9.44,8.98,8.58,8.15,7.69,7.22,6.76,6.35,5.93,5.47,5.01,4.54,4.12,3.72,3.25,2.90,2.56,2.22,1.89,1.66,1.38,1.09,0.84,0.55,e,e,e,e,e,e,e,e,e,e,0.70,1.21,1.63,2.00,e,e,e,e,e,e,e,e,e,e,e,e,e,e,e,e,e,e,e,e,e,e,e,e,e,e,e,e,e,e,e,e,e,e,e,e,e,e,e,e,e,e,e,e,e,e,e
e,e,e,e,e,e,e,e,e,e,e,e,e,e,e,e,e,e,e,e,e,e,e,e,e,e,e,e,e,e,e,e,e,e,e,e,e,e,e,e,e,e,e,e,e,e,e,e,e,e,e,e,e,e,e,e,e,e,e,e,e,e,e,e,e,e,e,e,e,e,e,e,e,4.50,6.37,7.95,11.65,15.65,19.53,23.05,26.76,30.75,34.91,39.25,43.89,48.29,52.61,56.57,59.71,60.54,60.90,61.09,61.31,61.36,61.74,62.47,63.51,64.78,64.08,61.63,58.53,56.10,53.97,52.29,51.01,50.27,50.81,51.64,52.57,53.51,54.43,57.27,60.20,62.98,65.51,68.24,70.85,74.18,78.51,83.79,88.35,92.30,95.87,99.32,100.27,98.44,95.94,93.95,92.06,90.54,90.37,91.56,93.66,95.86,95.77,94.12,91.92,91.42,90.55,88.16,84.12,79.37,74.72,69.84,64.84,59.90,54.23,50.58,48.44,47.25,45.88,44.20,42.74,41.54,40.32,38.57,36.69,34.74,32.76,30.76,28.72,26.49,24.07,21.65,19.57,17.82,16.25,14.64,13.05,11.44,10.18,9.44,8.98,8.58,8.15,7.69,7.22,6.76,6.35,5.93,5.47,5.01,4.54,4.12,3.72,3.25,2.81,2.37,1.95,1.57,1.34,1.06,0.75,0.46,0.22,e,e,e,e,e,e,e,e,e,e,0.55,0.92,0.74,0.56,e,e,e,e,e,e,e,e,e,e,e,e,e,e,e,e,e,e,e,e,e,e,e,e,e,e,e,e,e,e,e,e,e,e,e,e,e,e,e,e,e,e,e,e,e,e,e
e,e,e,e,e,e,e,e,e,e,e,e,e,e,e,e,e,e,e,e,e,e,e,e,e,e,e,e,e,e,e,e,e,e,e,e,e,e,e,e,e,e,e,e,e,e,e,e,e,e,e,e,e,e,e,e,e,e,e,e,e,e,e,e,e,e,e,e,e,e,e,e,5.24,6.97,8.78,10.97,15.65,19.75,23.26,26.50,29.61,33.17,37.14,41.46,45.98,50.50,54.97,59.01,61.99,63.56,64.41,64.78,64.86,64.56,64.96,65.85,67.21,69.20,68.59,66.04,62.66,59.71,57.17,55.27,53.92,53.19,53.80,54.56,55.38,56.26,57.22,60.14,63.16,66.05,68.67,71.26,73.69,76.52,80.21,85.58,90.00,93.72,97.06,100.39,102.34,101.08,98.93,97.18,95.67,94.93,95.02,95.91,97.47,99.07,99.00,97.42,94.75,92.82,90.72,87.21,82.27,77.29,72.75,67.83,62.72,57.85,52.73,49.80,48.11,46.93,45.66,44.22,42.90,41.68,40.41,38.54,36.58,34.57,32.56,30.55,28.63,26.57,24.30,21.95,20.04,18.34,16.74,15.08,13.42,11.76,10.34,9.34,8.88,8.45,8.00,7.54,7.08,6.61,6.20,5.80,5.37,4.91,4.47,4.05,3.63,3.20,2.77,2.33,1.87,1.45,1.14,0.78,e,e,e,e,e,e,e,e,e,e,e,e,e,e,e,e,e,e,e,e,e,e,e,e,e,e,e,e,e,e,e,e,e,e,e,e,e,e,e,e,e,e,e,e,e,e,e,e,e,e,e,e,e,e,e,e,e,e,e,e,e,e,e,e
e,e,e,e,e,e,e,e,e,e,e,e,e,e,e,e,e,e,e,e,e,e,e,e,e,e,e,e,e,e,e,e,e,e,e,e,e,e,e,e,e,e,e,e,e,e,e,e,e,e,e,e,e,e,e,e,e,e,e,e,e,e,e,e,e,2.10,3.06,e,e,4.92,6.52,7.56,8.86,10.23,11.89,14.57,19.79,23.81,26.93,29.95,32.45,35.50,39.24,43.62,48.14,52.76,57.24,61.20,64.05,66.28,67.72,68.42,68.42,67.79,68.21,69.39,71.26,73.97,73.51,70.90,67.20,63.62,60.61,58.49,57.07,56.38,57.07,57.72,58.40,59.18,60.18,62.88,65.84,68.82,71.62,74.18,76.62,79.11,82.16,87.11,91.22,94.60,97.70,101.08,104.20,103.65,101.88,100.35,99.26,99.38,99.82,100.45,101.32,102.34,101.84,99.80,96.39,92.82,89.47,85.09,79.65,74.59,70.48,65.89,61.06,56.57,52.22,49.62,48.02,46.83,45.58,44.32,43.07,41.80,40.45,38.47,36.40,34.34,32.32,30.31,28.48,26.57,24.51,22.34,20.71,19.07,17.37,15.66,13.95,12.24,10.65,9.34,8.85,8.37,7.89,7.41,6.94,6.45,6.02,5.62,5.22,4.76,4.35,3.93,3.48,3.09,2.70,2.27,1.81,1.35,0.96,0.53,e,e,e,e,e,e,e,e,e,e,e,e,e,e,e,e,e,e,e,e,e,e,e,e,e,e,e,e,e,e,e,e,e,e,e,e,e,e,e,e,e,e,e,e,e,e,e,e,e,e,e,e,e,e,e,e,e,e,e,e,e,e,e,e
e,e,e,e,e,e,e,e,e,e,e,e,e,e,e,e,e,e,e,e,e,e,e,e,e,e,e,e,e,e,e,e,e,e,e,e,e,e,e,e,e,e,e,e,e,e,e,e,e,e,e,e,e,e,e,e,e,e,e,e,e,e,e,e,e,5.23,5.94,e,e,9.64,11.13,12.31,13.89,15.56,17.34,19.53,22.71,26.16,29.47,32.26,34.85,37.63,41.22,45.76,50.47,54.44,58.27,62.04,65.63,68.12,70.45,72.00,72.31,71.63,72.00,73.82,76.75,79.46,79.09,76.15,71.99,68.21,64.80,62.21,60.50,59.76,60.46,61.19,61.93,62.75,63.76,65.54,68.14,71.13,74.11,76.72,79.25,82.04,85.09,88.12,91.74,95.10,98.56,102.63,106.29,106.25,104.62,102.84,101.75,101.95,102.66,103.60,104.57,105.69,103.38,99.18,94.69,90.69,87.04,82.63,77.16,71.11,67.66,64.47,61.21,57.79,53.68,50.61,48.57,47.33,45.98,44.57,43.26,41.94,40.39,38.41,36.31,34.19,32.13,30.12,28.29,26.48,24.71,23.28,21.99,20.27,18.31,16.56,14.80,13.04,11.33,9.83,9.19,8.65,8.09,7.53,7.00,6.43,5.89,5.41,4.96,4.50,4.10,3.67,3.22,2.84,2.40,1.98,1.56,1.09,0.71,0.31,e,e,e,e,e,e,e,e,e,e,e,e,e,e,e,e,e,e,e,e,e,e,e,e,e,e,e,e,e,e,e,e,e,e,e,e,e,e,e,e,e,e,e,e,e,e,e,e,e,e,e,e,e,e,e,e,e,e,e,e,e,e,e,e
e,e,e,e,e,e,e,e,e,e,e,e,e,e,e,e,e,e,e,e,e,e,e,e,e,e,e,e,e,e,e,e,e,e,e,e,e,e,e,e,e,e,e,e,e,e,e,e,e,e,e,e,e,e,e,e,e,e,e,e,e,4.13,5.32,6.58,8.43,10.36,11.35,12.83,14.14,15.28,16.32,17.78,19.24,20.78,22.40,24.00,25.74,28.45,31.53,34.23,36.92,39.95,43.70,48.13,52.20,55.69,59.27,63.04,66.94,69.91,72.78,75.01,76.17,75.97,76.48,78.67,82.06,84.30,83.32,79.94,75.52,71.68,68.60,65.87,63.91,63.04,63.83,64.66,65.51,66.42,67.45,68.82,71.08,73.88,76.87,79.74,82.63,85.59,88.49,90.87,93.77,97.21,101.38,106.40,109.23,108.78,106.97,105.12,104.01,104.49,105.45,106.56,107.66,108.66,106.27,101.41,95.32,89.99,86.04,81.72,76.41,70.22,67.23,64.64,61.99,59.08,55.13,51.91,49.47,47.75,46.33,44.98,43.62,42.21,40.61,38.56,36.52,34.51,32.54,30.57,28.84,27.27,25.85,24.75,23.49,21.62,19.48,17.61,15.83,14.06,12.23,10.45,9.42,8.79,8.23,7.65,7.11,6.55,6.09,5.66,5.19,4.66,4.15,3.63,3.12,2.67,2.18,1.73,1.30,0.84,0.45,e,e,e,e,e,e,e,e,e,e,e,e,e,e,e,e,e,e,e,e,e,e,e,e,e,e,e,e,e,e,e,e,e,e,e,e,e,e,e,e,e,e,e,e,e,e,e,e,e,e,e,e,e,e,e,e,e,e,e,e,e,e,e,e,e
e,e,e,e,e,e,e,e,e,e,e,e,e,e,e,e,e,e,e,e,e,e,e,e,e,e,e,e,e,e,e,e,e,e,e,e,e,e,e,e,e,e,e,e,e,e,e,e,e,e,e,e,e,e,e,e,e,e,e,4.00,6.20,7.93,10.43,12.49,14.59,16.58,18.08,19.83,20.75,21.21,21.68,23.48,24.71,25.98,27.31,28.32,29.00,30.82,33.38,36.04,38.85,42.40,46.44,50.59,53.61,56.75,60.32,64.20,68.13,71.69,74.88,77.68,79.95,80.58,81.38,83.78,87.21,88.70,86.74,82.86,78.31,74.49,72.07,69.40,67.27,66.27,67.21,68.15,69.14,70.18,71.25,72.47,74.42,76.94,79.83,83.08,86.46,89.54,92.23,94.70,96.79,100.34,105.35,111.35,112.68,111.36,109.17,107.26,106.11,106.97,108.20,109.42,110.63,111.34,109.76,105.14,97.37,90.34,86.10,81.92,76.83,70.97,68.23,65.73,63.13,60.40,56.57,53.39,50.65,48.27,46.79,45.59,44.23,42.69,41.12,38.97,37.00,35.17,33.41,31.53,29.98,28.69,27.58,26.53,25.10,23.07,20.79,18.76,16.98,15.20,13.24,11.14,9.56,8.85,8.31,7.76,7.22,6.75,6.43,6.11,5.63,5.02,4.34,3.69,3.09,2.55,2.02,1.54,1.09,0.64,0.25,e,e,e,e,e,e,e,e,e,e,e,e,e,e,e,e,e,e,e,e,e,e,e,e,e,e,e,e,e,e,e,e,e,e,e,e,e,e,e,e,e,e,e,e,e,e,e,e,e,e,e,e,e,e,e,e,e,e,e,e,e,e,e,e,e
e,e,e,e,e,e,e,e,e,e,e,e,e,e,e,e,e,e,e,e,e,e,e,e,e,e,e,e,e,e,e,e,e,e,e,e,e,e,e,e,e,e,e,e,e,e,e,e,e,e,e,e,e,e,e,e,e,e,e,8.05,11.16,14.32,17.26,19.21,20.66,21.78,22.69,22.92,23.37,23.96,24.77,26.81,29.21,31.45,33.25,34.26,34.30,34.84,36.07,38.04,41.34,45.12,48.94,52.51,55.52,58.71,62.30,66.15,69.98,73.44,76.74,79.90,82.88,84.84,86.78,89.15,91.50,92.15,89.63,85.48,80.85,76.97,74.15,71.67,70.07,69.69,70.88,72.07,73.36,74.61,75.53,76.56,78.31,80.73,83.67,86.97,90.51,93.98,97.14,99.62,101.31,104.81,109.62,114.61,116.19,115.12,112.36,109.06,108.01,108.80,110.55,112.46,113.33,112.74,110.72,106.78,100.69,93.72,89.48,85.02,79.48,73.77,69.93,66.85,64.13,61.36,57.98,55.07,52.69,50.80,49.12,48.01,46.80,45.30,43.44,41.04,38.81,36.96,35.57,34.48,33.30,31.83,30.07,28.32,26.69,24.60,22.24,19.98,18.15,16.24,14.06,11.60,9.63,8.81,8.24,7.70,7.16,6.64,6.17,5.71,5.19,4.62,4.04,3.46,2.91,2.42,2.07,1.76,1.47,1.21,0.77,e,e,e,e,e,e,e,e,e,e,e,e,e,e,e,e,e,e,e,e,e,e,e,e,e,e,e,e,e,e,e,e,e,e,e,e,e,e,e,e,e,e,e,e,e,e,e,e,e,e,e,e,e,e,e,e,e,e,e,e,e,e,e,e,e
e,e,e,e,e,e,e,e,e,e,e,e,e,e,e,e,e,e,e,e,e,e,e,e,e,e,e,e,e,e,e,e,e,e,e,e,e,e,e,e,e,e,e,e,e,e,e,e,e,e,e,e,e,e,e,e,e,4.46,8.77,12.59,16.27,19.86,22.96,24.99,26.13,26.65,26.98,26.08,26.07,26.84,28.32,31.08,34.23,36.89,38.71,39.42,39.16,38.95,39.15,40.15,43.71,47.53,51.22,54.56,57.59,60.98,64.55,68.16,71.65,75.01,78.69,82.38,85.78,88.70,91.38,93.75,95.36,95.04,92.03,87.85,83.18,78.72,75.91,74.10,73.30,73.51,74.87,76.32,77.87,79.34,80.38,81.34,82.67,84.62,87.35,90.74,94.33,98.30,102.27,104.84,106.50,109.58,113.76,118.16,119.81,119.15,116.58,113.02,111.74,112.61,114.27,115.67,115.35,113.43,110.82,107.23,102.43,96.44,92.32,87.63,81.76,75.80,71.38,68.02,65.24,62.46,59.51,57.30,55.71,54.53,53.08,51.98,50.63,48.79,46.37,43.92,41.87,40.23,38.99,38.42,37.43,36.07,34.23,31.55,28.93,26.41,23.95,21.51,19.36,17.20,14.86,12.30,10.09,9.06,8.40,7.85,7.29,6.75,6.21,5.67,5.12,4.58,4.02,3.47,2.94,2.45,2.06,1.66,e,e,e,e,e,e,e,e,e,e,e,e,e,e,e,e,e,e,e,e,e,e,e,e,e,e,e,e,e,e,e,e,e,e,e,e,e,e,e,e,e,e,e,e,e,e,e,e,e,e,e,e,e,e,e,e,e,e,e,e,e,e,e,e,e,e,e,e
e,e,e,e,e,e,e,e,e,e,e,e,e,e,e,e,e,e,e,e,e,e,e,e,e,e,e,e,e,e,e,e,e,e,e,e,e,e,e,e,e,e,e,e,e,e,e,e,e,e,e,e,e,e,e,e,e,7.63,12.82,17.61,21.53,24.56,27.51,29.82,31.00,31.21,30.94,29.32,28.87,29.85,32.34,36.28,39.77,42.31,43.69,43.80,43.59,43.14,42.62,42.39,45.94,49.62,53.26,56.73,59.82,63.55,67.07,70.24,73.13,76.38,80.74,85.10,88.64,92.16,95.19,97.58,98.77,97.37,93.95,89.97,85.30,79.76,77.34,76.69,76.97,77.74,79.20,80.91,82.67,84.36,85.80,86.81,87.49,88.63,90.87,94.42,97.91,102.50,107.61,110.38,112.37,114.68,117.79,121.98,123.54,123.46,121.84,119.14,117.32,118.39,119.34,119.04,116.70,113.43,110.08,106.51,102.58,98.51,94.62,89.75,83.68,77.08,72.59,69.24,66.45,63.68,61.18,60.08,59.70,59.47,58.66,57.50,55.70,53.18,49.92,47.62,46.15,44.98,43.67,43.34,42.37,41.41,40.07,36.21,31.84,28.49,25.90,23.35,20.61,18.07,15.64,13.25,10.93,9.60,8.78,8.23,7.61,7.07,6.53,5.98,5.44,4.90,4.31,3.73,3.19,2.65,1.99,1.27,e,e,e,e,e,e,e,e,e,e,e,e,e,e,e,e,e,e,e,e,e,e,e,e,e,e,e,e,e,e,e,e,e,e,e,e,e,e,e,e,e,e,e,e,e,e,e,e,e,e,e,e,e,e,e,e,e,e,e,e,e,e,e,e,e,e,e,e
e,e,e,e,e,e,e,e,e,e,e,e,e,e,e,e,e,e,e,e,e,e,e,e,e,e,e,e,e,e,e,e,e,e,e,e,e,e,e,e,e,e,e,e,e,e,e,e,e,e,e,e,e,e,e,e,5.71,9.52,16.24,21.28,25.14,28.41,32.59,35.09,36.09,35.98,35.44,34.40,34.69,36.13,38.54,42.33,45.28,47.10,47.77,47.57,47.13,46.57,45.90,45.24,47.68,51.21,55.03,58.75,62.39,66.27,70.22,73.83,76.46,79.24,83.53,88.05,91.82,95.47,99.24,101.77,102.10,98.98,95.14,91.47,87.27,81.80,79.64,79.50,80.41,81.81,83.50,85.62,87.87,90.01,91.75,92.20,92.55,93.39,95.16,97.97,102.48,108.37,114.48,117.68,119.19,121.19,123.71,126.40,127.58,127.78,127.16,125.87,124.06,122.78,121.14,118.81,115.51,111.81,108.27,104.76,101.13,97.51,93.92,89.33,83.69,77.96,73.94,70.47,67.47,65.03,63.85,63.35,63.32,63.51,63.29,62.56,61.23,59.35,57.14,54.68,52.60,50.41,47.77,46.36,44.72,43.16,41.52,38.78,34.83,31.47,28.58,25.62,22.37,19.42,16.75,14.36,12.32,10.70,9.56,8.80,8.23,7.68,7.11,6.49,5.81,5.14,4.43,3.74,3.06,2.38,1.65,0.89,e,e,e,e,e,e,e,e,e,e,e,e,e,e,e,e,e,e,e,e,e,e,e,e,e,e,e,e,e,e,e,e,e,e,e,e,e,e,e,e,e,e,e,e,e,e,e,e,e,e,e,e,e,e,e,e,e,e,e,e,e,e,e,e,e,e,e,e
e,e,e,e,e,e,e,e,e,e,e,e,e,e,e,e,e,e,e,e,e,e,e,e,e,e,e,e,e,e,e,e,e,e,e,e,e,e,e,e,e,e,e,e,e,e,e,e,e,e,e,e,e,e,e,3.64,7.13,10.84,18.62,24.24,28.59,32.51,37.71,40.42,41.36,41.08,40.35,39.55,40.18,41.86,44.29,47.81,50.07,51.34,51.81,51.74,51.18,50.44,49.50,48.40,49.54,52.78,56.74,60.70,64.72,69.14,73.76,77.97,80.77,83.46,87.38,91.66,95.60,99.72,103.79,105.81,104.84,100.12,96.17,92.79,89.05,84.04,82.23,82.43,83.73,85.57,87.77,90.45,93.27,95.92,97.98,98.06,98.13,98.72,100.16,102.37,107.31,113.65,119.98,123.54,125.44,127.70,130.06,131.92,132.68,132.76,132.11,130.66,128.18,124.84,121.27,117.58,113.75,110.06,106.48,102.96,99.45,96.07,92.68,88.53,83.57,78.53,74.87,71.62,68.90,67.05,66.86,66.85,67.07,67.47,67.61,67.16,66.18,64.75,63.03,60.20,57.25,53.96,50.25,47.99,45.78,43.84,42.14,40.30,36.90,33.64,30.55,27.30,23.73,20.49,17.71,15.44,13.59,11.81,10.36,9.32,8.70,8.11,7.47,6.78,6.00,5.21,4.44,3.65,2.87,2.09,1.31,e,e,e,e,e,e,e,e,e,e,e,e,e,e,e,e,e,e,e,e,e,e,e,e,e,e,e,e,e,e,e,e,e,e,e,e,e,e,e,e,e,e,e,e,e,e,e,e,e,e,e,e,e,e,e,e,e,e,e,e,e,e,e,e,e,e,e,e,e
e,e,e,e,e,e,e,e,e,e,e,e,e,e,e,e,e,e,e,e,e,e,e,e,e,e,e,e,e,e,e,e,e,e,e,e,e,e,e,e,e,e,e,e,e,e,e,e,e,e,e,e,e,e,e,4.16,7.55,11.36,19.29,26.13,31.96,37.12,42.81,45.81,46.94,46.74,45.91,44.62,44.72,46.23,48.98,52.21,53.62,54.74,55.89,56.65,56.20,55.14,53.68,52.05,51.66,54.39,58.38,62.55,66.57,72.26,77.92,82.87,86.56,89.85,92.98,96.36,100.36,105.62,109.17,109.59,106.55,100.55,97.03,93.91,90.52,86.48,85.21,85.56,86.86,88.84,91.98,95.46,98.99,102.20,104.61,104.74,104.60,104.96,106.33,108.24,112.50,117.70,122.90,126.71,130.60,134.03,136.92,139.25,139.57,138.88,136.40,132.05,127.64,123.10,118.90,115.05,111.32,108.30,104.85,101.20,97.61,94.28,90.89,87.37,83.47,78.58,75.07,72.62,71.05,70.18,70.34,70.67,71.07,71.42,71.51,71.02,70.09,68.60,66.19,62.67,58.58,54.21,49.97,47.47,44.98,43.12,41.86,40.27,37.38,34.32,31.19,27.94,24.32,21.03,18.39,16.46,14.61,12.88,11.18,9.71,8.90,8.16,7.41,6.65,5.87,5.03,4.24,3.44,2.61,1.84,1.01,e,e,e,e,e,e,e,e,e,e,e,e,e,e,e,e,e,e,e,e,e,e,e,e,e,e,e,e,e,e,e,e,e,e,e,e,e,e,e,e,e,e,e,e,e,e,e,e,e,e,e,e,e,e,e,e,e,e,e,e,e,e,e,e,e,e,e,e,e
e,e,e,e,e,e,e,e,e,e,e,e,e,e,e,e,e,e,e,e,e,e,e,e,e,e,e,e,e,e,e,e,e,e,e,e,e,e,e,e,e,e,e,e,e,e,e,e,e,e,e,e,e,e,e,4.51,8.22,12.68,20.36,27.52,34.37,40.96,47.11,50.10,51.37,51.41,50.64,49.42,49.33,50.65,53.33,55.91,57.06,58.27,59.81,61.17,61.00,59.99,58.45,56.67,54.83,56.70,60.08,63.78,67.72,74.91,81.61,87.08,91.38,95.19,98.32,101.71,106.00,110.18,112.39,111.57,107.79,102.17,98.25,94.93,91.94,89.20,89.31,89.96,91.10,92.90,96.46,100.89,105.11,108.65,111.04,111.15,111.01,111.39,112.83,114.77,117.80,121.56,125.70,129.64,135.07,139.57,142.74,144.51,143.36,141.05,136.77,130.68,125.81,121.11,116.82,112.96,109.45,106.61,103.30,99.78,96.29,92.61,89.22,85.94,82.62,78.97,76.65,75.17,74.26,73.62,73.89,74.44,75.00,75.29,74.65,73.67,72.15,69.99,67.09,62.47,57.58,52.92,48.96,46.57,44.08,42.26,41.09,39.50,36.78,33.86,30.78,27.45,23.98,20.92,18.50,16.73,14.95,13.21,11.49,9.96,8.95,8.09,7.27,6.46,5.64,4.79,3.97,3.14,2.30,1.49,0.68,e,e,e,e,e,e,e,e,e,e,e,e,e,e,e,e,e,e,e,e,e,e,e,e,e,e,e,e,e,e,e,e,e,e,e,e,e,e,e,e,e,e,e,e,e,e,e,e,e,e,e,e,e,e,e,e,e,e,e,e,e,e,e,e,e,e,e,e,e
e,e,e,e,e,e,e,e,e,e,e,e,e,e,e,e,e,e,e,e,e,e,e,e,e,e,e,e,e,e,e,e,e,e,e,e,e,e,e,e,e,e,e,e,e,e,e,e,e,e,e,e,e,e,e,4.88,9.05,14.40,21.70,29.01,36.61,44.30,50.66,53.73,55.32,55.76,55.11,54.06,53.96,55.12,57.52,59.40,60.52,61.90,63.72,65.60,65.79,64.90,63.33,61.51,58.55,59.29,61.75,64.85,68.61,76.81,84.43,90.56,95.34,99.79,103.40,107.19,111.71,114.48,114.98,112.92,108.73,103.80,99.53,96.16,93.81,92.56,93.99,94.95,95.90,97.45,101.35,106.41,111.13,114.93,117.35,117.60,117.68,118.18,119.47,121.12,122.98,125.57,128.98,133.01,139.54,144.76,147.95,148.80,145.86,141.60,135.66,128.55,123.58,119.05,114.86,111.07,107.85,105.01,101.83,98.51,95.21,91.45,88.25,85.33,82.59,80.15,78.89,78.16,77.65,77.08,77.38,77.99,78.54,78.61,77.13,75.33,73.08,70.24,66.66,61.06,55.67,51.08,47.70,45.47,43.09,41.26,39.98,38.31,35.70,32.92,29.97,26.73,23.40,20.62,18.44,16.76,15.06,13.31,11.64,10.15,8.99,8.03,7.12,6.24,5.37,4.52,3.67,2.82,1.97,1.12,e,e,e,e,e,e,e,e,e,e,e,e,e,e,e,e,e,e,e,e,e,e,e,e,e,e,e,e,e,e,e,e,e,e,e,e,e,e,e,e,e,e,e,e,e,e,e,e,e,e,e,e,e,e,e,e,e,e,e,e,e,e,e,e,e,e,e,e,e,e
e,e,e,e,e,e,e,e,e,e,e,e,e,e,e,e,e,e,e,e,e,e,e,e,e,e,e,e,e,e,e,e,e,e,e,e,e,e,e,e,e,e,e,e,e,e,e,e,e,e,e,e,e,e,e,5.42,10.21,16.80,23.61,31.20,39.08,46.64,52.46,56.10,58.60,59.84,59.39,58.44,58.63,59.74,61.42,62.76,64.10,65.72,67.71,70.04,70.76,69.88,68.12,66.29,63.24,62.27,63.27,65.93,69.25,76.66,84.81,92.17,97.24,102.86,107.89,112.60,117.01,119.03,117.29,113.65,109.07,104.53,100.75,98.21,97.16,97.74,99.67,100.83,101.66,102.95,107.34,111.92,116.47,120.53,123.40,124.43,125.30,125.95,126.30,126.42,127.65,130.23,133.97,138.05,144.54,149.50,152.03,151.63,146.66,140.05,132.92,126.17,121.11,116.93,113.02,109.46,106.69,103.67,100.56,97.46,94.47,91.79,89.52,87.63,85.87,83.58,82.16,81.32,80.83,80.40,80.65,80.89,80.87,80.24,78.07,74.76,71.82,68.73,63.72,57.82,52.64,48.70,46.23,44.05,41.83,39.90,38.22,36.36,33.94,31.35,28.71,26.16,22.78,20.19,18.22,16.63,14.93,13.27,11.69,10.28,9.12,8.06,7.03,6.02,5.05,4.20,3.35,2.50,1.65,0.80,e,e,e,e,e,e,e,e,e,e,e,e,e,e,e,e,e,e,e,e,e,e,e,e,e,e,e,e,e,e,e,e,e,e,e,e,e,e,e,e,e,e,e,e,e,e,e,e,e,e,e,e,e,e,e,e,e,e,e,e,e,e,e,e,e,e,e,e,e,e
e,e,e,e,e,e,e,e,e,e,e,e,e,e,e,e,e,e,e,e,e,e,e,e,e,e,e,e,e,e,e,e,e,e,e,e,e,e,e,e,e,e,e,e,e,e,e,e,e,e,e,e,e,e,e,7.69,12.89,19.88,26.00,33.73,41.47,48.29,53.53,57.74,61.18,63.43,63.74,62.60,62.40,63.11,64.58,66.00,67.99,70.33,72.90,75.47,76.26,75.23,73.23,71.21,68.02,65.74,65.55,67.71,70.98,77.07,84.96,92.98,98.55,104.98,110.84,116.01,120.22,121.60,118.99,114.65,109.80,105.69,102.42,101.16,101.55,102.96,104.88,105.97,106.80,108.15,112.22,116.51,120.90,125.12,128.76,131.06,132.34,132.85,132.84,132.59,133.30,135.24,138.55,143.37,150.24,154.73,156.01,153.82,147.16,140.00,133.14,126.82,120.11,115.70,111.94,108.72,106.46,104.06,101.47,98.90,96.59,94.60,93.00,91.43,89.64,87.37,86.01,85.03,84.30,83.76,83.66,83.12,82.14,80.56,77.47,73.38,69.69,65.94,60.48,54.49,50.10,47.07,44.94,42.81,40.52,38.27,36.14,34.21,31.99,29.76,27.50,25.08,22.07,19.76,17.95,16.42,14.79,13.22,11.69,10.28,9.16,8.11,7.04,5.98,4.98,4.03,3.08,2.18,1.33,0.48,e,e,e,e,e,e,e,e,e,e,e,e,e,e,e,e,e,e,e,e,e,e,e,e,e,e,e,e,e,e,e,e,e,e,e,e,e,e,e,e,e,e,e,e,e,e,e,e,e,e,e,e,e,e,e,e,e,e,e,e,e,e,e,e,e,e,e,e,e,e
e,e,e,e,e,e,e,e,e,e,e,e,e,e,e,e,e,e,e,e,e,e,e,e,e,e,e,e,e,e,e,e,e,e,e,e,e,e,e,e,e,e,e,e,e,e,e,e,e,e,e,e,e,e,6.53,10.85,16.40,23.21,28.68,36.45,43.83,49.64,54.33,59.04,63.40,66.73,68.09,66.69,65.74,65.89,67.40,69.31,72.13,75.32,78.51,81.18,81.82,80.65,78.48,76.22,72.95,69.68,68.42,69.96,73.38,78.03,85.25,93.51,99.70,106.66,112.97,118.33,122.34,123.14,120.33,115.77,110.73,107.03,104.49,104.66,106.39,108.07,109.76,110.68,111.63,113.23,116.56,120.59,124.78,129.08,133.62,137.34,138.98,139.38,139.38,139.19,139.42,140.45,143.01,148.81,156.00,159.82,159.64,155.53,147.54,140.71,134.74,128.89,120.21,115.29,111.59,108.72,106.96,105.53,103.70,101.85,100.29,98.69,97.53,95.93,93.73,91.41,90.10,88.92,87.83,86.91,86.15,84.69,82.72,80.17,76.05,71.49,67.07,62.55,57.21,51.32,47.92,45.82,43.75,41.66,39.20,36.55,33.98,32.02,29.98,28.19,26.31,23.80,21.33,19.27,17.55,16.06,14.52,13.06,11.58,10.18,9.12,8.11,7.06,6.01,5.00,3.93,2.85,1.88,e,e,e,e,e,e,e,e,e,e,e,e,e,e,e,e,e,e,e,e,e,e,e,e,e,e,e,e,e,e,e,e,e,e,e,e,e,e,e,e,e,e,e,e,e,e,e,e,e,e,e,e,e,e,e,e,e,e,e,e,e,e,e,e,e,e,e,e,e,e,e,e
e,e,e,e,e,e,e,e,e,e,e,e,e,e,e,e,e,e,e,e,e,e,e,e,e,e,e,e,e,e,e,e,e,e,e,e,e,e,e,e,e,e,e,e,e,e,e,e,e,e,e,e,e,e,8.60,14.41,20.43,25.86,31.86,39.47,46.26,51.33,55.88,60.57,65.36,69.55,72.09,70.90,69.34,68.91,70.60,73.84,77.08,80.03,82.66,85.03,85.70,85.10,83.60,81.60,78.82,75.54,73.30,73.25,76.86,81.41,87.70,95.08,102.11,108.55,114.60,119.88,123.89,124.25,121.24,116.70,111.82,108.11,108.06,109.16,110.72,112.15,113.74,114.90,116.34,118.43,121.06,124.15,127.77,132.05,137.18,141.49,144.51,146.36,147.07,145.80,145.49,146.08,148.26,154.16,159.26,161.61,160.55,155.73,148.24,141.58,135.68,130.20,123.60,118.45,114.36,111.38,109.82,108.93,108.10,106.98,105.29,103.20,101.58,100.12,98.50,96.08,93.78,92.12,90.50,88.09,85.16,83.45,81.82,79.26,74.05,68.66,63.90,59.59,54.95,50.13,46.93,44.71,42.73,40.64,37.98,35.14,32.40,30.20,28.44,26.88,25.22,23.10,20.58,18.26,16.26,14.59,13.10,11.86,10.68,9.59,8.72,7.73,6.71,5.71,4.75,3.73,2.70,1.70,e,e,e,e,e,e,e,e,e,e,e,e,e,e,e,e,e,e,e,e,e,e,e,e,e,e,e,e,e,e,e,e,e,e,e,e,e,e,e,e,e,e,e,e,e,e,e,e,e,e,e,e,e,e,e,e,e,e,e,e,e,e,e,e,e,e,e,e,e,e,e,e
e,e,e,e,e,e,e,e,e,e,e,e,e,e,e,e,e,e,e,e,e,e,e,e,e,e,e,e,e,e,e,e,e,e,e,e,e,e,e,e,e,e,e,e,e,e,e,e,e,e,e,e,e,e,11.72,17.76,23.44,28.25,34.56,42.24,48.77,53.32,57.59,62.11,67.12,72.09,76.02,75.46,74.25,73.79,75.10,78.33,81.25,83.85,86.32,89.14,90.46,90.38,89.24,87.47,84.58,80.98,78.00,76.98,80.82,85.37,91.00,97.57,104.67,110.69,116.80,122.39,126.62,126.24,122.58,117.97,113.50,110.00,111.16,112.76,114.31,115.77,117.63,119.56,121.71,124.09,126.20,128.41,131.27,135.04,139.94,144.72,148.95,151.99,153.27,152.21,151.91,152.26,153.96,159.12,162.52,163.05,160.62,155.42,148.34,141.73,135.81,130.54,125.19,120.37,116.68,114.19,112.69,111.76,110.99,109.95,108.27,105.61,103.79,102.47,101.23,99.10,96.24,93.86,91.24,87.33,83.23,81.30,79.52,76.49,71.09,65.56,60.91,56.96,52.76,48.92,45.97,43.64,41.59,39.40,36.72,33.87,31.14,28.96,27.27,25.71,24.10,22.26,19.82,17.41,15.18,13.22,11.62,10.64,9.78,8.95,8.23,7.32,6.36,5.39,4.43,3.43,2.44,1.45,e,e,e,e,e,e,e,e,e,e,e,e,e,e,e,e,e,e,e,e,e,e,e,e,e,e,e,e,e,e,e,e,e,e,e,e,e,e,e,e,e,e,e,e,e,e,e,e,e,e,e,e,e,e,e,e,e,e,e,e,e,e,e,e,e,e,e,e,e,e,e,e
e,e,e,e,e,e,e,e,e,e,e,e,e,e,e,e,e,e,e,e,e,e,e,e,e,e,e,e,e,e,e,e,e,e,e,e,e,e,e,e,e,e,e,e,e,e,e,e,e,e,e,e,e,e,15.73,20.94,25.56,30.42,36.83,44.80,51.36,55.56,59.43,63.64,68.72,74.38,79.89,80.33,80.30,80.29,80.73,82.77,84.75,86.89,89.55,93.46,96.01,96.38,95.32,93.77,90.23,86.07,82.55,81.10,85.19,89.81,95.02,100.86,107.36,113.03,119.50,125.73,130.35,128.99,124.31,119.53,115.69,112.58,113.87,115.57,117.26,118.98,121.43,124.60,127.67,130.16,131.87,133.27,135.21,138.05,142.01,147.14,152.44,156.47,158.17,158.44,158.61,158.92,160.04,163.72,165.78,164.20,159.95,154.66,147.93,141.27,135.23,130.04,125.24,121.21,118.63,117.11,115.57,114.11,112.57,111.05,109.50,106.20,104.39,103.22,102.18,100.70,97.64,94.33,90.32,84.90,80.51,78.34,75.99,72.10,67.29,62.23,58.08,54.59,50.64,47.71,45.05,42.61,40.37,37.98,35.40,32.73,30.17,28.23,26.44,24.67,22.94,21.31,19.06,16.71,14.29,11.91,10.06,9.42,8.90,8.27,7.65,6.88,6.01,5.05,4.05,3.04,2.10,1.13,e,e,e,e,e,e,e,e,e,e,e,e,e,e,e,e,e,e,e,e,e,e,e,e,e,e,e,e,e,e,e,e,e,e,e,e,e,e,e,e,e,e,e,e,e,e,e,e,e,e,e,e,e,e,e,e,e,e,e,e,e,e,e,e,e,e,e,e,e,e,e,e
e,e,e,e,e,e,e,e,e,e,e,e,e,e,e,e,e,e,e,e,e,e,e,e,e,e,e,e,e,e,e,e,e,e,e,e,e,e,e,e,e,e,e,e,e,e,e,e,e,e,3.38,4.78,7.49,12.11,17.99,22.72,26.79,31.08,36.92,42.75,48.33,53.45,57.65,62.64,69.00,75.69,80.82,82.46,83.11,83.58,84.56,86.66,88.59,90.55,93.21,98.15,101.39,102.67,102.27,100.55,96.09,91.70,87.96,86.03,89.99,94.43,99.46,105.00,110.86,116.46,123.19,128.95,131.90,130.56,126.49,121.75,117.48,114.96,116.17,117.79,119.57,121.63,124.82,128.47,131.88,134.63,136.37,138.20,140.61,143.48,146.32,150.91,156.53,161.50,164.42,164.45,164.84,165.67,166.86,168.11,166.52,163.08,158.38,153.10,146.71,140.25,133.79,127.46,121.57,117.48,115.01,113.66,112.55,111.42,109.57,107.34,105.02,102.41,100.84,99.86,99.30,99.08,96.65,93.62,89.60,83.89,78.86,75.14,71.51,67.31,62.91,59.64,56.47,53.14,49.63,46.88,44.24,41.71,39.28,36.93,34.44,31.95,29.58,27.65,25.81,24.02,22.27,20.60,18.31,15.98,13.58,11.22,9.60,8.77,8.13,7.51,6.89,6.22,5.47,4.66,3.79,2.78,1.80,e,e,e,e,e,e,e,e,e,e,e,e,e,e,e,e,e,e,e,e,e,e,e,e,e,e,e,e,e,e,e,e,e,e,e,e,e,e,e,e,e,e,e,e,e,e,e,e,e,e,e,e,e,e,e,e,e,e,e,e,e,e,e,e,e,e,e,e,e,e,e,e,e
e,e,e,e,e,e,e,e,e,e,e,e,e,e,e,e,e,e,e,e,e,e,e,e,e,e,e,e,e,e,e,e,e,e,e,e,e,e,e,e,e,e,e,e,e,e,e,e,4.02,5.76,6.67,7.70,9.78,14.54,19.72,23.86,27.48,31.39,36.82,41.32,46.07,51.33,55.79,61.32,68.54,75.94,80.88,83.26,84.83,86.19,87.86,90.18,92.24,94.15,96.78,102.28,106.48,108.73,108.91,107.02,101.82,97.16,93.27,91.13,94.86,99.27,104.13,109.30,114.54,120.29,126.60,131.51,133.48,131.92,128.47,124.06,119.70,117.26,118.37,119.96,121.87,124.29,127.72,131.79,135.65,138.81,140.96,143.41,146.24,149.07,151.20,155.22,161.08,166.84,170.64,170.09,170.47,170.66,170.27,169.18,165.44,160.99,156.17,151.13,145.11,138.82,132.15,125.16,118.42,113.89,111.28,110.03,109.12,107.83,105.71,103.12,100.49,98.47,96.91,96.02,95.89,96.59,95.36,92.97,89.12,83.41,77.96,73.01,68.24,63.58,59.64,57.44,54.97,51.95,48.76,46.09,43.46,40.87,38.38,36.06,33.65,31.29,29.06,27.13,25.25,23.41,21.60,19.82,17.52,15.21,12.84,10.55,9.24,8.33,7.58,6.91,6.23,5.57,4.86,4.13,3.39,2.48,1.50,e,e,e,e,e,e,e,e,e,e,e,e,e,e,e,e,e,e,e,e,e,e,e,e,e,e,e,e,e,e,e,e,e,e,e,e,e,e,e,e,e,e,e,e,e,e,e,e,e,e,e,e,e,e,e,e,e,e,e,e,e,e,e,e,e,e,e,e,e,e,e,e,e
e,e,e,e,e,e,e,e,e,e,e,e,e,e,e,e,e,e,e,e,e,e,e,e,e,e,e,e,e,e,e,e,e,e,e,e,e,e,e,e,e,e,e,e,e,e,e,e,6.88,9.12,10.64,11.67,13.06,16.78,20.75,24.12,27.40,31.26,36.54,41.04,45.20,49.37,53.98,59.66,67.05,74.65,79.79,82.23,85.10,87.95,90.45,93.17,95.58,97.64,100.19,105.55,111.15,114.42,115.05,113.00,107.36,102.33,98.38,96.44,99.82,104.44,109.15,113.80,118.45,124.67,129.55,133.12,135.21,133.06,130.12,126.48,122.55,119.42,120.43,122.10,124.22,126.95,129.89,134.34,138.85,142.65,145.74,149.04,152.13,154.79,156.82,160.27,166.30,172.58,176.75,175.21,175.22,173.05,168.56,165.36,161.78,157.57,153.04,148.58,142.96,136.81,130.25,123.37,116.19,110.71,107.67,106.42,105.36,103.16,100.76,98.37,96.18,94.50,92.63,91.65,91.88,92.98,93.74,92.44,88.99,83.67,78.12,72.50,66.82,61.42,58.08,55.76,53.55,51.09,48.05,45.34,42.69,40.14,37.74,35.42,33.09,30.80,28.61,26.68,24.76,22.84,20.90,18.93,16.68,14.38,12.05,9.90,8.99,8.18,7.38,6.55,5.73,4.97,4.16,3.40,2.76,2.10,1.18,e,e,e,e,e,e,e,e,e,e,e,e,e,e,e,e,e,e,e,e,e,e,e,e,e,e,e,e,e,e,e,e,e,e,e,e,e,e,e,e,e,e,e,e,e,e,e,e,e,e,e,e,e,e,e,e,e,e,e,e,e,e,e,e,e,e,e,e,e,e,e,e,e
e,e,e,e,e,e,e,e,e,e,e,e,e,e,e,e,e,e,e,e,e,e,e,e,e,e,e,e,e,e,e,e,e,e,e,e,e,e,e,e,e,e,e,e,e,e,6.31,8.89,12.65,15.67,17.09,17.97,19.06,21.55,24.55,27.13,29.53,32.16,36.63,40.87,44.92,48.92,53.39,58.86,65.37,71.93,76.90,80.35,84.29,88.38,92.26,95.54,98.50,101.22,104.42,109.91,115.91,119.52,120.34,118.34,113.44,108.14,103.93,102.10,104.97,109.24,113.60,118.07,123.08,128.34,132.31,135.20,136.93,134.65,131.91,128.81,125.53,122.53,123.51,124.86,126.39,128.30,131.37,136.11,140.81,144.62,147.95,151.93,155.80,159.68,164.12,168.39,173.73,177.50,177.58,174.52,172.17,168.70,164.01,159.68,155.60,151.93,148.48,144.98,140.16,134.78,129.18,123.45,116.93,110.93,106.56,103.66,101.42,99.27,97.13,94.98,92.81,90.52,88.36,87.37,87.83,89.36,91.15,90.85,88.24,83.55,78.03,72.93,67.67,62.22,58.40,55.55,52.92,50.25,47.45,44.82,42.19,39.67,37.32,35.04,32.76,30.55,28.42,26.45,24.51,22.58,20.59,18.46,16.13,13.82,11.60,9.69,8.84,8.02,7.21,6.39,5.54,4.76,3.94,3.14,2.44,1.70,0.82,e,e,e,e,e,e,e,e,e,e,e,e,e,e,e,e,e,e,e,e,e,e,e,e,e,e,e,e,e,e,e,e,e,e,e,e,e,e,e,e,e,e,e,e,e,e,e,e,e,e,e,e,e,e,e,e,e,e,e,e,e,e,e,e,e,e,e,e,e,e,e,e,e
e,e,e,e,e,e,e,e,e,e,e,e,e,e,e,e,e,e,e,e,e,e,e,e,e,e,e,e,e,e,e,e,e,e,e,e,e,e,e,e,e,e,e,2.30,5.53,7.93,10.68,14.50,19.48,22.86,24.04,24.74,25.65,27.20,29.51,31.37,32.85,34.22,37.43,41.04,44.84,48.80,53.13,58.32,63.90,69.37,74.09,78.53,83.42,88.55,93.61,97.55,101.26,104.86,108.87,114.55,120.41,124.13,125.19,123.37,119.33,114.01,109.64,107.74,110.05,113.77,117.84,122.32,127.61,131.94,135.38,137.79,138.86,136.42,133.82,131.11,128.41,125.88,126.83,127.92,128.95,130.16,133.21,137.79,142.33,146.08,149.61,154.14,158.96,164.33,170.94,176.01,179.82,180.31,176.30,171.84,167.35,162.97,158.58,153.72,149.56,146.49,143.87,140.81,136.81,132.46,128.12,123.76,118.28,111.85,106.36,102.05,98.58,96.27,94.20,92.06,89.64,86.62,84.21,83.19,83.71,85.41,87.61,88.08,86.46,82.82,77.94,73.61,69.00,63.81,59.25,55.87,52.74,49.72,47.05,44.45,41.81,39.29,37.01,34.78,32.55,30.40,28.35,26.36,24.41,22.46,20.42,18.19,15.81,13.47,11.34,9.61,8.78,7.94,7.14,6.35,5.50,4.69,3.85,3.01,2.21,1.33,e,e,e,e,e,e,e,e,e,e,e,e,e,e,e,e,e,e,e,e,e,e,e,e,e,e,e,e,e,e,e,e,e,e,e,e,e,e,e,e,e,e,e,e,e,e,e,e,e,e,e,e,e,e,e,e,e,e,e,e,e,e,e,e,e,e,e,e,e,e,e,e,e,e
e,e,e,e,e,e,e,e,e,e,e,e,e,e,e,e,e,e,e,e,e,e,e,e,e,e,e,e,e,e,e,e,e,e,e,e,e,e,e,e,e,e,e,5.46,8.34,12.75,17.83,23.00,27.62,30.06,30.98,31.56,32.35,33.90,36.12,37.48,38.23,38.85,39.94,42.02,45.01,48.80,53.13,58.06,63.12,68.02,72.50,77.32,82.91,88.68,94.14,98.92,103.78,108.56,113.50,119.32,124.15,127.76,129.30,127.92,124.37,119.69,115.50,113.14,114.86,117.77,121.82,126.60,131.45,135.73,139.38,141.51,141.37,138.49,135.95,133.40,130.97,129.37,130.27,131.43,132.67,134.10,136.40,139.63,143.29,147.11,151.13,155.95,161.95,168.77,175.53,180.60,181.09,177.83,172.08,166.83,161.91,157.03,152.25,147.98,145.23,142.82,139.90,135.66,132.30,129.38,126.63,123.71,119.65,112.86,107.30,103.11,98.81,95.28,92.46,89.73,86.53,82.92,80.38,79.24,79.45,80.55,81.98,82.65,82.24,80.62,78.02,74.46,70.40,65.99,60.54,56.86,53.39,50.00,47.19,44.39,41.62,39.07,36.88,34.70,32.53,30.42,28.43,26.54,24.56,22.53,20.44,18.26,15.93,13.56,11.40,9.68,8.89,8.11,7.33,6.54,5.69,4.79,3.89,2.98,2.08,1.10,e,e,e,e,e,e,e,e,e,e,e,e,e,e,e,e,e,e,e,e,e,e,e,e,e,e,e,e,e,e,e,e,e,e,e,e,e,e,e,e,e,e,e,e,e,e,e,e,e,e,e,e,e,e,e,e,e,e,e,e,e,e,e,e,e,e,e,e,e,e,e,e,e,e
e,e,e,e,e,e,e,e,e,e,e,e,e,e,e,e,e,e,e,e,e,e,e,e,e,e,e,e,e,e,e,e,e,e,e,e,e,e,e,e,e,5.84,7.83,9.73,13.52,18.97,24.91,30.49,34.92,36.59,37.43,37.95,38.52,39.64,41.07,41.85,42.24,42.59,42.88,44.15,46.18,49.00,53.15,57.93,62.68,67.28,71.71,76.65,82.42,88.39,94.03,98.98,105.29,111.31,116.79,122.38,126.91,130.28,131.86,131.05,128.38,124.56,120.77,118.23,119.74,122.47,126.25,130.58,134.67,139.22,143.25,145.64,145.52,142.44,138.89,135.91,134.00,133.49,134.49,135.68,137.05,138.81,140.90,143.34,146.41,150.22,154.53,159.62,165.69,172.37,178.96,182.08,179.38,173.71,167.75,162.40,157.23,152.18,147.42,143.60,140.35,137.12,133.55,129.34,126.97,125.15,123.43,121.42,118.55,112.74,107.68,103.59,99.31,95.30,91.75,88.29,84.57,80.71,77.25,75.44,75.46,76.45,77.63,78.38,78.51,77.91,76.54,74.34,71.62,68.31,63.05,59.29,55.77,52.03,47.78,44.73,41.79,39.16,37.03,34.90,32.74,30.66,28.66,26.70,24.63,22.55,20.44,18.28,16.07,13.82,11.71,9.91,8.96,8.10,7.26,6.41,5.52,4.60,3.67,2.74,1.81,0.84,e,e,e,e,e,e,e,e,e,e,e,e,e,e,e,e,e,e,e,e,e,e,e,e,e,e,e,e,e,e,e,e,e,e,e,e,e,e,e,e,e,e,e,e,e,e,e,e,e,e,e,e,e,e,e,e,e,e,e,e,e,e,e,e,e,e,e,e,e,e,e,e,e,e
e,e,e,e,e,e,e,e,e,e,e,e,e,e,e,e,e,e,e,e,e,e,e,e,e,e,e,e,e,e,e,e,e,e,e,e,e,e,e,2.40,5.61,8.13,10.94,14.58,19.64,25.73,31.88,37.44,41.72,42.78,43.58,44.05,44.34,44.91,45.31,45.54,45.73,45.99,46.06,46.84,47.96,49.59,53.31,57.88,62.40,66.79,71.21,76.16,81.93,87.93,93.63,98.48,106.12,113.30,119.19,124.45,128.97,132.09,133.66,133.63,131.91,129.02,125.77,123.28,124.66,127.33,130.67,134.28,137.66,142.66,147.02,149.77,150.11,147.09,142.32,138.79,137.41,137.86,138.99,140.18,141.67,143.77,145.91,147.88,150.56,154.35,158.94,164.20,169.80,175.70,181.90,182.31,176.78,169.46,163.79,158.55,153.20,148.02,143.30,139.57,135.15,130.69,126.42,122.63,121.30,120.32,119.29,117.96,116.13,111.87,107.60,103.70,99.81,95.68,91.56,87.45,83.30,79.26,74.63,71.91,71.66,72.71,73.85,74.64,75.01,74.98,74.33,73.57,72.36,70.22,65.60,62.03,58.71,54.73,48.63,45.33,42.23,39.55,37.50,35.43,33.26,31.12,29.03,26.90,24.71,22.57,20.44,18.28,16.19,14.09,12.03,10.13,8.98,8.00,7.07,6.14,5.21,4.29,3.36,2.42,e,e,e,e,e,e,e,e,e,e,e,e,e,e,e,e,e,e,e,e,e,e,e,e,e,e,e,e,e,e,e,e,e,e,e,e,e,e,e,e,e,e,e,e,e,e,e,e,e,e,e,e,e,e,e,e,e,e,e,e,e,e,e,e,e,e,e,e,e,e,e,e,e,e,e,e
e,e,e,e,e,e,e,e,e,e,e,e,e,e,e,e,e,e,e,e,e,e,e,e,e,e,e,e,e,e,e,e,e,e,e,e,e,e,e,2.99,7.03,10.87,15.17,20.02,25.38,32.07,38.29,43.64,47.64,48.50,49.06,49.36,49.49,49.66,49.58,49.54,49.54,49.56,49.59,49.98,50.83,52.20,54.29,58.04,62.21,66.42,70.39,75.43,81.36,87.50,93.23,97.93,105.43,112.98,119.58,124.89,129.23,132.38,134.69,136.52,135.24,133.02,130.59,128.80,129.54,131.27,133.79,137.03,140.91,146.59,150.53,152.69,153.09,151.15,146.79,143.33,141.86,142.27,143.08,144.33,146.03,148.19,150.78,152.72,155.35,159.38,164.76,169.46,174.39,179.59,184.81,182.94,176.45,168.74,162.53,156.85,151.10,145.35,139.67,134.06,129.43,125.06,120.78,116.51,115.63,114.77,113.91,113.02,111.99,109.31,106.28,103.09,99.54,95.61,91.93,87.98,83.37,78.59,73.38,69.73,68.36,69.16,70.23,71.06,71.62,71.98,71.68,71.27,70.55,69.10,65.17,62.83,60.63,57.07,49.83,46.48,43.51,41.08,39.36,37.33,35.02,32.52,29.92,27.45,25.05,22.71,20.44,18.28,16.14,13.96,11.84,9.94,8.84,7.79,6.81,5.89,4.96,4.03,3.07,2.10,e,e,e,e,e,e,e,e,e,e,e,e,e,e,e,e,e,e,e,e,e,e,e,e,e,e,e,e,e,e,e,e,e,e,e,e,e,e,e,e,e,e,e,e,e,e,e,e,e,e,e,e,e,e,e,e,e,e,e,e,e,e,e,e,e,e,e,e,e,e,e,e,e,e,e,e
e,e,e,e,e,e,e,e,e,e,e,e,e,e,e,e,e,e,e,e,e,e,e,e,e,e,e,e,e,e,e,e,e,e,e,e,e,e,e,3.57,7.78,12.80,18.10,23.44,28.62,36.22,43.03,48.28,51.49,52.60,53.28,53.77,54.11,54.31,54.27,54.22,54.13,53.96,53.62,53.50,53.98,55.13,56.44,59.22,62.53,66.10,69.71,75.37,81.30,87.25,92.92,97.58,104.41,111.50,118.15,124.12,129.01,132.65,135.63,138.49,138.45,137.02,135.33,134.17,134.46,135.43,137.17,139.91,143.98,149.41,153.24,155.47,156.15,154.74,151.27,148.33,146.83,146.86,147.72,149.46,151.53,153.31,155.56,157.72,160.73,165.01,170.08,174.31,178.89,183.51,187.14,183.01,176.17,168.67,162.08,155.93,149.87,144.00,138.03,131.05,125.28,120.07,115.36,111.22,110.21,109.14,108.13,107.29,106.76,105.26,103.31,101.02,98.38,95.27,92.14,88.31,83.29,78.25,73.02,68.81,66.18,65.41,65.60,66.00,66.44,66.81,67.28,68.10,68.41,67.62,65.29,63.51,61.69,58.52,51.69,47.90,44.83,42.48,40.87,39.11,36.80,34.13,31.26,28.50,25.92,23.29,20.72,18.38,15.71,13.09,10.95,9.52,8.58,7.59,6.60,5.62,4.67,3.74,2.78,1.82,e,e,e,e,e,e,e,e,e,e,e,e,e,e,e,e,e,e,e,e,e,e,e,e,e,e,e,e,e,e,e,e,e,e,e,e,e,e,e,e,e,e,e,e,e,e,e,e,e,e,e,e,e,e,e,e,e,e,e,e,e,e,e,e,e,e,e,e,e,e,e,e,e,e,e,e
e,e,e,e,e,e,e,e,e,e,e,e,e,e,e,e,e,e,e,e,e,e,e,e,e,e,e,e,e,e,e,e,e,e,e,e,e,e,e,4.16,8.02,14.11,20.03,25.32,29.96,38.73,46.51,51.74,53.79,55.49,56.56,57.49,58.34,58.88,59.28,59.42,59.32,58.98,58.05,57.30,57.34,58.30,59.46,61.15,63.24,65.84,69.16,75.82,81.63,87.13,92.67,97.39,103.15,109.13,115.33,122.43,128.40,132.92,136.50,139.77,141.55,141.04,140.01,139.43,139.43,139.76,140.75,142.91,146.92,151.38,155.34,158.15,159.29,157.98,155.74,153.66,152.19,151.58,152.80,155.34,157.88,158.97,160.28,162.84,166.57,171.10,175.04,178.85,183.32,187.44,189.04,182.65,175.91,169.08,162.23,155.59,149.31,143.63,137.89,129.94,122.33,115.56,110.14,106.56,105.01,103.46,102.04,100.94,100.71,100.09,99.10,97.84,96.53,94.71,92.23,88.48,83.11,78.17,73.34,68.86,64.85,61.53,60.22,59.83,59.91,60.01,61.56,64.27,66.02,65.88,65.80,64.11,62.11,59.29,54.04,49.52,46.17,43.78,42.11,40.80,38.58,35.89,32.94,29.92,27.19,24.20,21.20,18.57,15.01,11.68,9.54,8.91,8.21,7.39,6.42,5.36,4.35,3.42,2.49,1.57,e,e,e,e,e,e,e,e,e,e,e,e,e,e,e,e,e,e,e,e,e,e,e,e,e,e,e,e,e,e,e,e,e,e,e,e,e,e,e,e,e,e,e,e,e,e,e,e,e,e,e,e,e,e,e,e,e,e,e,e,e,e,e,e,e,e,e,e,e,e,e,e,e,e,e,e
e,e,e,e,e,e,e,e,e,e,e,e,e,e,e,e,e,e,e,e,e,e,e,e,e,e,e,e,e,e,e,e,e,e,e,e,e,e,e,6.19,9.95,15.47,20.60,25.24,29.83,39.04,47.20,52.93,55.67,57.61,59.30,60.89,62.36,63.50,64.26,64.68,64.76,64.46,63.39,62.11,61.49,61.86,62.92,64.56,66.57,69.05,72.22,78.55,83.78,88.60,93.56,98.17,102.81,107.81,113.38,119.75,126.39,131.60,135.86,139.89,143.10,144.93,145.95,146.43,146.33,146.23,146.48,147.49,149.83,154.02,158.09,161.22,162.70,161.69,160.02,158.41,157.40,157.87,159.77,161.97,164.04,165.61,167.02,169.17,172.16,175.88,179.77,183.65,187.43,189.41,186.62,180.39,174.47,168.71,162.83,156.49,149.84,143.91,138.13,129.78,122.54,115.58,109.76,106.15,103.52,100.31,97.10,94.50,93.88,93.57,93.24,92.82,92.35,91.74,89.88,86.62,82.06,77.56,73.03,68.16,63.31,59.99,57.71,56.57,56.24,56.24,57.44,60.24,62.55,63.31,63.58,62.93,61.79,59.47,54.41,49.95,47.00,44.96,43.17,41.51,39.30,36.58,33.49,30.38,27.50,24.49,21.46,18.63,14.58,11.28,9.20,8.38,7.54,6.69,5.82,4.96,4.15,3.18,2.21,1.25,e,e,e,e,e,e,e,e,e,e,e,e,e,e,e,e,e,e,e,e,e,e,e,e,e,e,e,e,e,e,e,e,e,e,e,e,e,e,e,e,e,e,e,e,e,e,e,e,e,e,e,e,e,e,e,e,e,e,e,e,e,e,e,e,e,e,e,e,e,e,e,e,e,e,e,e
e,e,e,e,e,e,e,e,e,e,e,e,e,e,e,e,e,e,e,e,e,e,e,e,e,e,e,e,e,e,e,e,e,e,e,e,e,e,4.10,9.17,13.22,18.14,22.48,26.51,31.04,39.79,47.81,53.81,57.17,59.51,61.69,63.82,65.90,67.80,69.11,69.82,69.98,69.67,68.51,67.01,65.93,65.72,66.61,68.26,70.30,72.80,75.93,81.62,86.45,90.97,95.60,99.94,103.83,107.94,112.64,118.29,125.22,130.75,135.26,139.54,143.78,147.48,150.19,151.68,152.00,151.90,151.86,152.21,153.34,157.16,161.27,164.55,166.09,165.16,163.81,162.67,162.29,163.67,166.08,168.06,169.72,171.33,172.73,174.71,177.34,180.60,184.45,187.98,189.85,188.82,183.29,177.36,172.17,167.49,162.88,156.92,150.20,144.12,138.32,130.26,123.35,116.65,110.82,106.76,103.45,99.19,94.77,90.83,88.40,87.45,87.12,87.09,87.07,87.12,85.92,83.54,80.16,76.32,72.17,67.25,62.02,58.51,55.56,53.68,52.80,52.72,53.53,56.05,58.66,60.35,61.18,61.24,60.56,58.55,54.02,49.94,47.29,45.41,43.60,41.79,39.59,36.86,33.69,30.50,27.54,24.56,21.56,18.55,14.22,11.01,9.01,8.08,7.16,6.28,5.43,4.63,3.87,2.90,1.90,e,e,e,e,e,e,e,e,e,e,e,e,e,e,e,e,e,e,e,e,e,e,e,e,e,e,e,e,e,e,e,e,e,e,e,e,e,e,e,e,e,e,e,e,e,e,e,e,e,e,e,e,e,e,e,e,e,e,e,e,e,e,e,e,e,e,e,e,e,e,e,e,e,e,e,e,e
e,e,e,e,e,e,e,e,e,e,e,e,e,e,e,e,e,e,e,e,e,e,e,e,e,e,e,e,e,e,e,e,e,e,e,e,e,e,7.69,13.39,18.23,22.51,26.04,29.49,33.98,41.12,48.33,54.28,58.19,61.13,63.66,66.16,68.80,71.68,73.80,74.80,74.93,74.52,73.36,72.01,70.75,69.95,70.60,72.35,74.57,77.23,80.46,85.13,89.81,94.50,99.12,102.97,106.60,109.94,113.45,118.40,125.15,130.49,134.73,138.60,143.33,148.30,152.25,154.65,156.06,156.53,156.79,157.10,157.63,160.95,164.97,168.20,169.46,168.32,166.98,166.31,166.77,168.85,171.54,173.46,174.77,175.85,177.11,179.24,182.00,185.26,189.05,191.70,190.10,184.95,178.77,173.35,168.78,165.16,162.22,156.75,150.33,144.22,138.43,131.55,124.94,119.07,113.75,108.67,105.21,100.70,95.79,90.71,84.68,81.83,80.66,80.44,80.37,80.37,79.92,78.88,77.17,74.27,70.63,66.08,61.04,57.08,53.87,51.26,49.66,49.52,49.88,51.68,54.23,56.88,58.55,58.87,58.15,56.23,52.63,49.35,46.88,44.94,43.23,41.52,39.33,36.61,33.42,30.19,27.22,24.36,21.45,18.29,13.97,10.89,9.01,8.08,7.16,6.23,5.32,4.40,3.50,2.56,1.59,e,e,e,e,e,e,e,e,e,e,e,e,e,e,e,e,e,e,e,e,e,e,e,e,e,e,e,e,e,e,e,e,e,e,e,e,e,e,e,e,e,e,e,e,e,e,e,e,e,e,e,e,e,e,e,e,e,e,e,e,e,e,e,e,e,e,e,e,e,e,e,e,e,e,e,e,e
e,e,e,e,e,e,e,e,e,e,e,e,e,e,e,e,e,e,e,e,e,e,e,e,e,e,e,e,e,e,e,e,e,e,e,e,e,7.92,12.67,18.16,22.46,26.81,31.31,36.04,41.08,46.53,51.60,56.09,59.84,62.51,64.95,67.35,70.28,75.01,77.87,79.39,79.84,79.52,77.84,76.64,75.76,75.26,75.75,77.75,79.63,81.55,84.28,88.51,93.02,97.56,101.92,105.75,109.11,112.14,115.39,120.25,126.77,131.48,134.93,138.26,143.14,148.65,153.38,156.80,159.68,161.37,162.18,162.48,162.86,165.32,169.12,172.59,174.28,173.03,171.09,170.55,171.88,174.43,176.92,178.77,180.18,181.44,182.46,184.42,187.03,189.89,192.00,190.48,186.49,180.94,175.07,168.97,164.31,160.72,157.59,153.00,148.01,142.92,137.68,131.86,125.83,120.35,115.33,110.56,106.19,101.27,96.25,91.11,84.45,80.17,77.44,75.93,75.30,74.86,74.53,73.98,72.92,71.26,68.64,64.95,60.53,56.51,53.07,50.02,47.84,47.10,47.19,48.25,50.01,52.12,53.64,54.24,53.91,52.61,50.29,48.23,46.21,44.35,42.73,41.03,38.69,35.89,32.82,29.79,27.07,24.41,21.66,18.64,13.93,10.80,8.95,8.03,7.10,6.21,5.33,4.43,3.50,2.54,1.49,e,e,e,e,e,e,e,e,e,e,e,e,e,e,e,e,e,e,e,e,e,e,e,e,e,e,e,e,e,e,e,e,e,e,e,e,e,e,e,e,e,e,e,e,e,e,e,e,e,e,e,e,e,e,e,e,e,e,e,e,e,e,e,e,e,e,e,e,e,e,e,e,e,e,e,e,e
e,e,e,e,e,e,e,e,e,e,e,e,e,e,e,e,e,e,e,e,e,e,e,e,e,e,e,e,e,e,e,e,e,e,2.79,5.72,9.21,13.11,17.60,22.44,26.36,31.33,36.98,42.71,47.72,51.65,54.91,58.10,61.47,63.89,66.27,68.73,72.03,77.92,81.28,83.41,84.56,84.85,83.04,82.11,81.62,81.47,81.98,83.75,85.01,86.08,87.96,91.57,95.67,99.96,104.20,108.11,111.29,114.19,117.40,122.17,128.24,132.34,135.21,138.15,143.12,148.68,153.87,158.37,162.97,165.88,167.24,167.63,168.01,169.84,173.55,177.25,179.24,178.20,175.75,175.19,177.10,179.88,182.32,184.21,185.72,187.08,187.91,189.56,191.73,193.78,193.50,188.38,182.63,176.99,171.16,164.34,159.43,155.72,152.38,148.61,144.86,140.69,136.01,131.06,125.60,120.42,115.71,111.52,106.28,101.12,96.21,91.28,84.68,79.50,75.57,72.83,71.24,70.39,70.03,69.70,69.02,68.27,66.55,63.72,59.95,55.98,52.33,49.07,46.52,45.07,44.70,45.06,46.00,47.32,48.54,49.35,49.40,48.73,47.56,46.52,45.12,43.58,42.10,40.29,37.71,34.82,31.91,29.25,26.85,24.40,21.80,18.93,14.03,10.83,8.97,8.06,7.15,6.25,5.36,4.44,3.47,2.46,1.35,e,e,e,e,e,e,e,e,e,e,e,e,e,e,e,e,e,e,e,e,e,e,e,e,e,e,e,e,e,e,e,e,e,e,e,e,e,e,e,e,e,e,e,e,e,e,e,e,e,e,e,e,e,e,e,e,e,e,e,e,e,e,e,e,e,e,e,e,e,e,e,e,e,e,e,e,e
e,e,e,e,e,e,e,e,e,e,e,e,e,e,e,e,e,e,e,e,e,e,e,e,e,e,e,e,e,e,e,e,e,e,6.23,8.94,15.55,19.08,21.95,25.38,29.75,36.42,43.00,48.46,51.88,54.72,57.42,60.10,62.82,65.34,67.86,70.93,74.88,80.08,83.39,86.30,88.86,90.89,90.03,89.62,89.39,89.39,90.29,90.66,90.87,91.10,91.56,93.93,97.07,100.99,105.55,109.61,112.83,115.84,119.18,123.67,128.75,132.50,135.40,138.34,143.42,148.15,153.18,158.90,165.67,169.56,171.40,172.03,172.66,174.55,178.48,182.24,184.05,183.89,181.34,180.57,182.34,184.88,187.79,189.95,191.43,192.50,193.29,194.38,195.54,195.95,192.22,185.91,179.52,173.25,166.53,159.25,153.96,150.17,147.19,143.96,140.64,136.84,132.54,128.08,123.02,118.12,113.79,110.36,104.62,99.66,95.19,90.73,84.77,79.78,75.67,72.21,68.94,67.89,67.35,66.92,66.35,65.64,64.40,62.23,59.09,55.26,51.45,48.38,45.90,43.65,42.35,42.13,42.41,42.88,43.80,44.65,44.93,44.70,44.27,43.64,43.12,42.41,41.18,39.03,36.10,33.11,30.44,28.42,26.39,24.17,21.68,18.87,14.37,11.13,9.19,8.32,7.46,6.45,5.41,4.35,3.23,2.15,1.03,e,e,e,e,e,e,e,e,e,e,e,e,e,e,e,e,e,e,e,e,e,e,e,e,e,e,e,e,e,e,e,e,e,e,e,e,e,e,e,e,e,e,e,e,e,e,e,e,e,e,e,e,e,e,e,e,e,e,e,e,e,e,e,e,e,e,e,e,e,e,e,e,e,e,e,e,e
e,e,e,e,e,e,e,e,e,e,e,e,e,e,e,e,e,e,e,e,e,e,e,e,e,e,e,e,e,e,e,e,5.59,8.44,11.26,14.54,20.10,22.73,24.86,28.04,33.90,40.59,46.80,51.77,54.67,57.22,59.85,62.52,65.20,67.71,70.13,73.14,76.92,81.43,84.66,87.77,90.81,93.69,95.04,95.67,95.86,95.90,96.40,95.89,95.40,95.14,95.18,96.34,98.84,102.52,107.03,111.01,114.33,117.46,120.71,124.57,129.12,132.61,135.48,138.46,142.72,146.95,151.87,157.98,165.79,170.51,173.63,175.77,177.49,179.59,183.49,187.06,188.71,189.37,187.90,187.04,187.66,189.62,192.32,194.47,196.14,197.61,198.63,199.03,198.55,196.65,191.32,184.11,176.93,169.70,161.58,154.53,149.28,145.39,142.35,139.26,135.99,132.21,127.91,123.41,118.43,113.94,110.03,106.64,101.64,97.37,93.37,89.22,84.08,79.45,75.36,71.67,68.14,66.31,65.10,64.27,63.62,62.88,61.82,59.98,57.27,53.78,50.34,47.50,45.02,42.56,40.62,39.95,39.82,39.84,40.44,40.88,40.85,40.57,40.66,40.43,40.24,39.79,38.74,36.72,33.97,31.33,29.12,27.34,25.49,23.51,21.31,18.77,14.95,11.64,9.39,8.33,7.37,6.28,5.18,4.08,2.92,1.84,e,e,e,e,e,e,e,e,e,e,e,e,e,e,e,e,e,e,e,e,e,e,e,e,e,e,e,e,e,e,e,e,e,e,e,e,e,e,e,e,e,e,e,e,e,e,e,e,e,e,e,e,e,e,e,e,e,e,e,e,e,e,e,e,e,e,e,e,e,e,e,e,e,e,e,e,e,e
e,e,e,e,e,e,e,e,e,e,e,e,e,e,e,e,e,e,e,e,e,e,e,e,e,e,e,e,e,e,2.91,5.69,9.33,13.09,16.89,20.69,23.98,25.58,27.40,30.87,38.17,44.29,49.70,54.12,56.98,59.55,62.26,65.05,67.83,70.26,72.57,75.32,78.65,82.48,85.60,88.68,91.85,95.18,98.68,100.39,101.12,101.35,101.33,100.39,99.51,98.96,98.93,98.99,100.86,104.18,108.42,112.32,115.81,119.05,122.17,125.40,129.48,132.71,135.47,138.43,141.72,145.62,150.46,156.60,164.82,170.34,174.88,178.74,181.87,184.41,188.18,191.48,193.11,194.64,194.60,193.85,193.28,194.51,196.68,198.70,200.62,202.61,203.97,203.61,201.26,196.84,190.57,182.57,174.50,166.22,156.85,150.15,145.01,141.05,137.81,134.64,131.22,127.31,122.88,118.14,113.23,109.13,105.59,102.08,98.23,94.71,91.12,87.22,82.93,78.76,74.79,71.11,67.86,65.22,63.26,61.87,60.90,59.91,58.78,57.13,54.84,51.96,49.15,46.56,44.12,41.66,39.28,38.17,37.67,37.42,37.61,37.45,36.90,36.36,36.72,36.80,36.74,36.38,35.56,33.92,31.65,29.54,27.80,26.15,24.40,22.63,20.73,18.49,15.39,12.07,9.55,8.26,7.15,5.99,4.86,3.76,2.61,1.52,e,e,e,e,e,e,e,e,e,e,e,e,e,e,e,e,e,e,e,e,e,e,e,e,e,e,e,e,e,e,e,e,e,e,e,e,e,e,e,e,e,e,e,e,e,e,e,e,e,e,e,e,e,e,e,e,e,e,e,e,e,e,e,e,e,e,e,e,e,e,e,e,e,e,e,e,e,e
e,e,e,e,e,e,e,e,e,e,e,e,e,e,e,e,e,e,e,e,e,e,e,e,e,e,e,e,e,e,7.01,10.67,15.62,19.57,22.71,25.42,27.57,28.49,30.61,35.04,41.70,47.30,52.06,56.04,59.34,62.01,64.71,67.40,69.98,72.16,74.62,77.31,80.23,83.42,86.36,89.38,92.55,95.87,99.07,101.19,102.79,104.02,104.35,104.27,103.87,103.39,103.21,102.68,103.38,105.56,109.21,113.30,117.14,120.60,123.75,126.88,130.04,132.78,135.27,137.85,141.00,144.89,149.65,155.47,163.00,169.48,174.67,179.10,183.81,187.59,191.25,194.31,196.55,199.30,200.38,200.47,200.18,200.53,201.85,203.64,205.66,207.66,209.32,208.17,203.95,197.08,189.82,181.13,171.97,162.73,153.71,146.73,141.44,137.43,134.20,130.53,126.62,122.38,117.80,112.92,108.49,104.54,101.04,97.89,94.97,91.75,88.23,84.50,80.91,77.30,73.71,70.32,67.46,64.88,62.61,60.47,58.31,56.09,54.27,52.60,51.08,49.88,47.95,45.76,43.44,41.09,38.81,37.01,35.92,35.54,35.04,34.07,32.92,31.93,31.70,31.71,31.73,31.66,31.40,30.55,29.26,27.76,26.19,24.78,23.15,21.45,19.61,17.48,14.71,11.81,9.55,8.24,6.99,5.72,4.55,3.45,2.29,1.20,e,e,e,e,e,e,e,e,e,e,e,e,e,e,e,e,e,e,e,e,e,e,e,e,e,e,e,e,e,e,e,e,e,e,e,e,e,e,e,e,e,e,e,e,e,e,e,e,e,e,e,e,e,e,e,e,e,e,e,e,e,e,e,e,e,e,e,e,e,e,e,e,e,e,e,e,e,e
e,e,e,e,e,e,e,e,e,e,e,e,e,e,e,e,e,e,e,e,e,e,e,e,e,e,e,e,e,7.54,11.12,15.37,20.04,23.81,26.87,29.50,31.38,32.66,35.29,39.89,45.41,50.20,54.45,58.15,61.24,63.86,66.39,68.76,70.93,72.93,74.90,77.24,79.99,83.01,85.77,88.87,92.09,95.17,98.14,100.66,102.83,104.73,106.42,107.44,107.76,107.57,107.19,106.48,106.57,107.91,110.74,114.79,118.75,122.38,125.69,128.99,132.39,135.31,137.54,139.03,141.61,145.18,149.61,154.87,161.15,168.00,173.98,179.28,184.76,189.10,192.76,195.89,198.77,202.58,205.02,206.29,206.76,207.30,208.96,210.80,212.04,211.98,211.37,208.15,202.68,195.53,188.27,179.72,170.27,160.75,152.49,145.37,139.72,135.22,131.35,126.74,122.15,117.49,112.73,107.87,103.94,100.34,97.01,93.93,91.80,89.13,85.95,82.45,79.24,75.88,72.50,69.33,66.72,64.31,62.01,59.54,56.74,53.88,51.45,49.71,48.72,48.24,46.79,44.82,42.57,40.28,38.01,35.93,34.45,33.67,32.84,31.59,30.22,29.06,28.60,28.64,28.73,28.81,28.77,27.94,26.83,25.67,24.51,23.20,21.77,20.12,18.28,16.34,13.90,11.40,9.41,8.12,6.84,5.56,4.35,3.20,2.01,0.89,e,e,e,e,e,e,e,e,e,e,e,e,e,e,e,e,e,e,e,e,e,e,e,e,e,e,e,e,e,e,e,e,e,e,e,e,e,e,e,e,e,e,e,e,e,e,e,e,e,e,e,e,e,e,e,e,e,e,e,e,e,e,e,e,e,e,e,e,e,e,e,e,e,e,e,e,e,e
e,e,e,e,e,e,e,e,e,e,e,e,e,e,e,e,e,e,e,e,e,e,e,e,e,e,1.93,5.02,7.74,11.06,15.15,19.77,23.17,26.54,29.89,33.10,35.28,37.59,40.84,45.10,49.17,52.99,56.85,60.34,62.78,65.19,67.39,69.32,71.00,72.84,73.94,75.75,78.49,81.65,84.26,87.49,90.80,93.52,96.30,99.21,101.77,104.13,107.77,110.04,111.27,111.55,110.97,110.37,110.24,110.94,112.82,116.65,120.55,124.29,127.86,131.53,135.88,139.41,141.42,141.48,143.27,146.28,150.18,154.71,159.39,166.17,172.99,179.34,185.05,189.49,193.21,196.61,200.14,204.84,208.75,211.38,212.94,214.44,217.15,219.09,218.93,215.52,211.06,205.08,198.81,192.78,186.16,178.31,169.14,159.84,152.60,145.45,139.35,134.04,129.09,123.29,117.93,112.80,107.84,103.12,99.67,96.52,93.43,90.22,88.73,86.75,84.09,80.82,77.81,74.47,71.20,68.22,65.74,63.57,61.38,58.86,55.77,52.70,49.76,47.92,47.26,46.88,45.68,43.81,41.56,39.31,36.99,34.89,33.15,31.82,30.89,29.70,28.38,27.22,26.75,26.88,27.03,27.16,27.14,25.81,24.37,23.38,22.77,21.48,20.31,18.68,16.82,15.11,12.96,10.87,9.16,7.93,6.69,5.46,4.22,2.99,1.75,e,e,e,e,e,e,e,e,e,e,e,e,e,e,e,e,e,e,e,e,e,e,e,e,e,e,e,e,e,e,e,e,e,e,e,e,e,e,e,e,e,e,e,e,e,e,e,e,e,e,e,e,e,e,e,e,e,e,e,e,e,e,e,e,e,e,e,e,e,e,e,e,e,e,e,e,e,e,e
e,e,e,e,e,e,e,e,e,e,e,e,e,e,e,e,e,e,e,e,e,e,e,e,e,e,3.91,7.06,10.03,13.44,17.34,21.46,24.74,28.11,31.64,35.30,38.02,40.98,44.36,48.03,51.25,55.05,58.56,61.30,62.85,63.59,64.50,66.05,68.36,70.06,71.14,72.84,75.41,78.53,81.59,84.59,87.63,90.78,93.61,96.79,99.79,102.62,106.40,109.94,112.88,114.82,115.17,115.07,114.99,115.29,116.36,119.15,122.61,126.13,129.81,134.52,138.99,142.64,145.29,146.92,149.21,151.20,153.65,156.87,160.66,165.87,172.27,179.00,184.67,189.15,192.96,196.48,200.12,204.68,208.40,211.38,214.25,218.67,220.63,219.89,216.74,211.71,206.03,200.26,194.62,189.12,183.25,176.47,168.90,161.22,154.62,148.40,142.08,135.50,128.69,122.75,117.59,112.63,107.68,102.82,99.17,95.77,92.46,89.18,86.90,84.92,82.48,79.29,76.33,73.00,69.90,67.09,64.41,62.23,59.52,56.51,53.51,50.88,48.69,46.92,45.68,45.34,44.59,42.85,40.49,38.10,35.63,33.38,31.61,30.40,29.37,28.04,26.71,25.58,24.91,25.02,25.18,25.36,25.45,23.73,22.05,20.98,20.53,19.94,18.79,17.12,15.19,13.39,11.54,9.99,8.67,7.48,6.24,5.05,3.84,2.61,1.43,e,e,e,e,e,e,e,e,e,e,e,e,e,e,e,e,e,e,e,e,e,e,e,e,e,e,e,e,e,e,e,e,e,e,e,e,e,e,e,e,e,e,e,e,e,e,e,e,e,e,e,e,e,e,e,e,e,e,e,e,e,e,e,e,e,e,e,e,e,e,e,e,e,e,e,e,e,e,e
e,e,e,e,e,e,e,e,e,e,e,e,e,e,e,e,e,e,e,e,e,e,e,e,e,1.96,5.51,8.72,11.80,15.15,18.80,22.57,25.89,29.35,33.03,36.90,40.21,43.71,47.16,50.39,53.19,56.32,59.14,61.10,61.48,61.15,61.23,62.32,64.56,66.16,67.49,69.27,71.67,74.57,78.02,81.21,84.37,87.77,90.81,94.22,97.58,100.91,105.05,109.52,113.61,116.85,118.70,119.50,119.75,119.94,120.56,122.31,124.81,127.95,131.89,137.12,141.66,145.71,149.30,152.42,155.04,156.45,157.94,160.25,163.59,167.70,173.22,179.35,184.45,188.49,192.05,195.62,199.57,203.70,206.82,209.72,213.19,218.70,220.57,218.55,213.68,207.42,201.39,195.90,190.73,185.63,180.17,174.16,167.99,161.86,155.95,150.55,144.52,137.74,130.32,123.87,118.50,113.35,108.19,103.15,99.18,95.55,92.11,88.75,85.79,83.48,80.94,77.82,74.89,71.64,68.69,65.99,63.13,60.68,57.47,54.12,51.21,49.05,47.41,45.79,44.29,43.77,43.35,41.92,39.69,37.22,34.64,32.34,30.52,29.21,27.91,26.40,25.03,23.91,23.09,23.20,23.40,23.63,23.72,21.84,20.16,19.15,18.80,18.47,17.33,15.62,13.64,11.79,10.33,9.23,8.21,7.07,5.85,4.67,3.47,2.26,1.08,e,e,e,e,e,e,e,e,e,e,e,e,e,e,e,e,e,e,e,e,e,e,e,e,e,e,e,e,e,e,e,e,e,e,e,e,e,e,e,e,e,e,e,e,e,e,e,e,e,e,e,e,e,e,e,e,e,e,e,e,e,e,e,e,e,e,e,e,e,e,e,e,e,e,e,e,e,e,e
e,e,e,e,e,e,e,e,e,e,e,e,e,e,e,e,e,e,e,e,e,e,e,e,e,2.89,6.67,9.98,12.99,16.11,19.46,23.03,26.56,30.24,34.02,37.82,41.78,45.70,49.17,52.12,54.97,56.68,58.48,59.59,58.49,57.75,57.55,58.09,59.45,61.00,62.92,64.98,67.18,69.68,73.42,77.27,81.00,84.47,87.91,91.48,95.12,98.96,103.69,108.76,113.36,117.50,121.47,123.62,124.52,124.94,125.50,126.21,127.16,129.76,134.11,139.29,143.83,148.62,153.47,157.98,160.75,162.05,163.17,164.98,168.37,171.90,176.03,180.44,184.41,187.46,190.40,193.95,198.42,201.81,203.87,206.21,209.49,214.05,216.57,214.82,209.64,202.59,197.20,192.06,187.15,182.31,176.90,171.32,166.34,161.67,156.50,151.79,146.65,140.84,134.20,126.87,120.80,115.06,109.42,104.19,99.75,95.93,92.46,88.99,85.49,82.46,79.49,76.42,73.48,70.40,67.60,64.93,61.93,58.89,55.23,51.66,48.89,47.22,45.87,44.50,43.11,42.15,41.96,41.00,39.18,36.70,34.08,31.84,29.93,28.25,26.52,24.76,23.33,22.23,21.31,21.42,21.71,21.98,21.94,20.15,18.77,17.96,17.61,17.09,15.93,14.19,12.17,10.33,9.36,8.62,7.79,6.69,5.53,4.31,3.11,1.93,0.70,e,e,e,e,e,e,e,e,e,e,e,e,e,e,e,e,e,e,e,e,e,e,e,e,e,e,e,e,e,e,e,e,e,e,e,e,e,e,e,e,e,e,e,e,e,e,e,e,e,e,e,e,e,e,e,e,e,e,e,e,e,e,e,e,e,e,e,e,e,e,e,e,e,e,e,e,e,e,e
e,e,e,e,e,e,e,e,e,e,e,e,e,e,e,e,e,e,e,e,e,e,e,e,e,2.32,6.47,10.15,13.22,16.16,19.15,22.34,25.83,29.58,33.39,37.10,41.02,44.96,48.33,50.80,52.05,52.79,53.78,54.55,54.21,54.02,54.05,54.56,55.70,57.51,59.40,61.54,64.01,66.88,70.22,74.06,78.16,82.21,85.99,89.93,94.06,98.46,103.48,108.67,113.33,117.56,121.73,125.01,127.37,128.84,129.50,129.62,130.23,132.16,135.68,140.72,145.82,151.29,157.09,163.03,166.22,167.24,168.13,170.00,173.04,175.76,177.92,179.59,181.00,183.46,186.17,189.50,193.61,197.38,199.89,202.38,205.58,210.46,213.07,211.09,205.82,199.31,194.29,188.91,183.20,177.36,172.22,167.86,163.83,159.83,155.49,151.17,146.43,141.00,134.75,128.19,122.69,116.95,110.81,105.29,100.50,96.41,92.74,89.15,86.40,83.74,81.02,78.23,75.92,71.89,68.31,65.15,61.38,58.18,54.95,51.81,48.97,47.39,46.15,44.69,42.93,41.26,40.42,39.40,37.93,35.86,33.86,32.15,30.64,29.18,27.23,25.12,23.18,21.48,20.06,20.02,20.16,20.24,20.01,18.59,17.03,16.01,15.62,15.26,14.64,13.29,11.50,9.79,8.81,8.00,7.22,6.36,5.21,3.98,2.76,1.56,0.37,e,e,e,e,e,e,e,e,e,e,e,e,e,e,e,e,e,e,e,e,e,e,e,e,e,e,e,e,e,e,e,e,e,e,e,e,e,e,e,e,e,e,e,e,e,e,e,e,e,e,e,e,e,e,e,e,e,e,e,e,e,e,e,e,e,e,e,e,e,e,e,e,e,e,e,e,e,e,e
e,e,e,e,e,e,e,e,e,e,e,e,e,e,e,e,e,e,e,e,e,e,e,e,e,e,6.27,10.01,13.05,15.77,18.38,21.13,24.47,28.27,32.15,35.75,39.33,43.10,46.18,47.99,47.98,48.10,48.66,49.45,50.06,50.39,50.69,51.33,52.63,54.89,56.90,59.15,61.85,65.16,68.25,72.09,76.45,80.89,84.85,89.07,93.67,98.68,103.94,109.05,113.58,117.70,121.84,126.01,129.40,131.71,132.79,133.01,133.65,135.06,137.60,141.94,147.30,153.29,159.91,166.95,170.11,171.08,171.80,173.19,174.90,176.34,176.82,176.63,176.53,178.93,181.59,184.66,188.32,192.64,195.91,198.81,202.07,207.01,209.45,207.31,202.21,196.55,191.63,185.64,178.93,172.16,167.57,164.14,160.77,157.25,153.65,149.62,145.21,140.11,134.15,128.19,123.34,118.09,112.23,106.76,102.03,97.85,93.96,90.10,88.00,85.97,83.87,81.77,80.23,75.49,70.94,66.82,62.16,58.49,55.48,52.57,49.44,47.91,46.80,45.30,43.26,41.16,39.74,38.48,37.13,35.43,33.95,32.61,31.35,30.01,27.92,25.58,23.25,21.08,19.24,18.76,18.64,18.50,18.03,16.90,15.29,14.08,13.56,13.43,13.34,12.36,10.81,9.36,8.37,7.46,6.66,5.93,4.85,3.66,2.43,e,e,e,e,e,e,e,e,e,e,e,e,e,e,e,e,e,e,e,e,e,e,e,e,e,e,e,e,e,e,e,e,e,e,e,e,e,e,e,e,e,e,e,e,e,e,e,e,e,e,e,e,e,e,e,e,e,e,e,e,e,e,e,e,e,e,e,e,e,e,e,e,e,e,e,e,e,e,e,e,e
e,e,e,e,e,e,e,e,e,e,e,e,e,e,e,e,e,e,e,e,e,e,e,e,e,e,6.33,9.48,12.29,14.73,16.91,19.12,22.15,26.03,30.08,33.54,36.28,39.62,42.03,42.90,42.65,42.69,43.52,44.91,46.41,47.05,47.54,48.57,50.60,53.60,56.19,58.65,61.37,65.13,68.38,72.38,76.81,81.20,85.02,89.31,94.33,100.00,105.51,110.22,114.31,118.12,122.16,126.76,130.19,132.80,134.91,136.46,137.63,138.80,140.35,142.91,147.81,154.08,161.28,168.76,170.99,172.38,172.99,172.76,171.31,170.58,170.07,169.96,170.70,173.99,176.86,179.65,182.83,187.85,192.11,195.83,199.37,203.62,205.51,203.40,198.98,194.50,189.18,182.00,174.11,166.82,163.26,160.03,156.79,153.56,150.50,146.63,142.54,137.76,131.98,125.96,121.65,117.75,113.66,108.93,105.03,101.14,97.03,92.59,90.69,89.54,88.73,88.03,87.43,82.67,76.91,71.04,65.39,60.59,57.20,54.02,50.21,48.73,47.82,46.42,44.38,42.48,40.77,39.05,37.39,35.88,34.60,33.20,31.78,30.26,28.18,25.83,23.45,21.16,19.12,17.69,17.14,16.78,15.99,14.96,13.60,12.34,11.51,11.67,12.02,11.27,9.94,8.98,8.04,7.07,6.13,5.25,4.43,3.31,2.11,e,e,e,e,e,e,e,e,e,e,e,e,e,e,e,e,e,e,e,e,e,e,e,e,e,e,e,e,e,e,e,e,e,e,e,e,e,e,e,e,e,e,e,e,e,e,e,e,e,e,e,e,e,e,e,e,e,e,e,e,e,e,e,e,e,e,e,e,e,e,e,e,e,e,e,e,e,e,e,e,e
e,e,e,e,e,e,e,e,e,e,e,e,e,e,e,e,e,e,e,e,e,e,e,e,e,e,e,e,10.84,13.34,15.35,17.25,19.80,23.43,27.28,30.38,32.24,34.64,36.53,37.49,37.72,38.52,39.71,41.23,42.97,44.62,46.48,48.63,51.16,54.13,56.89,59.65,62.65,66.32,70.02,74.41,78.78,82.35,86.02,90.87,96.40,102.14,107.17,111.36,115.10,118.68,122.39,126.30,129.51,132.19,134.59,137.40,139.40,141.23,143.02,144.65,148.18,154.56,162.38,169.66,171.32,172.13,171.97,170.66,167.66,166.01,165.24,165.56,167.48,170.81,173.72,176.47,179.46,184.10,189.25,193.47,196.71,200.23,201.77,200.22,196.69,192.70,187.25,180.04,171.87,163.95,159.75,155.78,152.15,148.84,145.75,142.17,138.52,134.15,128.63,122.72,118.88,115.63,112.28,108.37,104.51,101.14,98.16,95.38,93.72,92.68,91.87,91.08,90.35,87.37,82.67,76.80,70.63,65.05,60.33,56.31,52.91,50.95,49.38,47.73,45.89,44.16,42.49,40.38,38.28,36.81,35.19,33.27,31.41,29.74,27.69,25.44,23.23,21.13,19.23,17.64,16.67,15.88,14.83,13.71,12.47,11.27,10.35,10.32,10.56,10.06,9.11,8.30,7.49,6.62,5.70,4.75,3.90,2.89,1.76,e,e,e,e,e,e,e,e,e,e,e,e,e,e,e,e,e,e,e,e,e,e,e,e,e,e,e,e,e,e,e,e,e,e,e,e,e,e,e,e,e,e,e,e,e,e,e,e,e,e,e,e,e,e,e,e,e,e,e,e,e,e,e,e,e,e,e,e,e,e,e,e,e,e,e,e,e,e,e,e,e
e,e,e,e,e,e,e,e,e,e,e,e,e,e,e,e,e,e,e,e,e,e,e,e,e,e,e,e,9.01,11.74,13.79,15.54,17.74,21.00,24.42,26.98,27.93,29.30,30.90,32.50,33.59,35.27,36.89,38.50,40.35,43.11,46.39,49.65,52.54,55.30,58.13,61.22,64.61,68.17,72.38,77.00,81.09,83.82,87.39,92.98,98.88,104.16,108.46,112.06,115.41,118.67,121.91,124.99,127.93,130.63,133.19,137.17,140.16,142.93,145.39,146.66,149.02,155.40,163.47,170.00,171.23,171.04,169.78,167.55,163.77,161.52,160.66,161.57,164.86,168.05,171.02,173.88,176.83,180.82,186.36,190.87,193.92,196.78,197.96,197.01,194.42,190.89,185.72,178.99,171.06,162.83,157.47,152.53,148.19,144.39,140.92,137.44,133.98,129.89,124.74,119.36,115.94,113.01,109.98,106.74,102.81,99.99,98.23,97.11,95.66,94.47,93.30,92.06,90.93,89.69,86.46,81.36,75.47,69.84,64.22,59.58,56.58,54.05,51.65,49.56,47.77,46.05,44.37,41.95,39.45,37.86,35.81,33.34,31.07,29.27,27.31,25.24,23.23,21.34,19.60,18.05,16.74,15.53,14.30,13.06,11.86,10.71,9.73,9.32,9.24,8.90,8.28,7.52,6.82,6.07,5.22,4.26,3.36,2.44,1.39,e,e,e,e,e,e,e,e,e,e,e,e,e,e,e,e,e,e,e,e,e,e,e,e,e,e,e,e,e,e,e,e,e,e,e,e,e,e,e,e,e,e,e,e,e,e,e,e,e,e,e,e,e,e,e,e,e,e,e,e,e,e,e,e,e,e,e,e,e,e,e,e,e,e,e,e,e,e,e,e,e
e,e,e,e,e,e,e,e,e,e,e,e,e,e,e,e,e,e,e,e,e,e,e,e,e,e,e,e,6.50,9.71,12.31,14.31,16.85,19.67,22.15,23.67,23.64,24.32,26.31,29.44,32.05,34.23,36.34,38.47,40.66,44.11,47.67,51.09,54.19,56.85,59.90,63.37,67.19,71.14,75.79,79.73,82.91,85.55,89.22,95.69,101.30,104.79,108.25,111.14,113.81,116.35,118.86,121.82,124.61,127.34,130.35,135.26,139.51,143.33,146.61,148.82,151.85,157.97,164.80,169.28,170.12,168.47,165.65,162.44,159.05,155.92,154.87,156.61,161.63,164.96,168.22,171.46,174.68,178.12,182.33,186.68,190.59,193.05,193.61,192.87,191.15,188.77,185.13,179.53,172.80,165.64,159.00,153.24,147.58,142.19,137.63,133.35,128.97,124.50,120.06,116.70,113.55,110.42,107.24,104.06,100.53,98.16,96.41,94.43,93.08,91.60,90.11,88.71,87.39,85.65,82.91,79.55,76.58,73.28,69.52,65.58,61.79,58.97,56.04,53.21,50.61,48.39,46.14,43.54,40.94,38.82,36.57,34.01,31.71,29.94,28.23,26.44,24.57,22.63,20.70,19.13,17.73,16.43,15.19,13.95,12.64,11.34,10.15,9.24,8.63,8.04,7.40,6.69,5.94,5.21,4.45,3.64,2.89,1.99,0.97,e,e,e,e,e,e,e,e,e,e,e,e,e,e,e,e,e,e,e,e,e,e,e,e,e,e,e,e,e,e,e,e,e,e,e,e,e,e,e,e,e,e,e,e,e,e,e,e,e,e,e,e,e,e,e,e,e,e,e,e,e,e,e,e,e,e,e,e,e,e,e,e,e,e,e,e,e,e,e,e,e
e,e,e,e,e,e,e,e,e,e,e,e,e,e,e,e,e,e,e,e,e,e,e,e,e,e,e,e,e,7.30,10.67,12.92,15.38,17.63,19.37,20.33,20.33,21.02,23.67,28.07,31.11,33.75,36.37,38.99,41.59,45.32,48.94,52.41,55.69,58.76,62.51,66.30,70.06,74.06,78.36,81.74,84.48,87.14,91.61,97.63,102.25,104.60,107.01,109.27,111.37,113.44,115.68,118.70,121.73,124.81,128.13,132.91,138.20,143.06,147.18,150.52,153.87,158.85,163.89,166.99,166.70,164.23,160.83,157.21,153.50,150.18,149.41,151.46,156.00,160.80,164.77,168.32,171.79,175.23,178.83,182.75,186.50,188.54,188.65,188.10,187.07,185.62,183.41,179.06,173.41,167.02,160.20,154.05,147.99,142.15,136.95,131.94,127.17,122.83,119.09,116.28,113.18,109.68,105.80,101.78,98.53,96.07,94.01,91.87,90.17,88.43,86.70,85.03,83.45,81.66,79.50,77.20,75.34,73.28,70.77,67.78,64.44,61.98,59.21,56.28,53.35,50.73,48.13,45.39,42.60,39.94,37.56,35.22,33.07,31.19,29.44,27.65,25.79,23.83,21.83,20.02,18.53,17.27,16.12,14.89,13.53,12.10,10.65,9.25,8.27,7.43,6.68,5.98,5.21,4.49,3.77,3.00,2.31,1.47,e,e,e,e,e,e,e,e,e,e,e,e,e,e,e,e,e,e,e,e,e,e,e,e,e,e,e,e,e,e,e,e,e,e,e,e,e,e,e,e,e,e,e,e,e,e,e,e,e,e,e,e,e,e,e,e,e,e,e,e,e,e,e,e,e,e,e,e,e,e,e,e,e,e,e,e,e,e,e,e,e,e
e,e,e,e,e,e,e,e,e,e,e,e,e,e,e,e,e,e,e,e,e,e,e,e,e,e,e,e,e,e,8.86,11.37,13.54,15.19,16.34,17.06,17.68,18.79,22.19,27.55,30.47,33.58,36.71,39.82,42.86,46.63,50.21,53.67,57.11,60.83,65.46,69.51,72.94,76.79,80.33,83.21,85.76,88.50,93.94,98.81,102.16,103.83,105.12,106.83,108.48,110.24,112.49,115.65,119.14,122.73,126.30,130.40,136.53,142.33,147.24,151.74,155.23,158.67,161.73,163.81,162.09,159.16,155.69,151.95,147.53,144.47,144.24,146.33,149.26,155.96,160.78,164.63,168.38,172.13,175.55,178.93,181.98,183.57,183.29,182.87,182.38,181.72,180.83,177.86,173.33,167.63,161.11,154.86,148.95,143.30,137.79,132.14,127.29,123.35,120.25,117.15,113.98,110.06,105.28,100.07,96.95,94.05,91.44,89.40,87.11,85.12,83.20,81.22,79.39,77.80,76.21,74.54,72.76,71.26,69.60,67.65,65.41,63.67,61.42,58.72,55.72,52.85,50.09,47.24,44.25,41.12,38.66,36.67,34.76,32.69,30.77,28.85,26.92,24.97,22.96,20.80,19.25,18.11,17.08,15.84,14.47,12.90,11.16,9.32,8.10,7.04,6.12,5.40,4.61,3.89,3.16,2.40,1.70,0.94,e,e,e,e,e,e,e,e,e,e,e,e,e,e,e,e,e,e,e,e,e,e,e,e,e,e,e,e,e,e,e,e,e,e,e,e,e,e,e,e,e,e,e,e,e,e,e,e,e,e,e,e,e,e,e,e,e,e,e,e,e,e,e,e,e,e,e,e,e,e,e,e,e,e,e,e,e,e,e,e,e,e
e,e,e,e,e,e,e,e,e,e,e,e,e,e,e,e,e,e,e,e,e,e,e,e,e,e,e,e,e,e,5.98,9.04,11.06,12.45,13.55,14.75,16.40,18.22,21.32,25.72,29.53,33.27,36.96,40.58,44.07,47.75,51.40,55.02,58.67,62.59,66.93,70.74,74.04,77.64,80.70,83.09,85.28,87.85,91.56,95.78,99.24,101.35,102.29,103.96,105.75,107.74,110.19,113.40,116.98,120.82,124.84,129.04,134.87,140.48,145.44,150.18,153.79,157.21,159.82,160.80,158.73,155.49,151.49,146.99,142.27,140.36,140.67,142.69,145.62,150.21,154.71,159.11,163.45,167.74,171.47,174.65,177.11,178.31,177.09,176.17,175.74,175.67,175.28,174.61,172.71,168.68,160.63,154.88,149.50,144.24,139.36,133.59,128.86,125.04,121.84,118.59,115.19,111.41,107.19,102.57,98.88,94.80,90.77,87.47,84.44,82.07,80.09,78.32,76.67,75.11,73.53,71.85,70.02,68.18,66.67,65.13,63.34,62.15,60.06,57.26,54.24,52.31,50.05,47.52,44.79,41.95,39.59,37.45,35.39,33.34,31.52,29.78,27.92,25.91,23.85,21.64,20.18,19.11,18.04,16.75,15.09,13.18,11.21,9.68,8.62,7.55,6.49,5.53,4.49,3.70,2.97,2.21,1.51,0.75,e,e,e,e,e,e,e,e,e,e,e,e,e,e,e,e,e,e,e,e,e,e,e,e,e,e,e,e,e,e,e,e,e,e,e,e,e,e,e,e,e,e,e,e,e,e,e,e,e,e,e,e,e,e,e,e,e,e,e,e,e,e,e,e,e,e,e,e,e,e,e,e,e,e,e,e,e,e,e,e,e,e
e,e,e,e,e,e,e,e,e,e,e,e,e,e,e,e,e,e,e,e,e,e,e,e,e,e,e,e,e,e,3.44,6.94,8.73,9.94,11.10,12.67,14.71,17.03,20.10,24.07,28.70,32.99,37.11,41.06,44.76,48.42,52.06,55.65,59.22,63.09,67.14,70.76,73.95,77.22,79.99,82.10,84.09,86.54,88.94,92.15,95.25,97.67,98.86,100.98,103.23,105.58,108.15,111.14,114.49,118.39,122.92,127.74,133.25,138.64,143.76,148.85,152.46,155.66,157.66,157.46,155.10,151.47,147.12,142.43,137.94,137.02,137.77,139.56,141.87,144.98,148.83,153.16,157.69,161.89,165.72,169.24,172.16,173.69,172.01,170.42,169.58,169.76,169.93,170.74,170.80,168.69,161.26,155.87,151.01,146.47,142.36,136.96,132.42,128.66,125.37,121.24,117.19,113.35,109.60,105.50,101.50,96.69,91.69,87.38,83.61,80.52,77.90,75.67,74.03,72.42,70.80,69.06,67.06,64.90,63.46,62.23,60.73,58.80,56.80,54.51,52.19,50.89,49.11,47.04,44.80,42.52,40.23,38.10,36.03,33.99,32.27,30.63,28.81,26.79,24.65,22.46,21.06,20.04,18.99,17.57,15.81,13.86,11.90,10.41,9.24,8.11,6.99,5.88,4.72,3.79,2.92,2.04,1.32,0.56,e,e,e,e,e,e,e,e,e,e,e,e,e,e,e,e,e,e,e,e,e,e,e,e,e,e,e,e,e,e,e,e,e,e,e,e,e,e,e,e,e,e,e,e,e,e,e,e,e,e,e,e,e,e,e,e,e,e,e,e,e,e,e,e,e,e,e,e,e,e,e,e,e,e,e,e,e,e,e,e,e,e
e,e,e,e,e,e,e,e,e,e,e,e,e,e,e,e,e,e,e,e,e,e,e,e,e,e,e,e,e,e,1.22,5.06,6.56,7.68,8.97,10.80,12.59,15.23,18.55,22.60,27.96,32.73,37.16,41.25,44.95,48.66,52.21,55.58,58.81,62.38,66.14,69.61,72.71,75.59,78.24,80.29,82.22,84.58,86.10,87.94,90.23,92.82,94.86,97.90,100.92,103.74,106.36,108.87,111.69,115.45,120.54,126.50,131.67,136.83,142.20,147.73,151.23,154.05,155.25,153.81,151.20,147.11,142.59,138.27,134.52,134.42,135.51,136.93,138.00,140.27,143.14,146.78,151.11,154.63,158.36,162.71,167.15,169.71,168.03,165.61,163.86,163.97,164.78,166.27,167.63,167.69,162.97,157.81,153.47,149.96,146.74,142.17,137.91,134.17,130.78,125.08,119.96,115.84,112.50,108.84,104.79,99.67,94.13,89.09,84.58,80.42,76.60,73.28,71.44,69.72,68.03,66.18,63.88,61.43,59.99,58.96,57.57,53.67,51.71,50.52,49.57,48.63,47.32,45.84,44.30,42.84,40.60,38.63,36.67,34.65,33.02,31.39,29.60,27.59,25.36,23.26,21.89,20.91,19.93,18.32,16.63,14.92,13.20,11.52,9.98,8.72,7.61,6.46,5.30,4.15,3.01,1.91,1.14,0.37,e,e,e,e,e,e,e,e,e,e,e,e,e,e,e,e,e,e,e,e,e,e,e,e,e,e,e,e,e,e,e,e,e,e,e,e,e,e,e,e,e,e,e,e,e,e,e,e,e,e,e,e,e,e,e,e,e,e,e,e,e,e,e,e,e,e,e,e,e,e,e,e,e,e,e,e,e,e,e,e,e,e
e,e,e,e,e,e,e,e,e,e,e,e,e,e,e,e,e,e,e,e,e,e,e,e,e,e,e,e,e,e,e,e,e,e,4.66,7.61,10.18,13.30,16.96,21.28,26.88,31.66,36.14,40.32,44.12,47.69,51.07,54.25,57.27,60.22,63.55,66.89,69.98,72.52,74.96,76.87,78.67,80.81,82.46,84.30,86.32,88.50,90.86,93.83,97.61,101.44,103.98,106.27,108.81,112.23,117.04,123.67,129.87,135.68,141.28,147.22,150.70,152.92,153.46,151.80,147.69,142.77,137.73,133.26,130.94,131.52,132.80,134.04,134.72,135.56,137.85,141.56,146.45,151.18,155.60,160.10,164.51,168.02,165.69,162.52,160.08,159.59,160.12,161.19,162.46,163.34,161.89,158.86,155.83,153.03,150.23,146.85,142.70,138.61,135.06,129.82,124.72,120.44,116.94,113.36,108.17,102.38,96.63,91.60,87.13,83.21,78.94,74.17,70.70,68.29,65.90,63.43,61.16,58.92,57.03,55.28,53.42,50.88,49.21,48.15,47.45,46.62,45.36,43.90,42.46,41.25,39.57,37.86,36.09,34.25,32.54,30.86,29.20,27.50,25.68,23.96,22.69,21.63,20.54,19.20,17.22,15.19,13.35,11.70,10.14,8.87,7.78,6.67,5.56,4.44,3.31,2.18,1.22,e,e,e,e,e,e,e,e,e,e,e,e,e,e,e,e,e,e,e,e,e,e,e,e,e,e,e,e,e,e,e,e,e,e,e,e,e,e,e,e,e,e,e,e,e,e,e,e,e,e,e,e,e,e,e,e,e,e,e,e,e,e,e,e,e,e,e,e,e,e,e,e,e,e,e,e,e,e,e,e,e,e,e
e,e,e,e,e,e,e,e,e,e,e,e,e,e,e,e,e,e,e,e,e,e,e,e,e,e,e,e,e,e,e,e,e,e,e,4.44,7.49,10.99,15.29,20.39,25.66,30.02,34.30,38.58,42.80,46.15,49.53,52.70,55.50,58.00,60.87,63.88,66.73,68.92,71.05,72.78,74.39,76.23,77.99,80.00,82.06,84.18,86.82,89.78,93.91,98.31,101.21,103.82,106.49,109.80,114.33,121.19,128.02,134.38,140.30,146.24,149.80,151.61,151.42,148.95,143.78,138.44,133.26,128.87,127.33,128.12,129.37,130.47,130.97,131.01,133.13,137.15,142.63,148.14,153.13,157.88,162.43,166.66,164.03,160.39,157.27,155.72,155.51,156.13,157.32,158.77,159.70,158.63,156.64,154.12,151.43,148.90,145.14,141.06,137.40,133.08,128.59,124.47,120.85,117.48,111.49,105.23,99.40,94.56,90.27,86.50,81.81,75.88,71.29,68.13,65.09,62.12,59.64,57.57,55.47,53.34,51.26,49.69,48.13,46.95,46.12,45.05,43.59,42.10,40.71,39.56,38.26,36.81,35.29,33.75,32.18,30.45,28.88,27.46,26.01,24.61,23.41,22.30,21.16,20.04,18.02,15.83,13.77,11.96,10.26,8.93,7.84,6.74,5.64,4.55,3.44,2.29,1.19,e,e,e,e,e,e,e,e,e,e,e,e,e,e,e,e,e,e,e,e,e,e,e,e,e,e,e,e,e,e,e,e,e,e,e,e,e,e,e,e,e,e,e,e,e,e,e,e,e,e,e,e,e,e,e,e,e,e,e,e,e,e,e,e,e,e,e,e,e,e,e,e,e,e,e,e,e,e,e,e,e,e,e
e,e,e,e,e,e,e,e,e,e,e,e,e,e,e,e,e,e,e,e,e,e,e,e,e,e,e,e,e,e,e,e,e,e,e,1.43,4.38,8.05,13.49,20.19,24.28,27.54,31.22,35.59,40.74,43.77,47.45,50.87,53.44,55.79,58.20,60.56,62.76,64.60,66.26,67.71,69.07,70.48,72.19,74.52,77.12,79.81,82.70,85.86,89.66,93.84,97.87,101.66,105.11,108.72,113.07,119.49,126.12,132.78,139.14,144.44,148.22,149.96,148.91,144.54,139.17,134.11,129.48,125.61,123.68,123.91,124.79,125.77,126.37,126.70,129.36,134.00,140.00,145.36,150.63,155.90,161.04,165.61,163.32,159.69,155.86,152.55,150.96,151.18,152.42,154.17,155.94,156.33,154.85,151.98,148.88,146.64,143.74,140.31,136.63,133.80,130.78,127.33,123.69,120.82,114.70,108.32,102.61,98.21,94.21,90.35,85.20,78.62,73.92,69.95,66.42,63.17,60.04,58.05,56.18,54.34,52.53,50.92,49.15,47.53,46.03,44.17,42.19,40.59,39.25,37.90,36.65,35.43,34.27,33.19,32.15,30.39,28.84,27.59,26.38,25.18,24.02,22.89,21.80,20.78,19.21,17.15,14.76,12.46,10.35,8.86,7.76,6.61,5.46,4.36,3.25,2.09,0.94,e,e,e,e,e,e,e,e,e,e,e,e,e,e,e,e,e,e,e,e,e,e,e,e,e,e,e,e,e,e,e,e,e,e,e,e,e,e,e,e,e,e,e,e,e,e,e,e,e,e,e,e,e,e,e,e,e,e,e,e,e,e,e,e,e,e,e,e,e,e,e,e,e,e,e,e,e,e,e,e,e,e,e
e,e,e,e,e,e,e,e,e,e,e,e,e,e,e,e,e,e,e,e,e,e,e,e,e,e,e,e,e,e,e,e,e,e,e,e,e,5.71,10.29,15.86,21.20,24.02,27.35,31.58,36.43,40.22,43.91,47.36,50.42,52.78,55.01,57.33,59.53,60.91,62.04,63.12,64.37,65.99,68.05,70.80,74.09,77.76,81.49,85.22,89.09,93.24,97.84,102.14,106.18,110.10,114.14,119.12,124.90,131.27,137.72,143.05,145.89,146.54,144.55,139.63,134.62,129.90,125.56,121.97,120.44,120.38,120.71,121.33,122.43,124.86,128.46,133.25,138.99,143.84,148.82,154.35,160.11,164.78,162.93,159.43,155.36,151.43,147.98,147.23,148.06,149.74,151.75,153.12,152.66,150.02,145.10,141.54,138.09,135.01,132.46,129.99,127.97,125.45,122.57,120.75,115.96,110.59,105.44,101.14,98.04,94.18,89.60,84.30,78.16,73.58,69.27,65.24,62.03,59.48,57.58,56.05,54.57,52.87,51.27,49.53,47.67,45.98,44.08,42.43,40.78,38.77,37.69,36.67,35.74,34.86,33.78,31.51,29.55,28.12,26.92,25.76,24.60,23.47,22.39,21.39,20.15,18.40,16.12,13.65,10.67,8.73,7.54,6.38,5.26,4.14,3.01,1.85,0.73,e,e,e,e,e,e,e,e,e,e,e,e,e,e,e,e,e,e,e,e,e,e,e,e,e,e,e,e,e,e,e,e,e,e,e,e,e,e,e,e,e,e,e,e,e,e,e,e,e,e,e,e,e,e,e,e,e,e,e,e,e,e,e,e,e,e,e,e,e,e,e,e,e,e,e,e,e,e,e,e,e,e,e
e,e,e,e,e,e,e,e,e,e,e,e,e,e,e,e,e,e,e,e,e,e,e,e,e,e,e,e,e,e,e,e,e,e,e,e,e,e,7.06,11.12,17.60,20.25,23.35,27.34,31.74,36.32,40.00,43.45,47.01,49.54,51.80,54.26,56.57,57.55,58.35,59.19,60.42,62.40,65.04,68.27,72.27,76.92,81.38,85.56,89.65,93.95,98.91,103.45,107.82,111.89,115.62,119.33,124.31,130.23,136.47,141.72,143.40,142.77,139.86,134.80,130.14,125.78,121.81,118.58,117.43,117.20,117.29,117.93,119.70,124.02,128.42,133.22,138.54,142.93,147.50,153.14,159.38,164.02,162.55,159.24,155.13,150.93,145.80,143.77,143.87,145.37,147.57,149.67,150.30,148.25,141.93,136.95,132.68,129.55,127.66,124.84,123.35,121.72,119.83,118.93,115.83,111.79,107.42,103.35,101.11,97.48,93.63,89.71,83.00,77.99,73.03,68.27,64.74,61.68,59.65,58.21,56.90,55.23,53.85,52.16,50.19,48.81,47.11,45.49,43.70,41.38,40.38,39.38,38.32,37.14,35.68,32.93,30.49,28.71,27.49,26.34,25.18,24.04,22.97,21.96,20.96,19.54,17.50,14.71,10.95,8.61,7.32,6.14,5.05,3.91,2.76,1.62,0.52,e,e,e,e,e,e,e,e,e,e,e,e,e,e,e,e,e,e,e,e,e,e,e,e,e,e,e,e,e,e,e,e,e,e,e,e,e,e,e,e,e,e,e,e,e,e,e,e,e,e,e,e,e,e,e,e,e,e,e,e,e,e,e,e,e,e,e,e,e,e,e,e,e,e,e,e,e,e,e,e,e,e,e
e,e,e,e,e,e,e,e,e,e,e,e,e,e,e,e,e,e,e,e,e,e,e,e,e,e,e,e,e,e,e,e,e,e,e,e,e,e,4.74,8.14,13.64,16.51,19.49,23.12,27.53,32.20,36.06,39.58,43.11,46.18,48.95,51.62,53.87,54.75,55.91,56.92,58.32,60.72,64.34,68.15,72.78,78.12,82.54,86.59,91.03,95.89,100.95,105.40,109.43,113.14,116.64,120.35,125.21,130.63,136.00,140.26,140.96,139.22,135.55,130.59,125.83,121.88,118.70,116.30,114.85,114.58,115.54,117.54,120.25,124.49,128.90,133.62,138.66,143.00,147.25,152.72,158.93,163.28,161.96,158.94,155.06,150.84,144.98,141.12,139.82,141.10,143.73,146.20,147.73,146.92,141.64,136.07,131.16,126.98,123.36,118.82,116.77,115.70,114.93,114.13,112.79,110.25,107.00,103.81,101.86,99.10,95.74,92.02,88.56,83.56,78.49,73.57,68.57,65.64,63.28,61.28,59.55,58.33,57.08,55.68,54.16,52.83,51.26,49.91,48.73,47.57,46.27,44.73,42.52,39.63,37.23,34.42,31.57,29.18,28.06,26.97,25.79,24.62,23.54,22.54,21.53,20.40,18.66,14.88,10.97,8.58,7.23,5.95,4.81,3.65,2.52,1.42,0.28,e,e,e,e,e,e,e,e,e,e,e,e,e,e,e,e,e,e,e,e,e,e,e,e,e,e,e,e,e,e,e,e,e,e,e,e,e,e,e,e,e,e,e,e,e,e,e,e,e,e,e,e,e,e,e,e,e,e,e,e,e,e,e,e,e,e,e,e,e,e,e,e,e,e,e,e,e,e,e,e,e,e,e
e,e,e,e,e,e,e,e,e,e,e,e,e,e,e,e,e,e,e,e,e,e,e,e,e,e,e,e,e,e,e,e,e,e,e,e,e,e,e,5.71,10.65,13.57,16.47,19.78,23.62,28.59,32.83,36.62,40.12,42.93,45.81,48.56,50.86,52.01,53.80,55.76,58.03,60.82,64.66,68.83,73.90,79.61,83.88,87.95,92.59,97.61,102.44,106.72,110.53,114.05,117.48,121.48,126.42,131.22,135.32,138.19,137.51,135.30,131.71,126.81,122.22,118.85,116.23,114.06,112.32,112.52,114.58,117.79,120.90,124.83,129.12,133.81,138.83,143.19,147.37,152.72,158.71,162.59,161.61,158.81,155.00,150.76,144.42,139.59,137.09,137.24,139.62,142.85,145.28,145.57,142.03,136.56,131.17,126.25,121.81,115.45,111.74,109.90,109.19,108.35,107.78,106.25,104.10,101.98,100.29,98.10,95.63,93.13,91.17,87.07,82.64,78.29,74.07,70.37,67.69,65.66,63.94,62.69,61.58,60.39,59.11,57.99,56.46,55.30,54.46,53.68,52.52,50.81,48.09,44.13,39.03,35.50,32.22,29.45,28.34,27.38,26.37,25.38,24.46,23.42,22.38,21.31,19.54,14.95,10.97,8.57,7.20,5.89,4.63,3.44,2.30,e,e,e,e,e,e,e,e,e,e,e,e,e,e,e,e,e,e,e,e,e,e,e,e,e,e,e,e,e,e,e,e,e,e,e,e,e,e,e,e,e,e,e,e,e,e,e,e,e,e,e,e,e,e,e,e,e,e,e,e,e,e,e,e,e,e,e,e,e,e,e,e,e,e,e,e,e,e,e,e,e,e,e,e,e
e,e,e,e,e,e,e,e,e,e,e,e,e,e,e,e,e,e,e,e,e,e,e,e,e,e,e,e,e,e,e,e,e,e,e,e,e,e,e,3.77,8.24,11.09,13.93,16.96,20.03,25.21,29.90,34.02,37.47,39.73,42.48,45.25,47.72,49.52,52.11,55.30,58.67,61.84,65.55,69.98,75.34,81.19,85.26,89.43,94.15,99.08,103.53,107.59,111.25,114.66,118.10,122.54,127.64,131.79,134.52,135.90,133.82,131.41,128.18,123.35,119.11,116.33,114.08,111.90,109.95,110.85,114.04,118.29,121.59,125.10,129.17,133.84,139.00,143.44,147.69,152.92,158.57,161.95,161.33,158.72,154.92,150.69,144.01,138.62,134.99,133.56,135.32,139.46,142.80,144.14,142.59,137.65,131.94,126.49,121.68,113.59,107.87,104.62,103.33,102.34,102.02,101.17,99.98,98.89,97.46,95.71,94.25,93.24,91.86,89.04,85.62,82.25,79.78,75.22,72.40,70.64,69.13,67.71,66.66,65.58,64.45,63.64,62.15,61.10,60.33,59.45,58.54,56.87,53.88,49.00,40.73,36.32,32.71,29.75,28.57,27.78,27.01,26.27,25.56,24.49,23.41,22.26,20.29,15.08,10.98,8.56,7.20,5.88,4.49,3.26,2.10,e,e,e,e,e,e,e,e,e,e,e,e,e,e,e,e,e,e,e,e,e,e,e,e,e,e,e,e,e,e,e,e,e,e,e,e,e,e,e,e,e,e,e,e,e,e,e,e,e,e,e,e,e,e,e,e,e,e,e,e,e,e,e,e,e,e,e,e,e,e,e,e,e,e,e,e,e,e,e,e,e,e,e,e,e
e,e,e,e,e,e,e,e,e,e,e,e,e,e,e,e,e,e,e,e,e,e,e,e,e,e,e,e,e,e,e,e,e,e,e,e,e,e,e,3.65,6.64,9.17,11.95,14.94,17.87,21.82,26.54,30.88,34.04,36.50,38.81,41.47,44.73,48.84,52.52,56.12,59.73,63.37,67.13,71.84,77.07,82.31,86.24,90.47,94.95,99.44,103.53,107.25,110.80,114.21,117.68,122.47,127.67,131.53,133.58,134.17,132.21,129.26,125.40,120.70,117.30,114.44,112.08,110.20,108.79,110.10,113.69,118.36,122.15,125.39,128.86,133.29,138.97,143.70,148.20,153.16,158.15,161.39,160.89,158.43,154.76,150.61,143.64,137.74,132.93,129.73,130.65,135.22,139.55,142.21,142.04,138.24,132.90,127.35,122.27,113.69,107.36,102.79,99.78,98.30,97.76,96.79,95.59,94.56,93.42,92.22,91.03,89.87,88.59,86.45,84.29,82.31,80.59,77.94,76.41,75.32,74.08,73.10,71.45,70.04,69.18,68.71,67.75,66.34,64.62,62.76,61.36,59.84,56.02,48.99,40.67,36.59,33.54,31.04,29.67,28.87,28.13,27.44,26.78,25.80,24.79,23.38,21.00,16.19,11.30,8.53,7.18,5.82,4.48,3.19,1.95,e,e,e,e,e,e,e,e,e,e,e,e,e,e,e,e,e,e,e,e,e,e,e,e,e,e,e,e,e,e,e,e,e,e,e,e,e,e,e,e,e,e,e,e,e,e,e,e,e,e,e,e,e,e,e,e,e,e,e,e,e,e,e,e,e,e,e,e,e,e,e,e,e,e,e,e,e,e,e,e,e,e,e,e,e
e,e,e,e,e,e,e,e,e,e,e,e,e,e,e,e,e,e,e,e,e,e,e,e,e,e,e,e,e,e,e,e,e,e,e,e,e,e,e,e,e,e,9.89,13.16,15.94,18.93,22.94,27.04,30.56,33.70,36.38,39.48,43.50,48.99,53.21,57.07,60.85,64.77,68.61,73.29,78.19,82.84,86.57,90.53,94.66,98.75,102.53,105.85,109.39,112.98,116.63,121.63,126.94,130.66,132.35,132.42,130.06,126.50,122.35,118.27,115.26,112.42,110.07,108.43,107.84,109.67,113.35,117.89,121.75,124.81,128.28,132.94,139.08,144.21,148.93,153.57,157.88,160.80,160.32,157.83,154.16,150.10,143.10,136.77,131.22,126.99,126.49,130.43,134.97,138.74,140.70,138.14,133.70,128.39,122.75,114.35,107.74,102.36,98.19,95.83,94.34,92.89,91.54,90.46,89.35,88.20,86.85,85.26,83.68,81.98,80.64,79.55,78.35,76.93,76.20,75.64,74.79,74.21,72.85,71.74,71.16,70.83,70.14,68.53,66.37,64.27,62.68,61.10,56.79,48.83,40.83,37.18,34.69,32.73,31.51,30.74,29.71,28.70,27.97,27.15,26.16,24.49,21.78,17.52,11.71,8.51,7.19,5.82,4.51,3.20,1.88,e,e,e,e,e,e,e,e,e,e,e,e,e,e,e,e,e,e,e,e,e,e,e,e,e,e,e,e,e,e,e,e,e,e,e,e,e,e,e,e,e,e,e,e,e,e,e,e,e,e,e,e,e,e,e,e,e,e,e,e,e,e,e,e,e,e,e,e,e,e,e,e,e,e,e,e,e,e,e,e,e,e,e,e,e
