103.44,106.35,108.86,110.64,111.53,111.57,110.42,106.69,101.28,97.04,93.53,89.60,85.27,80.70,76.53,72.34,69.03,66.74,64.57,62.43,60.58,58.84,56.90,54.43,52.22,49.95,47.38,44.71,42.00,39.69,37.81,36.17,34.84,33.72,32.73,31.84,30.98,30.58,30.97,32.16,33.71,35.28,36.81,38.13,38.96,39.12,39.52,40.28,41.39,42.24,42.17,40.73,37.74,33.04,30.24,28.56,27.84,27.96,28.67,29.50,31.41,34.63,38.21,42.13,46.26,49.84,51.68,53.41,53.18,51.87,49.90,44.56,40.50,38.32,37.60,36.73,35.70,34.40,33.99,35.69,37.46,39.08,40.33,41.03,40.76,40.48,40.26,40.16,40.20,40.28,40.42,40.75,41.39,42.46,43.85,45.09,46.03,46.71,47.51,48.02,48.51,49.41,50.58,52.04,53.42,54.67,56.51,59.28,63.53,68.52,72.71,76.09,79.32,82.44,85.43,88.09,89.34,89.24,88.01,86.25,86.39,88.21,90.85,93.19,95.84,98.85,102.90,107.98,112.09,114.94,115.70,116.01,119.41,126.36,131.70,136.24,140.96,146.54,151.63,155.94,159.47,162.54,165.77,169.01,172.46,176.34,177.61,178.47,179.00,179.73,183.35,187.54,191.89,195.01,194.34,193.52,193.33,195.00,199.30,203.69,208.41,212.68,216.40,220.32,225.56,229.27,232.12,235.54,240.31,244.66,248.70,252.58,256.66,257.47,255.53,251.11,244.53,239.32,235.77,233.39,231.45,227.29,222.21,216.24,209.81,204.40,199.08,193.70,188.74,184.85,180.44,176.73,173.21,169.32,163.79,158.50,153.44,148.70,144.49,140.32,136.84,135.27,136.57,138.93,141.87,143.94,144.94,146.64,148.26,149.00,148.45,146.28,143.45,140.31,136.04,130.00,121.61,115.00,108.89,103.13,98.30,95.24,93.69,93.74,95.34,97.26,99.20,101.12,103.12,105.70,109.04,113.06,117.44,121.69,125.93,130.14,132.32,131.21,127.97,125.05,122.03,118.95,116.28,113.37,109.80,105.71,101.26,95.25,88.49,82.03,76.44,71.89,69.92,68.24,66.12,63.04
100.34,103.44,106.27,108.48,109.83,110.11,108.26,104.43,99.55,95.58,91.85,87.54,82.77,77.77,73.55,70.04,67.37,65.41,63.37,61.26,59.28,57.42,55.56,53.75,51.93,49.73,47.02,44.40,41.78,39.48,37.49,35.59,34.05,32.76,31.67,30.76,30.29,30.00,30.14,30.72,31.47,32.81,34.23,35.53,36.50,36.74,37.28,38.07,38.98,39.58,39.27,37.58,34.63,31.15,29.41,28.17,27.52,27.67,28.49,29.30,31.23,34.56,38.32,42.19,46.19,49.65,51.51,52.85,52.63,51.55,49.70,43.22,39.44,37.18,35.86,34.97,34.01,33.30,33.58,35.51,37.37,38.13,38.45,38.61,38.31,38.07,37.96,37.99,38.19,38.44,38.82,39.33,39.99,41.06,42.25,43.40,44.42,45.20,46.04,46.71,47.37,48.23,49.49,50.96,52.53,54.23,56.48,59.09,63.32,68.40,72.45,75.39,77.94,80.46,83.28,86.85,89.37,90.63,90.54,89.16,88.44,88.83,89.96,91.32,93.98,96.85,100.23,104.16,107.76,110.50,112.83,115.55,119.99,127.01,132.39,136.97,141.66,146.48,150.63,153.58,155.51,157.58,160.34,163.35,166.59,170.04,171.57,173.34,175.48,178.18,182.13,185.65,188.60,190.41,189.98,189.85,191.85,196.01,202.00,207.31,211.86,215.96,220.07,225.21,230.27,234.20,237.16,239.62,243.69,247.47,251.08,254.55,257.90,259.58,257.99,253.39,247.20,242.14,239.52,237.39,233.77,228.32,223.01,217.49,211.73,206.19,200.27,194.81,189.89,185.41,180.76,177.00,173.57,169.81,163.84,158.53,153.73,149.44,145.64,141.57,138.90,138.64,141.41,144.75,147.08,148.34,148.89,150.05,150.89,150.42,148.61,145.71,142.61,138.32,132.78,126.05,118.39,112.16,106.78,102.13,98.37,95.94,95.15,95.82,97.65,100.25,102.34,104.04,105.61,107.78,111.49,115.76,120.20,124.40,128.98,131.60,131.36,128.06,124.43,121.82,119.44,117.08,114.78,112.30,108.61,104.16,99.57,94.54,88.45,82.05,75.87,70.43,68.06,66.42,65.04,63.85
97.28,100.70,103.78,106.28,107.98,108.15,105.77,102.03,97.69,93.74,89.76,85.14,79.98,74.55,70.47,67.61,65.47,63.71,61.84,59.81,57.71,55.67,53.86,52.64,51.09,48.94,46.16,43.55,41.13,38.99,37.04,35.04,33.41,32.01,30.84,29.96,29.79,29.69,29.68,29.74,29.82,30.80,31.91,32.99,34.01,34.39,35.04,35.79,36.47,36.86,36.42,34.63,31.90,29.68,28.65,27.73,27.20,27.44,28.37,29.26,31.25,34.66,38.55,42.31,46.10,49.39,51.25,52.27,52.09,51.06,49.03,41.88,38.49,36.20,34.33,33.30,32.36,32.35,33.38,35.39,36.86,36.70,36.23,36.08,35.95,35.88,36.02,36.37,36.84,37.33,38.03,38.80,39.58,40.61,41.53,42.51,43.55,44.42,45.26,46.06,46.87,47.79,49.08,50.54,52.21,54.14,56.36,58.60,62.28,66.92,71.06,73.71,75.71,77.71,80.30,84.30,87.90,90.55,91.94,91.67,90.93,90.37,90.23,90.74,93.24,96.06,99.00,102.01,105.38,107.99,111.58,116.14,120.93,127.48,132.64,137.07,141.45,145.60,148.79,150.50,151.04,152.04,154.37,157.26,160.46,163.79,165.93,168.73,172.28,176.42,180.02,182.79,184.55,185.44,185.85,187.31,191.66,197.97,205.06,210.89,215.32,219.45,224.00,229.83,234.45,238.38,241.38,243.14,246.46,249.51,252.36,255.12,258.05,260.77,260.14,256.16,250.64,246.26,244.36,242.08,236.72,229.86,224.33,219.25,214.03,207.89,201.11,195.48,190.65,185.71,180.93,177.13,173.76,170.09,163.92,158.57,153.96,150.03,146.64,143.28,141.83,142.88,146.64,150.65,152.13,152.59,152.82,153.31,152.88,151.04,148.05,144.49,140.97,135.80,129.48,122.62,116.45,111.01,106.41,102.62,99.42,97.14,96.74,97.90,100.14,103.44,105.82,107.42,108.58,110.33,114.20,118.54,122.91,127.09,131.81,132.35,129.63,124.91,121.08,118.64,116.68,114.81,112.68,110.32,106.48,101.88,97.48,93.51,88.19,82.07,75.65,69.71,67.08,65.63,65.08,65.54
94.22,98.58,101.93,104.39,105.90,105.28,103.30,100.04,95.82,91.28,87.13,82.39,77.03,71.26,67.83,65.27,63.16,61.32,59.71,57.79,55.64,53.55,51.88,50.71,49.00,46.79,44.18,41.62,39.74,38.06,36.34,34.33,32.80,31.47,30.43,29.83,29.61,29.50,29.46,29.49,29.56,29.90,30.27,30.75,31.52,32.14,32.66,33.15,33.66,34.05,33.81,32.39,30.25,28.98,27.97,27.06,26.73,27.44,28.37,29.33,31.38,34.81,38.80,42.39,45.90,48.95,50.80,51.59,51.42,50.04,47.05,40.59,37.54,35.34,33.35,31.92,30.96,31.62,33.41,35.45,35.25,34.36,33.68,33.54,33.51,33.75,34.49,35.57,36.63,37.52,38.58,39.76,40.99,42.12,42.94,43.70,44.52,45.50,46.30,47.08,47.86,48.66,49.31,50.53,52.06,53.77,55.65,57.58,59.61,62.45,67.33,70.20,72.30,74.42,77.18,80.54,84.27,87.86,90.90,92.76,92.93,92.76,92.72,93.22,94.98,97.59,100.56,103.67,107.48,109.96,113.13,117.22,121.71,127.63,132.28,136.01,139.31,143.12,145.54,146.60,146.55,146.11,148.08,150.99,154.62,158.89,162.06,165.47,168.88,172.01,174.07,177.01,178.94,180.13,182.01,187.45,193.97,201.03,208.07,213.22,217.95,222.80,227.84,232.68,237.20,240.63,243.09,244.98,247.17,248.91,250.17,251.39,255.17,259.59,261.30,259.59,254.82,252.12,250.27,247.53,242.32,234.13,227.76,222.18,216.43,208.77,201.59,195.71,190.71,185.77,181.04,177.26,173.86,170.19,164.37,159.08,154.45,150.48,147.15,146.07,146.68,149.00,152.90,156.85,157.27,156.76,156.46,156.21,153.65,150.42,146.73,142.58,137.78,132.40,126.69,121.12,117.51,114.07,110.48,106.61,102.42,99.67,98.91,100.20,103.36,107.15,110.06,111.89,112.86,114.21,117.61,121.51,125.60,129.77,134.01,132.03,127.44,123.08,118.80,115.96,113.76,111.77,109.50,106.40,102.48,98.48,95.15,91.92,87.22,81.66,75.65,69.71,67.51,67.03,67.52,68.28
91.47,96.31,100.27,103.14,104.61,103.30,100.92,97.32,92.88,88.56,84.34,79.42,74.22,69.31,66.10,63.37,61.06,59.14,57.63,55.66,53.48,51.39,49.77,48.47,46.50,44.17,41.78,39.86,38.36,36.96,35.45,33.62,32.29,31.10,30.20,29.74,29.55,29.39,29.28,29.23,29.31,29.39,29.52,29.75,30.16,30.54,30.83,31.09,31.38,31.63,31.51,30.63,29.23,28.23,27.29,26.56,26.50,27.49,28.49,29.75,31.97,35.31,39.08,42.47,45.59,48.26,50.22,50.83,50.09,47.58,43.24,38.52,36.02,34.09,32.26,30.75,30.16,31.19,33.11,34.91,33.55,32.25,31.70,32.09,32.79,33.64,34.77,36.07,37.34,38.45,39.74,41.15,42.58,43.70,44.49,45.16,45.89,46.86,47.55,48.20,48.88,49.65,50.53,51.95,53.40,54.68,55.96,57.50,58.83,60.46,63.46,66.35,68.97,71.66,74.76,78.20,82.23,86.32,90.03,92.57,93.87,94.59,95.09,95.74,97.08,99.27,102.02,105.15,108.77,110.96,113.40,116.53,120.37,125.92,130.60,134.25,136.99,140.31,142.04,142.61,142.29,141.44,142.96,146.06,150.26,154.97,158.62,162.11,165.37,168.34,170.80,173.83,176.30,178.44,181.28,187.93,195.03,202.18,209.05,214.02,218.99,224.28,229.65,233.78,237.42,239.97,241.69,243.02,243.97,244.64,245.64,247.68,252.74,257.31,260.25,261.00,259.02,257.24,255.47,252.41,246.83,238.01,230.72,224.30,217.92,209.63,202.66,196.64,191.23,185.97,181.19,177.26,173.70,169.96,164.70,160.25,155.96,152.09,149.64,150.56,152.76,155.70,158.93,162.03,161.76,160.54,159.29,157.33,153.66,149.52,145.16,140.66,135.35,130.40,126.37,123.52,121.40,118.56,114.59,109.75,104.99,102.37,102.05,103.86,107.44,111.80,114.89,116.69,117.53,118.70,121.67,125.31,129.46,134.12,133.87,130.29,125.64,121.52,117.33,114.09,110.95,107.78,104.90,102.12,98.93,95.66,92.76,89.81,85.47,80.37,74.97,69.82,68.43,68.94,70.38,71.61
88.93,94.05,98.76,102.24,103.74,101.86,98.62,94.32,89.60,85.74,81.51,76.48,71.66,68.02,64.85,61.80,59.23,57.25,55.75,53.68,51.49,49.43,47.78,46.22,43.97,41.55,39.43,38.28,37.11,35.94,34.67,33.07,31.92,30.86,30.06,29.69,29.53,29.32,29.12,28.99,29.05,29.05,29.14,29.26,29.34,29.33,29.38,29.45,29.52,29.58,29.51,29.15,28.47,27.51,26.65,26.15,26.36,27.52,28.62,30.22,32.62,35.83,39.26,42.40,45.05,47.25,49.18,49.48,47.94,44.29,38.94,36.15,34.22,32.58,31.07,29.70,29.71,30.96,32.71,33.96,31.85,30.48,30.31,31.39,32.92,34.40,35.79,37.10,38.41,39.79,41.24,42.75,44.23,45.31,46.08,46.73,47.43,48.38,49.06,49.65,50.30,51.14,52.43,54.08,55.44,56.26,57.08,58.34,59.47,60.28,60.70,63.25,66.10,69.23,72.64,76.39,80.68,85.02,88.96,91.77,94.03,95.61,96.69,97.53,98.57,100.39,102.86,105.82,108.84,110.64,112.30,114.43,117.76,123.07,127.94,131.78,134.32,137.03,138.20,138.48,138.22,137.71,138.96,142.46,147.31,152.19,156.03,159.42,162.61,165.83,169.35,172.40,175.41,178.56,182.02,188.56,195.50,202.42,208.96,214.02,219.21,224.79,230.29,233.79,236.23,237.77,238.63,239.13,239.13,239.20,240.62,244.24,250.48,254.48,257.89,260.70,261.96,261.03,259.61,256.43,250.24,241.26,233.20,225.95,218.96,210.55,204.03,197.98,192.16,186.53,181.41,177.25,173.51,169.70,165.13,161.74,157.99,154.43,153.26,155.75,159.02,162.20,164.63,166.86,166.05,164.10,161.63,157.69,153.30,148.50,143.55,138.85,133.75,129.76,127.74,127.72,126.31,123.19,118.21,112.18,107.14,105.03,105.52,108.05,111.92,116.73,119.85,121.59,122.45,123.62,126.37,129.80,133.73,138.09,132.60,128.00,123.95,120.06,116.11,112.39,108.09,103.53,100.11,97.96,95.64,93.08,90.34,87.45,83.36,78.75,74.13,70.28,69.89,71.33,73.54,75.18
86.82,92.09,97.58,101.79,103.53,101.45,96.54,91.45,86.92,83.05,78.83,74.28,70.23,67.38,64.21,61.17,58.62,56.64,54.89,52.87,50.81,48.79,46.88,44.68,42.32,40.16,38.48,37.38,36.58,35.85,34.96,33.50,32.13,30.89,30.01,29.69,29.48,29.25,29.03,28.84,28.75,28.74,28.76,28.81,28.89,28.83,28.83,28.87,28.93,28.84,28.62,28.24,27.72,27.11,26.22,25.80,26.12,27.34,28.53,30.12,32.47,35.59,38.73,41.40,43.47,44.90,45.75,44.77,42.59,39.61,36.31,34.01,32.01,30.56,29.62,28.88,29.76,31.31,32.49,32.19,30.42,30.16,30.98,32.46,33.89,35.41,36.81,38.12,39.44,41.78,43.27,44.48,45.82,46.91,47.63,48.29,49.07,50.22,51.64,52.93,54.13,55.33,55.94,57.00,57.97,58.75,60.46,62.49,64.02,64.86,64.99,65.38,65.84,67.38,70.64,74.14,78.15,82.26,86.34,90.44,92.10,93.20,94.04,94.78,95.52,97.77,100.20,102.09,103.53,104.84,106.14,108.26,112.67,117.93,122.67,126.76,130.09,131.76,132.93,133.75,134.60,136.51,138.80,143.52,149.25,153.79,157.48,161.04,164.65,168.43,172.24,175.05,177.74,180.63,183.94,189.20,195.53,201.93,207.58,212.94,218.46,223.98,228.90,231.52,232.90,233.41,233.33,233.01,234.09,235.78,238.47,242.44,248.04,250.94,253.14,255.19,257.20,258.55,259.08,256.69,249.73,241.68,233.95,226.68,219.64,211.82,205.77,200.10,194.54,188.96,182.06,177.45,173.78,170.14,166.55,163.50,160.52,158.31,158.72,160.94,163.43,166.09,168.90,172.17,170.85,167.36,162.91,157.88,152.63,147.33,142.23,137.64,135.24,133.76,133.19,133.07,130.37,125.13,118.78,112.46,107.81,106.98,108.58,112.04,116.69,121.11,124.20,126.32,127.85,129.61,133.21,136.27,137.53,135.68,130.30,125.83,122.00,118.45,114.40,109.63,104.61,100.10,97.68,95.27,92.86,90.44,87.97,84.88,81.08,77.29,74.11,72.53,73.29,75.30,77.57,78.76
85.04,90.23,96.21,101.14,103.44,100.71,94.53,89.03,84.86,81.00,76.77,72.59,69.08,66.68,63.68,61.09,58.93,57.10,55.19,53.12,51.02,48.90,46.73,44.23,41.76,39.74,38.43,37.86,37.36,36.67,35.66,34.24,32.70,31.22,30.13,29.69,29.43,29.21,29.02,28.85,28.73,28.64,28.53,28.45,28.44,28.39,28.32,28.28,28.27,28.03,27.73,27.34,26.88,26.42,25.68,25.39,25.79,27.00,28.20,29.63,31.66,34.35,37.20,39.50,41.09,41.90,41.94,40.48,38.26,35.80,33.53,31.76,30.16,29.05,28.54,28.67,29.89,31.22,31.78,30.79,29.68,30.41,32.02,33.81,35.03,36.43,37.81,39.30,41.18,43.86,45.35,46.36,47.50,48.67,49.81,50.98,52.25,53.77,55.34,56.71,57.97,59.25,59.61,60.53,61.59,62.74,64.97,66.88,68.33,69.16,69.16,68.50,67.64,67.72,69.52,71.96,75.66,79.65,83.68,88.09,89.79,90.76,91.36,91.77,92.22,93.93,95.87,97.45,98.70,100.09,101.54,103.77,108.21,113.13,117.58,121.61,125.23,127.26,129.28,131.34,133.71,137.10,141.26,146.79,152.53,156.89,160.32,163.71,167.31,171.20,175.03,177.82,180.52,183.42,186.63,191.05,196.35,201.90,207.14,212.71,218.22,223.42,227.70,229.37,230.14,230.07,229.50,228.94,230.77,233.49,236.93,240.91,245.19,246.15,246.99,248.78,252.04,254.91,257.15,255.98,249.29,242.24,234.96,228.02,221.39,214.13,207.80,202.25,197.11,191.86,185.04,179.43,175.04,171.70,168.61,165.67,163.14,161.72,162.80,164.90,167.29,170.09,173.46,176.85,175.13,170.32,163.85,157.68,151.80,146.43,141.86,138.44,137.96,138.07,138.03,137.02,132.63,126.07,119.32,113.49,109.78,109.80,112.05,116.03,121.14,125.42,128.42,130.73,132.76,135.09,138.05,139.53,138.45,133.77,128.45,123.91,120.02,116.54,112.61,107.15,102.03,98.13,96.23,93.84,91.45,89.06,86.59,83.28,80.24,77.76,76.08,75.60,76.80,78.54,79.84,79.42
83.51,88.46,94.71,100.35,103.44,99.75,92.59,86.97,83.28,79.41,75.18,71.29,68.13,65.94,63.24,61.43,59.92,58.36,56.35,54.13,51.89,49.58,47.11,44.56,42.01,40.04,39.05,39.36,39.10,38.14,36.67,35.20,33.51,31.76,30.36,29.68,29.38,29.19,29.07,28.99,28.91,28.70,28.42,28.16,28.00,28.00,27.84,27.66,27.55,27.16,26.84,26.45,25.99,25.53,25.06,24.94,25.39,26.55,27.70,28.86,30.37,32.39,34.93,36.94,38.12,38.41,37.87,36.49,34.68,32.65,30.66,29.43,28.57,27.92,27.74,28.90,30.06,30.78,30.73,29.68,29.47,31.08,33.32,35.36,36.29,37.48,38.81,40.60,43.46,46.01,47.46,48.35,49.25,50.57,52.44,54.48,56.54,58.55,59.84,60.83,61.78,62.92,63.40,64.49,65.98,67.79,70.26,71.42,72.43,73.23,73.24,72.34,70.94,69.68,69.11,69.89,73.28,77.21,81.02,85.02,87.20,88.30,88.65,88.60,88.76,89.26,90.39,92.21,94.30,96.19,98.14,100.59,104.30,108.68,112.72,116.46,119.99,123.39,126.85,130.67,134.85,139.05,145.65,151.67,156.79,161.09,164.18,167.16,170.43,174.12,177.75,180.67,183.62,186.73,189.91,193.81,197.80,202.23,207.43,213.15,218.37,223.04,226.60,227.29,227.79,227.47,226.76,226.40,228.72,232.03,235.83,239.58,242.04,240.47,239.87,241.75,246.60,250.44,254.18,254.55,248.92,242.90,236.17,229.80,223.90,217.20,210.06,204.42,199.82,195.11,189.71,182.72,177.02,174.08,171.14,168.13,165.82,164.79,165.88,167.98,170.74,174.18,178.20,181.03,178.99,173.00,164.52,157.18,150.88,145.76,142.23,140.78,141.61,142.59,142.39,139.89,133.56,126.29,119.86,115.09,112.71,113.27,115.82,120.02,125.37,129.68,132.55,134.91,137.31,140.16,141.37,140.40,137.25,132.24,126.93,122.19,118.05,114.42,110.79,104.92,100.15,97.25,95.56,93.36,91.06,88.63,85.96,82.40,80.48,79.66,79.50,79.27,80.34,81.20,80.79,77.94
82.23,87.33,92.99,98.55,102.70,100.29,93.24,87.20,82.88,78.42,74.44,70.91,68.13,66.29,63.98,62.22,60.73,59.22,57.01,54.60,52.13,49.63,47.11,44.76,42.65,41.14,40.47,40.93,40.21,38.86,37.20,35.53,33.79,31.99,30.50,29.69,29.48,29.43,29.39,29.31,29.23,29.02,28.74,28.44,28.13,27.88,27.54,27.18,26.84,26.41,25.99,25.61,25.23,24.82,24.45,24.37,24.81,25.97,27.08,28.07,29.16,30.47,32.17,33.77,34.65,34.77,34.23,32.90,31.65,30.51,29.50,28.76,28.08,27.42,27.15,28.21,29.31,29.98,29.83,28.66,30.17,32.23,34.47,36.57,37.89,38.97,40.77,43.25,45.95,48.22,49.53,50.51,51.72,53.48,55.56,57.35,58.77,60.13,60.83,61.51,62.39,63.65,65.01,66.71,68.43,70.12,72.40,73.78,75.01,76.04,76.54,75.76,74.39,73.29,73.16,74.29,77.13,79.87,82.00,83.87,84.78,85.64,86.71,88.17,89.07,90.35,92.05,94.14,96.33,98.23,100.86,104.31,108.32,112.61,116.28,119.46,122.36,125.81,129.24,133.18,138.06,144.62,150.70,156.07,160.63,164.35,167.84,171.22,174.52,177.75,180.78,183.81,187.01,190.54,194.66,198.27,201.65,205.34,209.84,215.31,219.64,222.39,223.65,224.30,225.49,225.34,224.58,224.62,227.18,230.17,233.47,236.69,238.01,236.99,237.07,239.02,242.64,246.51,250.35,252.06,249.78,244.20,237.84,231.44,225.43,220.11,212.25,206.30,201.94,197.67,192.61,185.93,180.06,176.33,173.05,169.78,167.90,167.80,169.48,171.99,174.99,178.25,181.39,182.01,178.61,172.07,163.66,156.52,152.02,149.16,147.62,147.10,147.19,145.92,143.37,139.52,133.28,127.45,122.23,118.31,117.16,117.48,120.45,125.00,129.80,133.48,136.19,138.55,140.73,142.24,141.27,138.63,134.89,130.76,126.58,122.26,118.06,114.18,110.70,106.30,102.52,99.92,98.72,96.37,93.28,90.03,87.16,83.21,82.29,82.59,82.96,82.38,81.15,80.00,78.61,76.20
80.84,86.20,91.60,97.06,101.81,101.08,95.23,89.15,83.88,78.85,75.00,71.59,68.91,67.16,65.03,63.15,61.41,59.63,57.27,54.74,52.20,49.74,47.50,45.57,43.91,42.74,42.20,42.21,40.97,39.32,37.55,35.77,33.99,32.20,30.68,29.75,29.64,29.66,29.68,29.66,29.61,29.38,29.08,28.73,28.35,27.96,27.58,27.17,26.72,26.36,25.92,25.47,25.02,24.52,24.08,23.89,24.24,25.30,26.32,27.19,28.04,28.94,30.01,31.12,31.72,31.76,31.35,30.36,29.57,28.98,28.51,28.05,27.50,26.88,26.54,27.33,28.28,28.83,28.85,28.45,31.16,33.65,35.97,38.07,39.63,40.78,42.86,45.64,48.25,50.13,51.25,52.05,52.97,54.39,55.99,57.33,58.36,59.36,59.79,60.28,61.16,62.75,64.69,66.73,68.67,70.52,72.75,74.37,76.26,78.12,79.14,78.82,77.97,77.30,77.41,78.41,80.53,82.47,83.77,84.49,84.65,85.30,86.63,88.68,90.21,92.02,94.06,96.29,98.73,101.16,104.54,108.77,113.18,116.90,120.08,122.83,125.38,128.81,132.23,136.43,141.89,149.19,154.77,159.57,163.71,167.24,170.97,174.62,177.94,180.80,183.44,186.54,190.01,193.91,198.46,201.93,205.08,208.35,212.09,216.26,219.15,220.39,220.56,222.08,223.51,223.12,222.20,222.80,225.44,228.09,230.91,233.60,234.04,233.55,234.36,236.68,239.70,243.51,247.48,250.35,250.71,245.27,239.23,232.74,226.36,221.78,214.09,208.40,204.36,200.25,195.19,188.89,182.96,178.40,174.79,171.62,170.47,171.42,173.74,176.53,179.38,182.09,184.31,182.74,178.22,171.48,163.70,157.88,155.22,153.90,153.26,152.74,151.27,148.13,143.91,139.03,133.18,128.43,124.42,121.61,121.33,121.97,125.22,129.75,133.97,137.22,139.76,141.81,143.22,142.96,140.33,136.57,132.42,128.72,125.19,121.44,117.55,113.67,110.54,107.11,103.97,101.47,99.97,97.15,93.57,90.02,87.24,84.15,84.18,84.89,84.90,83.56,80.91,78.57,76.69,75.03
79.31,85.06,90.62,95.98,100.74,102.17,98.90,93.23,86.63,81.05,77.17,73.60,70.68,68.68,66.45,64.25,61.94,59.48,57.02,54.48,52.06,49.95,48.40,47.15,45.94,44.98,44.30,43.13,41.31,39.45,37.67,35.90,34.12,32.39,30.90,29.88,29.87,29.87,29.94,30.05,30.05,29.78,29.43,29.05,28.67,28.28,28.04,27.74,27.32,27.21,26.82,26.21,25.47,24.73,23.99,23.55,23.66,24.53,25.40,26.20,27.04,27.92,28.59,29.14,29.46,29.55,29.43,29.12,28.69,28.21,27.75,27.28,26.81,26.29,25.92,26.22,26.91,27.24,27.77,29.23,32.49,35.41,37.90,39.93,41.54,43.00,45.11,47.74,50.29,51.69,52.52,52.82,52.72,52.81,53.07,53.70,54.66,55.66,56.22,56.67,57.65,59.82,61.96,64.01,66.16,68.50,70.87,72.77,75.86,79.29,80.84,81.46,81.71,81.79,81.88,82.20,83.39,84.98,86.52,87.29,87.37,87.87,88.87,90.35,92.37,94.43,96.51,98.72,101.60,105.18,109.41,114.14,119.10,121.66,124.16,126.66,129.20,132.53,135.97,140.61,146.49,152.52,157.61,161.95,165.85,169.67,173.45,177.22,180.51,183.15,185.64,188.75,192.51,196.74,201.09,204.60,207.99,211.23,214.14,215.69,216.46,216.71,217.30,220.84,221.91,220.80,219.56,220.95,223.44,225.73,228.08,230.27,230.11,230.14,231.77,234.81,238.03,241.66,245.83,249.61,251.71,246.03,240.27,233.62,226.54,221.91,215.48,210.79,207.18,202.87,197.36,191.53,185.68,180.21,176.31,173.70,173.62,175.80,178.81,181.74,183.95,185.66,186.87,183.18,177.81,171.33,164.88,161.77,161.00,160.33,159.24,157.53,153.45,148.95,143.91,138.41,133.30,129.21,126.41,125.02,125.13,126.82,130.17,134.19,137.79,140.90,143.26,144.61,144.56,141.98,138.37,134.16,129.82,125.98,122.49,119.51,116.39,112.84,110.30,107.22,104.31,101.63,98.85,95.16,91.46,88.23,85.94,85.26,86.16,86.39,84.95,82.32,79.38,76.83,75.09,74.56
76.72,82.99,89.22,94.99,99.86,102.77,101.09,96.91,91.25,85.22,80.24,76.35,73.20,70.38,67.10,63.91,61.07,58.62,56.45,54.06,52.14,50.70,49.63,48.68,47.65,46.52,45.23,43.44,41.43,39.52,37.76,36.02,34.45,33.08,32.02,31.35,31.22,31.23,31.36,31.58,31.66,30.91,30.09,29.41,28.98,28.77,28.57,28.33,28.07,28.04,27.65,27.05,26.31,25.54,24.65,23.87,23.45,23.60,24.45,25.30,26.13,26.92,27.62,28.04,28.31,28.46,28.47,28.28,27.94,27.50,27.03,26.52,26.05,25.77,25.79,26.29,26.93,27.46,28.26,29.78,33.28,36.62,39.35,41.36,43.15,44.52,46.15,47.98,49.66,50.35,50.28,49.85,49.43,49.31,49.65,50.28,51.05,51.70,52.18,52.72,53.86,56.11,58.62,61.01,63.39,65.78,68.18,70.11,72.76,75.77,78.00,79.62,80.92,82.08,83.30,84.57,85.98,87.37,88.65,89.68,89.98,90.67,91.73,92.96,94.78,96.77,99.17,102.11,105.53,109.98,114.47,118.63,122.22,124.51,126.98,129.72,132.71,136.25,140.01,144.56,149.76,154.59,159.02,162.90,166.40,169.79,173.36,176.27,179.14,182.16,184.42,188.20,192.55,197.13,201.68,205.16,208.20,210.70,212.53,212.90,212.88,213.70,215.91,219.74,220.11,218.51,217.05,218.31,220.52,222.60,224.65,226.60,227.63,228.90,231.15,234.24,237.44,241.05,245.29,249.68,253.10,247.04,241.14,234.75,228.10,222.94,218.30,214.61,210.79,205.21,199.12,193.13,187.31,181.86,177.66,176.54,177.55,179.98,182.86,185.91,187.98,188.91,188.49,183.99,178.45,173.32,169.59,168.54,168.48,166.82,163.57,159.41,154.19,148.69,143.15,137.91,134.11,131.38,129.51,128.56,128.89,131.41,134.87,138.64,142.10,144.49,145.67,145.37,143.59,140.69,136.61,132.08,127.44,123.01,119.44,116.31,113.26,110.10,107.63,104.66,101.86,99.22,96.19,92.47,89.94,88.45,87.59,87.33,87.91,87.39,85.13,82.34,79.33,77.38,76.63,76.86
75.21,81.70,88.21,94.15,99.11,102.97,102.78,100.17,95.66,89.49,83.49,78.98,75.29,71.63,67.49,63.47,60.21,57.85,55.89,53.93,52.57,51.68,50.90,50.13,49.09,47.69,45.91,43.73,41.62,39.71,38.01,36.38,35.10,34.11,33.44,33.11,32.91,32.91,33.06,33.29,33.35,32.23,31.04,30.04,29.33,29.26,29.11,28.95,28.84,28.84,28.48,27.91,27.20,26.40,25.41,24.36,23.42,22.79,23.55,24.41,25.22,25.94,26.66,27.04,27.30,27.49,27.60,27.49,27.20,26.80,26.33,25.78,25.36,25.33,25.75,26.46,27.12,27.86,28.81,30.14,33.71,37.26,40.10,42.02,43.70,44.82,45.90,46.90,47.50,47.44,46.78,46.09,45.81,45.90,46.49,47.24,47.96,48.35,48.79,49.44,50.61,52.64,55.22,57.89,60.48,62.93,65.33,67.29,69.45,71.83,74.24,76.40,78.55,80.73,82.97,85.21,87.10,88.67,90.00,91.26,91.80,92.59,93.65,94.91,96.84,98.97,101.79,105.46,109.41,114.35,118.74,122.19,124.63,126.91,129.43,132.31,135.65,139.29,143.23,147.51,151.94,155.83,159.59,162.90,165.89,168.75,171.59,173.73,176.31,179.72,182.27,186.86,192.02,197.15,201.75,204.54,206.83,208.73,210.13,209.51,209.05,210.49,213.95,217.55,217.44,215.73,214.40,215.74,218.06,220.22,222.21,224.08,226.13,228.29,230.92,233.97,237.13,240.73,244.99,249.75,254.06,247.83,241.85,236.28,231.02,225.44,221.70,218.17,213.63,206.74,200.27,194.28,188.69,183.53,179.35,179.44,181.15,183.62,186.44,189.60,191.62,191.91,190.00,185.14,180.19,176.68,175.21,175.47,174.66,171.39,166.16,160.15,154.28,148.36,142.88,138.30,135.77,134.26,133.15,132.54,133.05,136.19,139.75,143.30,146.44,147.66,147.28,145.37,142.28,139.26,135.08,130.39,125.44,120.48,116.82,113.47,110.39,107.53,104.91,102.05,99.35,96.82,94.17,91.06,89.65,89.45,89.64,89.50,89.41,88.12,85.34,82.54,79.61,78.43,78.87,80.06
76.42,82.42,88.16,93.59,98.60,102.46,103.82,102.64,99.04,93.42,86.84,81.15,76.25,71.88,67.59,63.23,59.81,57.52,55.46,54.48,53.71,52.95,52.18,51.41,50.02,48.29,46.42,44.19,42.02,40.17,38.64,37.26,36.36,35.70,35.28,35.10,34.99,34.98,35.04,35.09,34.86,33.74,32.51,31.22,29.72,29.69,29.66,29.63,29.61,29.61,29.28,28.76,28.07,27.17,26.17,25.01,23.68,22.33,22.79,23.51,24.29,25.02,25.60,26.00,26.25,26.43,26.64,26.68,26.47,26.09,25.62,25.08,24.81,25.06,25.76,26.52,27.27,28.12,29.05,30.13,33.50,36.82,39.46,41.13,42.03,42.65,43.23,43.49,42.81,41.99,41.60,41.73,42.37,43.25,44.03,44.99,45.98,46.37,46.99,47.71,48.65,49.94,51.87,54.56,57.38,59.99,62.39,64.43,66.47,68.39,69.86,71.46,74.07,77.02,79.75,82.49,85.10,87.61,89.82,91.19,91.96,92.51,93.36,95.12,98.04,100.91,104.29,108.41,112.91,117.55,121.22,123.95,126.29,128.90,131.40,134.15,137.42,140.87,144.57,148.36,152.12,155.62,158.75,161.28,163.50,165.84,166.91,168.77,171.50,175.06,179.09,184.67,190.99,197.06,201.32,201.97,202.86,204.60,207.13,205.52,204.95,206.63,210.22,212.98,212.95,211.88,211.45,213.58,216.88,219.72,222.10,224.16,226.36,228.38,230.92,233.97,237.13,240.68,244.86,249.57,253.95,248.07,242.24,238.57,236.50,230.87,225.94,220.74,214.54,206.62,200.19,194.74,189.83,185.27,181.84,182.22,183.85,186.13,189.29,192.52,194.56,194.47,191.55,186.93,184.04,182.41,181.76,181.88,177.49,171.73,165.46,159.25,153.38,148.19,143.86,140.59,139.09,138.25,137.66,137.43,138.09,141.46,145.12,148.41,150.75,149.95,147.47,144.27,140.90,137.64,133.98,129.41,124.20,118.95,115.23,111.77,108.66,105.88,102.83,100.12,97.51,95.22,94.01,92.64,91.85,91.59,91.68,91.59,90.45,88.37,85.58,82.74,80.18,79.90,81.67,84.44
79.74,85.20,90.76,95.73,99.78,103.42,105.78,105.20,101.58,95.77,88.78,82.36,76.77,72.07,67.52,62.92,59.46,57.45,56.03,55.62,55.18,54.58,53.84,52.55,50.82,48.92,47.05,45.03,43.07,41.36,39.90,38.63,37.96,37.54,37.28,37.13,37.05,37.00,36.97,36.91,36.75,36.16,35.37,34.24,32.54,33.69,34.39,34.66,34.56,33.89,32.46,30.66,28.91,27.94,26.87,25.55,24.05,22.52,22.13,22.61,23.38,24.12,24.66,25.00,25.22,25.40,25.63,25.75,25.67,25.39,24.92,24.38,24.51,25.04,25.81,26.59,27.36,28.18,29.04,29.97,32.81,35.48,37.54,38.79,39.37,39.76,39.82,39.52,38.84,38.89,38.99,39.34,40.10,40.99,41.88,42.92,43.98,44.52,45.33,46.29,47.33,48.39,49.87,51.99,54.52,57.24,59.56,61.67,63.73,65.59,66.90,68.50,71.07,74.13,77.26,80.52,83.38,86.03,88.32,89.60,90.16,90.42,91.22,93.52,97.24,100.87,104.71,108.88,113.25,117.56,120.90,123.49,126.17,129.37,132.02,134.40,136.87,139.75,143.08,146.73,150.42,153.45,155.96,157.92,159.56,161.19,161.92,164.73,169.21,174.81,180.02,185.55,191.12,195.83,198.00,198.06,198.98,201.04,203.91,202.38,201.58,202.70,205.61,208.19,208.42,208.83,210.18,212.99,216.50,219.55,222.11,224.28,226.52,228.69,231.28,234.29,237.42,240.88,244.85,249.24,253.35,248.92,244.29,240.72,237.75,231.93,226.39,220.40,213.66,205.92,199.91,195.05,190.82,187.08,185.23,185.63,186.96,189.07,192.39,195.78,197.69,197.49,194.80,190.13,188.35,187.54,186.35,182.95,177.02,170.72,164.57,158.79,154.46,151.16,148.69,146.90,146.15,145.57,144.95,144.55,145.10,147.59,150.30,152.40,153.11,150.54,146.95,143.13,139.48,136.09,132.62,128.10,122.93,118.08,114.43,110.99,107.89,105.20,102.66,100.41,98.50,97.08,96.57,95.84,94.92,93.94,93.01,91.90,90.15,87.92,85.32,82.54,81.30,82.12,84.61,87.93
83.32,88.37,94.02,98.68,101.64,104.95,107.91,107.44,103.34,97.08,89.94,83.15,77.18,72.31,67.49,62.65,59.22,57.63,57.05,56.98,56.77,56.29,55.50,53.76,51.88,49.97,48.09,46.28,44.59,43.03,41.60,40.37,39.83,39.55,39.39,39.24,39.16,39.07,38.96,38.88,38.94,38.95,38.67,37.94,36.56,38.92,40.37,40.95,40.69,39.23,36.47,33.14,30.05,28.72,27.51,26.04,24.41,22.81,21.54,21.75,22.49,23.21,23.74,24.01,24.20,24.38,24.61,24.77,24.83,24.67,24.23,23.79,24.32,25.09,25.87,26.63,27.38,28.14,28.89,29.70,31.81,33.64,34.98,35.76,36.17,36.41,36.12,35.61,35.49,36.70,37.28,37.69,38.32,39.02,39.95,41.00,42.04,42.78,43.80,45.02,46.24,47.25,48.41,49.86,51.92,54.54,56.76,58.92,61.06,63.02,64.55,66.44,68.89,71.86,75.26,78.86,81.73,84.23,86.29,87.41,87.66,87.80,88.79,91.67,95.94,100.15,104.27,108.25,112.11,115.96,119.15,121.95,125.19,128.91,131.58,133.43,134.89,137.23,140.38,144.11,147.89,150.39,152.30,153.93,155.35,156.61,157.83,162.08,168.59,176.28,182.13,187.01,191.03,193.60,193.56,193.67,195.14,197.68,200.58,199.58,198.56,199.05,201.24,203.77,204.65,206.67,209.73,213.10,216.56,219.68,222.42,224.81,227.05,229.33,231.89,234.74,237.81,241.20,244.93,248.90,252.54,249.81,246.33,242.13,237.17,231.26,225.42,219.15,212.48,205.58,200.19,195.87,192.22,189.25,188.84,189.18,190.25,192.26,195.63,198.95,200.58,200.33,198.15,193.75,192.61,191.93,189.60,182.34,175.74,169.60,164.06,159.36,156.93,155.70,155.02,154.44,154.16,153.68,152.96,152.34,152.68,153.95,155.28,155.73,154.40,150.36,146.07,141.92,138.08,134.59,131.09,126.59,121.65,117.49,113.97,110.72,107.87,105.51,103.72,101.92,100.69,100.09,99.84,99.14,97.79,95.94,93.84,91.56,89.41,87.21,84.89,82.57,82.86,84.70,87.62,91.14
84.91,90.11,96.23,101.19,104.01,106.83,109.45,108.11,102.85,96.15,89.73,83.47,77.74,72.81,67.84,62.70,59.40,58.44,58.51,58.51,58.42,57.92,56.59,55.43,54.32,52.84,50.82,48.81,47.24,45.75,44.29,43.05,42.37,42.01,41.82,41.67,41.59,41.42,41.36,41.49,41.90,41.95,41.87,41.89,42.29,44.23,45.72,46.35,45.82,43.96,40.61,36.64,32.66,29.55,27.98,26.39,24.59,22.61,21.14,21.04,21.57,22.25,22.73,22.99,23.18,23.36,23.59,23.74,23.91,23.88,23.58,23.68,24.32,25.09,25.85,26.57,27.23,27.88,28.54,29.21,30.18,30.92,31.48,31.89,32.00,32.06,32.30,32.82,33.74,35.02,35.75,36.30,36.98,37.74,38.60,39.48,40.37,41.35,42.62,43.97,45.22,46.23,47.39,48.59,50.04,51.84,53.96,56.07,58.26,60.54,62.86,65.45,68.16,71.12,74.38,77.38,80.06,82.26,83.88,84.75,85.02,85.88,87.88,91.47,95.44,99.36,103.09,106.47,109.05,111.91,115.22,118.97,123.05,126.57,128.46,129.33,129.98,132.47,136.55,140.85,144.50,146.31,147.70,149.74,152.27,154.92,158.22,164.29,171.64,178.84,183.31,186.48,188.21,188.69,188.40,189.11,191.38,194.38,197.06,196.95,196.06,196.76,199.29,201.34,204.32,207.28,210.38,213.99,217.41,220.65,223.92,227.18,229.42,231.20,233.03,235.22,238.20,241.63,245.25,248.75,251.59,250.00,245.83,240.47,234.73,229.46,223.92,218.22,212.68,207.76,203.30,199.19,195.66,193.02,192.07,192.43,193.70,195.86,199.09,201.19,202.15,201.60,199.36,197.13,195.94,193.92,189.85,182.20,175.81,169.99,165.58,163.95,162.66,162.52,162.33,161.37,160.85,160.36,159.97,159.76,159.85,160.05,159.60,157.75,153.86,149.22,144.65,140.45,136.73,133.19,129.22,124.73,120.38,117.16,113.84,111.41,109.81,108.80,107.36,105.50,103.99,102.97,102.18,100.48,98.40,96.05,93.51,90.98,88.70,86.44,84.46,84.27,85.57,87.73,90.69,94.46
86.36,91.85,97.74,102.48,105.38,108.22,110.53,108.54,102.57,95.64,89.51,83.55,78.06,73.31,68.17,63.18,60.52,60.52,61.01,61.07,60.95,60.43,59.13,58.29,57.55,56.42,54.66,52.57,50.71,48.83,47.04,45.77,44.99,44.57,44.38,44.29,44.28,44.12,44.17,44.55,45.12,45.40,45.64,46.12,47.17,48.67,49.65,49.97,49.50,47.67,43.51,38.80,34.26,30.35,28.19,26.29,24.35,22.22,20.77,20.46,20.77,21.31,21.72,21.94,22.14,22.33,22.57,22.72,22.95,23.08,23.07,23.50,24.13,24.83,25.53,26.19,26.82,27.43,28.05,28.66,29.11,29.31,29.43,29.55,29.67,29.87,30.46,31.40,32.56,33.78,34.68,35.47,36.33,37.22,38.08,38.90,39.74,40.70,41.86,43.04,44.17,45.20,46.33,47.40,48.55,49.87,51.47,53.30,55.49,57.99,60.64,63.61,66.66,69.82,73.05,75.74,78.12,80.07,81.44,81.94,82.56,84.35,87.27,91.07,94.78,98.37,101.65,104.46,106.57,109.47,112.84,116.58,120.56,123.48,124.62,124.75,124.93,128.31,132.81,137.07,140.27,141.54,142.90,145.64,149.58,154.25,159.28,165.94,172.89,178.92,181.98,183.33,183.46,182.94,182.71,184.59,187.76,191.10,193.48,193.80,194.53,196.42,199.27,201.40,204.91,208.45,212.10,216.22,219.22,222.14,225.37,228.91,231.15,232.87,234.48,236.28,238.73,241.92,245.29,248.42,250.78,250.11,245.14,239.24,233.93,229.42,224.51,219.67,215.24,211.58,207.49,203.17,199.43,196.78,195.19,195.56,196.89,198.89,201.51,203.23,203.79,203.11,201.30,200.24,198.36,195.04,189.93,182.74,176.83,172.24,169.69,170.11,169.96,170.25,170.09,169.10,168.73,168.55,168.10,167.27,166.14,164.03,161.43,157.88,152.98,148.02,143.26,139.11,135.58,132.06,127.96,123.58,119.58,116.87,114.39,112.76,111.81,111.26,110.07,108.19,106.34,104.73,103.27,101.13,98.74,96.18,93.51,90.88,88.61,86.44,84.76,85.80,87.68,90.23,93.41,97.15
87.78,93.57,98.79,103.00,106.12,109.32,111.31,108.83,102.44,95.39,89.31,83.48,78.24,73.79,68.50,64.00,62.31,63.41,64.21,64.33,64.09,63.51,62.58,61.88,61.24,60.40,59.14,57.09,54.71,52.21,49.94,48.59,47.68,47.21,47.05,47.05,47.13,47.04,47.26,47.88,48.50,49.12,49.74,50.46,51.45,52.52,52.68,52.48,52.20,50.61,45.54,40.07,35.18,31.07,28.18,25.86,23.79,21.68,20.40,19.97,20.06,20.43,20.73,20.91,21.11,21.35,21.58,21.74,22.00,22.31,22.64,23.25,23.81,24.39,25.00,25.62,26.24,26.86,27.47,28.08,28.38,28.41,28.30,28.23,28.56,29.08,29.89,30.88,31.82,32.90,33.98,35.07,36.15,37.23,38.12,38.98,39.84,40.62,41.47,42.32,43.24,44.30,45.37,46.38,47.40,48.43,49.28,50.69,52.79,55.40,58.09,61.21,64.60,68.06,71.36,73.93,75.99,77.71,78.95,79.05,80.26,83.09,86.84,90.53,93.98,97.19,99.97,102.29,104.47,107.97,111.33,114.43,117.69,119.81,120.27,119.92,119.95,124.55,129.15,132.95,135.50,136.35,138.05,141.71,147.23,154.19,160.65,167.09,172.85,177.31,178.98,178.55,177.58,176.78,176.80,180.17,184.26,187.83,189.89,190.45,193.66,197.29,200.43,202.99,206.09,209.94,214.40,219.14,221.51,223.83,226.66,230.07,232.31,234.23,235.95,237.59,239.33,242.11,245.15,247.97,250.06,250.14,244.41,238.43,234.23,230.60,226.58,222.78,219.37,216.46,212.37,207.58,203.38,200.52,198.28,198.71,200.03,201.68,203.37,205.17,205.51,204.82,203.70,203.03,200.08,195.55,189.93,183.75,178.52,175.71,175.37,177.12,178.07,178.36,178.00,177.22,177.24,177.50,176.67,174.54,171.57,166.52,161.63,156.84,151.90,146.80,141.94,137.87,134.60,131.14,127.15,122.96,119.19,116.72,115.41,114.50,113.78,113.06,112.04,110.16,107.97,105.69,103.52,101.28,98.85,96.28,93.67,91.07,88.93,86.94,85.55,87.25,89.44,92.41,95.90,99.44
90.78,94.83,99.13,103.22,106.89,110.57,112.04,109.19,102.68,95.28,89.13,83.32,78.20,74.02,69.37,66.23,65.47,66.82,68.11,68.77,68.29,67.09,65.96,65.32,64.73,63.90,62.66,61.19,59.41,57.14,54.63,52.59,51.08,50.24,49.94,49.99,50.07,50.17,50.56,51.27,51.94,52.57,53.24,53.94,54.58,55.51,55.45,54.70,53.46,51.08,45.78,40.21,35.15,30.59,27.39,24.62,22.29,20.50,19.86,19.70,19.78,19.97,20.23,20.49,20.73,20.98,21.26,21.47,21.74,22.01,22.24,22.71,23.23,23.81,24.43,25.05,25.67,26.25,26.83,27.44,27.64,27.71,27.75,27.91,28.63,29.42,30.37,31.44,32.58,33.71,34.88,36.01,37.04,38.12,39.02,40.08,41.28,42.26,43.22,44.07,44.86,45.63,46.35,47.09,47.84,48.61,49.36,50.17,51.39,53.16,55.61,58.15,60.81,64.10,68.21,71.33,73.35,74.72,75.65,76.20,79.02,82.45,86.04,89.43,92.33,94.79,97.29,100.04,102.56,105.36,107.89,110.09,112.12,114.05,114.99,115.87,117.66,121.62,125.54,128.56,130.39,131.24,134.59,139.95,146.64,153.73,159.81,165.17,169.68,173.08,174.16,173.88,173.13,172.51,172.82,177.30,181.38,184.64,187.03,189.56,193.59,197.74,201.38,204.24,207.28,211.01,215.21,219.45,221.33,223.26,225.44,227.89,230.08,232.03,234.42,237.14,239.67,242.17,244.86,247.37,249.24,249.36,245.12,240.13,236.16,234.00,232.04,229.19,225.61,221.76,217.82,212.24,207.26,204.23,201.99,203.43,205.41,206.78,206.79,207.56,207.72,207.25,206.17,203.04,199.01,194.63,190.14,185.60,181.82,180.21,180.44,181.59,182.83,183.35,183.49,183.58,183.89,182.99,180.48,176.40,171.21,165.55,160.38,155.63,151.06,145.81,141.06,137.19,134.15,131.03,127.52,124.02,120.88,118.51,117.54,116.01,114.22,112.46,111.14,109.25,107.20,105.09,102.83,100.49,98.11,95.70,93.24,91.24,89.54,88.00,87.01,88.71,91.51,94.82,98.30,101.49
94.08,97.30,100.81,104.58,108.49,112.22,112.82,109.49,102.97,95.44,89.22,83.27,78.08,74.09,70.38,68.70,69.20,71.44,73.58,74.56,74.05,72.62,71.27,70.34,69.16,67.71,66.11,65.19,64.01,62.14,59.66,57.05,54.91,53.66,53.15,53.12,53.17,53.32,53.74,54.46,55.22,55.94,56.69,57.37,57.81,58.37,57.89,56.49,54.28,51.17,45.63,39.87,34.58,29.81,26.37,23.32,20.99,19.76,19.48,19.45,19.51,19.61,19.85,20.14,20.41,20.66,20.97,21.20,21.47,21.71,21.88,22.24,22.71,23.24,23.82,24.44,25.06,25.64,26.20,26.73,26.89,26.99,27.19,27.67,28.69,29.75,30.90,32.11,33.37,34.53,35.75,36.91,37.97,39.10,40.20,41.49,42.91,44.06,45.08,45.91,46.60,47.22,47.76,48.55,49.47,50.43,51.30,51.84,52.45,53.37,54.85,56.39,58.14,60.71,64.44,67.72,70.07,71.56,72.54,73.98,77.61,81.29,84.70,87.71,90.12,92.13,94.29,96.81,99.13,102.04,104.40,106.07,107.27,108.87,110.18,111.91,114.65,118.21,121.61,124.15,125.79,127.31,131.71,138.20,145.57,152.34,157.71,162.07,165.65,168.39,169.19,168.88,168.21,167.96,169.28,174.13,178.57,182.04,184.45,188.22,192.69,197.10,201.03,204.07,207.02,210.52,214.35,218.04,219.73,221.47,223.54,226.07,228.54,230.70,233.39,236.50,239.38,242.00,244.23,246.11,247.65,248.12,245.47,241.72,238.36,237.66,237.02,234.58,230.53,225.61,221.46,215.65,210.35,207.07,206.14,208.97,211.11,211.44,210.19,210.54,210.69,210.07,208.13,203.10,198.56,194.55,191.05,187.80,184.91,184.04,184.69,185.66,187.48,188.23,188.58,189.01,189.09,186.96,182.99,177.50,171.00,164.88,159.57,154.92,150.62,144.98,140.38,136.82,134.10,131.38,128.49,125.78,123.30,121.01,118.96,116.40,113.72,111.34,109.87,107.99,106.05,104.11,101.93,99.51,97.31,95.35,93.55,91.78,90.37,89.08,88.35,90.58,93.96,97.41,100.65,103.57
97.72,101.04,103.92,107.13,110.99,114.27,113.66,109.73,103.31,95.89,89.57,83.34,77.89,73.97,71.55,71.41,73.54,77.34,80.72,81.80,81.47,80.22,78.61,77.04,74.60,71.86,69.48,69.06,68.50,67.22,65.05,62.00,59.18,57.50,56.71,56.43,56.44,56.50,56.80,57.42,58.33,59.25,60.08,60.74,61.13,61.10,60.00,57.82,54.66,50.85,45.06,39.03,33.44,28.72,25.10,21.95,19.88,19.51,19.27,19.22,19.26,19.36,19.59,19.89,20.15,20.41,20.72,20.95,21.18,21.39,21.56,21.87,22.25,22.68,23.18,23.80,24.42,25.04,25.58,25.97,26.12,26.22,26.63,27.50,28.72,30.07,31.48,32.89,34.20,35.36,36.58,37.78,38.94,40.17,41.68,43.24,44.73,46.03,47.06,47.83,48.45,49.07,49.61,50.80,52.35,54.00,55.20,55.84,56.15,56.17,55.93,56.03,56.64,57.93,60.01,63.05,66.12,68.21,69.63,72.45,76.02,79.57,82.77,85.34,87.30,89.19,90.94,92.55,94.08,97.95,100.86,102.39,103.20,104.31,105.88,108.05,110.87,114.28,117.34,119.72,121.71,124.62,129.47,136.45,143.98,149.96,154.29,157.72,160.69,163.23,164.07,163.52,162.80,163.10,166.20,170.66,175.84,180.07,182.19,186.40,190.89,195.29,199.32,202.40,205.23,208.40,211.73,214.78,216.62,218.36,220.93,224.62,227.73,230.29,232.89,235.64,238.43,241.61,243.23,244.15,245.27,246.37,245.43,243.19,240.85,241.59,241.50,238.89,234.06,227.90,223.16,217.74,212.60,208.98,210.78,215.38,217.14,215.65,213.56,214.14,214.49,213.31,209.52,203.21,198.74,195.37,192.68,190.37,187.76,187.15,188.09,189.30,192.00,192.98,193.25,193.46,192.75,189.30,184.14,177.81,170.96,164.54,159.22,154.73,150.59,144.30,139.88,136.77,134.50,132.22,130.12,128.31,126.51,124.27,119.64,115.59,112.24,109.68,108.21,106.37,104.51,102.70,100.83,98.33,96.44,95.25,94.63,92.71,91.41,90.18,89.55,92.86,96.81,100.16,102.96,105.68
99.66,103.12,106.21,109.53,113.26,116.10,114.30,110.11,104.28,97.14,90.45,84.72,80.64,78.70,78.02,78.94,81.54,85.25,87.91,89.42,89.64,88.57,86.31,83.65,80.60,77.38,74.39,73.46,73.04,72.34,71.03,68.80,66.03,63.89,62.29,61.03,60.66,60.53,60.79,61.46,62.30,63.49,64.04,64.07,64.04,62.57,60.46,57.41,53.34,48.93,43.50,37.65,32.02,27.67,24.02,21.30,19.74,19.43,19.20,19.04,19.00,19.11,19.39,19.65,19.90,20.15,20.46,20.69,20.92,21.13,21.29,21.55,21.92,22.32,22.75,23.23,23.84,24.46,24.95,25.21,25.50,26.03,26.78,27.73,28.96,30.33,31.79,33.29,34.74,36.12,37.41,38.67,40.01,41.84,43.61,45.26,46.75,48.01,49.08,50.06,51.25,52.95,54.39,56.29,58.10,59.47,60.02,60.22,60.09,59.71,59.19,58.78,58.74,59.11,59.95,61.60,63.66,65.70,67.75,70.42,73.59,76.66,79.51,82.09,83.93,85.55,86.99,88.32,89.74,92.34,94.96,97.23,98.96,100.15,101.72,103.93,106.92,110.32,113.50,116.30,119.03,122.90,128.00,134.25,140.73,146.24,149.99,152.88,155.05,156.76,158.88,159.38,159.70,160.86,164.24,168.59,173.29,177.40,180.29,184.35,188.63,192.87,196.79,199.65,202.28,205.90,210.09,214.00,216.90,219.36,222.25,225.90,228.97,231.36,233.78,236.30,238.67,240.19,240.86,241.55,243.10,245.53,247.11,246.89,245.02,243.47,241.63,238.11,233.27,227.97,222.91,217.89,214.86,214.98,217.72,221.02,221.25,218.75,216.59,217.44,218.18,216.89,212.07,205.11,200.14,196.68,194.37,192.63,190.98,191.36,193.38,195.93,198.22,198.42,197.69,196.62,193.62,188.89,183.15,176.93,171.01,164.42,159.07,154.69,150.64,144.31,140.04,137.19,135.20,133.15,131.88,130.79,129.15,126.01,120.67,116.37,112.82,109.82,108.12,106.35,104.35,102.23,100.33,98.46,97.47,96.98,96.36,94.43,92.76,91.84,92.33,96.00,99.72,102.94,105.44,107.10
101.00,104.73,108.23,111.86,115.58,117.70,115.03,110.75,105.46,98.69,92.17,87.66,85.34,85.09,85.38,86.85,89.49,92.77,94.74,96.41,97.01,96.17,93.68,90.06,86.38,82.76,79.49,78.07,77.62,77.45,77.14,76.07,73.37,70.76,68.42,66.41,65.67,65.34,65.41,65.86,66.58,67.61,67.69,66.84,65.39,62.88,59.97,56.29,51.68,46.88,41.57,35.87,30.38,26.48,22.94,20.73,19.66,19.37,19.12,18.88,18.78,18.88,19.17,19.43,19.66,19.91,20.18,20.41,20.65,20.85,21.01,21.22,21.58,21.96,22.35,22.73,23.29,23.86,24.35,24.67,25.20,26.08,27.05,28.02,29.20,30.59,32.08,33.61,35.15,36.72,38.13,39.58,41.27,43.51,45.52,47.29,48.87,50.32,51.49,52.75,54.46,57.00,59.27,61.76,63.77,64.92,65.02,64.90,64.51,63.92,63.32,62.64,62.17,61.92,61.94,62.34,63.21,64.59,66.41,68.37,70.98,73.40,75.79,78.43,80.40,81.85,83.15,84.54,86.12,88.02,90.47,93.22,95.69,97.24,98.99,101.47,104.96,108.47,112.16,115.35,118.14,121.82,126.56,131.76,137.12,142.31,145.48,147.96,149.92,151.72,154.82,156.49,157.89,159.80,163.29,167.65,171.96,176.02,179.72,183.47,187.40,191.38,195.19,198.19,201.09,205.08,209.75,214.27,217.92,220.90,223.95,227.38,230.22,232.31,234.31,236.26,237.96,238.30,238.57,239.39,241.30,244.92,248.36,249.61,248.00,244.06,240.73,236.72,232.23,227.89,222.90,218.66,217.52,220.40,223.68,225.95,225.18,222.18,219.98,220.68,221.36,220.04,215.10,207.98,202.36,198.49,196.28,195.06,194.61,196.34,199.58,202.89,204.28,203.42,201.45,198.90,193.91,187.81,181.67,175.89,170.64,164.09,158.88,154.68,150.74,144.58,140.41,137.72,136.06,134.51,133.86,133.20,131.53,127.57,121.49,117.19,113.76,110.58,108.61,106.73,104.55,102.20,100.25,99.19,99.04,99.00,98.17,96.15,94.15,93.64,95.33,99.11,102.62,105.70,107.82,108.24
101.51,105.73,109.87,114.09,118.05,118.93,115.97,111.83,106.92,100.64,95.36,93.22,93.15,93.75,93.54,94.67,96.76,99.29,100.91,102.20,102.77,102.29,100.38,96.12,91.67,87.69,84.70,82.98,82.27,82.53,83.38,83.89,81.20,78.11,75.25,73.04,71.95,71.42,71.03,70.76,71.33,71.34,70.69,68.61,63.95,61.26,58.04,54.18,49.70,44.84,39.12,33.42,28.40,25.04,21.86,20.18,19.54,19.30,19.00,18.75,18.63,18.68,18.92,19.21,19.47,19.69,19.86,20.10,20.33,20.53,20.68,20.85,21.19,21.58,21.96,22.35,22.77,23.23,23.80,24.56,25.48,26.47,27.44,28.38,29.41,30.87,32.37,33.86,35.41,37.02,38.65,40.55,42.87,45.11,47.31,49.31,51.17,53.20,54.61,56.22,58.29,61.04,63.86,66.67,68.84,70.04,70.18,70.07,69.73,69.23,68.68,68.06,67.46,67.08,66.98,66.54,66.18,65.91,65.86,66.40,68.20,69.70,71.41,74.17,76.68,78.17,79.62,81.55,83.67,86.29,88.93,91.55,94.21,96.53,98.88,102.09,106.65,110.45,115.33,118.76,120.32,121.73,125.04,128.82,133.13,138.21,140.74,143.01,145.85,149.52,152.87,155.70,158.04,160.45,163.99,168.54,172.82,177.10,181.54,184.74,188.13,191.69,195.41,199.25,203.30,207.41,211.64,216.06,219.75,222.79,225.72,228.78,231.13,232.81,233.96,234.72,235.34,235.71,236.66,238.13,240.14,244.60,248.54,250.19,248.54,242.63,238.68,235.01,231.39,227.89,223.64,220.87,220.92,224.12,227.50,229.70,229.10,226.37,224.07,223.84,223.66,222.35,218.84,212.31,205.89,201.13,198.60,197.88,198.91,202.53,207.11,209.99,209.79,207.50,204.00,199.79,193.56,185.94,179.65,174.75,169.49,163.36,158.59,154.72,150.89,145.22,141.06,138.41,137.13,136.67,136.20,135.44,133.49,129.04,121.89,117.80,115.02,112.21,109.88,107.58,105.19,102.82,100.83,100.81,101.27,101.28,100.01,97.75,95.53,95.59,98.49,102.01,105.50,108.43,109.98,108.97
103.69,108.29,112.50,116.32,119.45,119.79,117.14,113.49,109.26,104.21,100.76,99.66,100.15,101.23,101.04,101.61,102.81,104.30,104.99,104.82,104.41,103.91,103.41,100.61,96.93,93.40,90.70,88.65,87.68,87.92,89.07,90.35,89.32,87.34,84.40,80.61,78.94,77.98,76.88,75.46,74.44,72.95,71.07,67.85,61.89,58.81,55.49,51.67,47.23,42.56,36.48,31.15,27.11,24.06,21.23,19.88,19.46,19.18,18.84,18.55,18.42,18.49,18.72,18.98,19.21,19.40,19.60,19.83,20.06,20.26,20.41,20.53,20.86,21.25,21.63,22.02,22.40,23.18,24.14,24.99,25.96,26.89,27.84,28.81,29.81,31.35,32.91,34.44,36.07,37.69,39.52,41.72,44.33,46.68,49.04,51.32,53.52,55.68,57.60,59.85,62.45,65.31,68.21,70.99,73.05,74.15,74.69,74.71,74.44,73.98,73.44,72.79,72.18,71.69,71.31,70.62,69.92,69.30,68.86,68.82,69.48,70.42,71.75,73.59,75.13,76.22,77.90,80.59,83.42,86.50,89.37,92.03,94.66,97.21,100.12,103.85,108.64,113.52,118.14,121.43,123.28,124.64,126.92,129.97,133.72,138.04,140.08,142.83,146.38,150.45,153.38,156.45,159.29,162.03,165.12,168.46,171.43,174.96,179.77,183.84,187.81,191.53,195.04,198.70,202.68,206.70,210.94,215.69,219.98,223.11,225.74,228.23,230.08,231.42,232.26,232.71,233.02,233.77,235.25,237.18,239.36,243.49,248.10,250.40,248.93,242.71,238.68,234.96,231.27,227.64,224.60,223.22,224.17,227.44,230.57,232.80,232.48,230.23,228.57,227.42,226.04,223.85,220.29,214.81,209.43,205.47,203.65,204.31,206.36,209.39,212.35,213.81,211.73,208.07,203.36,197.88,190.69,183.26,177.47,173.16,168.65,162.83,158.40,154.83,151.21,146.27,142.93,140.85,139.72,139.14,138.76,137.74,135.17,129.92,122.14,118.01,115.45,112.86,110.54,108.16,105.71,103.63,103.06,103.63,104.23,103.79,101.35,98.88,97.04,97.55,100.67,104.19,107.63,110.54,111.81,109.79
106.02,110.74,114.84,118.13,120.31,120.39,118.39,115.51,112.19,108.73,106.86,106.09,106.41,107.64,107.48,107.32,107.28,107.27,106.79,105.27,103.91,103.28,103.95,103.01,100.77,98.38,96.57,94.71,93.56,93.52,94.50,95.93,96.45,95.73,93.15,88.42,85.88,83.83,81.50,78.72,76.10,73.30,69.92,65.43,59.22,55.90,52.59,48.84,44.45,40.00,33.88,29.12,26.06,23.26,20.78,19.69,19.38,19.07,18.68,18.35,18.21,18.28,18.51,18.73,18.92,19.11,19.34,19.57,19.80,19.99,20.14,20.23,20.54,20.91,21.30,21.70,22.25,23.43,24.74,25.61,26.52,27.40,28.32,29.33,30.44,32.03,33.64,35.24,36.92,38.56,40.57,42.97,45.72,48.26,50.80,53.36,55.88,58.12,60.63,63.52,66.59,69.59,72.51,75.16,77.04,78.05,79.01,79.17,78.98,78.57,78.04,77.35,76.74,76.16,75.52,74.75,73.98,73.35,72.90,72.54,72.25,72.80,73.80,74.62,75.05,75.66,77.27,80.16,83.43,87.00,90.19,92.94,95.50,98.23,101.73,105.96,110.84,116.64,120.70,123.82,126.30,128.13,129.77,132.43,135.81,139.29,141.12,144.21,147.96,151.71,154.01,156.80,159.80,162.74,165.25,167.24,169.00,171.83,176.72,181.96,186.66,190.63,193.99,197.33,200.97,204.90,209.35,214.59,219.50,222.71,225.02,226.94,228.27,229.33,230.06,230.51,230.81,232.05,234.00,236.30,238.68,242.32,247.53,250.47,249.34,243.49,239.47,235.54,231.58,227.76,225.82,225.58,227.26,230.57,233.39,235.68,235.87,234.42,233.41,231.30,228.64,225.42,221.61,217.37,213.57,210.86,209.81,211.58,214.11,215.82,216.34,215.56,211.77,206.92,201.24,194.83,186.96,180.40,175.36,171.47,167.72,162.32,158.22,154.94,151.66,147.92,145.77,144.43,143.44,142.37,141.66,140.07,136.65,130.33,122.24,118.07,115.62,113.18,110.94,108.58,106.28,104.73,105.56,106.60,107.20,106.20,102.60,99.88,98.58,99.54,102.72,106.29,109.83,112.53,113.26,110.47
107.36,111.38,115.29,118.43,120.31,120.39,119.70,118.21,116.35,115.06,113.31,111.64,110.84,111.45,110.89,109.59,107.38,104.59,102.62,101.10,99.82,99.05,99.22,99.61,99.67,100.12,101.21,101.43,100.36,99.59,99.46,99.71,99.78,99.43,98.34,96.18,91.97,86.75,81.57,77.13,74.22,71.21,65.91,59.62,54.99,52.18,49.01,45.31,41.02,36.66,31.64,27.78,25.16,22.60,20.56,19.63,19.32,19.00,18.62,18.29,18.07,18.03,18.26,18.44,18.63,18.85,19.08,19.32,19.51,19.67,19.82,19.96,20.20,20.53,20.93,21.37,22.66,24.13,25.46,26.37,27.24,28.14,29.06,30.11,31.71,33.25,34.85,36.49,38.07,39.81,41.88,44.29,47.02,49.86,52.69,55.50,58.25,60.84,63.97,67.13,70.32,73.62,76.84,79.31,81.04,82.16,83.27,83.54,83.44,83.12,82.64,81.95,81.28,80.61,79.93,79.22,78.46,77.78,77.20,76.65,76.43,76.81,77.43,77.81,78.09,78.34,78.73,79.63,82.30,86.66,90.42,93.34,95.95,99.15,103.35,108.22,113.43,118.94,122.74,125.93,128.77,130.85,132.83,135.65,138.89,141.79,144.21,146.54,148.88,151.16,152.73,154.32,156.73,159.54,161.50,162.95,165.08,168.19,172.51,178.74,183.58,187.59,191.13,194.57,198.09,202.20,207.12,213.00,218.10,221.30,223.40,224.94,225.63,226.63,227.43,228.03,228.69,230.51,232.82,235.36,237.98,241.67,247.05,250.39,249.99,245.28,241.08,236.78,232.70,229.43,227.78,227.87,229.87,233.43,236.04,238.38,239.79,240.04,239.03,235.85,231.97,228.04,224.63,221.82,219.83,218.28,217.35,218.38,219.95,220.16,218.13,213.16,208.56,203.09,196.99,190.36,182.54,177.69,173.66,169.85,166.24,161.68,157.96,154.97,152.43,151.36,150.82,150.41,149.72,148.01,145.54,142.45,137.71,129.71,121.94,117.98,115.64,113.24,111.00,108.69,107.14,106.70,107.48,109.02,109.48,107.98,103.98,100.88,100.06,101.66,105.22,108.83,112.94,114.68,113.72,110.54
107.10,110.66,114.58,118.01,120.29,120.53,120.39,119.76,118.88,118.40,116.67,114.85,113.50,112.97,111.66,109.12,105.58,101.55,98.49,96.88,95.72,95.05,95.08,96.03,96.93,98.19,99.93,101.05,101.12,101.17,101.32,101.10,101.16,100.91,100.33,99.25,94.14,87.33,80.72,75.29,71.53,67.51,61.26,54.53,50.60,47.77,44.78,41.58,38.05,33.53,29.81,26.90,24.57,22.16,20.42,19.58,19.25,18.94,18.59,18.24,17.96,17.80,17.97,18.15,18.36,18.59,18.79,19.02,19.22,19.39,19.54,19.67,19.88,20.19,20.69,21.61,23.23,24.85,26.21,27.14,27.99,28.92,30.05,31.47,33.28,34.80,36.34,37.93,39.47,41.27,43.31,45.66,48.37,51.54,54.65,57.69,60.71,63.83,67.24,70.58,73.94,77.38,80.35,82.71,84.54,85.94,87.27,87.65,87.63,87.41,87.10,86.52,85.92,85.30,84.63,83.93,83.23,82.55,81.89,81.17,80.76,80.89,81.30,81.59,81.69,81.44,81.11,81.04,82.28,86.00,89.78,93.14,96.25,99.89,104.53,109.80,115.26,120.31,123.95,127.12,130.05,132.24,134.37,137.11,139.93,142.04,143.89,145.65,147.31,148.83,150.07,151.14,153.04,155.64,158.13,159.55,161.74,164.87,169.02,175.03,180.62,185.40,189.41,193.41,197.28,201.57,206.47,212.11,216.37,219.19,221.14,222.58,223.01,223.98,225.32,226.90,228.54,231.01,233.29,235.62,238.27,241.82,246.81,250.40,250.86,246.37,241.87,237.56,233.90,231.47,230.02,230.50,232.89,236.67,239.18,241.53,243.38,244.17,242.91,239.62,235.52,231.70,229.12,227.03,226.08,225.03,223.54,222.33,221.69,219.67,215.63,209.18,203.95,198.40,192.57,186.48,179.78,175.63,171.99,168.36,164.97,161.40,158.38,155.93,154.12,154.88,155.68,155.79,154.69,151.72,147.58,143.17,137.46,128.62,121.57,118.06,116.04,113.95,112.23,110.92,110.22,110.10,110.28,111.67,111.08,108.54,104.68,102.53,102.58,104.51,107.98,112.19,116.26,117.01,114.67,110.70
106.01,109.25,113.23,117.10,120.07,120.65,120.70,120.56,120.27,119.68,117.89,116.32,114.82,113.11,110.93,107.27,102.92,98.41,94.40,92.57,91.51,91.03,91.12,92.20,93.20,94.31,95.64,97.04,98.61,100.15,101.27,101.14,101.43,101.17,100.60,99.79,94.27,86.79,79.49,73.37,68.43,63.09,56.49,50.08,46.34,43.21,40.39,37.89,35.39,30.70,28.25,26.24,24.11,21.81,20.31,19.55,19.19,18.88,18.57,18.20,17.85,17.60,17.67,17.87,18.10,18.32,18.47,18.70,18.93,19.13,19.28,19.37,19.58,19.90,20.56,22.14,23.91,25.59,26.98,27.90,28.76,29.77,31.22,33.14,34.99,36.51,37.99,39.49,41.04,42.88,44.82,47.06,49.78,53.27,56.63,59.89,63.18,66.87,70.37,73.85,77.35,80.85,83.35,85.66,87.72,89.48,91.01,91.53,91.60,91.48,91.41,90.97,90.51,90.00,89.40,88.74,88.12,87.47,86.75,85.91,85.18,85.03,85.30,85.65,85.51,84.73,83.96,83.49,83.01,85.29,88.66,92.49,96.24,100.36,105.34,110.85,116.46,121.04,124.54,127.64,130.48,132.71,134.85,137.32,139.57,140.86,141.67,143.02,144.39,145.53,146.68,147.62,149.19,151.65,155.10,156.82,158.99,162.05,166.27,171.56,178.13,183.94,188.54,193.21,197.64,202.03,206.55,211.35,214.13,216.34,218.20,219.78,220.36,221.57,223.76,226.67,229.56,232.76,234.85,236.68,239.19,242.49,246.84,250.54,251.87,247.23,242.31,238.20,235.29,233.86,232.57,233.45,236.20,240.13,242.59,244.97,246.87,247.62,245.93,242.93,239.15,235.90,234.34,232.59,232.04,230.92,228.38,224.27,220.87,216.43,210.85,204.42,198.75,193.44,188.25,183.07,177.95,173.96,170.39,167.07,164.00,161.46,159.22,157.45,156.46,158.62,160.47,160.70,158.68,154.24,148.61,143.04,136.61,127.54,121.46,118.48,116.83,115.20,114.36,114.46,114.55,114.28,113.53,114.20,112.13,108.45,105.04,104.56,105.60,107.76,110.97,115.93,119.57,119.37,115.88,110.91
104.79,107.98,111.64,115.15,118.06,119.92,120.27,119.91,118.73,115.97,113.92,112.75,112.07,111.38,109.00,105.74,101.43,96.14,90.44,87.76,86.23,85.58,85.81,86.89,88.25,90.01,92.14,93.64,95.06,96.67,98.46,100.25,100.75,100.78,100.44,99.55,94.48,87.18,79.41,72.07,65.45,59.98,54.05,48.32,44.24,40.71,37.91,35.56,33.27,29.61,27.31,25.33,23.31,21.16,20.04,19.45,19.13,18.82,18.51,18.14,17.79,17.52,17.43,17.58,17.78,18.01,18.22,18.40,18.61,18.81,18.97,19.15,19.46,19.97,20.89,22.82,24.65,26.35,27.73,28.60,29.56,31.07,32.88,34.80,36.65,38.17,39.73,41.37,43.02,44.71,46.51,48.68,51.45,55.09,58.60,62.01,65.38,68.93,72.46,75.96,79.40,82.78,85.52,88.01,90.25,92.21,93.65,94.40,94.71,94.75,94.73,94.48,94.09,93.69,93.39,93.08,92.61,92.06,91.43,90.63,89.68,89.32,89.39,89.53,88.70,87.63,86.77,86.28,85.65,85.78,87.48,90.47,93.82,99.21,104.57,109.95,115.39,120.16,123.44,126.22,128.79,130.87,132.69,134.39,135.89,137.04,138.24,139.73,141.03,141.94,142.99,144.46,146.99,150.32,153.58,156.23,159.02,162.56,167.32,173.00,179.59,185.49,190.25,194.47,198.86,202.60,205.68,208.26,208.58,209.80,211.87,214.62,217.32,221.22,225.08,228.61,231.84,236.42,238.55,239.56,241.09,244.20,248.08,251.60,253.23,249.38,243.67,239.77,237.97,237.82,236.77,237.80,240.37,243.75,246.12,248.93,251.22,251.98,249.55,245.86,242.41,240.00,239.15,237.75,235.13,231.52,226.91,220.92,215.99,211.00,205.67,199.88,194.86,190.36,185.94,181.35,176.87,172.72,169.40,166.93,164.95,162.99,160.88,159.64,160.37,164.21,165.58,164.03,159.89,155.06,149.24,143.25,136.73,128.99,124.34,121.29,119.45,118.58,119.52,120.08,119.93,118.87,116.64,114.24,111.23,108.14,105.74,106.79,108.29,111.00,115.02,119.34,121.74,120.97,117.16,111.06
103.64,106.53,109.59,112.68,115.61,117.98,118.24,117.16,114.86,111.16,109.03,107.78,107.36,107.59,106.10,103.47,99.24,93.44,86.90,83.28,81.13,80.20,80.38,81.38,82.66,84.39,86.59,88.47,90.57,92.90,95.44,98.12,99.30,99.81,99.54,98.26,93.92,87.09,79.22,71.01,62.61,57.05,51.68,46.48,42.13,38.75,35.99,33.57,31.23,28.48,26.35,24.38,22.44,20.53,19.78,19.34,19.02,18.69,18.38,18.01,17.66,17.37,17.19,17.30,17.50,17.72,17.93,18.11,18.34,18.58,18.80,19.11,19.48,20.18,21.40,23.38,25.34,27.09,28.48,29.42,30.74,32.57,34.54,36.46,38.34,39.94,41.57,43.27,44.97,46.59,48.35,50.56,53.45,57.08,60.54,63.94,67.34,70.84,74.30,77.73,81.20,84.77,87.70,90.31,92.70,94.82,96.26,97.29,97.97,98.31,98.28,98.18,97.87,97.56,97.40,97.25,96.91,96.47,95.93,95.19,94.18,93.56,93.30,93.22,92.01,90.61,89.58,89.08,88.35,87.46,87.78,89.49,92.29,97.79,103.08,108.15,113.15,118.20,121.73,124.41,126.45,127.78,129.05,130.55,132.01,133.07,134.20,135.87,137.40,138.54,140.19,142.82,146.56,150.75,154.00,157.02,160.18,164.05,169.07,175.13,181.31,186.87,191.45,194.90,198.69,201.29,202.76,203.54,203.00,204.55,207.59,211.63,216.11,221.47,226.40,230.62,234.25,238.78,241.08,242.25,243.65,246.30,249.40,252.45,254.28,251.55,246.50,243.07,241.80,242.52,241.98,242.93,245.11,248.13,251.07,253.94,256.05,256.41,253.27,249.03,245.95,243.82,242.17,239.74,235.86,230.91,225.05,218.25,212.47,206.78,201.26,196.25,192.10,188.70,185.25,181.26,177.27,173.24,170.03,167.81,166.37,165.17,164.19,164.47,167.01,171.18,171.39,168.02,161.98,156.18,150.25,144.28,138.19,131.86,128.25,125.82,124.44,124.05,124.86,124.43,123.08,120.88,117.79,114.18,110.91,108.36,106.92,108.80,111.44,114.90,118.93,122.41,123.83,122.40,118.11,111.36
102.56,104.89,107.14,109.74,112.78,114.95,114.76,112.51,108.89,105.33,103.31,101.55,100.87,101.95,102.34,100.53,96.41,90.35,83.71,79.09,76.21,74.89,74.82,75.68,76.49,77.57,79.19,81.71,85.22,88.87,92.23,94.86,97.16,98.31,97.99,96.02,92.65,86.55,78.91,70.18,59.91,54.29,49.37,44.58,40.03,37.28,34.57,31.88,29.27,27.31,25.37,23.40,21.49,19.93,19.52,19.21,18.87,18.49,18.18,17.82,17.47,17.17,16.94,17.04,17.24,17.45,17.61,17.84,18.12,18.43,18.75,19.21,19.61,20.54,22.06,23.84,25.97,27.79,29.23,30.34,32.24,34.23,36.20,38.13,40.06,41.79,43.48,45.18,46.88,48.51,50.34,52.68,55.73,59.21,62.45,65.70,69.07,72.63,75.90,79.20,82.77,86.81,89.90,92.59,95.06,97.33,98.87,100.20,101.37,102.13,102.05,102.05,101.83,101.58,101.43,101.27,101.05,100.74,100.29,99.59,98.68,97.76,97.05,96.73,95.42,93.67,92.39,91.88,91.11,90.21,89.41,89.44,91.55,96.13,100.93,105.56,109.86,115.25,119.48,122.24,123.52,123.57,124.09,125.88,127.97,128.97,129.61,131.50,133.55,135.32,138.21,142.56,147.72,152.77,156.16,159.05,162.36,166.41,171.46,177.86,183.28,188.11,192.20,194.57,197.27,198.28,197.98,197.35,197.40,200.46,205.17,210.60,216.57,222.26,227.71,232.71,236.79,239.98,242.55,244.75,246.80,248.76,250.79,253.12,255.05,253.75,250.66,247.93,246.67,247.89,248.09,248.77,250.37,253.19,257.32,259.91,261.32,260.91,257.08,252.43,249.75,247.40,243.57,238.87,234.46,229.20,222.84,216.19,210.16,203.66,197.56,193.43,190.37,188.33,186.02,182.64,178.99,175.35,172.12,169.61,168.22,167.94,168.99,171.68,176.10,179.38,177.85,172.59,164.86,157.58,151.60,146.05,140.84,135.99,133.08,131.89,131.58,131.39,130.38,127.64,124.20,120.56,117.17,114.04,111.13,109.06,108.52,110.60,114.99,119.40,122.73,125.17,125.85,123.67,118.76,111.81
99.81,101.66,103.73,106.44,109.77,111.84,110.13,106.82,103.09,100.39,98.46,97.28,96.99,97.63,98.18,96.50,92.95,87.85,81.64,76.68,72.51,69.99,70.43,71.18,72.15,73.01,73.75,75.82,79.30,83.33,87.44,91.11,93.38,94.81,95.00,93.52,90.01,83.10,74.14,64.32,55.77,50.71,46.41,42.40,38.65,35.89,33.17,30.50,27.93,25.67,23.75,21.97,20.45,19.61,19.27,18.96,18.62,18.24,17.93,17.60,17.28,16.97,16.69,16.83,17.05,17.30,17.60,17.92,18.27,18.61,18.92,19.29,19.75,21.00,22.99,25.01,26.90,28.64,30.32,32.03,34.01,36.05,38.09,40.13,42.25,44.21,45.96,47.56,49.17,50.93,52.87,55.24,58.18,61.33,64.34,67.49,70.79,74.01,77.13,80.57,84.40,88.56,92.08,95.13,98.11,101.13,103.67,105.73,106.91,107.29,107.17,106.89,106.59,106.29,106.00,105.80,105.34,104.82,104.26,103.57,102.79,101.95,101.13,100.41,98.58,96.57,95.28,94.94,94.22,93.32,92.45,91.94,92.32,95.70,99.29,102.99,106.80,110.88,114.81,117.77,119.34,119.30,120.16,122.05,124.34,126.19,127.85,130.14,133.16,136.81,140.36,145.87,151.04,155.32,158.82,161.98,165.20,168.96,173.61,178.75,182.82,185.98,188.37,190.36,191.80,192.38,192.92,194.55,197.19,201.16,206.13,211.79,217.81,223.63,228.66,232.93,236.84,239.97,242.46,244.67,246.96,249.46,251.33,253.00,254.52,255.27,253.87,252.54,252.10,253.19,254.61,255.86,257.32,259.22,261.31,263.17,264.50,264.44,261.24,258.04,253.89,248.97,243.62,238.74,234.03,228.58,222.44,217.22,211.32,205.51,200.62,197.67,195.50,192.98,189.79,185.84,181.78,177.80,174.69,172.92,173.09,174.20,176.17,178.85,181.98,183.99,181.16,174.92,166.86,160.52,155.23,150.61,146.35,142.04,139.30,138.07,137.18,135.53,131.37,127.73,124.19,120.73,117.62,114.70,112.21,110.89,111.55,115.43,119.35,122.92,125.94,128.29,128.45,124.78,118.49,112.25
96.37,98.21,100.40,103.41,107.02,108.25,105.38,101.57,98.07,95.79,93.93,93.23,93.27,93.56,93.99,92.46,89.50,85.31,79.73,74.64,69.30,65.48,65.89,66.27,67.01,67.55,67.84,70.15,74.09,78.55,83.08,87.37,89.63,91.26,91.68,90.21,85.86,78.16,68.52,58.56,51.93,47.60,43.85,40.40,37.25,34.47,31.75,29.13,26.60,24.11,22.22,20.72,19.66,19.28,18.96,18.65,18.32,17.96,17.67,17.37,17.05,16.73,16.46,16.64,16.90,17.21,17.59,18.00,18.39,18.75,19.08,19.39,20.03,21.57,23.88,26.10,27.92,29.71,31.59,33.66,35.70,37.81,39.97,42.18,44.44,46.55,48.42,50.08,51.65,53.49,55.51,57.87,60.70,63.53,66.34,69.30,72.37,75.30,78.38,82.05,86.15,90.42,94.25,97.70,101.25,105.02,108.46,111.01,112.36,112.80,113.01,112.61,112.26,111.86,111.33,110.88,110.16,109.40,108.71,108.17,107.33,106.28,105.17,104.16,102.02,99.89,98.57,98.23,97.50,96.47,95.46,94.56,93.79,95.70,98.06,100.91,104.28,107.31,110.72,113.61,115.59,116.46,118.20,120.37,122.76,125.17,127.43,130.12,133.86,138.69,142.93,148.89,153.96,157.80,160.96,164.16,167.23,170.63,174.71,178.40,181.11,182.80,183.81,185.30,186.62,187.98,190.00,193.47,197.74,202.24,207.32,213.10,219.01,224.46,228.99,232.80,236.62,239.83,242.27,244.44,246.78,248.84,250.51,251.83,253.05,254.88,255.10,255.26,255.75,256.76,258.75,260.19,261.46,262.78,263.90,265.63,267.20,267.63,265.18,262.43,257.16,250.69,244.62,240.01,235.66,230.77,225.27,220.18,214.27,208.93,204.79,202.35,200.05,196.57,192.37,187.89,183.52,179.95,177.58,176.74,177.93,179.85,182.23,184.89,187.57,188.65,184.83,177.78,169.37,163.76,159.20,155.34,151.71,147.61,144.62,142.69,140.82,137.99,131.91,127.79,124.30,121.08,118.26,115.58,113.81,113.55,115.33,119.75,123.16,126.28,129.32,131.56,130.77,125.59,118.24,112.95
91.97,94.55,97.27,100.78,104.67,103.93,100.51,97.09,94.23,91.66,89.83,89.36,89.61,89.83,89.76,88.50,86.13,82.66,78.02,73.05,66.78,61.57,61.03,60.63,60.51,60.56,61.10,64.73,70.01,75.05,79.48,83.67,86.02,87.74,87.96,85.64,79.47,71.10,61.88,53.28,48.61,45.27,41.95,38.68,35.78,33.00,30.32,27.74,25.26,22.72,20.85,19.76,19.28,18.89,18.58,18.27,17.96,17.64,17.40,17.11,16.77,16.43,16.26,16.49,16.83,17.21,17.59,18.05,18.46,18.84,19.21,19.52,20.51,22.30,24.68,27.05,29.06,31.07,33.11,35.13,37.28,39.48,41.83,44.30,46.60,48.72,50.81,52.78,54.39,56.24,58.25,60.58,63.29,65.88,68.52,71.13,73.73,76.47,79.71,83.70,88.10,92.47,96.39,100.31,104.49,108.95,113.08,115.73,117.50,118.73,119.88,119.60,119.29,118.74,117.80,116.81,115.78,114.75,113.89,113.75,112.54,110.84,109.15,107.99,105.90,103.85,102.46,101.86,101.03,99.65,98.33,97.19,96.22,96.28,97.44,99.62,102.58,105.07,107.66,110.10,112.54,115.84,119.20,121.94,124.30,126.76,128.87,131.95,136.01,140.90,145.87,151.21,156.15,160.11,162.28,165.16,167.96,170.94,174.21,176.27,177.62,178.24,178.44,179.18,182.14,186.04,190.42,194.81,199.13,203.58,208.64,214.47,220.08,224.42,228.38,232.25,236.17,239.57,242.05,244.15,246.27,246.31,247.66,249.08,250.22,251.61,253.35,255.11,256.64,257.65,259.19,260.19,261.16,262.50,264.52,267.05,269.30,270.38,268.77,264.82,259.08,252.76,247.16,243.38,240.40,237.21,232.92,225.91,219.76,214.45,210.20,207.27,203.25,198.21,192.96,188.07,183.61,181.63,180.94,181.23,182.53,184.36,186.42,189.18,192.91,193.60,189.23,181.60,172.74,167.36,163.53,160.15,156.63,152.34,148.47,144.90,141.55,138.06,132.02,128.04,124.70,121.66,119.13,116.75,116.18,117.43,120.18,123.07,126.06,129.44,132.99,135.03,132.64,125.97,118.08,114.08
89.26,92.49,95.84,99.68,103.34,101.16,97.19,93.59,90.53,87.13,85.07,84.25,84.36,84.99,85.37,84.77,83.04,80.11,75.99,70.72,64.44,59.04,57.24,56.45,56.11,56.47,57.77,60.74,66.05,71.37,75.99,79.88,82.41,83.68,82.62,78.29,71.72,63.78,56.10,49.81,46.30,43.23,40.11,37.02,34.20,31.42,28.83,26.34,23.87,21.36,20.07,19.37,18.95,18.56,18.21,17.86,17.54,17.27,17.00,16.70,16.39,16.12,16.05,16.38,16.77,17.17,17.59,18.02,18.44,18.85,19.24,19.63,21.03,23.10,25.57,28.00,30.16,32.26,34.35,36.44,38.60,41.01,43.54,46.10,48.50,50.84,53.10,55.21,57.08,59.29,61.67,64.22,66.88,69.06,71.27,73.45,75.64,78.02,81.64,85.83,90.22,94.42,98.52,103.01,107.77,112.64,117.21,120.00,122.12,123.75,124.77,124.66,124.32,123.72,122.84,121.92,120.97,120.19,119.71,119.68,118.93,117.71,115.92,113.46,111.13,109.33,108.23,107.59,105.80,103.63,101.54,99.75,98.50,98.47,99.50,101.12,102.91,105.10,107.51,109.91,112.51,116.26,119.82,122.83,125.48,128.15,130.73,133.89,137.72,142.19,146.96,152.07,156.92,160.87,162.88,164.88,167.10,169.52,171.98,173.30,174.19,175.26,176.71,178.39,182.26,187.09,192.25,197.05,201.13,205.06,209.51,214.71,219.49,223.55,227.84,232.24,235.90,238.92,241.19,242.72,243.51,242.79,242.83,244.02,246.30,248.80,251.33,253.07,253.99,254.26,255.27,256.18,257.41,259.28,261.89,264.65,267.34,269.60,270.67,268.93,263.93,257.63,252.10,247.69,244.14,240.11,234.63,226.27,220.18,215.36,211.46,208.12,202.17,196.92,192.21,188.07,185.67,184.89,184.97,185.66,186.77,189.33,192.34,195.25,197.52,197.81,193.21,185.24,175.86,169.96,166.03,162.59,158.91,154.21,149.14,144.79,140.86,136.95,131.87,128.15,124.96,122.14,120.00,118.07,118.50,120.63,123.39,125.98,129.34,133.20,136.86,137.97,133.95,125.99,117.62,114.37
87.03,90.92,94.82,98.82,102.03,98.62,94.11,90.19,86.75,82.58,80.19,78.83,78.53,79.26,79.93,80.01,79.04,76.86,73.48,68.19,62.32,57.19,54.37,53.07,52.52,53.15,55.08,57.31,61.95,67.04,71.69,75.20,77.68,78.32,76.22,70.81,64.24,57.11,51.14,46.98,44.20,41.25,38.25,35.30,32.51,29.80,27.32,24.91,22.48,20.25,19.52,19.09,18.64,18.24,17.85,17.45,17.11,16.85,16.56,16.26,15.99,15.81,15.87,16.29,16.71,17.13,17.59,17.99,18.43,18.86,19.26,19.73,21.53,23.91,26.51,28.99,31.23,33.36,35.47,37.64,39.85,42.42,45.09,47.71,50.25,52.84,55.26,57.52,59.72,62.36,65.10,67.81,70.35,72.23,74.09,75.98,78.00,80.26,84.02,88.18,92.38,96.36,100.69,105.72,110.99,116.20,120.90,123.84,126.37,128.40,129.31,129.34,129.01,128.41,127.62,126.92,126.16,125.68,125.52,125.34,124.94,124.18,122.28,118.40,116.20,114.92,114.20,113.41,110.53,107.48,104.66,102.38,101.02,101.36,102.47,103.61,104.29,105.99,108.19,110.50,113.04,116.64,119.93,122.99,125.95,128.97,131.95,135.10,138.62,142.64,147.11,151.99,156.70,160.64,162.80,163.94,165.52,167.35,169.13,170.31,171.65,173.62,176.22,178.78,183.28,188.55,194.02,199.17,203.02,206.41,210.13,214.51,218.54,222.74,227.52,232.30,235.58,238.09,239.91,240.60,239.82,238.44,237.78,239.35,243.10,246.58,248.86,249.67,249.50,249.15,250.06,251.24,252.98,255.42,258.46,261.36,264.28,267.31,270.52,271.55,268.65,263.37,257.53,252.07,247.25,241.84,235.07,225.94,219.73,215.16,211.43,207.65,200.86,195.98,192.22,189.21,188.76,188.98,189.67,190.66,191.73,194.57,197.94,200.53,201.19,200.85,196.04,188.03,178.55,171.89,167.63,163.98,160.01,154.76,148.79,143.99,139.77,135.64,131.45,128.07,125.17,122.71,120.92,119.82,121.14,123.82,126.48,129.25,132.97,136.87,140.02,140.15,134.73,125.88,117.32,114.59
85.18,89.76,93.97,97.74,100.19,95.84,90.84,86.50,82.66,78.19,75.37,73.24,71.97,71.68,71.66,72.18,72.33,71.64,69.78,65.50,60.75,56.44,53.48,51.04,49.94,50.34,52.17,54.65,57.39,61.01,65.07,68.07,69.79,69.64,67.81,64.57,58.30,52.44,47.92,44.87,42.09,39.27,36.33,33.37,30.53,28.11,25.76,23.40,21.11,19.82,19.26,18.84,18.38,17.93,17.48,17.07,16.69,16.34,16.10,15.85,15.61,15.47,15.78,16.22,16.68,17.13,17.59,18.04,18.46,18.88,19.33,19.79,21.95,24.70,27.54,30.07,32.22,34.32,36.43,38.60,41.01,43.60,46.26,48.96,51.75,54.54,57.13,59.62,62.26,65.30,68.17,70.73,72.91,74.89,76.77,78.84,81.27,84.23,87.37,90.85,94.55,98.35,103.03,108.40,114.07,119.55,123.61,126.75,129.84,132.57,134.02,134.07,133.87,133.35,132.50,132.10,131.59,131.24,130.94,130.07,129.20,128.18,125.83,120.93,120.06,119.97,119.65,118.26,114.45,110.49,107.33,105.24,104.33,105.30,106.42,107.23,107.45,107.97,109.53,111.37,113.41,116.33,118.79,121.52,124.67,128.26,131.15,134.16,137.49,141.29,145.71,150.13,154.52,158.48,161.24,161.89,162.83,164.07,165.56,167.73,171.55,174.84,177.06,179.38,184.21,189.40,194.76,200.45,204.25,207.31,210.31,213.71,217.49,222.60,227.75,232.19,235.03,236.95,237.83,237.20,234.83,232.31,233.25,237.10,242.54,245.78,245.27,243.56,241.94,241.75,243.74,246.04,248.63,251.47,254.61,257.81,260.51,262.86,265.63,269.00,271.30,269.93,262.95,256.10,249.18,242.36,235.35,226.77,219.80,214.52,210.24,205.86,201.38,197.71,195.09,193.65,193.55,194.52,195.84,197.30,198.91,200.27,201.63,202.58,202.66,201.03,195.91,188.57,180.11,172.52,167.76,163.78,159.38,153.24,147.46,142.61,138.38,134.45,130.45,127.55,125.32,123.53,121.98,122.69,124.69,127.36,130.15,133.76,137.32,139.92,141.06,140.50,134.39,125.64,117.63,115.09
83.91,88.70,92.97,96.56,98.51,93.43,88.01,83.17,78.76,73.89,70.99,68.61,67.09,66.77,66.67,67.33,67.79,67.53,66.25,62.83,59.29,56.06,53.25,50.47,48.07,47.46,49.24,51.38,53.39,56.16,59.48,62.27,64.10,64.13,62.49,59.40,53.53,48.91,45.37,42.63,39.85,37.07,34.21,31.40,28.85,26.54,24.22,22.04,20.18,19.42,18.96,18.56,18.12,17.65,17.22,16.80,16.38,15.96,15.66,15.41,15.28,15.33,15.78,16.25,16.71,17.16,17.59,18.06,18.49,18.93,19.39,19.89,22.28,25.24,28.22,30.80,32.96,35.08,37.21,39.39,42.00,44.65,47.36,50.15,53.04,55.90,58.72,61.57,64.59,67.72,70.45,72.85,75.04,77.18,79.26,81.56,84.19,87.18,90.03,93.09,96.51,100.42,105.35,110.93,116.61,121.87,125.80,129.66,133.53,136.95,139.09,139.15,139.41,139.50,139.08,138.56,137.95,137.21,136.25,134.83,133.66,132.30,130.09,126.43,124.93,124.17,123.15,121.09,116.86,112.64,109.46,107.70,107.62,109.20,110.22,110.68,110.77,111.40,112.93,114.31,115.41,117.01,118.62,120.85,123.67,126.93,129.76,132.82,136.08,139.56,143.38,147.36,151.20,154.81,158.12,159.20,159.98,161.19,163.50,168.52,174.06,177.88,179.74,181.85,185.41,189.72,194.67,200.22,204.83,208.76,212.26,215.51,218.46,224.28,229.23,232.39,233.85,234.63,234.41,232.80,229.59,226.21,229.85,235.99,241.70,243.39,241.32,238.78,237.07,237.37,239.72,242.50,245.50,248.59,251.83,254.43,256.45,258.36,261.19,265.45,269.42,271.08,268.49,260.23,252.55,245.56,238.88,230.77,222.34,216.18,211.92,208.26,205.12,202.57,200.80,199.92,200.09,201.21,202.69,204.11,204.89,204.71,204.27,203.56,202.44,199.75,194.28,187.60,180.46,172.85,167.55,162.97,158.14,151.97,146.25,141.41,137.22,133.46,130.31,128.10,126.25,124.85,124.62,126.32,128.89,131.92,134.96,137.79,140.28,141.56,141.32,139.89,133.34,125.09,118.08,116.13
82.89,87.71,91.97,95.40,96.99,91.49,85.65,80.17,75.04,69.83,66.92,64.48,63.03,63.03,63.12,63.76,64.17,63.92,62.81,60.22,57.87,55.71,53.20,50.40,46.50,44.59,46.23,47.87,49.69,51.91,54.46,57.06,59.29,59.83,58.36,54.76,49.50,45.99,43.11,40.33,37.55,34.77,32.02,29.45,27.29,25.00,22.71,20.79,19.50,19.04,18.63,18.24,17.84,17.37,16.98,16.55,16.09,15.63,15.25,14.99,14.99,15.30,15.84,16.31,16.78,17.23,17.62,18.07,18.53,18.99,19.47,20.03,22.57,25.66,28.70,31.33,33.54,35.71,37.89,40.09,42.89,45.62,48.40,51.27,54.21,57.09,60.13,63.35,66.67,69.76,72.29,74.59,76.92,79.28,81.64,84.18,86.89,89.67,92.37,95.15,98.41,102.58,107.64,113.29,118.79,123.70,127.79,132.52,137.17,141.24,144.14,144.46,145.36,146.22,146.40,145.63,144.77,143.46,141.72,139.86,138.37,136.53,134.55,132.78,130.01,127.92,125.79,123.01,118.62,114.47,111.55,110.33,111.20,113.19,113.96,114.08,114.25,115.52,117.21,118.17,118.29,118.51,119.28,120.92,123.22,125.78,128.48,131.56,134.74,137.82,140.83,144.35,147.62,150.79,154.54,156.45,157.45,159.03,162.69,170.86,177.50,181.49,183.18,185.19,187.05,190.20,194.52,199.57,205.22,210.38,214.82,218.32,220.41,226.52,230.87,232.44,232.26,231.65,230.28,227.87,224.28,220.66,227.07,235.08,240.36,240.19,237.24,234.61,233.39,234.43,236.84,239.79,242.97,246.16,249.22,250.89,252.23,253.98,257.18,261.55,265.53,269.46,273.00,264.41,256.75,250.01,243.72,236.05,226.13,219.18,215.20,212.74,210.54,208.95,207.77,206.93,207.24,207.93,208.98,209.82,209.13,207.67,205.83,203.72,201.36,197.68,191.94,185.91,180.08,172.98,167.23,162.00,156.80,151.04,145.36,140.55,136.46,133.00,130.83,129.17,127.54,126.52,127.93,130.28,133.34,136.70,139.88,141.40,142.39,142.34,141.06,138.66,131.86,124.41,118.69,117.45
81.87,86.94,91.34,94.66,96.03,91.56,85.17,78.33,71.93,67.07,63.66,60.97,59.43,59.39,59.58,60.06,60.41,60.35,59.58,57.98,56.35,54.60,52.44,49.49,44.88,42.01,42.80,44.53,46.45,48.36,50.19,52.00,53.90,54.34,53.19,50.57,47.04,43.79,40.81,38.04,35.31,32.54,29.98,27.68,25.57,23.42,21.39,19.88,19.12,18.65,18.21,17.79,17.39,16.93,16.54,16.14,15.71,15.25,14.86,14.72,14.89,15.36,15.90,16.37,16.87,17.37,17.81,18.22,18.63,19.06,19.55,20.31,22.93,25.99,28.96,31.58,33.89,36.13,38.38,40.74,43.68,46.49,49.30,52.17,55.17,58.09,61.21,64.50,67.82,70.81,73.51,76.03,78.48,81.13,83.87,86.58,89.24,91.97,94.62,97.26,100.50,105.00,109.82,114.89,120.12,125.31,129.88,135.07,139.94,144.29,148.14,150.26,152.05,153.29,153.75,153.03,151.90,150.35,148.49,146.63,144.15,141.20,138.33,136.17,133.50,131.07,128.27,124.75,120.46,116.74,114.94,115.12,116.73,117.85,117.81,117.70,118.48,119.94,121.41,122.25,122.42,122.54,122.63,123.69,125.49,127.56,129.61,132.06,134.61,137.10,139.52,142.36,145.51,148.86,152.32,155.16,157.40,160.51,165.81,173.77,179.61,183.63,186.36,188.96,190.84,193.23,196.39,200.47,206.16,211.52,216.31,220.31,223.05,227.18,229.89,230.60,229.68,227.77,225.26,222.31,219.24,218.68,225.18,232.22,236.51,236.18,233.30,230.71,229.91,232.32,234.88,237.83,240.89,243.63,244.72,245.92,247.78,250.60,254.64,258.22,261.25,265.02,270.27,268.64,262.40,255.05,248.01,240.73,231.11,224.40,220.77,219.06,217.69,216.32,214.93,213.64,213.41,211.62,209.65,207.71,205.35,204.51,203.27,201.55,199.33,194.71,189.23,183.73,178.43,172.56,167.06,161.68,156.47,151.61,146.18,141.38,137.76,135.49,133.27,130.63,128.99,128.99,131.20,134.33,137.43,140.15,142.23,143.61,142.97,141.54,139.65,136.01,129.65,123.76,119.81,119.16
81.43,86.55,90.91,94.06,95.27,91.70,85.19,77.29,69.73,65.38,61.73,58.67,56.58,55.79,55.96,56.27,56.54,56.64,56.33,55.42,54.38,53.09,51.31,47.27,42.62,39.66,39.75,41.53,43.42,45.13,46.61,47.94,49.34,49.64,48.78,46.88,44.30,41.34,38.43,35.71,33.03,30.46,28.11,25.93,23.84,21.87,20.33,19.29,18.73,18.27,17.81,17.38,16.98,16.52,16.10,15.68,15.26,14.83,14.44,14.47,14.81,15.36,15.92,16.43,16.95,17.47,17.93,18.37,18.77,19.19,19.72,20.82,23.37,26.26,29.10,31.73,34.10,36.41,38.79,41.34,44.44,47.32,50.18,53.10,56.09,59.10,62.31,65.64,68.94,71.83,74.60,77.29,79.93,82.82,85.84,88.70,91.37,93.99,96.56,99.47,103.07,107.70,112.08,116.71,121.73,127.06,132.13,137.65,142.76,147.39,151.75,154.87,158.06,160.53,161.55,160.69,158.86,156.57,154.18,152.19,149.45,146.41,143.36,140.59,137.32,134.47,131.25,127.28,123.06,119.89,119.13,120.18,121.19,121.92,121.62,121.39,122.22,123.96,125.52,126.59,127.08,127.05,126.44,126.77,128.27,130.85,132.01,133.83,136.02,138.34,140.51,142.89,145.76,148.99,152.26,155.53,158.73,162.91,168.93,175.81,180.98,185.07,188.47,191.58,194.05,196.47,199.20,202.62,207.69,212.53,217.10,221.24,224.17,226.66,228.08,228.06,226.21,223.43,220.10,216.71,214.05,216.03,222.44,228.52,231.97,231.75,228.37,226.18,226.40,229.74,232.59,235.46,238.13,240.26,240.27,241.71,244.23,247.61,251.54,254.33,256.76,260.19,265.68,269.64,266.29,260.01,252.94,245.61,236.59,230.46,227.19,225.49,223.76,221.47,218.74,215.79,213.40,209.80,206.34,203.42,201.05,200.64,199.60,197.91,195.74,191.44,186.76,181.63,176.20,171.09,166.48,161.87,157.34,153.12,148.32,143.69,140.16,138.11,135.39,132.07,130.68,131.74,134.51,137.67,140.51,142.77,144.21,144.13,142.41,140.07,137.41,133.46,128.11,124.14,121.97,121.36
81.43,86.45,90.64,93.57,94.66,91.88,85.59,76.87,68.22,64.51,60.80,57.29,54.31,52.20,52.28,52.42,52.61,52.84,53.07,52.62,52.08,51.29,49.90,44.04,39.85,37.48,37.00,38.78,40.56,42.17,43.55,44.63,45.42,45.55,44.94,43.58,41.34,38.69,35.98,33.36,30.73,28.51,26.35,24.20,22.12,20.34,19.48,18.95,18.35,17.89,17.42,17.00,16.60,16.13,15.67,15.21,14.77,14.38,14.00,14.25,14.75,15.30,15.92,16.47,17.01,17.53,17.99,18.53,18.97,19.38,19.95,21.50,23.85,26.48,29.17,31.79,34.21,36.60,39.13,41.92,45.17,48.13,51.05,54.05,56.99,60.12,63.42,66.78,70.02,72.82,75.60,78.41,81.29,84.38,87.59,90.60,93.32,95.79,98.26,101.74,106.01,110.62,114.40,118.70,123.56,128.92,134.48,140.24,145.60,150.50,155.06,158.57,163.56,167.89,169.70,168.54,165.67,162.28,159.05,156.81,154.36,152.03,149.37,145.80,141.39,138.06,134.59,130.42,126.24,123.71,123.94,125.44,124.82,125.54,125.39,125.12,125.56,127.65,129.55,131.14,132.16,131.92,130.58,130.10,131.43,135.30,135.38,136.57,138.59,141.09,143.25,145.35,147.81,150.69,153.86,157.17,161.11,166.03,172.06,177.16,181.78,185.96,189.77,193.32,196.81,199.87,202.72,205.74,209.68,213.45,217.35,221.35,224.13,225.24,225.64,224.99,222.05,218.75,214.82,211.10,208.76,212.86,219.03,224.18,226.91,226.99,222.69,221.16,222.87,226.81,230.05,232.75,234.87,236.25,235.87,238.09,241.36,244.93,248.02,250.02,252.10,255.05,259.68,268.18,268.84,264.94,258.36,250.64,242.44,237.15,234.25,232.01,229.00,224.91,219.97,214.45,208.66,203.75,199.96,197.45,196.37,196.23,195.06,193.15,190.95,187.94,184.46,179.58,173.52,168.80,165.57,162.47,159.13,155.35,151.48,147.14,143.41,140.83,137.28,133.47,132.56,134.70,137.87,140.46,142.82,144.74,145.89,143.34,140.97,138.09,134.53,130.98,127.09,125.31,124.92,123.92
80.34,86.01,90.11,92.81,93.96,91.67,86.15,77.72,68.85,64.85,60.98,57.10,53.43,50.30,49.49,49.34,49.43,49.57,49.76,49.78,49.38,48.25,46.07,41.64,38.36,35.95,34.48,35.96,37.52,38.91,40.10,41.18,41.83,41.91,41.37,40.21,38.27,35.99,33.49,30.92,28.64,26.59,24.52,22.49,20.65,19.70,19.06,18.52,17.97,17.50,17.04,16.59,16.16,15.75,15.29,14.82,14.39,14.01,13.87,14.26,14.81,15.36,15.92,16.47,17.01,17.53,17.99,18.53,19.03,19.63,20.51,22.50,24.78,27.21,29.75,32.43,35.03,37.56,40.18,43.07,46.11,48.98,51.82,54.69,57.57,60.78,64.24,67.75,71.04,73.84,76.62,79.51,82.58,85.82,88.98,91.97,94.75,97.37,100.54,104.48,108.77,112.85,116.54,120.77,125.62,131.05,136.76,143.00,148.72,153.80,158.51,164.55,170.56,175.01,176.68,174.98,172.35,168.95,165.12,161.65,158.32,155.64,153.18,150.36,147.04,143.03,138.63,134.31,131.52,130.24,129.37,128.64,128.02,129.31,129.51,129.23,129.32,131.99,135.07,137.00,137.41,136.93,137.03,137.39,138.21,139.70,139.23,139.74,141.42,144.08,146.14,148.22,150.42,152.80,155.48,158.72,163.00,167.80,172.59,176.94,181.40,185.79,189.95,193.45,196.89,200.22,203.55,207.01,210.51,213.94,217.36,220.57,222.27,222.87,223.03,222.44,220.04,216.82,212.39,207.31,202.72,206.17,211.55,216.98,221.11,221.92,218.49,217.62,219.28,221.89,224.74,227.42,229.75,231.59,232.78,235.61,238.67,241.63,244.58,246.66,249.00,252.50,257.94,264.90,266.90,264.86,259.66,252.83,245.69,241.34,238.48,234.32,229.34,224.44,218.83,212.13,205.55,199.93,195.58,192.66,191.28,189.73,187.94,186.16,184.63,182.90,181.00,177.98,173.64,168.87,165.77,162.87,159.79,156.30,152.69,148.62,144.52,140.73,137.47,134.93,135.06,137.56,140.09,142.18,144.13,145.46,145.54,142.35,139.56,136.56,133.39,131.46,130.14,129.08,128.01,126.61
80.26,85.98,89.76,92.13,93.22,91.45,86.83,79.11,70.44,65.73,61.77,57.72,53.71,50.03,47.81,46.80,46.50,46.60,46.82,47.17,46.82,45.49,42.99,39.53,36.78,34.32,32.25,33.11,34.40,35.67,36.82,37.90,38.45,38.49,38.00,36.98,35.29,33.29,31.03,28.66,26.57,24.62,22.69,20.93,19.62,19.15,18.64,18.12,17.58,17.12,16.66,16.19,15.75,15.36,14.90,14.45,14.02,13.64,13.75,14.28,14.91,15.47,16.01,16.55,17.09,17.62,18.10,18.64,19.17,19.97,21.30,23.61,25.88,28.18,30.59,33.21,35.89,38.51,41.20,44.07,46.99,49.77,52.51,55.26,58.10,61.41,65.00,68.62,71.90,74.71,77.53,80.50,83.72,87.02,90.14,93.13,96.04,98.89,102.60,106.83,111.12,114.95,118.69,122.95,127.82,133.31,139.30,145.84,151.82,157.29,162.79,170.26,176.45,180.68,182.46,180.82,178.50,175.49,171.87,167.87,163.44,159.92,157.06,154.32,151.62,147.66,143.04,138.59,136.93,135.85,134.35,132.95,133.04,134.37,134.46,133.94,133.73,136.59,139.98,142.11,142.62,142.51,143.69,144.51,144.89,144.96,144.19,144.22,145.48,147.94,149.99,151.73,153.46,155.32,157.43,160.58,164.85,169.30,173.09,176.88,180.96,185.36,189.82,193.41,196.82,200.30,203.84,207.40,210.43,213.12,215.53,217.66,219.15,219.48,219.41,218.88,217.35,214.69,210.13,204.36,198.68,200.76,204.90,210.01,214.76,216.10,214.20,214.31,216.05,217.69,219.84,222.42,225.09,227.64,230.13,233.25,236.09,238.62,241.31,243.57,246.55,250.91,257.05,262.96,265.36,264.32,260.20,254.12,247.76,243.65,240.28,234.79,228.93,223.73,217.83,210.51,203.20,197.06,192.15,188.57,186.44,184.13,182.04,180.44,179.48,178.78,178.11,176.43,173.30,168.89,165.85,162.99,159.89,156.18,152.78,149.01,144.79,140.34,137.46,136.36,137.45,140.05,142.12,143.82,145.53,146.46,145.72,141.76,138.90,136.48,134.48,134.12,134.19,133.28,131.55,129.69
81.47,86.50,89.66,91.56,92.46,91.23,87.64,81.19,73.28,67.34,63.35,59.38,55.51,51.88,47.60,44.97,43.88,44.01,44.37,44.88,44.47,43.08,40.88,37.82,35.08,32.55,30.41,30.23,31.17,32.45,33.75,34.83,35.34,35.36,34.89,33.92,32.43,30.59,28.62,26.62,24.53,22.58,20.85,19.59,19.16,18.70,18.23,17.73,17.20,16.74,16.27,15.81,15.36,14.98,14.52,14.10,13.69,13.27,13.62,14.33,15.06,15.66,16.20,16.74,17.28,17.82,18.36,18.90,19.39,20.43,22.40,24.86,27.19,29.48,31.76,34.19,36.80,39.47,42.17,44.90,47.77,50.46,53.10,55.76,58.55,61.98,65.69,69.36,72.54,75.40,78.30,81.37,84.68,87.93,90.99,94.04,97.14,100.33,104.38,108.69,112.94,116.87,120.86,125.25,130.18,135.74,142.17,148.78,154.93,161.04,168.17,175.59,180.88,184.47,186.69,185.88,183.97,181.85,179.48,175.88,170.05,165.08,161.02,157.52,154.81,151.86,147.91,143.37,142.49,140.24,138.77,138.74,140.46,141.13,140.48,139.42,139.00,141.52,144.10,146.23,147.77,148.85,150.63,151.40,151.42,151.35,150.58,150.39,151.15,152.93,155.08,156.05,157.06,158.35,159.82,162.85,166.67,170.45,173.58,177.02,180.45,184.59,189.29,193.12,196.57,200.02,203.42,206.62,209.16,210.58,211.32,211.97,214.39,214.75,214.46,214.02,213.77,212.30,208.08,202.48,197.25,197.02,199.33,203.33,207.72,209.31,209.79,211.31,213.28,214.43,215.50,217.83,221.00,224.62,228.05,231.04,233.65,235.97,238.27,240.83,244.95,250.56,257.28,262.74,264.37,263.18,259.72,254.24,248.30,243.48,238.91,232.88,227.55,222.69,217.02,209.80,201.85,195.43,189.96,185.39,181.93,179.67,177.73,176.37,175.88,175.86,175.96,174.93,172.36,168.84,165.78,162.75,159.25,154.66,151.45,147.97,143.96,139.56,137.18,137.77,139.68,142.05,143.93,145.38,147.03,147.83,146.57,141.68,139.20,138.30,138.48,139.60,139.53,138.06,135.68,133.28
81.68,85.89,88.88,90.66,91.26,90.66,87.76,82.69,75.99,68.77,64.80,61.01,57.26,53.60,49.56,44.64,41.75,41.58,42.10,42.60,42.27,41.03,38.99,36.28,33.54,31.09,29.26,28.82,29.41,30.28,31.16,31.90,32.26,32.20,31.76,30.98,29.68,28.04,26.24,24.37,22.41,20.85,19.55,18.60,18.16,17.91,17.66,17.31,16.82,16.35,15.89,15.43,14.98,14.59,14.18,13.75,13.32,12.95,13.46,14.23,15.05,15.81,16.39,16.94,17.48,18.02,18.56,19.10,19.73,21.05,23.39,25.95,28.34,30.69,33.04,35.47,37.85,40.40,43.06,45.73,48.50,51.16,53.75,56.32,59.06,62.65,66.50,70.19,73.18,76.05,78.99,82.10,85.41,88.61,91.90,95.14,98.40,101.94,105.90,110.20,114.60,118.79,122.85,127.21,132.33,138.38,145.17,151.79,158.40,165.19,172.48,178.98,184.02,188.00,191.08,191.16,189.16,186.68,184.18,181.36,176.93,172.02,166.98,162.12,158.04,154.70,151.40,148.18,147.19,145.08,144.02,144.33,145.61,146.35,146.11,145.27,144.40,146.06,148.63,151.41,154.11,156.50,158.86,160.03,160.08,159.38,157.58,156.28,156.52,158.59,160.84,162.16,162.91,163.28,163.47,165.03,167.81,170.92,173.61,176.54,179.57,183.33,187.78,191.89,195.75,199.37,202.70,205.67,205.52,204.87,204.53,205.16,207.62,207.62,207.35,207.70,209.38,209.09,205.80,200.96,196.29,194.03,194.82,198.06,202.51,204.69,206.27,208.21,209.91,210.40,211.84,215.16,219.15,222.84,225.54,228.33,231.16,233.98,236.78,239.82,244.55,250.66,257.51,262.48,263.09,260.52,255.80,250.52,245.56,241.03,236.37,230.74,226.17,221.37,215.48,208.13,200.96,194.73,189.21,184.37,180.32,177.67,175.39,173.62,172.58,172.74,173.18,172.95,171.51,168.46,165.40,162.28,158.56,153.46,149.81,146.43,143.09,139.82,138.27,139.33,141.53,144.12,146.36,147.61,148.89,149.56,148.73,144.82,142.49,141.53,141.76,142.90,143.12,142.04,140.00,137.74
81.35,84.73,87.38,89.00,89.51,89.54,87.13,83.37,78.14,70.49,66.39,62.69,59.05,55.36,51.69,45.32,40.81,39.58,39.56,39.99,39.80,38.82,37.06,34.70,32.11,29.88,28.39,27.71,27.94,28.42,28.92,29.31,29.46,29.31,28.90,28.24,27.04,25.54,23.87,22.14,20.45,19.30,18.40,17.68,17.08,16.98,16.90,16.70,16.31,15.93,15.50,15.05,14.62,14.23,13.84,13.41,12.97,12.63,13.30,14.11,15.00,15.87,16.53,17.11,17.67,18.21,18.75,19.29,20.17,21.80,24.35,26.96,29.40,31.77,34.13,36.55,38.74,41.20,43.83,46.48,49.15,51.79,54.35,56.88,59.59,63.33,67.28,70.94,73.79,76.65,79.61,82.73,86.01,89.18,92.66,96.08,99.45,103.27,107.13,111.48,116.06,120.52,124.64,129.16,134.58,141.05,147.98,154.67,161.83,169.27,176.41,182.01,187.03,191.61,195.63,196.71,194.75,191.79,188.75,186.12,182.88,178.38,172.89,166.92,161.54,157.48,154.62,152.82,151.73,149.78,149.05,149.59,150.59,151.46,151.73,151.24,150.09,150.78,153.24,156.48,160.02,163.54,166.08,167.46,167.63,166.60,164.50,162.58,162.33,164.23,166.18,167.70,168.33,168.14,167.49,167.80,169.47,171.82,174.19,176.84,179.64,183.03,187.02,191.13,195.13,198.69,201.71,204.08,201.47,199.06,198.01,198.84,200.58,199.99,200.02,201.60,205.08,205.65,203.31,199.34,195.14,191.53,190.90,193.18,197.38,200.15,202.41,204.52,206.02,206.21,208.44,212.49,216.90,220.54,222.93,225.97,229.31,232.75,236.10,239.66,244.74,250.98,257.69,262.07,261.47,257.46,251.47,246.13,241.97,237.97,233.66,228.58,224.37,219.62,213.72,206.59,200.28,194.46,189.04,184.03,179.43,176.36,173.70,171.43,169.68,169.64,170.24,170.55,169.94,167.58,164.84,161.82,158.03,152.74,148.81,145.61,142.86,140.53,139.80,141.26,143.67,146.41,148.86,150.09,151.14,151.70,151.27,148.42,146.19,144.97,144.92,145.88,146.38,145.81,144.28,142.26
80.13,82.67,84.45,85.71,86.65,87.26,85.00,82.34,79.01,72.89,68.32,64.48,60.92,57.27,53.45,47.80,42.47,38.51,36.36,36.63,36.68,36.12,34.96,32.94,30.87,29.12,27.89,26.77,26.59,26.89,27.33,27.48,27.28,27.05,26.65,25.93,24.58,23.12,21.56,19.99,18.85,18.03,17.40,16.79,15.99,15.84,15.75,15.64,15.51,15.43,15.09,14.69,14.30,13.91,13.52,13.09,12.65,12.32,13.13,14.02,14.91,15.76,16.58,17.26,17.86,18.40,18.94,19.48,20.77,22.75,25.30,27.87,30.29,32.59,34.79,37.01,39.24,41.71,44.36,47.05,49.62,52.24,54.82,57.39,60.16,64.04,67.96,71.51,74.30,77.16,80.12,83.20,86.39,89.56,93.09,96.55,99.98,103.90,107.77,112.30,117.15,121.80,126.02,131.18,137.16,143.75,150.33,157.23,165.03,173.06,179.80,184.87,190.18,195.53,200.46,202.83,201.37,198.10,194.05,190.14,186.60,182.77,178.01,171.70,165.62,160.58,157.69,157.07,156.17,154.00,153.27,154.19,155.93,156.87,157.46,157.35,156.40,156.05,157.89,160.88,164.55,168.71,170.52,171.55,171.87,171.35,170.98,169.93,169.28,169.56,170.34,171.33,171.99,172.20,171.94,171.94,172.55,173.94,176.19,179.19,182.03,185.06,188.36,191.78,195.13,198.05,200.19,201.13,197.29,194.14,193.00,194.04,193.60,192.07,192.95,196.48,201.24,201.98,200.44,197.34,193.42,189.86,187.95,188.67,191.78,195.05,197.45,199.55,201.15,201.93,205.39,209.15,212.94,216.60,220.22,224.58,228.93,233.02,236.71,240.86,245.89,251.67,257.77,261.31,259.20,253.99,247.42,241.54,237.56,234.32,230.96,226.47,221.62,216.96,211.74,205.63,199.91,194.85,189.73,184.45,179.22,175.78,172.81,170.09,167.59,166.66,167.12,167.33,166.66,165.68,163.98,161.46,157.88,152.99,149.41,146.58,144.12,141.94,141.85,143.95,146.62,149.21,151.31,152.93,154.15,154.69,154.23,151.93,149.79,148.42,148.09,148.90,149.51,149.39,148.42,146.60
77.22,78.81,80.48,82.16,83.70,84.62,83.13,81.22,78.77,74.44,70.06,66.24,62.70,59.09,55.23,50.41,45.17,40.10,36.56,34.70,33.61,32.92,32.28,31.04,29.65,28.34,27.25,26.13,25.47,25.36,25.56,25.45,25.19,24.92,24.45,23.59,22.23,20.96,19.69,18.44,17.44,16.64,16.15,15.75,15.05,14.74,14.60,14.52,14.48,14.73,14.59,14.29,13.93,13.54,13.16,12.75,12.37,12.15,13.03,13.92,14.79,15.65,16.54,17.32,18.00,18.59,19.13,19.74,21.41,23.71,26.26,28.77,31.01,33.16,35.30,37.46,39.73,42.25,44.89,47.48,49.99,52.56,55.15,57.78,60.67,64.54,68.36,71.83,74.76,77.62,80.58,83.66,86.82,89.99,93.35,96.72,100.19,104.20,108.17,113.02,118.16,122.80,127.34,133.26,139.67,146.11,152.59,160.38,168.57,176.29,182.32,187.32,193.26,199.34,204.70,207.95,207.48,204.53,200.00,195.20,191.20,187.32,182.98,177.58,171.91,166.84,163.65,162.47,160.60,157.70,156.85,158.09,160.06,161.02,161.60,161.70,161.32,160.92,162.71,165.40,168.47,171.77,172.40,172.44,172.17,171.60,170.95,170.43,170.36,170.86,171.66,172.22,172.50,172.40,171.81,171.85,172.66,174.32,176.83,180.06,183.14,186.26,189.41,192.36,194.43,196.09,196.75,195.55,191.35,188.64,187.90,188.67,186.86,186.68,189.11,193.49,197.82,197.46,196.20,194.27,191.59,187.09,184.38,184.40,186.91,189.73,192.23,194.70,197.11,199.35,203.24,207.11,211.17,215.56,220.23,225.09,229.73,234.05,238.13,242.30,247.00,252.21,257.68,259.83,256.08,250.32,244.42,238.65,234.22,230.83,227.92,224.69,220.18,215.29,210.22,205.20,200.55,195.73,190.39,184.70,179.26,175.52,172.20,169.41,167.30,164.76,163.58,162.99,162.61,162.35,161.64,160.01,157.26,153.24,150.01,147.51,145.67,144.49,144.67,146.73,149.57,152.43,154.19,155.82,157.10,157.71,157.31,155.12,152.97,151.60,151.41,152.73,153.32,152.99,151.78,149.86
73.51,74.24,75.89,77.95,79.97,81.11,80.73,79.59,77.80,75.18,71.42,67.78,64.25,60.73,56.99,52.93,48.12,42.75,38.18,33.86,31.19,29.99,29.66,29.20,28.44,27.50,26.50,25.50,24.46,23.92,23.79,23.46,23.19,22.87,22.31,21.32,20.07,19.00,18.03,17.09,16.10,15.22,14.81,14.61,14.12,13.65,13.45,13.37,13.37,13.95,14.03,13.85,13.53,13.15,12.76,12.38,12.10,12.03,12.95,13.82,14.67,15.54,16.46,17.31,18.09,18.77,19.32,20.12,22.11,24.64,27.14,29.58,31.63,33.66,35.76,37.91,40.23,42.78,45.39,47.85,50.31,52.85,55.43,58.11,61.15,64.94,68.65,72.07,75.16,78.05,81.05,84.18,87.39,90.54,93.66,96.85,100.29,104.41,108.58,113.74,119.15,123.81,128.77,135.34,142.07,148.31,154.83,163.63,172.05,179.17,184.42,189.72,196.36,203.04,208.56,212.41,213.11,210.88,206.32,200.90,196.46,192.32,188.25,184.00,179.11,174.12,170.39,168.18,165.15,161.58,160.59,161.95,163.81,164.70,165.14,165.39,165.63,165.65,167.58,169.80,171.73,173.45,172.79,171.66,170.48,169.49,168.15,168.07,168.82,170.02,171.20,171.47,171.22,170.53,169.31,169.76,171.40,173.83,176.70,180.10,183.46,186.79,189.95,192.39,193.13,193.37,192.34,188.86,184.73,182.82,182.58,183.04,180.74,182.70,186.71,191.29,194.38,192.67,191.48,190.62,189.35,184.00,180.84,180.50,182.58,184.80,187.54,190.59,193.98,197.81,201.99,206.15,210.71,215.85,221.30,226.31,231.03,235.52,239.85,243.78,248.03,252.69,257.52,257.82,252.69,246.76,241.74,236.23,231.27,227.46,224.72,222.73,219.10,214.15,209.21,205.17,201.55,196.71,190.98,184.88,179.42,175.54,172.24,169.70,167.99,163.89,160.73,159.07,158.84,158.78,158.88,158.29,156.64,153.64,150.72,148.58,147.49,147.50,147.88,149.79,152.73,155.81,157.21,158.68,159.93,160.59,160.25,158.06,155.90,154.60,154.66,156.61,157.15,156.44,154.79,152.72
68.91,69.40,70.06,71.11,72.60,74.15,75.26,75.71,75.28,73.60,71.33,68.26,64.86,61.67,58.61,54.79,50.53,45.92,40.80,35.85,31.84,29.18,28.26,27.85,27.24,26.42,25.42,24.47,23.56,22.88,22.42,21.93,21.47,20.96,20.32,19.48,18.63,17.62,16.62,15.70,14.81,13.86,13.37,13.22,13.03,12.51,12.30,12.24,12.31,13.08,13.40,13.34,13.03,12.70,12.32,11.97,11.80,11.96,12.83,13.69,14.56,15.47,16.33,17.19,18.05,18.86,19.51,20.89,23.00,25.39,27.70,29.94,32.07,34.19,36.32,38.36,40.77,43.26,45.75,48.17,50.58,53.14,55.73,58.39,61.58,65.26,68.88,72.26,75.35,78.38,81.64,85.06,88.53,91.58,94.45,97.29,100.45,104.78,109.37,114.61,120.09,125.29,130.80,137.37,144.03,150.38,157.04,166.29,174.65,181.29,186.10,192.48,199.62,206.33,211.62,215.42,217.24,216.59,213.39,207.87,203.33,199.22,195.24,191.11,186.96,180.88,175.96,173.40,170.27,167.27,166.18,166.78,167.80,168.23,168.56,168.89,169.35,170.41,172.49,173.47,172.96,172.11,170.40,168.26,165.94,163.75,163.15,163.71,164.71,165.75,167.03,167.40,166.77,165.29,163.28,165.34,168.61,172.15,175.30,178.69,182.17,185.58,188.53,189.89,190.12,189.23,186.57,181.33,177.90,176.39,176.35,177.14,177.15,181.18,185.74,189.22,190.09,188.03,186.72,186.03,185.34,181.23,178.54,178.03,179.64,182.15,185.89,189.78,193.87,198.39,203.50,208.22,212.84,217.61,222.81,227.65,232.75,237.78,241.67,244.97,248.79,253.11,257.33,254.43,249.48,244.07,238.78,233.12,228.44,224.40,221.23,219.34,217.48,213.89,209.84,206.20,202.63,197.40,191.30,185.04,179.73,176.42,174.94,173.50,170.29,166.14,161.96,159.08,157.74,156.45,156.60,157.05,156.86,154.85,151.98,150.44,150.13,150.80,151.57,154.08,156.89,159.24,160.24,161.27,162.23,162.71,162.24,160.35,158.34,157.13,157.29,159.34,159.94,159.19,157.50,155.53
65.01,65.19,65.34,65.84,66.86,68.11,69.79,71.02,71.53,71.14,70.19,68.14,65.44,62.66,60.00,56.35,52.55,48.72,43.90,38.71,33.80,29.92,28.01,27.15,26.22,25.29,24.38,23.51,22.71,22.00,21.36,20.79,20.28,19.70,19.04,18.29,17.35,16.35,15.33,14.33,13.42,12.48,11.96,11.79,11.71,11.32,11.15,11.15,11.35,12.23,12.79,12.85,12.52,12.21,11.86,11.57,11.44,11.60,12.60,13.66,14.66,15.55,16.40,17.23,18.09,18.95,19.70,21.37,23.48,25.75,27.95,30.12,32.30,34.50,36.67,38.77,41.18,43.63,46.04,48.41,50.86,53.42,56.01,58.69,61.91,65.54,69.10,72.45,75.54,78.66,82.17,85.86,89.47,92.33,95.04,97.76,100.91,105.53,110.41,115.52,120.89,126.55,132.68,139.34,146.01,152.53,159.43,168.73,176.83,183.08,187.65,195.01,202.55,209.21,214.20,217.78,219.73,219.70,217.47,212.78,208.55,204.57,200.73,196.97,193.04,187.74,183.05,179.69,175.50,172.98,172.49,173.39,174.21,174.43,174.27,174.13,174.43,175.57,176.01,174.60,171.57,169.09,166.60,164.08,161.61,159.33,159.11,159.81,160.73,161.49,162.26,162.43,161.68,160.51,160.05,163.06,167.20,171.31,174.50,177.81,181.24,184.39,186.80,187.46,187.11,185.27,181.68,176.20,172.46,170.95,171.33,173.13,175.40,180.02,184.08,186.41,186.20,184.00,182.23,181.13,180.57,177.77,176.32,176.68,178.78,181.62,185.62,189.87,194.34,199.20,204.92,209.95,214.61,219.21,224.13,229.10,234.51,239.75,243.24,246.34,249.83,253.27,255.79,251.65,246.60,241.09,235.44,229.97,225.46,221.20,217.71,215.92,214.93,212.75,209.90,206.76,203.20,198.11,192.38,186.60,181.65,179.56,178.58,176.94,173.03,168.41,163.88,160.26,157.74,155.54,154.91,155.42,156.13,155.62,153.58,152.86,153.10,153.95,155.24,157.66,159.94,161.59,162.44,163.32,164.30,164.92,164.70,163.10,161.24,160.02,160.05,161.95,162.41,161.56,159.83,157.99
61.47,61.33,61.29,61.55,62.16,62.72,64.34,65.83,67.00,68.10,68.32,67.57,65.95,63.67,61.21,57.70,54.33,51.27,47.29,42.14,36.64,31.72,28.54,26.91,25.39,24.19,23.39,22.61,21.90,21.20,20.53,19.91,19.43,18.87,18.22,17.50,16.20,15.18,14.14,13.00,11.99,11.12,10.60,10.36,10.28,10.13,10.03,10.11,10.48,11.40,12.20,12.37,12.01,11.71,11.40,11.19,11.06,11.04,12.26,13.67,14.86,15.73,16.60,17.38,18.20,19.05,19.90,21.66,23.70,25.86,28.02,30.17,32.40,34.64,36.89,39.13,41.51,43.91,46.27,48.60,51.15,53.70,56.28,59.00,62.17,65.80,69.33,72.65,75.74,78.91,82.65,86.58,90.27,92.91,95.54,98.29,101.61,106.56,111.62,116.45,121.58,127.64,134.47,141.28,148.01,154.75,161.94,171.02,178.75,184.64,189.15,197.37,205.23,211.78,216.43,219.63,221.06,220.98,219.39,216.06,212.38,208.59,204.96,201.74,197.83,194.46,190.88,186.54,180.84,178.71,179.23,181.08,182.07,182.23,181.34,180.40,180.28,180.84,178.50,173.97,168.48,164.99,161.95,159.46,157.44,155.77,155.69,156.22,156.85,157.24,157.15,156.95,156.30,156.18,158.69,162.20,166.72,171.02,174.12,177.29,180.56,183.22,184.87,185.09,184.14,181.45,177.38,172.57,167.94,166.24,167.21,170.43,174.82,179.05,181.90,183.05,182.49,180.26,177.86,176.06,175.32,173.94,174.23,176.15,179.31,182.48,186.25,190.52,195.19,200.13,206.23,211.41,216.10,220.67,225.33,230.62,236.27,241.49,244.67,247.83,251.01,253.23,253.38,249.26,243.90,237.93,231.88,226.80,222.35,217.88,214.14,212.43,211.72,210.93,209.46,206.92,203.44,198.85,193.94,189.08,184.64,184.03,182.63,179.96,175.92,170.59,166.14,162.11,158.41,155.55,153.61,153.53,154.75,156.00,155.31,155.54,156.18,156.95,158.77,160.68,162.18,163.23,164.11,165.05,166.22,167.19,167.43,166.15,164.47,163.19,162.90,164.50,164.73,163.73,162.00,160.31
55.92,55.97,56.17,56.55,57.16,58.06,59.58,61.35,63.16,64.75,65.23,65.52,65.29,64.13,61.86,59.08,56.18,53.26,50.07,45.45,40.21,34.72,29.38,27.75,26.05,24.40,22.92,21.89,21.09,20.40,19.76,19.14,18.67,18.07,17.39,16.69,15.79,14.71,13.49,12.20,10.99,10.32,9.98,9.86,9.83,9.78,9.75,9.84,10.13,10.70,11.47,11.75,11.52,11.32,11.11,10.94,10.81,10.77,11.60,12.90,14.28,15.54,16.80,17.64,18.45,19.33,20.28,21.89,23.89,26.03,28.12,30.03,32.29,34.60,36.91,39.25,41.64,44.00,46.34,48.66,51.21,53.80,56.41,59.14,62.41,66.01,69.52,72.86,76.06,79.28,83.00,86.96,90.81,93.85,96.52,99.62,103.54,108.53,112.92,117.23,122.14,128.37,135.99,143.04,149.91,156.88,164.21,173.11,180.43,186.09,191.24,199.53,207.04,213.23,217.74,219.86,220.32,218.93,215.96,212.44,208.65,205.16,202.27,200.27,198.82,196.27,193.32,190.31,186.88,184.93,185.09,186.47,187.06,186.79,185.48,184.16,183.61,182.64,177.57,171.09,164.92,161.18,158.56,156.30,154.30,152.57,152.45,152.78,153.21,153.45,153.27,153.05,153.53,155.20,158.64,162.44,166.71,170.75,173.99,177.16,179.97,181.97,182.97,182.94,181.74,178.34,173.40,168.10,163.42,163.22,165.82,169.81,173.86,177.00,178.23,177.74,176.58,174.18,172.44,171.37,170.86,171.55,174.06,177.14,180.27,183.44,186.86,190.99,195.68,200.58,206.63,211.79,216.53,221.24,226.39,232.09,237.69,242.64,246.06,249.10,251.40,252.35,251.29,246.38,240.50,234.40,228.61,223.82,218.76,213.95,210.08,208.02,207.12,206.65,206.00,204.77,203.22,199.46,195.40,191.61,188.15,185.07,181.81,178.58,175.47,170.25,165.82,161.81,158.12,155.06,152.49,151.59,152.23,153.82,154.65,155.76,156.99,158.22,159.41,161.15,162.83,164.35,165.97,167.24,168.49,169.40,169.57,169.08,168.34,167.33,166.46,167.51,167.84,167.32,166.16,164.71
