e,e,e,e,e,e,e,e,e,e,e,e,e,e,e,e,e,e,e,e,e,e,e,e,e,e,e,e,e,e,e,e,e,e,e,e,e,e,e,e,e,e,e,e,e,e,e,e,e,e,e,e,e,e,e,e,e,e,e,e,e,e,e,e,e,e,e,e,e,e,e,e,e,e,e,e,e,e,e,2.17,3.02,3.87,4.13,3.68,2.95,2.62,2.73,3.12,3.50,3.85,4.23,4.61,4.99,5.30,5.64,5.99,6.34,6.73,7.05,7.33,7.60,7.87,8.10,8.30,8.50,8.70,8.97,9.07,9.11,9.15,9.30,9.57,9.87,10.20,10.55,10.89,11.18,11.41,11.59,11.70,11.78,11.86,11.91,11.92,12.15,12.10,12.12,12.43,13.16,13.86,14.62,15.46,16.34,17.04,17.68,18.21,18.61,19.07,19.65,20.25,20.84,21.46,22.04,22.62,23.20,23.78,24.32,24.95,25.60,26.26,26.99,27.83,28.72,30.20,33.17,36.56,39.30,41.19,41.98,40.50,38.17,35.63,33.29,31.73,29.95,29.09,28.77,28.36,28.24,28.40,28.80,29.44,30.39,32.83,35.64,38.55,41.47,44.99,48.34,51.46,54.34,57.08,59.13,60.94,62.56,63.72,64.70,64.61,63.74,62.65,62.16,62.42,63.54,65.58,68.81,72.69,76.61,80.06,82.33,82.18,81.90,81.51,80.91,79.45,78.66,78.46,78.73,79.22,78.66,77.11,75.03,73.02,70.98,69.38,68.09,67.04,66.15,65.14,64.05,62.90,61.63,60.69,59.46,58.21,57.18,55.83,54.30,53.19,52.46,51.22,47.91,43.69,40.18,39.34,38.92,38.52,38.28,38.23,38.07,37.92,37.72,37.52,37.40,37.25,37.09,36.94,36.78,36.55,36.20,35.81,35.43,35.04,34.65,34.33,33.98,33.44
e,e,e,e,e,e,e,e,e,e,e,e,e,e,e,e,e,e,e,e,e,e,e,e,e,e,e,e,e,e,e,e,e,e,e,e,e,e,e,e,e,e,e,e,e,e,e,e,e,e,e,e,e,e,e,e,e,e,e,e,e,e,e,e,e,e,e,e,e,e,e,e,e,e,e,e,e,2.45,3.22,3.66,4.55,5.03,4.89,4.20,3.50,3.07,3.13,3.52,3.90,4.29,4.67,5.06,5.44,5.75,6.06,6.41,6.79,7.18,7.49,7.80,8.08,8.32,8.55,8.78,8.98,9.15,9.38,9.55,9.62,9.65,9.73,9.96,10.30,10.72,11.17,11.49,11.86,12.14,12.31,12.47,12.55,12.63,12.68,12.69,13.01,13.06,13.10,13.32,14.00,14.69,15.43,16.17,16.81,17.49,18.31,18.99,19.36,19.78,20.34,20.99,21.67,22.30,22.92,23.54,24.16,24.77,25.18,25.57,25.98,26.46,26.99,27.75,28.61,30.04,32.88,35.85,38.53,41.00,43.12,43.07,41.78,39.88,37.63,35.18,32.32,30.76,29.99,29.20,28.84,28.63,28.75,29.19,29.62,31.50,34.15,36.95,39.02,41.94,45.20,48.39,51.21,53.92,56.57,58.82,60.60,62.11,64.69,66.13,66.56,66.57,67.02,67.80,69.21,71.31,73.57,76.61,79.36,81.50,82.86,82.10,81.85,81.79,81.51,81.03,80.86,80.64,80.25,79.72,77.68,74.51,71.35,69.62,67.74,66.08,64.78,63.88,63.25,62.39,61.50,60.59,59.52,58.77,57.58,56.30,55.28,54.24,52.87,51.94,51.42,50.27,46.46,42.46,39.61,39.23,38.83,38.43,38.12,37.92,37.75,37.60,37.40,37.19,37.02,36.87,36.71,36.56,36.40,36.17,35.81,35.43,35.04,34.66,34.27,33.92,33.56,33.11
e,e,e,e,e,e,e,e,e,e,e,e,e,e,e,e,e,e,e,e,e,e,e,e,e,e,e,e,e,e,e,e,e,e,e,e,e,e,e,e,e,e,e,e,e,e,e,e,e,e,e,e,e,e,e,e,e,e,e,e,e,e,e,e,e,e,e,e,e,e,e,e,e,e,e,e,e,5.07,5.07,5.01,6.04,5.96,5.40,4.71,4.01,3.54,3.58,3.96,4.35,4.74,5.12,5.51,5.89,6.19,6.50,6.85,7.24,7.63,7.94,8.25,8.53,8.76,8.99,9.23,9.45,9.66,9.83,10.04,10.16,10.23,10.31,10.54,10.88,11.29,11.75,12.12,12.50,12.83,13.08,13.23,13.31,13.39,13.44,13.46,13.83,14.00,14.07,14.20,14.84,15.52,16.26,17.03,17.77,18.40,19.07,19.73,20.34,20.90,21.41,22.01,22.70,23.38,24.01,24.62,25.24,25.84,26.06,26.36,26.75,27.22,27.70,28.29,28.81,29.80,32.25,35.02,37.63,40.14,42.55,44.62,44.35,43.26,41.87,40.16,38.13,35.73,33.10,30.52,29.62,29.27,29.21,29.30,29.58,31.01,33.20,35.66,37.68,39.64,42.18,45.08,48.05,50.47,53.10,55.52,57.64,59.70,62.29,64.97,67.46,69.47,70.85,72.07,73.73,76.04,78.41,80.96,81.98,81.59,80.84,79.99,79.68,79.62,79.55,79.37,79.23,78.89,78.28,77.45,74.27,70.79,67.79,65.91,63.94,62.39,61.33,60.73,60.40,59.91,59.36,58.77,58.10,57.18,55.82,54.43,53.38,52.48,51.46,50.75,50.22,48.77,45.37,42.03,39.74,39.35,38.91,38.46,38.03,37.66,37.44,37.28,37.08,36.86,36.64,36.48,36.33,36.17,36.01,35.78,35.43,35.05,34.66,34.27,33.89,33.51,33.13,32.73
e,e,e,e,e,e,e,e,e,e,e,e,e,e,e,e,e,e,e,e,e,e,e,e,e,e,e,e,e,e,e,e,e,e,e,e,e,e,e,e,e,e,e,e,e,e,e,e,e,e,e,e,e,e,e,e,e,e,e,e,e,e,e,e,e,e,e,e,e,e,e,e,7.12,8.24,9.11,8.87,8.74,7.92,6.96,6.45,7.04,6.65,5.94,5.22,4.52,4.00,4.02,4.40,4.75,5.14,5.53,5.91,6.29,6.64,6.98,7.32,7.68,8.03,8.37,8.70,8.98,9.21,9.44,9.70,9.95,10.17,10.36,10.58,10.75,10.85,10.92,11.12,11.43,11.84,12.33,12.75,13.14,13.48,13.77,13.99,14.08,14.16,14.22,14.27,14.62,14.87,14.99,15.09,15.67,16.38,17.12,17.87,18.64,19.42,20.18,20.89,21.55,22.10,22.61,23.15,23.77,24.47,25.09,25.69,26.25,26.76,26.95,27.20,27.54,27.98,28.44,28.92,29.32,30.09,32.01,34.41,36.78,39.19,41.72,44.53,45.84,46.18,45.67,44.17,42.41,40.21,37.76,35.32,33.52,32.01,30.69,29.66,29.79,30.89,32.52,34.45,36.39,38.05,40.05,42.53,45.47,47.86,50.23,52.53,54.79,57.29,59.76,62.98,66.74,70.63,73.08,75.24,77.56,80.07,81.68,81.98,79.79,76.43,75.06,74.82,75.14,75.50,75.50,75.46,75.79,75.85,75.49,74.96,71.87,68.17,64.76,62.51,61.06,59.97,59.25,58.86,58.59,58.20,57.72,57.19,56.65,55.57,54.13,52.65,51.46,50.51,49.55,48.84,48.22,46.81,44.23,41.70,39.88,39.40,38.90,38.40,37.92,37.48,37.22,37.02,36.81,36.57,36.30,36.14,35.97,35.79,35.63,35.40,35.05,34.66,34.28,33.89,33.53,33.20,32.88,32.56
e,e,e,e,e,e,e,e,e,e,e,e,e,e,e,e,e,e,e,e,e,e,e,e,e,e,e,e,e,e,e,e,e,e,e,e,e,e,e,e,e,e,e,e,e,e,e,e,e,e,e,e,e,e,e,e,e,e,e,e,e,e,e,e,e,e,e,e,e,5.07,8.55,11.60,13.47,14.88,15.66,14.92,13.20,10.91,8.88,7.90,7.78,7.22,6.49,5.73,5.03,4.47,4.46,4.83,5.14,5.53,5.92,6.30,6.69,7.07,7.46,7.81,8.12,8.42,8.81,9.14,9.43,9.67,9.90,10.19,10.46,10.70,10.93,11.16,11.35,11.48,11.56,11.71,11.97,12.38,12.90,13.37,13.77,14.12,14.43,14.75,14.85,14.92,15.00,15.10,15.40,15.71,15.89,15.98,16.52,17.25,17.98,18.70,19.51,20.53,21.48,22.28,22.88,23.34,23.86,24.36,24.87,25.55,26.17,26.74,27.23,27.60,27.82,28.05,28.36,28.75,29.21,29.61,29.99,30.64,31.97,33.97,36.03,38.27,40.79,43.65,46.64,48.57,48.96,47.52,45.86,44.37,42.99,41.56,38.82,35.82,32.83,30.37,30.19,31.02,32.11,33.45,35.29,36.95,38.52,40.55,43.35,45.85,47.89,49.92,52.20,55.09,57.41,60.78,65.32,70.82,74.36,77.68,80.80,83.36,83.41,80.68,75.06,69.10,67.86,68.44,69.57,70.44,70.47,70.53,71.50,72.18,72.28,72.28,69.93,66.12,62.13,59.53,58.80,58.25,57.88,57.63,57.31,56.87,56.33,55.73,55.19,54.02,52.53,50.95,49.52,48.43,47.40,46.55,45.80,44.57,42.99,41.32,39.96,39.36,38.83,38.29,37.79,37.36,37.06,36.82,36.59,36.34,36.04,35.86,35.65,35.44,35.27,35.05,34.70,34.33,33.95,33.57,33.26,33.00,32.77,32.54
e,e,e,e,e,e,e,e,e,e,e,e,e,e,e,e,e,e,e,e,e,e,e,e,e,e,e,e,e,e,e,e,e,e,e,e,e,e,e,e,e,e,e,e,e,e,e,e,e,e,e,e,e,e,e,e,e,e,e,e,e,e,e,e,e,e,e,e,e,10.40,14.45,17.10,18.16,18.80,19.13,18.73,16.99,14.00,10.94,8.96,8.39,7.73,7.02,6.30,5.55,4.89,4.85,5.23,5.59,5.98,6.36,6.75,7.13,7.52,7.91,8.25,8.56,8.87,9.25,9.59,9.91,10.24,10.48,10.77,11.04,11.27,11.50,11.73,11.95,12.11,12.13,12.28,12.58,12.97,13.42,13.93,14.39,14.76,15.08,15.45,15.59,15.69,15.79,15.93,16.23,16.54,16.76,16.93,17.42,18.10,18.81,19.62,20.71,21.93,22.91,23.69,24.28,24.63,25.14,25.61,26.05,26.58,27.19,27.80,28.27,28.49,28.67,28.88,29.19,29.58,29.98,30.37,30.76,31.26,32.05,34.03,36.09,38.10,40.09,42.95,45.97,48.43,49.82,49.41,48.74,47.72,46.44,45.02,42.67,39.78,36.47,33.10,31.10,31.66,32.75,34.05,35.74,36.96,38.36,40.23,42.73,45.53,47.56,49.39,51.50,54.68,57.16,60.49,64.89,70.26,74.44,78.48,81.78,83.18,78.24,73.49,69.35,66.27,64.92,65.07,65.43,65.81,66.11,66.82,67.81,68.61,69.03,69.09,67.54,64.31,60.81,58.88,57.86,57.13,56.62,56.28,55.92,55.47,54.95,54.38,53.78,52.99,51.51,49.55,47.47,46.28,45.11,44.05,43.07,41.94,40.98,40.13,39.43,38.98,38.54,38.03,37.59,37.30,37.10,36.92,36.75,36.54,36.23,35.96,35.68,35.41,35.15,34.97,34.72,34.44,34.16,33.88,33.63,33.38,33.15,32.92
e,e,e,e,e,e,e,e,e,e,e,e,e,e,e,e,e,e,e,e,e,e,e,e,e,e,e,e,e,e,e,e,e,e,e,e,e,e,e,e,e,e,e,e,e,e,e,e,e,e,e,e,e,e,e,e,e,e,e,e,e,e,e,e,e,e,e,e,9.77,14.40,18.39,20.34,20.91,21.15,21.20,20.73,19.13,15.74,12.02,9.53,8.83,8.18,7.52,6.84,6.10,5.37,5.28,5.65,6.04,6.40,6.78,7.16,7.55,7.96,8.35,8.70,9.01,9.32,9.72,10.09,10.44,10.82,11.05,11.34,11.61,11.85,12.08,12.31,12.54,12.71,12.74,12.87,13.17,13.55,13.93,14.47,14.95,15.36,15.73,16.11,16.33,16.46,16.56,16.72,17.06,17.37,17.64,17.88,18.32,18.96,19.77,20.80,22.06,23.37,24.37,25.13,25.71,25.96,26.43,26.88,27.28,27.74,28.28,28.80,29.20,29.38,29.56,29.78,30.08,30.47,30.86,31.22,31.59,32.00,32.46,34.18,36.03,37.81,39.50,42.15,45.17,48.05,50.19,50.48,50.39,49.82,48.92,47.86,45.81,42.51,38.82,35.33,32.45,32.43,33.40,34.86,36.59,37.59,38.83,40.71,43.47,46.46,48.74,50.64,52.57,55.42,58.04,61.40,65.60,70.58,75.01,79.15,81.87,81.62,73.54,68.49,65.37,63.54,62.22,62.02,62.00,62.17,62.57,63.39,64.35,65.17,65.68,65.79,64.76,62.40,59.76,58.28,57.12,56.16,55.42,54.90,54.51,54.06,53.56,53.00,52.41,51.80,50.35,48.19,45.65,44.26,42.99,41.91,41.03,40.21,39.67,39.26,38.92,38.56,38.17,37.84,37.56,37.31,37.16,37.01,36.85,36.67,36.42,36.11,35.80,35.49,35.20,35.15,34.96,34.72,34.46,34.23,34.00,33.77,33.54,33.34
e,e,e,e,e,e,e,e,e,e,e,e,e,e,e,e,e,e,e,e,e,e,e,e,e,e,e,e,e,e,e,e,e,e,e,e,e,e,e,e,e,e,e,e,e,e,e,e,e,e,e,e,e,e,e,e,e,e,e,e,e,e,e,e,e,e,e,e,12.72,17.24,20.64,21.60,21.96,22.15,22.05,21.14,19.84,16.28,12.24,9.66,9.12,8.57,7.99,7.36,6.66,5.90,5.77,6.10,6.48,6.79,7.16,7.54,7.94,8.40,8.80,9.15,9.46,9.77,10.22,10.63,11.01,11.39,11.62,11.91,12.19,12.42,12.65,12.88,13.12,13.30,13.38,13.46,13.75,14.11,14.44,14.98,15.46,15.92,16.36,16.75,17.06,17.22,17.33,17.49,17.88,18.20,18.51,18.83,19.22,19.81,20.86,22.22,23.53,24.84,25.84,26.59,27.17,27.32,27.73,28.15,28.56,29.02,29.42,29.76,30.05,30.28,30.51,30.74,31.04,31.43,31.81,32.14,32.49,32.86,33.17,34.40,35.86,37.41,39.02,41.27,44.25,47.45,50.15,50.83,50.95,50.82,50.55,50.17,48.31,44.15,40.07,37.11,34.18,33.31,34.07,35.87,37.80,38.76,39.85,41.91,45.40,48.48,51.25,53.45,55.20,57.16,59.93,63.35,67.32,71.66,75.99,79.71,81.19,78.85,69.24,65.42,62.91,60.89,59.73,59.25,59.20,59.41,59.73,60.20,61.09,61.84,62.24,62.40,61.64,60.38,58.94,57.70,56.54,55.34,54.28,53.50,53.11,52.66,52.15,51.61,51.07,50.45,49.07,46.87,44.03,42.34,41.01,40.10,39.59,39.26,38.95,38.68,38.42,38.11,37.73,37.71,37.67,37.38,37.22,37.07,36.92,36.76,36.60,36.30,35.99,35.68,35.40,35.55,35.41,35.14,34.85,34.61,34.38,34.15,33.94,33.78
e,e,e,e,e,e,e,e,e,e,e,e,e,e,e,e,e,e,e,e,e,e,e,e,e,e,e,e,e,e,e,e,e,e,e,e,e,e,e,e,e,e,e,e,e,e,e,e,e,e,e,e,e,e,e,e,e,e,e,e,e,e,e,e,e,2.66,5.69,9.60,14.36,18.47,20.99,22.21,23.00,22.99,22.21,21.04,19.56,15.96,11.99,9.56,9.21,8.64,8.03,7.47,6.91,6.29,6.19,6.48,6.87,7.23,7.60,7.99,8.38,8.80,9.19,9.58,9.99,10.39,10.81,11.20,11.57,11.91,12.19,12.49,12.76,12.99,13.23,13.46,13.69,13.89,14.02,14.05,14.29,14.66,15.06,15.51,16.01,16.50,16.94,17.33,17.69,17.93,18.11,18.32,18.66,18.97,19.30,19.71,20.38,21.26,22.36,23.64,25.00,26.31,27.34,28.09,28.58,28.78,29.04,29.54,30.27,31.02,31.21,31.19,31.19,31.42,31.65,31.81,32.04,32.39,32.77,33.13,33.48,33.82,34.18,34.84,35.84,37.11,38.60,40.46,43.44,46.69,49.49,50.62,51.13,51.34,51.22,50.70,49.51,44.94,40.35,37.36,34.91,34.12,34.97,36.88,38.77,40.23,41.87,44.13,47.29,50.86,54.01,56.48,58.38,60.31,63.21,66.40,69.79,73.35,76.96,79.60,78.02,71.52,65.78,62.68,60.76,59.52,58.65,58.12,58.05,58.27,58.58,58.90,59.34,59.72,59.96,60.07,59.61,58.81,57.82,56.82,55.66,54.44,53.35,52.49,51.87,51.30,50.64,49.87,48.94,47.99,46.56,44.53,41.98,40.75,39.97,39.41,38.99,38.68,38.50,38.38,38.26,38.10,38.00,38.05,38.00,37.74,37.49,37.28,37.05,36.84,36.73,36.48,36.18,35.94,35.84,35.95,35.87,35.65,35.35,35.12,34.85,34.60,34.37,34.17
e,e,e,e,e,e,e,e,e,e,e,e,e,e,e,e,e,e,e,e,e,e,e,e,e,e,e,e,e,e,e,e,e,e,e,e,e,e,e,e,e,e,e,e,e,e,e,e,e,e,e,e,e,e,e,e,e,e,e,e,e,e,e,e,e,3.76,6.88,10.99,15.69,19.38,21.24,22.57,23.43,23.22,22.10,20.87,18.90,15.12,11.35,9.43,9.08,8.48,8.01,7.74,7.38,6.73,6.54,6.77,7.18,7.60,8.01,8.41,8.80,9.18,9.60,10.06,10.54,11.02,11.40,11.78,12.14,12.45,12.76,13.05,13.31,13.55,13.80,14.03,14.26,14.47,14.63,14.65,14.86,15.22,15.67,16.06,16.55,17.05,17.52,17.93,18.31,18.63,18.89,19.15,19.50,19.83,20.20,20.70,21.57,22.69,23.85,25.07,26.44,27.77,28.95,29.87,30.48,30.77,30.95,31.47,32.31,33.04,32.93,32.57,32.33,32.54,32.78,32.88,33.05,33.37,33.76,34.12,34.47,34.81,35.20,35.51,36.11,37.05,38.36,39.85,42.72,45.97,48.91,50.54,51.38,51.82,51.74,51.00,50.21,45.43,40.59,37.65,35.57,34.83,35.70,37.64,39.49,41.45,43.58,46.02,48.91,52.99,56.56,59.38,61.56,63.69,66.51,69.30,72.11,75.04,76.98,77.38,73.62,65.91,62.72,60.48,59.12,58.36,57.67,57.06,56.95,57.14,57.40,57.62,57.77,57.92,58.07,58.11,57.82,57.30,56.61,55.77,54.69,53.53,52.44,51.51,50.72,50.01,49.25,48.33,47.07,45.76,44.22,42.42,40.41,39.60,39.17,38.89,38.67,38.50,38.46,38.47,38.45,38.36,38.37,38.41,38.33,38.09,37.80,37.54,37.27,37.02,36.88,36.66,36.40,36.24,36.26,36.34,36.32,36.16,35.86,35.61,35.32,35.06,34.81,34.58
e,e,e,e,e,e,e,e,e,e,e,e,e,e,e,e,e,e,e,e,e,e,e,e,e,e,e,e,e,e,e,e,e,e,e,e,e,e,e,e,e,e,e,e,e,e,e,e,e,e,e,e,e,e,e,e,e,e,e,e,e,e,e,e,e,4.47,8.03,12.19,16.62,19.92,21.41,22.59,22.94,22.56,21.64,20.60,17.71,13.56,10.15,9.28,8.64,8.01,7.91,8.30,8.18,7.26,6.81,6.91,7.37,7.89,8.37,8.79,9.18,9.57,10.07,10.59,11.13,11.66,11.99,12.35,12.71,13.02,13.33,13.59,13.82,14.07,14.37,14.61,14.84,15.05,15.20,15.27,15.46,15.79,16.25,16.63,17.09,17.59,18.11,18.56,18.95,19.33,19.68,19.98,20.43,20.83,21.27,21.86,22.78,24.08,25.32,26.52,27.84,29.23,30.72,32.09,33.11,33.55,33.76,34.20,34.82,35.05,34.50,33.85,33.46,33.63,33.86,33.93,34.07,34.39,34.78,35.10,35.46,35.84,36.22,36.53,36.79,37.34,38.39,39.53,42.14,45.32,48.46,50.68,51.76,52.27,52.09,51.06,50.22,45.50,40.80,38.06,36.17,35.38,36.16,38.02,39.88,42.26,44.77,47.35,50.10,54.72,58.80,62.09,64.72,67.34,69.76,71.95,74.17,76.69,75.57,72.02,67.47,63.08,60.24,59.05,58.22,57.47,56.77,56.03,55.84,55.95,56.12,56.29,56.39,56.54,56.71,56.65,56.30,55.86,55.28,54.50,53.61,52.58,51.52,50.55,49.71,48.82,48.02,47.12,45.61,43.91,42.21,40.71,39.60,39.09,38.68,38.56,38.73,38.91,39.04,39.14,39.14,38.99,38.86,38.78,38.65,38.42,38.18,37.89,37.62,37.37,37.08,36.85,36.66,36.57,36.64,36.72,36.78,36.67,36.36,36.06,35.81,35.54,35.26,35.03
e,e,e,e,e,e,e,e,e,e,e,e,e,e,e,e,e,e,e,e,e,e,e,e,e,e,e,e,e,e,e,e,e,e,e,e,e,e,e,e,e,e,e,e,e,e,e,e,e,e,e,e,e,e,e,e,e,e,e,e,e,e,e,e,e,5.25,8.43,12.64,17.07,20.19,21.33,22.45,22.40,21.81,20.81,19.31,15.85,12.15,9.39,8.49,8.33,7.95,7.59,7.36,7.20,6.92,7.04,7.35,7.40,7.65,8.17,8.76,9.32,9.96,10.55,11.13,11.70,12.24,12.57,12.90,13.25,13.60,13.90,14.16,14.39,14.62,14.89,15.16,15.41,15.62,15.78,15.90,16.07,16.35,16.77,17.20,17.62,18.11,18.63,19.09,19.60,20.08,20.55,21.03,21.45,21.84,22.37,23.11,23.99,25.28,26.59,27.91,29.30,30.98,32.70,34.33,35.71,36.50,36.68,36.80,36.90,36.60,35.89,35.16,34.69,34.77,34.96,35.01,35.11,35.36,35.75,36.07,36.42,36.82,37.24,37.59,37.81,38.15,38.81,39.68,41.87,44.81,48.00,50.52,51.85,52.68,52.68,51.44,50.30,46.18,41.83,38.80,37.15,36.06,36.52,38.14,39.79,42.19,44.78,47.45,50.29,54.88,58.82,62.49,66.00,69.28,71.39,73.52,75.07,75.14,72.85,68.11,63.58,60.72,58.89,57.91,57.12,56.36,55.67,54.94,54.64,54.62,54.74,54.89,55.02,55.17,55.30,55.19,54.86,54.45,53.90,53.17,52.36,51.44,50.50,49.58,48.69,47.77,46.90,46.00,44.82,43.19,41.48,40.07,39.26,38.88,38.78,38.90,39.18,39.45,39.62,39.75,39.80,39.68,39.41,39.21,39.01,38.74,38.51,38.21,37.94,37.68,37.33,37.05,36.94,36.95,37.02,37.10,37.18,37.11,36.87,36.56,36.32,36.04,35.76,35.53
e,e,e,e,e,e,e,e,e,e,e,e,e,e,e,e,e,e,e,e,e,e,e,e,e,e,e,e,e,e,e,e,e,e,e,e,e,e,e,e,e,e,e,e,e,e,e,e,e,e,e,e,e,e,e,e,e,e,e,e,e,e,e,e,2.84,5.68,8.50,12.70,17.26,20.35,21.20,22.13,21.78,20.97,19.70,17.51,13.79,10.81,8.76,7.68,7.77,7.72,7.31,6.61,6.26,6.63,7.27,7.74,7.47,7.44,7.86,8.53,9.30,10.20,10.88,11.50,12.10,12.66,13.08,13.44,13.79,14.17,14.48,14.73,14.96,15.19,15.43,15.72,15.99,16.20,16.35,16.52,16.68,16.92,17.30,17.75,18.16,18.63,19.15,19.64,20.27,20.87,21.45,22.08,22.49,22.91,23.53,24.38,25.23,26.46,27.82,29.27,30.82,32.74,34.64,36.46,38.14,39.25,39.38,39.17,38.75,38.02,37.25,36.49,35.96,35.91,36.04,36.08,36.16,36.33,36.70,37.03,37.39,37.80,38.26,38.66,38.93,39.17,39.49,40.14,41.91,44.49,47.52,50.29,51.81,53.05,53.36,51.96,50.53,47.11,43.18,39.81,38.20,36.85,36.93,38.18,39.62,41.98,44.60,47.34,50.28,55.00,58.98,63.09,67.31,70.64,72.52,74.37,75.06,73.05,69.95,64.88,60.71,58.82,57.79,56.84,55.99,55.21,54.52,53.84,53.45,53.33,53.38,53.51,53.65,53.80,53.89,53.74,53.44,53.03,52.49,51.81,51.05,50.23,49.38,48.54,47.67,46.74,45.81,44.91,44.03,42.61,41.01,39.70,39.05,38.85,39.05,39.38,39.70,40.00,40.19,40.35,40.44,40.37,39.97,39.65,39.36,39.06,38.81,38.50,38.22,37.94,37.55,37.30,37.27,37.34,37.41,37.49,37.56,37.54,37.38,37.07,36.83,36.55,36.26,36.02
e,e,e,e,e,e,e,e,e,e,e,e,e,e,e,e,e,e,e,e,e,e,e,e,e,e,e,e,e,e,e,e,e,e,e,e,e,e,e,e,e,e,e,e,e,e,e,e,e,e,e,e,e,e,e,e,e,e,e,e,e,e,e,e,2.27,5.14,8.05,12.11,16.97,20.33,21.07,21.46,21.02,19.94,18.06,14.88,11.58,9.53,8.26,7.19,6.43,6.83,7.26,7.17,6.38,6.95,7.54,7.85,7.72,7.60,7.58,7.98,8.94,10.04,10.80,11.41,11.99,12.66,13.40,13.95,14.36,14.75,15.05,15.30,15.54,15.77,16.00,16.30,16.56,16.77,16.93,17.14,17.32,17.54,17.87,18.27,18.71,19.18,19.68,20.27,21.00,21.69,22.36,23.04,23.55,24.11,24.81,25.66,26.51,27.65,29.02,30.63,32.47,34.40,36.37,38.31,40.13,41.34,41.41,40.97,40.25,39.37,38.59,37.86,37.30,37.06,37.09,37.14,37.22,37.35,37.67,38.03,38.41,38.82,39.29,39.73,40.15,40.47,40.69,41.19,42.62,44.58,47.00,50.01,51.60,53.31,54.12,52.73,51.15,48.41,44.97,41.39,39.24,37.85,37.51,38.15,39.50,41.86,44.50,47.27,50.29,55.90,60.72,65.48,69.72,71.37,73.18,73.83,73.17,71.24,67.26,62.73,59.39,57.91,56.78,55.82,54.91,54.06,53.37,52.73,52.37,52.20,52.16,52.19,52.27,52.39,52.49,52.33,52.04,51.60,51.04,50.41,49.70,48.89,48.06,47.29,46.61,45.67,44.75,43.86,42.89,41.79,40.57,39.53,38.95,39.14,39.47,39.85,40.21,40.51,40.74,40.92,41.02,41.01,40.56,40.09,39.68,39.37,39.07,38.72,38.39,38.07,37.68,37.67,37.72,37.77,37.79,37.87,37.95,37.97,37.89,37.58,37.34,37.07,36.76,36.47
e,e,e,e,e,e,e,e,e,e,e,e,e,e,e,e,e,e,e,e,e,e,e,e,e,e,e,e,e,e,e,e,e,e,e,e,e,e,e,e,e,e,e,e,e,e,e,e,e,e,e,e,e,e,e,e,e,e,e,e,e,e,e,e,2.03,4.75,7.38,10.98,15.90,19.61,20.69,20.71,19.95,18.39,15.97,12.53,10.13,8.66,7.65,6.67,6.18,6.65,7.00,6.89,6.76,7.04,7.56,8.12,8.43,8.48,8.46,8.49,8.71,9.63,10.45,11.10,11.65,12.38,13.23,13.94,14.56,15.15,15.60,15.88,16.11,16.34,16.57,16.84,17.11,17.35,17.50,17.73,17.91,18.13,18.44,18.83,19.25,19.81,20.47,21.13,21.86,22.57,23.28,24.00,24.57,25.21,25.98,26.89,27.78,28.90,30.40,32.20,34.13,36.03,38.03,39.99,41.77,43.18,43.24,42.74,41.95,40.99,40.11,39.28,38.59,38.16,38.16,38.22,38.30,38.41,38.68,39.08,39.58,40.15,40.75,41.35,41.86,42.19,42.33,42.66,43.59,45.13,47.22,49.76,51.54,53.44,54.54,53.71,52.06,49.82,46.86,43.36,40.52,38.93,38.17,38.30,39.51,41.86,44.49,47.24,50.25,56.16,62.04,67.08,70.65,71.77,72.93,72.94,71.85,69.93,65.37,61.38,58.68,57.40,56.14,54.98,53.90,52.95,52.22,51.63,51.26,51.06,50.99,50.99,51.03,51.09,51.12,50.93,50.63,50.19,49.63,49.05,48.35,47.57,46.76,45.97,45.32,44.52,43.68,42.81,41.91,40.95,40.06,39.37,39.02,39.43,39.85,40.27,40.68,41.02,41.33,41.52,41.54,41.33,40.87,40.40,39.97,39.59,39.25,38.87,38.52,38.23,37.98,38.04,38.12,38.18,38.22,38.30,38.35,38.39,38.37,38.09,37.82,37.55,37.30,37.09
e,e,e,e,e,e,e,e,e,e,e,e,e,e,e,e,e,e,e,e,e,e,e,e,e,e,e,e,e,e,e,e,e,e,e,e,e,e,e,e,e,e,e,e,e,e,e,e,e,e,e,e,e,e,e,e,e,e,e,e,e,e,e,e,e,4.30,6.60,9.65,14.41,18.40,20.07,19.72,18.56,16.52,13.72,10.47,9.07,7.96,7.01,6.20,6.43,6.87,6.87,6.51,7.23,7.02,7.45,8.39,9.23,9.61,9.79,9.47,8.69,9.14,9.99,10.68,11.22,12.00,12.84,13.70,14.55,15.41,16.07,16.44,16.69,16.93,17.15,17.38,17.65,17.92,18.08,18.31,18.49,18.70,19.02,19.43,19.86,20.55,21.42,22.12,22.81,23.51,24.23,24.98,25.60,26.25,27.06,28.04,28.96,30.13,31.79,33.77,35.70,37.56,39.62,41.61,43.34,44.93,44.99,44.49,43.74,42.73,41.73,40.77,39.94,39.33,39.32,39.40,39.49,39.61,39.87,40.28,40.90,41.67,42.44,43.22,43.78,44.09,44.17,44.31,44.69,45.87,47.75,49.55,51.53,53.50,54.82,54.75,53.03,51.15,48.65,45.39,41.98,40.06,38.90,38.59,39.60,41.97,44.58,47.28,50.28,56.22,62.96,68.06,70.85,71.89,72.24,71.88,70.72,68.63,63.75,60.33,58.19,56.97,55.58,54.20,52.95,51.88,51.09,50.55,50.17,49.93,49.83,49.83,49.82,49.81,49.75,49.51,49.20,48.77,48.24,47.70,47.00,46.26,45.46,44.63,43.93,43.30,42.57,41.76,41.01,40.15,39.56,39.24,39.18,39.72,40.20,40.67,41.12,41.51,41.91,42.10,41.99,41.53,41.07,40.66,40.24,39.79,39.40,39.01,38.67,38.43,38.36,38.43,38.51,38.59,38.67,38.74,38.76,38.80,38.82,38.60,38.30,38.05,37.88,37.84
e,e,e,e,e,e,e,e,e,e,e,e,e,e,e,e,e,e,e,e,e,e,e,e,e,e,e,e,e,e,e,e,e,e,e,e,e,e,e,e,e,e,e,e,e,e,e,e,e,e,e,e,e,e,e,e,e,e,e,e,e,e,e,e,e,3.08,5.77,8.58,12.28,15.96,18.56,17.38,15.95,14.02,11.73,9.51,8.36,7.32,6.52,6.17,6.88,7.71,8.00,7.69,7.47,6.93,7.17,8.15,9.49,10.36,10.79,10.53,9.57,8.79,9.45,10.22,10.84,11.61,12.46,13.34,14.27,15.23,16.24,16.88,17.29,17.56,17.73,17.96,18.20,18.44,18.65,18.88,19.06,19.28,19.61,20.17,20.90,21.76,22.63,23.33,24.02,24.72,25.42,26.13,26.75,27.22,27.82,28.67,29.60,31.07,32.82,34.72,36.66,38.57,40.94,43.34,45.36,46.76,46.74,46.26,45.59,44.59,43.58,42.59,41.69,40.99,40.93,41.14,41.39,41.62,42.08,42.30,42.81,43.59,44.36,45.19,45.73,46.01,46.08,46.06,45.87,46.57,48.18,49.65,51.50,53.56,55.16,55.52,53.65,51.69,49.46,46.86,43.89,41.37,39.83,39.35,39.87,42.37,44.99,47.72,50.85,56.74,62.53,67.26,70.34,71.09,71.18,70.79,69.31,66.02,61.58,59.04,57.38,55.94,54.55,53.31,52.12,51.02,50.08,49.63,49.24,48.88,48.55,48.55,48.50,48.42,48.26,47.92,47.61,47.26,46.84,46.29,45.60,44.89,44.14,43.35,42.60,41.96,41.31,40.66,40.11,39.68,39.34,39.24,39.50,39.98,40.49,40.99,41.45,41.89,42.38,42.49,42.25,41.79,41.38,40.95,40.52,40.11,39.67,39.27,38.95,38.77,38.81,38.88,38.96,39.04,39.11,39.13,39.18,39.24,39.28,39.10,38.86,38.68,38.66,38.86
e,e,e,e,e,e,e,e,e,e,e,e,e,e,e,e,e,e,e,e,e,e,e,e,e,e,e,e,e,e,e,e,e,e,e,e,e,e,e,e,e,e,e,e,e,e,e,e,e,e,e,e,e,e,e,e,e,e,e,e,e,e,e,e,e,1.84,4.13,6.84,10.43,14.10,16.79,15.33,13.73,11.97,10.18,8.69,7.65,6.74,6.26,6.52,7.51,8.48,9.06,9.02,8.12,7.22,7.47,8.64,10.07,11.18,11.65,11.37,10.37,9.20,9.32,9.84,10.51,11.37,12.30,13.25,14.24,15.31,16.49,17.29,17.81,18.13,18.34,18.59,18.82,19.02,19.23,19.49,19.75,20.11,20.64,21.37,22.13,22.97,23.85,24.54,25.26,25.95,26.63,27.32,27.88,28.23,28.68,29.40,30.44,32.08,33.83,35.65,37.58,39.73,42.35,45.03,47.35,48.61,48.57,48.09,47.40,46.40,45.37,44.36,43.48,42.90,42.82,43.15,43.58,43.96,44.42,44.53,44.89,45.53,46.28,47.12,47.66,47.91,47.94,47.75,47.28,47.50,48.56,49.87,51.96,54.22,55.85,55.95,54.02,52.05,50.02,47.88,45.46,42.81,41.00,40.32,40.82,43.68,46.48,49.34,52.51,57.03,61.22,64.99,67.94,68.92,68.79,67.95,66.12,62.92,59.83,57.94,56.45,54.92,53.53,52.27,51.12,50.08,49.16,48.75,48.35,47.91,47.44,47.27,47.17,47.00,46.71,46.29,46.00,45.74,45.40,44.89,44.19,43.50,42.78,42.04,41.29,40.77,40.31,39.91,39.64,39.51,39.41,39.49,39.85,40.31,40.84,41.36,41.85,42.34,42.85,42.88,42.55,42.12,41.70,41.27,40.85,40.43,40.02,39.70,39.44,39.26,39.26,39.33,39.41,39.47,39.52,39.55,39.61,39.69,39.74,39.67,39.53,39.43,39.44,39.66
e,e,e,e,e,e,e,e,e,e,e,e,e,e,e,e,e,e,e,e,e,e,e,e,e,e,e,e,e,e,e,e,e,e,e,e,e,e,e,e,e,e,e,e,e,e,e,e,e,e,e,e,e,e,e,e,e,e,e,e,e,e,e,e,e,e,e,e,8.79,12.68,14.83,13.52,11.83,10.26,8.96,7.95,6.95,6.20,6.16,7.17,8.25,9.21,10.07,10.46,9.08,7.83,8.22,9.67,10.90,12.06,12.40,12.02,11.10,10.17,9.50,9.53,10.23,11.24,12.31,13.34,14.40,15.56,16.80,17.69,18.28,18.65,18.96,19.27,19.49,19.65,19.81,20.11,20.53,21.15,22.01,22.93,23.48,24.19,25.06,25.76,26.52,27.20,27.84,28.53,28.99,29.28,29.62,30.20,31.44,33.14,34.83,36.54,38.47,41.01,43.82,46.70,49.32,50.48,50.46,49.95,49.19,48.19,47.11,46.08,45.31,45.01,44.93,45.37,45.99,46.56,46.87,46.91,47.09,47.50,48.20,49.04,49.58,49.82,49.78,49.39,48.88,48.61,48.89,50.20,52.78,55.34,56.80,56.14,54.21,52.28,50.38,48.54,46.76,44.33,42.35,41.43,42.28,45.67,48.78,51.83,54.98,57.14,59.24,61.63,64.11,65.73,65.39,63.81,61.60,59.47,58.39,56.97,55.43,53.90,52.51,51.12,49.99,49.10,48.33,47.93,47.49,47.00,46.47,46.00,45.84,45.57,45.11,44.65,44.39,44.20,43.95,43.48,42.79,42.09,41.40,40.71,40.01,39.71,39.52,39.42,39.50,39.58,39.71,39.92,40.24,40.70,41.22,41.76,42.30,42.84,43.32,43.27,42.88,42.50,42.03,41.63,41.21,40.76,40.45,40.27,40.08,39.87,39.71,39.78,39.85,39.90,39.91,39.98,40.06,40.14,40.22,40.29,40.30,40.26,40.23,40.30
e,e,e,e,e,e,e,e,e,e,e,e,e,e,e,e,e,e,e,e,e,e,e,e,e,e,e,e,e,e,e,e,e,e,e,e,e,e,e,e,e,e,e,e,e,e,e,e,e,e,e,e,e,e,e,e,e,e,e,e,e,e,e,e,e,e,e,e,6.61,10.94,12.93,11.77,10.51,9.30,8.18,7.13,6.31,6.30,6.94,7.99,9.03,10.13,11.21,11.95,11.40,10.56,10.57,11.36,12.50,13.46,13.33,12.58,11.61,10.68,10.21,10.23,10.69,11.44,12.50,13.54,14.61,15.82,17.06,18.05,18.73,19.11,19.47,19.91,20.37,20.81,21.21,21.52,22.00,22.68,23.53,24.41,25.11,25.73,26.35,27.09,27.73,28.41,29.14,29.87,30.38,30.76,31.04,31.34,32.08,33.76,35.58,37.42,39.30,42.03,44.94,47.77,50.25,51.75,51.96,51.55,50.80,49.84,48.86,47.96,47.32,47.12,47.14,47.57,48.20,48.90,49.51,49.60,49.66,49.95,50.75,51.98,52.78,53.08,52.89,52.25,51.42,51.02,51.41,52.87,54.88,56.91,57.83,56.40,54.47,52.54,50.64,48.80,47.02,45.01,43.51,43.03,44.13,46.04,48.38,50.98,53.63,55.80,57.82,59.45,60.60,61.28,61.30,60.67,59.63,58.51,57.23,55.86,54.49,53.11,51.52,50.39,49.52,48.87,48.44,48.01,47.59,47.22,46.91,46.45,46.06,45.64,45.16,44.65,44.08,43.49,42.85,42.14,41.60,41.05,40.55,40.12,39.82,39.74,39.78,39.89,40.07,40.20,40.38,40.60,40.87,41.28,41.80,42.31,42.81,43.36,43.74,43.65,43.25,42.82,42.40,41.97,41.55,41.15,40.89,40.72,40.55,40.39,40.28,40.30,40.36,40.43,40.48,40.56,40.64,40.74,40.86,40.93,40.99,40.96,40.88,40.81
e,e,e,e,e,e,e,e,e,e,e,e,e,e,e,e,e,e,e,e,e,e,e,e,e,e,e,e,e,e,e,e,e,e,e,e,e,e,e,e,e,e,e,e,e,e,e,e,e,e,e,e,e,e,e,e,e,e,e,e,e,e,e,e,e,e,e,e,e,8.50,10.64,10.03,9.26,8.37,7.40,6.38,6.11,6.70,7.74,8.80,9.87,11.06,12.28,13.31,13.49,13.09,12.97,13.32,14.18,14.60,14.06,13.10,12.12,11.19,10.91,10.96,11.25,11.76,12.71,13.73,14.84,16.08,17.31,18.40,19.15,19.55,20.02,20.59,21.22,21.86,22.47,22.89,23.48,24.21,25.06,25.91,26.72,27.31,27.78,28.44,29.01,29.72,30.52,31.33,31.91,32.35,32.57,32.65,32.96,34.37,36.13,38.04,39.96,42.76,45.70,48.49,50.92,52.73,53.39,53.20,52.41,51.53,50.64,49.87,49.32,49.12,49.19,49.68,50.46,51.41,52.24,52.64,52.77,52.95,53.67,55.12,56.07,56.40,56.06,55.24,54.19,53.84,54.47,55.97,57.29,58.49,58.68,56.90,54.89,52.87,50.90,49.03,47.30,45.60,44.65,44.72,46.00,47.13,48.90,50.97,53.03,55.00,56.68,57.66,57.96,58.11,58.42,58.40,58.11,57.66,56.27,54.94,53.70,52.53,51.04,50.26,49.64,49.12,48.85,48.43,48.04,47.75,47.62,47.27,46.78,46.30,45.84,45.33,44.58,43.76,42.86,41.84,41.07,40.46,40.03,39.80,39.84,40.00,40.22,40.47,40.70,40.86,41.06,41.29,41.53,41.90,42.37,42.86,43.35,43.87,44.14,44.01,43.61,43.16,42.76,42.32,41.92,41.57,41.34,41.19,41.04,40.91,40.83,40.84,40.89,40.95,41.03,41.11,41.18,41.30,41.44,41.54,41.64,41.58,41.39,41.13
e,e,e,e,e,e,e,e,e,e,e,e,e,e,e,e,e,e,e,e,e,e,e,e,e,e,e,e,e,e,e,e,e,e,e,e,e,e,e,e,e,e,e,e,e,e,e,e,e,e,e,e,e,e,e,e,e,e,e,e,e,e,e,e,e,e,e,e,e,5.17,7.83,8.31,8.09,7.46,6.60,5.73,6.50,7.50,8.55,9.57,10.79,12.02,13.29,14.50,15.27,15.38,15.43,15.60,15.97,15.40,14.53,13.56,12.63,11.70,11.58,11.72,11.96,12.23,12.92,13.92,15.10,16.33,17.57,18.73,19.53,19.96,20.63,21.32,22.04,22.80,23.55,24.22,24.95,25.75,26.60,27.45,28.29,28.93,29.38,29.80,30.40,31.16,32.02,32.93,33.61,34.07,34.25,34.19,34.16,34.96,36.42,38.34,40.41,43.11,45.98,48.77,51.26,53.32,54.75,54.91,54.03,53.24,52.46,51.81,51.32,50.97,51.05,51.68,52.76,54.11,55.10,56.15,56.57,56.64,57.06,58.50,59.49,59.79,59.30,58.39,57.28,57.18,58.21,59.62,60.12,60.07,59.32,57.73,55.51,53.30,51.18,49.24,47.60,46.09,45.75,46.53,47.91,49.14,50.58,52.03,53.38,54.90,55.91,56.36,56.43,56.58,57.06,57.25,57.17,56.96,55.57,54.23,53.11,52.21,51.22,50.89,50.49,49.99,49.62,49.29,48.93,48.68,48.66,48.55,48.16,47.73,47.32,46.85,46.11,45.29,44.27,42.85,41.39,40.44,39.94,39.84,40.11,40.52,40.88,41.17,41.40,41.56,41.76,42.00,42.23,42.55,42.93,43.39,43.91,44.38,44.52,44.33,43.94,43.55,43.09,42.68,42.32,42.01,41.78,41.67,41.55,41.42,41.34,41.40,41.43,41.46,41.54,41.62,41.69,41.81,41.96,42.11,42.26,42.11,41.70,41.19
e,e,e,e,e,e,e,e,e,e,e,e,e,e,e,e,e,e,e,e,e,e,e,e,e,e,e,e,e,e,e,e,e,e,e,e,e,e,e,e,e,e,e,e,e,e,e,e,e,e,e,e,e,e,e,e,e,e,e,e,e,e,e,e,e,e,e,e,e,3.39,5.38,6.21,6.71,6.57,6.13,6.31,7.27,8.33,9.42,10.57,11.89,13.21,14.55,15.84,16.82,17.01,17.08,17.05,16.76,15.89,14.96,14.03,13.15,12.26,12.24,12.46,12.73,13.01,13.43,14.28,15.42,16.70,17.93,19.14,20.09,20.73,21.39,22.00,22.70,23.48,24.25,25.03,25.87,26.76,27.69,28.63,29.63,30.48,31.08,31.42,31.94,32.70,33.62,34.58,35.28,35.74,35.93,35.88,35.72,35.87,36.82,38.50,40.63,43.37,46.15,48.88,51.44,53.79,55.85,56.55,55.97,55.24,54.55,53.88,53.24,52.71,52.83,53.52,54.64,56.03,57.51,59.01,59.86,60.14,60.23,61.29,62.36,62.99,62.84,61.91,60.56,60.16,60.89,61.85,62.29,61.73,60.32,58.33,56.01,53.71,51.57,49.65,48.03,47.02,47.03,47.95,49.38,51.37,53.13,54.62,55.82,56.60,57.24,57.50,57.39,57.20,57.16,57.13,57.11,57.10,56.14,55.11,54.17,53.49,53.59,53.81,53.68,53.32,53.11,52.10,51.21,50.65,50.52,50.40,49.91,49.35,48.84,48.33,47.59,46.66,45.48,43.92,42.38,41.08,40.25,40.04,40.56,41.14,41.58,41.87,42.10,42.26,42.49,42.75,42.99,43.25,43.58,43.98,44.44,44.95,44.92,44.65,44.26,43.88,43.45,43.03,42.69,42.47,42.28,42.18,42.09,41.98,41.91,41.93,41.97,42.03,42.11,42.18,42.26,42.37,42.53,42.68,42.69,42.35,41.77,41.14
e,e,e,e,e,e,e,e,e,e,e,e,e,e,e,e,e,e,e,e,e,e,e,e,e,e,e,e,e,e,e,e,e,e,e,e,e,e,e,e,e,e,e,e,e,e,e,e,e,e,e,e,e,e,e,e,e,e,e,e,e,e,e,e,e,e,e,e,e,2.07,3.47,4.52,5.56,5.97,6.10,7.08,8.10,9.18,10.37,11.68,13.10,14.51,15.90,17.25,18.36,18.53,18.48,18.16,17.34,16.32,15.36,14.45,13.62,12.92,13.03,13.33,13.64,13.95,14.18,14.71,15.63,16.95,18.23,19.47,20.52,21.34,22.07,22.68,23.36,24.12,24.89,25.75,26.67,27.63,28.63,29.71,30.93,32.01,32.79,33.09,33.47,34.22,35.19,36.18,36.92,37.40,37.61,37.57,37.31,36.91,37.38,38.80,40.96,43.68,46.40,49.11,51.82,54.49,56.98,58.13,57.93,57.28,56.62,55.88,55.11,54.41,54.55,55.30,56.40,57.77,59.71,61.64,62.96,63.55,63.44,64.07,65.10,66.04,66.41,65.50,63.85,63.15,63.59,64.14,64.18,63.00,60.99,58.73,56.38,54.05,51.94,50.14,48.62,48.10,48.42,49.48,51.11,53.72,55.85,57.66,59.25,59.72,60.00,59.79,59.10,58.27,57.76,57.52,57.49,57.60,57.06,56.37,55.77,55.52,56.40,56.95,57.01,56.79,56.72,55.42,54.33,53.56,53.10,52.71,51.94,51.10,50.33,49.72,48.97,47.94,46.62,45.01,43.46,41.89,40.73,40.32,41.06,41.77,42.27,42.57,42.80,42.98,43.23,43.51,43.75,43.98,44.26,44.59,44.97,45.48,45.30,44.97,44.58,44.19,43.81,43.39,43.08,42.94,42.80,42.71,42.64,42.56,42.48,42.48,42.53,42.60,42.68,42.76,42.84,42.94,43.08,43.24,43.04,42.53,41.83,41.14
e,e,e,e,e,e,e,e,e,e,e,e,e,e,e,e,e,e,e,e,e,e,e,e,e,e,e,e,e,e,e,e,e,e,e,e,e,e,e,e,e,e,e,e,e,e,e,e,e,e,e,e,e,e,e,e,e,e,e,e,e,e,e,e,e,e,e,e,e,1.28,2.66,3.86,5.00,6.04,6.98,7.85,8.91,10.11,11.46,12.96,14.48,15.95,17.37,18.73,19.94,20.04,19.57,18.75,17.79,16.72,15.70,14.77,13.99,13.79,14.15,14.55,14.86,15.17,15.34,15.26,15.57,16.89,18.32,19.60,20.63,21.46,22.53,23.37,24.07,24.75,25.53,26.44,27.41,28.38,29.36,30.69,32.19,33.54,34.51,34.75,34.90,35.62,36.66,37.66,38.55,39.06,39.27,39.21,38.85,38.14,38.27,39.43,41.60,44.18,46.84,49.67,52.69,55.75,58.24,59.60,59.81,59.31,58.52,57.70,56.86,56.07,56.16,56.97,58.06,59.35,61.59,63.98,65.79,66.78,66.82,67.07,67.74,68.81,70.00,69.13,67.14,66.27,66.73,67.03,65.65,63.35,60.80,58.73,56.53,54.25,52.24,50.70,49.53,49.40,50.03,51.41,53.59,56.26,58.64,61.22,64.23,65.50,65.31,63.90,61.67,59.66,58.99,58.70,58.61,58.63,58.33,57.96,58.05,58.76,59.49,59.85,59.87,59.74,59.72,59.28,58.91,58.26,57.07,55.88,54.47,53.04,51.75,50.89,50.17,49.07,47.65,46.09,44.55,42.87,41.45,40.72,41.61,42.39,42.94,43.28,43.51,43.73,43.96,44.23,44.52,44.75,44.99,45.24,45.53,45.94,45.66,45.29,44.90,44.51,44.13,43.78,43.55,43.46,43.37,43.29,43.21,43.13,43.06,43.05,43.10,43.18,43.26,43.33,43.41,43.49,43.60,43.75,43.29,42.66,41.96,41.27
e,e,e,e,e,e,e,e,e,e,e,e,e,e,e,e,e,e,e,e,e,e,e,e,e,e,e,e,e,e,e,e,e,e,e,e,e,e,e,e,e,e,e,e,e,e,e,e,e,e,e,e,e,e,e,e,e,e,e,e,e,e,e,e,e,e,e,e,e,1.17,2.55,3.82,5.12,6.45,7.70,8.66,9.84,11.15,12.60,14.14,15.65,17.13,18.68,20.27,21.62,21.45,20.52,19.28,18.23,17.15,16.07,15.09,14.37,14.62,15.22,15.73,16.07,16.38,16.51,16.28,16.19,16.78,18.13,19.37,20.37,21.22,22.41,23.43,24.38,25.28,26.16,27.05,27.97,28.87,29.82,31.58,33.37,34.96,36.10,36.41,36.43,36.98,37.93,39.04,40.08,40.68,40.91,40.80,40.27,39.55,39.47,40.37,42.57,45.11,47.61,50.35,53.49,56.73,59.23,60.81,61.38,60.88,60.06,59.21,58.37,57.59,57.67,58.41,59.66,61.38,63.81,66.34,68.38,69.73,70.24,70.30,70.76,71.77,73.15,72.85,70.79,69.69,69.84,69.49,67.09,63.65,60.33,58.36,56.46,54.49,52.79,51.59,51.09,51.74,52.97,54.67,56.88,60.20,63.40,66.50,69.43,71.19,71.15,69.55,66.84,64.08,62.01,60.84,60.34,60.13,60.01,59.99,60.34,61.10,61.72,61.80,61.60,61.32,61.21,60.95,60.56,59.90,58.84,57.38,55.82,54.26,52.83,51.90,51.09,50.04,48.71,47.13,45.44,43.66,42.10,41.15,42.08,42.91,43.55,43.98,44.21,44.48,44.72,44.97,45.24,45.47,45.70,45.93,46.16,46.36,46.04,45.65,45.27,44.88,44.49,44.24,44.09,44.02,43.94,43.83,43.74,43.66,43.58,43.58,43.63,43.71,43.78,43.86,43.94,44.03,44.11,44.01,43.45,42.78,42.09,41.39
e,e,e,e,e,e,e,e,e,e,e,e,e,e,e,e,e,e,e,e,e,e,e,e,e,e,e,e,e,e,e,e,e,e,e,e,e,e,e,e,e,e,e,e,e,e,e,e,e,e,e,e,e,e,e,e,e,e,e,e,e,e,e,e,e,e,e,e,e,1.39,2.80,4.13,5.57,7.03,8.39,9.49,10.79,12.21,13.70,15.23,16.70,18.18,19.91,21.84,23.30,22.83,21.45,19.82,18.68,17.59,16.46,15.45,14.82,15.45,16.26,16.88,17.27,17.58,17.67,17.45,17.10,16.87,17.97,19.04,19.98,20.84,22.09,23.29,24.54,25.73,26.76,27.60,28.44,29.29,30.28,32.45,34.50,36.31,37.65,38.07,38.04,38.39,39.19,40.38,41.55,42.27,42.54,42.37,41.66,41.09,40.90,41.55,43.68,46.17,48.50,51.12,54.32,57.64,60.13,61.92,62.84,62.29,61.47,60.65,59.85,59.13,59.17,59.80,61.26,63.53,66.09,68.65,70.85,72.54,73.62,73.63,73.98,74.86,76.20,76.55,74.65,73.29,72.83,71.50,68.32,63.94,59.92,57.99,56.41,54.82,53.53,52.78,52.95,54.41,56.31,58.42,60.70,64.69,68.68,72.08,74.54,76.53,76.77,75.33,72.53,69.21,65.64,63.47,62.45,61.95,61.95,62.22,62.64,63.13,63.49,63.21,62.74,62.27,62.00,61.65,61.02,60.30,59.62,58.17,56.71,55.21,53.79,52.85,51.91,50.92,49.72,48.14,46.28,44.41,42.73,41.59,42.52,43.39,44.14,44.69,44.91,45.21,45.46,45.70,45.93,46.16,46.39,46.62,46.79,46.76,46.41,46.03,45.64,45.25,44.90,44.75,44.68,44.60,44.52,44.38,44.27,44.19,44.11,44.10,44.15,44.23,44.31,44.38,44.46,44.56,44.59,44.17,43.58,42.93,42.26,41.60
e,e,e,e,e,e,e,e,e,e,e,e,e,e,e,e,e,e,e,e,e,e,e,e,e,e,e,e,e,e,e,e,e,e,e,e,e,e,e,e,e,e,e,e,e,e,e,e,e,e,e,e,e,e,e,e,e,e,e,e,e,e,e,e,e,e,e,e,e,2.02,3.58,5.07,6.49,7.87,9.18,10.38,11.69,13.10,14.58,16.06,17.53,19.09,21.10,23.43,24.90,24.21,22.56,20.62,19.13,17.99,16.88,16.02,15.66,16.39,17.17,17.87,18.42,18.73,18.82,18.60,18.26,18.04,18.35,18.82,19.51,20.47,21.76,23.19,24.65,26.02,27.14,27.93,28.73,29.72,31.11,33.33,35.47,37.51,39.16,39.78,39.81,40.12,40.75,41.66,42.93,43.79,44.14,43.96,43.20,42.92,42.90,43.41,44.90,47.09,49.40,52.12,55.40,58.73,61.05,63.00,64.30,63.70,62.92,62.24,61.61,60.97,60.82,61.36,62.93,65.45,68.06,70.72,73.15,75.21,76.74,77.10,77.49,78.25,79.48,80.02,78.87,77.26,75.32,72.17,68.65,64.19,60.15,58.19,56.85,55.48,54.73,54.84,55.11,56.88,59.34,62.29,65.65,69.44,73.07,76.30,78.90,80.35,80.52,79.17,76.41,72.70,69.22,66.78,65.29,64.50,64.50,64.70,64.99,65.16,64.48,63.63,62.96,62.47,61.95,61.35,60.63,59.92,59.28,58.37,57.42,56.17,54.73,53.75,52.71,51.62,50.44,49.10,47.18,45.27,43.41,41.97,42.90,43.81,44.72,45.44,45.62,45.86,46.10,46.33,46.57,46.80,47.03,47.23,47.33,47.10,46.73,46.34,45.96,45.57,45.42,45.36,45.32,45.23,45.10,45.00,44.91,44.82,44.68,44.68,44.73,44.80,44.88,44.96,45.03,45.07,44.94,44.32,43.70,43.14,42.64,42.17
e,e,e,e,e,e,e,e,e,e,e,e,e,e,e,e,e,e,e,e,e,e,e,e,e,e,e,e,e,e,e,e,e,e,e,e,e,e,e,e,e,e,e,e,e,e,e,e,e,e,e,e,e,e,e,e,e,e,e,e,e,e,e,e,e,e,e,e,e,2.84,4.43,5.98,7.44,8.82,10.11,11.35,12.63,14.01,15.46,16.93,18.40,20.24,22.53,25.01,26.60,25.63,23.71,21.48,19.50,18.43,17.37,16.59,16.34,17.14,17.97,18.90,19.99,21.26,21.95,22.14,21.70,20.58,20.10,19.64,19.72,20.51,21.83,23.37,24.89,26.30,27.52,28.30,29.07,30.13,31.70,33.88,36.12,38.30,40.19,41.28,41.69,42.10,42.61,43.31,44.32,45.27,45.71,45.50,44.94,44.80,44.86,45.21,46.08,47.94,50.22,52.99,56.25,59.48,61.94,64.07,65.57,65.31,64.66,64.07,63.51,62.93,62.61,63.08,64.54,66.91,69.33,72.20,75.00,77.51,79.51,80.54,81.28,82.17,83.37,83.69,82.46,80.34,77.41,73.31,69.31,64.87,60.96,58.77,57.53,56.53,56.27,56.86,57.50,59.92,62.91,66.24,70.03,73.86,77.54,80.72,83.04,83.68,83.00,81.27,78.61,75.08,71.86,69.32,67.60,66.77,66.20,65.80,65.41,64.87,63.85,62.88,62.24,61.83,61.30,60.67,59.98,59.30,58.68,58.05,57.35,56.41,55.29,54.44,53.38,52.25,51.08,49.86,48.11,46.10,44.03,42.39,43.32,44.35,45.39,46.20,46.32,46.52,46.74,46.97,47.21,47.44,47.65,47.77,47.74,47.43,47.05,46.66,46.29,45.93,45.95,45.97,45.96,45.87,45.75,45.64,45.55,45.45,45.30,45.26,45.30,45.38,45.45,45.53,45.59,45.52,45.25,44.68,44.12,43.62,43.17,42.75
e,e,e,e,e,e,e,e,e,e,e,e,e,e,e,e,e,e,e,e,e,e,e,e,e,e,e,e,e,e,e,e,e,e,e,e,e,e,e,e,e,e,e,e,e,e,e,e,e,e,e,e,e,e,e,e,e,e,e,e,e,e,e,e,e,e,e,e,2.29,3.79,5.34,6.88,8.42,9.83,11.13,12.37,13.61,14.94,16.36,17.82,19.31,21.55,24.10,26.58,28.35,27.08,24.93,22.42,19.83,18.89,17.91,17.16,16.92,17.77,18.68,19.95,21.82,24.62,26.25,27.11,26.51,24.00,22.72,21.16,20.40,20.86,22.16,23.73,25.22,26.58,27.90,28.68,29.46,30.54,32.14,34.22,36.55,38.82,40.88,42.59,43.60,44.22,44.68,45.22,45.76,46.75,47.27,47.04,46.82,46.72,46.77,46.96,47.27,48.78,51.00,53.78,56.92,60.01,62.80,65.12,66.72,67.05,66.58,66.04,65.50,64.96,64.49,64.87,66.10,68.05,70.14,73.29,76.52,79.51,82.01,83.90,85.20,86.37,87.62,87.45,85.61,82.80,79.21,74.73,70.18,65.83,62.15,59.65,58.41,57.87,58.06,58.90,60.08,63.33,66.79,70.24,74.03,78.06,82.02,85.20,86.97,86.59,84.61,82.21,79.68,76.67,73.79,71.26,69.45,68.71,67.25,65.94,64.56,63.10,62.18,61.39,60.92,60.66,60.27,59.75,59.16,58.54,57.92,57.38,56.78,56.17,55.55,54.93,53.91,52.80,51.66,50.49,49.03,46.89,44.60,42.84,43.78,44.97,46.12,46.96,47.03,47.18,47.38,47.61,47.84,48.07,48.24,48.24,48.06,47.75,47.37,46.99,46.62,46.33,46.48,46.58,46.59,46.52,46.44,46.30,46.19,46.09,45.93,45.85,45.87,45.95,46.03,46.10,46.12,45.94,45.56,45.17,44.72,44.25,43.79,43.33
e,e,e,e,e,e,e,e,e,e,e,e,e,e,e,e,e,e,e,e,e,e,e,e,e,e,e,e,e,e,e,e,e,e,e,e,e,e,e,e,e,e,e,e,e,e,e,e,e,e,e,e,e,e,e,e,e,e,e,e,e,e,e,e,e,e,e,e,3.41,4.94,6.48,8.03,9.40,10.68,11.92,13.26,14.59,15.90,17.23,18.68,20.61,23.03,25.66,28.14,29.71,28.77,26.69,23.80,20.28,19.19,18.27,17.61,17.37,18.27,19.11,20.88,23.64,26.89,28.78,29.63,29.33,27.84,25.37,23.07,21.79,21.83,22.78,24.14,25.51,26.85,28.22,29.05,29.91,31.03,32.58,34.62,36.73,38.86,40.93,42.89,44.61,45.93,46.85,47.39,47.88,48.56,48.95,48.91,48.78,48.70,48.69,48.79,49.00,50.21,52.07,54.49,57.37,60.46,63.36,65.96,67.97,68.74,68.49,67.96,67.34,66.74,66.12,66.10,66.95,68.72,71.01,74.10,77.34,80.58,83.72,86.06,87.97,89.55,90.72,90.20,87.82,84.34,80.16,75.62,71.16,67.19,63.94,61.63,60.34,60.15,60.76,61.98,63.65,66.55,69.95,73.64,77.47,82.03,85.98,88.52,89.08,87.22,84.70,82.05,79.37,76.41,73.40,70.82,68.82,67.50,66.03,64.55,63.01,61.51,60.58,60.09,59.80,59.60,59.31,58.93,58.39,57.77,57.15,56.56,55.99,55.42,54.86,54.29,53.59,52.85,51.99,50.88,49.51,47.37,45.04,43.31,44.39,45.69,46.91,47.79,47.86,47.92,48.05,48.25,48.48,48.66,48.74,48.67,48.43,48.07,47.73,47.37,47.05,46.90,47.06,47.15,47.19,47.16,47.08,46.98,46.86,46.72,46.51,46.38,46.38,46.46,46.54,46.62,46.63,46.52,46.25,45.82,45.36,44.89,44.43,43.97
e,e,e,e,e,e,e,e,e,e,e,e,e,e,e,e,e,e,e,e,e,e,e,e,e,e,e,e,e,e,e,e,e,e,e,e,e,e,e,e,e,e,e,e,e,e,e,e,e,e,e,e,e,e,e,e,e,e,e,e,e,e,e,e,e,e,1.29,2.96,4.56,6.12,7.66,9.13,10.35,11.49,12.66,14.03,15.46,16.78,18.10,19.59,21.87,24.40,26.99,29.36,30.69,30.08,28.15,25.09,21.12,19.63,18.67,18.11,17.89,18.68,19.63,21.84,25.20,28.63,30.46,31.27,31.12,30.04,27.26,24.69,23.11,22.82,23.59,24.71,25.90,27.14,28.51,29.43,30.37,31.51,33.00,35.03,37.00,38.88,40.78,42.98,45.31,47.31,48.78,49.60,50.44,51.11,51.49,51.56,51.43,51.10,50.81,50.67,50.75,51.77,53.34,55.41,57.94,61.00,64.02,66.87,69.27,70.63,70.52,69.93,69.13,68.38,67.73,67.52,68.10,69.60,71.87,74.79,78.00,81.44,85.13,87.96,90.34,92.25,93.47,92.16,89.39,85.55,81.02,76.46,72.22,68.64,65.77,63.62,62.68,63.02,64.07,65.59,67.92,70.78,74.00,77.54,81.35,85.86,89.34,90.95,90.17,87.45,84.53,81.59,78.67,75.62,72.55,70.10,68.20,66.62,65.16,63.54,61.88,60.34,59.41,59.03,58.83,58.67,58.41,58.08,57.58,56.98,56.39,55.77,55.21,54.67,54.13,53.62,53.08,52.54,51.89,50.99,49.63,47.43,45.28,43.98,45.16,46.48,47.71,48.59,48.69,48.70,48.77,48.91,49.11,49.19,49.20,49.06,48.78,48.42,48.09,47.75,47.51,47.51,47.64,47.75,47.80,47.80,47.72,47.64,47.52,47.34,47.09,46.93,46.92,47.00,47.08,47.13,47.14,47.09,46.93,46.49,46.03,45.56,45.10,44.63
e,e,e,e,e,e,e,e,e,e,e,e,e,e,e,e,e,e,e,e,e,e,e,e,e,e,e,e,e,e,e,e,e,e,e,e,e,e,e,e,e,e,e,e,e,e,e,e,e,e,e,e,e,e,e,e,e,e,e,e,e,e,e,e,e,e,2.32,4.08,5.75,7.33,8.85,10.18,11.25,12.26,13.35,14.67,16.19,17.58,18.97,20.56,23.09,25.64,28.09,30.20,31.23,30.98,29.26,26.27,22.40,20.22,19.13,18.66,18.50,18.99,20.25,22.85,26.45,29.78,31.19,31.94,31.79,30.46,28.31,25.97,24.33,23.84,24.61,25.47,26.39,27.45,28.76,29.83,30.86,31.98,33.39,35.47,37.37,38.90,40.38,42.83,45.69,48.32,50.45,51.87,53.50,54.48,54.96,55.05,54.83,53.98,53.15,52.61,52.54,53.46,54.83,56.56,58.64,61.65,64.78,67.85,70.64,72.74,72.69,71.94,70.89,69.85,69.30,69.16,69.58,70.71,72.74,75.37,78.48,82.07,86.20,89.57,92.26,94.42,95.84,93.25,90.26,86.40,81.78,77.23,73.34,70.19,67.66,65.62,65.47,66.52,68.03,69.80,72.97,76.12,79.02,81.98,85.70,89.54,92.06,92.39,90.15,87.24,84.08,80.82,77.53,74.23,71.19,69.09,67.59,66.11,64.64,62.96,61.22,59.63,58.71,58.24,58.03,57.89,57.59,57.21,56.72,56.17,55.62,55.00,54.44,53.90,53.38,52.91,52.38,51.84,51.31,50.79,49.34,47.04,45.27,44.88,46.11,47.36,48.52,49.37,49.52,49.53,49.53,49.60,49.74,49.67,49.60,49.42,49.11,48.80,48.43,48.13,48.00,48.14,48.23,48.36,48.44,48.43,48.36,48.28,48.16,47.97,47.67,47.50,47.50,47.58,47.65,47.65,47.65,47.65,47.57,47.18,46.73,46.26,45.80,45.34
e,e,e,e,e,e,e,e,e,e,e,e,e,e,e,e,e,e,e,e,e,e,e,e,e,e,e,e,e,e,e,e,e,e,e,e,e,e,e,e,e,e,e,e,e,e,e,e,e,e,e,e,e,e,e,e,e,e,e,e,e,e,e,e,e,1.66,3.45,5.19,6.87,8.45,9.87,11.00,12.03,13.06,14.14,15.31,16.80,18.23,19.76,21.57,23.89,26.39,28.72,30.65,31.79,31.86,30.63,28.17,24.66,21.79,20.09,19.29,19.12,19.50,21.02,23.56,26.76,29.95,31.52,32.43,32.26,30.62,28.81,26.69,25.25,24.94,25.85,26.75,27.50,28.26,29.26,30.34,31.36,32.47,33.81,35.76,37.35,38.74,40.31,42.87,45.82,48.56,51.08,53.44,55.82,57.43,58.20,58.15,57.51,56.32,55.26,54.57,54.45,55.22,56.41,57.94,59.83,62.53,65.60,68.94,72.21,74.60,75.24,74.77,73.70,72.59,71.92,71.44,71.58,72.49,74.10,76.26,79.06,82.56,86.82,91.03,94.46,96.80,97.59,94.58,90.96,86.83,82.40,78.25,74.68,71.55,69.02,67.27,67.64,69.67,72.49,75.59,78.83,81.47,83.96,86.51,89.37,92.30,93.27,92.29,89.60,86.30,83.05,79.77,76.45,73.18,70.55,68.63,67.13,65.66,64.19,62.63,61.09,59.69,58.76,57.99,57.41,57.01,56.70,56.36,55.91,55.38,54.80,54.23,53.68,53.16,52.66,52.15,51.66,51.13,50.49,49.61,47.83,46.63,46.31,46.94,48.18,48.96,49.60,50.07,50.18,50.27,50.30,50.32,50.38,50.35,50.14,49.82,49.43,49.12,48.75,48.56,48.57,48.72,48.80,48.93,49.02,49.02,48.99,48.92,48.80,48.59,48.19,48.02,48.02,48.08,48.11,48.11,48.14,48.17,48.12,47.87,47.43,46.97,46.60,46.45
e,e,e,e,e,e,e,e,e,e,e,e,e,e,e,e,e,e,e,e,e,e,e,e,e,e,e,e,e,e,e,e,e,e,e,e,e,e,e,e,e,e,e,e,e,e,e,e,e,e,e,e,e,e,e,e,e,e,e,e,e,e,e,e,e,2.74,4.63,6.32,7.98,9.45,10.68,11.76,12.80,13.85,14.92,15.98,17.39,18.88,20.56,22.54,24.70,27.12,29.30,31.03,32.28,32.66,31.83,29.87,27.00,23.87,21.69,20.49,20.22,20.57,22.15,24.41,27.12,30.09,31.95,32.98,32.69,30.74,29.12,27.21,26.07,26.13,27.14,28.07,28.76,29.35,30.14,31.15,32.11,33.11,34.26,35.96,37.29,38.62,40.27,42.85,45.70,48.40,51.15,54.20,57.33,59.48,60.58,60.66,59.85,58.53,57.33,56.54,56.36,56.99,58.05,59.46,61.21,63.60,66.50,69.98,73.66,76.46,77.75,77.64,76.65,75.44,74.63,73.86,73.71,74.42,75.64,77.39,79.88,83.22,87.48,92.29,96.42,99.00,99.27,95.96,91.74,87.35,83.13,79.27,76.01,73.07,70.73,69.36,70.12,72.97,76.92,81.12,84.33,86.54,88.66,90.82,92.95,94.86,94.28,92.04,88.98,85.43,82.08,78.85,75.72,72.64,70.28,68.47,67.00,65.57,64.11,62.64,61.21,59.90,58.94,57.97,57.13,56.47,56.01,55.55,55.11,54.61,53.99,53.47,52.93,52.42,51.93,51.41,50.89,50.26,49.41,48.23,46.95,46.99,47.76,48.84,49.86,50.27,50.52,50.70,50.79,50.95,51.01,51.02,51.02,51.02,50.73,50.30,49.83,49.49,49.16,49.06,49.16,49.34,49.61,49.92,50.21,50.42,50.45,50.25,49.82,49.24,48.73,48.55,48.54,48.58,48.58,48.58,48.62,48.65,48.63,48.51,48.12,47.71,47.50,47.73
e,e,e,e,e,e,e,e,e,e,e,e,e,e,e,e,e,e,e,e,e,e,e,e,e,e,e,e,e,e,e,e,e,e,e,e,e,e,e,e,e,e,e,e,e,e,e,e,e,e,e,e,e,e,e,e,e,e,e,e,e,e,e,e,e,3.85,5.84,7.54,9.05,10.25,11.15,12.42,13.58,14.66,15.67,16.69,18.00,19.55,21.36,23.43,25.59,27.90,29.86,31.36,32.66,33.30,32.66,31.08,29.30,26.71,24.38,22.78,22.21,22.65,23.89,25.61,27.75,30.37,32.62,33.65,33.09,30.80,29.18,27.46,26.80,27.47,28.48,29.41,30.19,30.90,31.74,32.56,33.32,34.02,34.72,35.98,37.27,38.62,40.24,42.67,45.14,47.63,50.35,53.53,57.45,59.91,61.41,62.12,61.65,60.55,59.39,58.50,58.28,58.76,59.77,61.16,62.85,64.99,67.52,70.89,74.84,78.38,80.14,80.44,79.65,78.25,77.34,76.39,76.03,76.49,77.47,78.92,81.15,84.26,88.32,93.22,97.89,100.84,100.91,97.40,92.67,88.11,84.09,80.22,77.28,74.90,73.20,72.37,73.33,76.67,81.20,85.90,89.01,91.08,92.91,94.69,96.47,97.23,95.20,91.80,88.34,84.79,81.32,78.27,75.62,73.04,70.59,68.82,67.48,66.14,64.74,63.24,61.72,60.27,59.21,58.31,57.46,56.61,55.71,54.80,54.28,53.84,53.23,52.76,52.23,51.70,51.18,50.70,50.06,49.07,47.86,46.67,47.51,48.77,49.78,50.23,50.60,50.86,51.06,51.22,51.37,51.52,51.62,51.66,51.66,51.66,51.41,50.96,50.39,49.95,49.73,49.67,49.76,50.05,50.86,51.67,52.54,53.37,53.50,52.91,51.56,49.97,49.31,49.13,49.08,49.09,49.09,49.09,49.10,49.10,49.10,49.08,48.78,48.53,48.59,49.26
e,e,e,e,e,e,e,e,e,e,e,e,e,e,e,e,e,e,e,e,e,e,e,e,e,e,e,e,e,e,e,e,e,e,e,e,e,e,e,e,e,e,e,e,e,e,e,e,e,e,e,e,e,e,e,e,e,e,e,e,e,e,e,e,2.71,4.82,6.90,8.64,9.81,10.65,11.45,12.73,13.94,15.11,16.26,17.38,18.61,20.25,22.18,24.27,26.40,28.55,30.42,31.94,33.33,34.21,33.80,32.46,30.95,28.71,26.55,25.09,24.68,25.07,26.09,27.49,29.26,31.50,33.96,34.53,33.28,30.67,29.13,28.02,27.87,28.84,30.57,31.40,32.01,32.65,33.53,34.35,35.08,35.62,35.96,36.62,37.53,38.76,40.37,42.50,44.80,47.09,49.40,51.84,56.09,59.35,61.55,62.74,63.27,62.34,61.27,60.50,60.35,60.80,61.69,62.92,64.43,66.32,68.62,71.96,76.09,79.80,82.08,82.82,82.37,81.25,80.25,79.13,78.51,78.68,79.57,80.92,82.96,85.75,89.31,94.56,99.29,102.40,102.92,99.36,94.61,89.98,85.84,81.98,79.03,77.06,75.90,75.37,76.45,80.60,85.54,89.85,92.71,95.04,97.07,98.64,99.42,98.88,95.97,92.00,88.20,84.69,81.26,78.38,76.03,73.71,71.40,69.67,68.32,66.97,65.61,64.18,62.64,61.06,59.71,58.81,57.96,57.04,56.04,55.03,54.29,53.54,52.61,52.11,51.58,51.04,50.47,49.77,48.91,48.39,48.15,48.01,48.94,49.95,50.68,50.98,51.21,51.44,51.63,51.79,51.94,52.10,52.22,52.31,52.35,52.35,52.08,51.62,51.08,50.73,50.83,50.94,51.31,52.35,53.66,54.97,56.19,57.16,57.40,56.92,55.56,53.57,51.64,50.41,49.77,49.56,49.60,49.64,49.68,49.72,49.75,49.79,49.73,49.83,50.21,50.94
e,e,e,e,e,e,e,e,e,e,e,e,e,e,e,e,e,e,e,e,e,e,e,e,e,e,e,e,e,e,e,e,e,e,e,e,e,e,e,e,e,e,e,e,e,e,e,e,e,e,e,e,e,e,e,e,e,e,e,e,e,e,e,e,3.72,5.83,7.99,9.60,10.40,10.95,11.69,12.93,14.17,15.45,16.74,17.98,19.19,20.91,22.94,25.02,27.07,29.06,30.87,32.44,33.91,35.02,34.96,33.93,32.43,30.53,28.67,27.48,27.31,27.64,28.50,29.68,31.16,33.09,35.44,35.38,33.47,30.73,29.27,28.81,29.23,30.55,33.13,33.79,34.08,34.49,35.39,36.25,36.96,37.37,37.44,37.57,38.08,39.11,40.64,42.37,44.50,46.57,48.42,50.09,54.28,58.30,61.22,62.87,64.42,63.95,63.15,62.55,62.49,62.94,63.71,64.77,66.07,67.73,69.86,73.17,77.39,81.18,83.93,85.12,85.11,84.38,83.31,82.06,81.19,81.04,81.83,83.12,84.97,87.42,90.52,95.92,100.60,103.92,105.18,101.74,96.94,92.25,88.11,84.34,81.42,79.73,78.96,78.67,80.04,84.71,89.72,93.47,96.13,98.82,101.07,102.37,102.06,100.32,96.81,92.55,88.48,84.99,81.60,78.82,76.65,74.52,72.37,70.70,69.34,67.98,66.64,65.26,63.75,62.09,60.50,59.45,58.51,57.56,56.55,55.55,54.62,53.54,52.22,51.58,51.01,50.43,49.80,48.95,48.09,48.21,49.00,49.86,50.38,50.86,51.25,51.55,51.78,52.01,52.19,52.35,52.52,52.67,52.82,52.95,53.04,53.05,52.75,52.31,51.88,51.74,52.14,52.43,53.08,54.81,56.56,58.20,59.56,60.49,60.82,60.54,59.45,57.48,54.60,52.37,51.16,50.76,50.86,50.96,51.05,51.13,51.19,51.21,51.32,51.63,52.14,52.80
e,e,e,e,e,e,e,e,e,e,e,e,e,e,e,e,e,e,e,e,e,e,e,e,e,e,e,e,e,e,e,e,e,e,e,e,e,e,e,e,e,e,e,e,e,e,e,e,e,e,e,e,e,e,e,e,e,e,e,e,e,e,e,e,5.02,7.17,9.33,10.15,10.72,11.23,11.88,13.12,14.40,15.68,16.94,18.23,19.63,21.42,23.43,25.45,27.36,29.21,30.88,32.38,33.85,35.17,35.88,35.61,33.97,32.55,31.11,30.16,30.00,30.43,31.23,32.26,33.59,35.52,36.76,35.92,33.87,31.69,30.28,30.17,31.28,33.51,36.64,37.03,36.69,36.49,37.24,38.15,38.70,38.94,38.96,39.00,39.36,40.12,41.22,42.41,44.13,45.84,47.48,49.15,52.30,56.43,59.89,62.11,64.05,65.12,65.18,64.75,64.79,65.19,65.95,66.91,67.97,69.43,71.56,74.72,78.75,82.94,85.85,87.60,88.20,87.77,86.75,85.51,84.44,83.87,84.42,85.59,87.11,89.22,92.37,96.95,101.57,105.56,108.04,105.08,99.64,94.88,91.46,88.14,85.66,83.99,83.11,83.04,85.40,89.24,93.25,96.68,99.49,102.50,104.57,105.24,104.19,101.66,98.09,93.96,89.75,86.22,82.66,79.73,77.51,75.53,73.43,71.88,70.67,69.45,67.96,66.54,65.09,63.58,62.14,60.40,59.09,58.13,57.06,56.11,55.26,54.13,52.50,51.42,50.67,49.95,49.23,48.72,48.88,49.37,49.99,50.56,50.98,51.43,51.83,52.13,52.36,52.54,52.70,52.87,53.09,53.24,53.40,53.55,53.68,53.74,53.45,53.11,52.92,53.23,53.67,54.02,54.68,56.22,58.16,59.54,60.52,61.21,61.63,61.29,60.57,59.53,58.04,56.07,54.96,54.64,54.89,55.09,55.24,55.32,55.30,55.07,54.97,54.74,54.65,55.17
e,e,e,e,e,e,e,e,e,e,e,e,e,e,e,e,e,e,e,e,e,e,e,e,e,e,e,e,e,e,e,e,e,e,e,e,e,e,e,e,e,e,e,e,e,e,e,e,e,e,e,e,e,e,e,e,e,e,e,e,e,e,e,4.37,6.52,8.51,10.09,10.60,11.08,11.56,12.15,13.36,14.65,15.92,17.17,18.45,19.91,21.68,23.62,25.53,27.38,29.20,30.83,32.27,33.74,35.11,36.31,36.89,36.28,35.11,34.02,33.32,33.20,33.48,34.20,35.07,36.11,37.56,37.96,36.78,34.86,33.19,31.83,32.19,34.09,37.07,39.63,39.74,39.06,38.53,39.09,40.36,41.01,41.24,41.23,41.13,41.06,41.51,42.44,43.34,44.59,45.85,47.12,48.47,50.71,54.53,58.32,61.32,63.57,65.54,66.57,66.88,67.08,67.44,68.49,69.88,71.22,71.94,73.61,76.18,79.69,84.20,87.84,90.26,91.39,91.25,90.60,89.34,87.95,86.90,87.14,88.27,89.82,91.89,94.81,98.85,103.38,107.68,110.75,108.58,103.11,98.03,94.40,91.56,89.61,88.33,87.72,87.84,90.19,93.49,97.06,100.53,103.83,106.48,107.84,107.72,105.99,102.98,99.27,95.15,90.94,87.32,83.74,80.65,78.19,76.29,74.86,73.81,72.93,71.95,70.24,68.51,66.89,65.42,63.97,61.79,59.96,58.63,57.61,56.80,55.94,54.72,53.00,51.54,50.53,49.72,49.15,49.21,49.86,50.36,50.75,51.18,51.60,52.02,52.40,52.70,52.93,53.10,53.26,53.42,53.62,53.78,53.95,54.13,54.28,54.39,54.24,54.15,54.28,54.74,55.21,55.60,56.25,57.62,59.38,60.57,61.41,62.03,62.43,62.02,61.44,60.81,60.03,58.79,58.06,57.84,58.05,58.18,58.31,58.36,58.29,58.08,57.92,57.60,57.34,57.45
e,e,e,e,e,e,e,e,e,e,e,e,e,e,e,e,e,e,e,e,e,e,e,e,e,e,e,e,e,e,e,e,e,e,e,e,e,e,e,e,e,e,e,e,e,e,e,e,e,e,e,e,e,e,e,e,e,e,e,e,e,1.62,3.79,5.95,8.08,9.77,10.53,11.00,11.47,11.96,12.51,13.60,14.85,16.11,17.35,18.58,20.03,21.75,23.57,25.36,27.21,29.08,30.73,32.14,33.60,34.95,36.45,37.88,38.84,37.87,37.13,36.72,36.65,36.65,37.29,38.02,38.73,39.48,39.17,37.85,36.21,34.96,33.65,34.49,37.14,40.67,42.18,42.15,41.41,40.74,41.15,42.87,43.69,43.94,43.90,43.61,42.98,43.10,43.98,44.75,45.52,46.34,47.19,48.05,49.49,52.75,56.70,60.48,62.99,65.51,67.57,68.97,69.52,69.99,71.48,73.45,75.20,74.96,75.92,77.70,80.53,85.34,89.89,93.02,94.61,94.79,94.64,93.40,91.73,90.23,90.10,91.16,92.88,95.07,97.63,101.30,105.74,110.13,113.46,112.11,106.97,101.52,97.20,94.78,93.37,92.64,92.47,92.79,94.67,97.61,101.06,104.73,108.62,110.53,110.92,109.90,107.59,104.26,100.35,96.18,92.05,88.35,84.83,81.58,78.79,76.98,76.49,76.16,75.75,75.08,73.14,70.97,69.02,67.48,65.89,63.42,61.03,59.15,58.20,57.58,56.64,55.32,53.61,51.83,50.52,49.67,49.42,50.16,51.04,51.38,51.48,51.84,52.27,52.65,52.98,53.28,53.50,53.67,53.83,53.99,54.14,54.30,54.50,54.70,54.86,55.02,55.07,55.30,55.77,56.24,56.71,57.14,57.78,58.99,60.36,61.42,62.25,62.91,63.21,62.75,62.18,61.66,61.21,60.90,60.64,60.51,60.57,60.57,60.63,60.63,60.55,60.47,60.32,60.16,59.94,59.57
e,e,e,e,e,e,e,e,e,e,e,e,e,e,e,e,e,e,e,e,e,e,e,e,e,e,e,e,e,e,e,e,e,e,e,e,e,e,e,e,e,e,e,e,e,e,e,e,e,e,e,e,e,e,e,e,e,e,e,e,e,3.23,5.45,7.62,9.24,10.29,10.85,11.36,12.03,12.74,13.37,13.68,14.46,15.53,16.77,18.01,19.41,21.08,22.89,24.72,26.63,28.66,30.43,31.88,33.35,34.87,36.45,37.99,39.35,39.66,39.78,39.81,39.78,39.72,40.39,41.18,41.84,42.24,41.18,39.54,37.85,36.56,35.25,35.97,38.11,40.94,42.94,44.40,44.80,44.80,45.56,46.69,47.03,46.93,46.64,45.72,44.72,44.60,45.31,46.03,46.80,47.65,48.47,49.12,50.16,52.73,55.89,59.09,62.04,65.13,68.12,70.93,73.51,76.00,77.65,78.67,79.22,78.88,79.14,80.36,83.01,88.07,92.27,95.65,97.83,98.43,98.28,97.81,96.91,95.69,94.92,95.30,96.54,98.56,101.27,104.85,109.11,113.47,116.93,115.08,110.63,105.49,100.84,98.13,96.74,96.05,96.08,96.89,99.06,102.08,105.53,109.10,112.29,113.56,113.06,111.26,108.99,105.14,101.05,96.90,92.82,89.22,85.76,82.41,79.54,78.27,78.24,78.62,79.03,79.04,77.05,74.65,72.19,69.89,67.70,65.10,62.47,60.22,58.98,58.44,57.40,55.94,54.18,52.35,50.84,50.13,50.43,51.76,53.14,53.59,53.48,53.50,53.48,53.48,53.60,53.85,54.02,54.23,54.41,54.56,54.71,54.92,55.11,55.28,55.44,55.64,55.90,56.28,56.80,57.32,57.88,58.44,59.10,60.01,61.08,62.09,63.00,63.72,63.93,63.49,63.00,62.59,62.29,62.03,61.79,61.58,61.40,61.45,61.49,61.46,61.37,61.24,61.04,60.84,60.64,60.47
e,e,e,e,e,e,e,e,e,e,e,e,e,e,e,e,e,e,e,e,e,e,e,e,e,e,e,e,e,e,e,e,e,e,e,e,e,e,e,e,e,e,e,e,e,e,e,e,e,e,e,e,e,e,e,e,e,e,e,e,2.62,4.80,7.07,8.95,10.20,10.96,11.53,12.17,12.94,13.74,14.38,14.31,14.64,15.26,16.16,17.37,18.72,20.31,22.09,24.02,26.00,28.10,30.01,31.63,33.12,34.73,36.34,37.93,39.53,40.84,41.86,42.43,42.55,42.83,43.60,44.40,44.97,44.95,43.58,41.68,39.72,38.09,36.83,37.21,38.80,41.20,43.56,45.89,47.24,48.00,48.97,49.62,49.71,49.43,48.89,47.65,46.46,46.13,46.64,47.31,48.08,48.96,49.78,50.36,51.11,53.19,55.77,58.47,61.44,65.09,69.00,73.05,77.11,80.44,82.36,83.19,83.28,83.02,82.85,83.55,85.76,90.48,94.46,97.98,100.60,101.82,101.97,102.01,101.61,100.74,99.89,99.86,100.73,102.51,105.14,108.70,112.89,117.00,120.03,118.38,115.00,110.35,105.39,102.30,100.67,99.79,99.77,100.82,103.29,106.38,109.78,113.16,115.79,116.16,114.92,112.62,110.08,105.98,101.75,97.59,93.65,89.97,86.71,83.56,81.00,80.92,81.58,82.51,83.21,83.09,80.83,78.17,75.38,72.66,70.08,67.33,64.54,62.00,60.23,59.44,58.25,56.69,54.88,53.00,51.33,50.91,51.93,53.68,55.20,55.74,55.62,55.41,54.98,54.58,54.38,54.45,54.60,54.82,55.01,55.17,55.32,55.55,55.73,55.89,56.05,56.28,56.65,57.11,57.63,58.17,58.76,59.41,60.18,61.10,61.98,62.87,63.75,64.52,64.70,64.34,63.95,63.63,63.37,63.14,62.91,62.65,62.36,62.33,62.33,62.28,62.17,62.01,61.86,61.70,61.54,61.36
e,e,e,e,e,e,e,e,e,e,e,e,e,e,e,e,e,e,e,e,e,e,e,e,e,e,e,e,e,e,e,e,e,e,e,e,e,e,e,e,e,e,e,e,e,e,e,e,e,e,e,e,e,e,e,e,e,e,e,e,4.15,6.34,8.66,9.98,10.97,11.79,12.55,13.39,14.19,14.93,15.53,15.46,15.34,15.26,15.51,16.67,17.97,19.44,21.18,23.26,25.34,27.43,29.47,31.38,32.93,34.54,36.12,37.71,39.40,41.45,43.38,44.62,44.99,45.96,46.89,47.70,48.12,47.60,46.33,44.24,41.79,39.57,38.40,38.21,39.24,41.43,44.04,46.65,48.79,50.39,51.46,51.72,51.80,51.49,50.68,49.44,48.21,47.70,47.97,48.59,49.35,50.27,51.14,51.75,52.30,54.08,56.29,58.60,61.17,65.37,70.20,75.30,80.35,83.41,85.71,87.06,87.39,87.38,87.02,87.25,88.76,92.59,96.46,100.03,102.97,104.97,105.71,106.01,105.88,105.41,105.00,104.82,105.42,106.90,109.24,112.83,117.04,120.71,122.79,121.98,120.02,116.04,110.79,107.26,105.14,103.82,103.54,104.59,107.36,110.53,113.83,116.93,119.11,118.37,116.53,114.00,110.86,106.80,102.45,98.26,94.52,90.60,87.68,84.99,83.15,84.84,86.43,87.75,88.23,87.23,84.47,81.54,78.60,75.76,72.99,70.08,67.19,64.43,61.91,60.58,59.18,57.57,55.71,53.78,51.98,51.99,53.89,55.89,57.21,57.83,57.89,57.58,56.75,55.92,55.32,55.09,55.24,55.46,55.65,55.81,55.96,56.19,56.37,56.52,56.68,56.92,57.33,57.79,58.27,58.81,59.35,60.07,61.03,62.25,63.03,63.75,64.52,65.29,65.52,65.30,65.02,64.77,64.46,64.23,63.99,63.73,63.43,63.21,63.16,63.09,62.93,62.78,62.75,62.75,62.63,62.25
e,e,e,e,e,e,e,e,e,e,e,e,e,e,e,e,e,e,e,e,e,e,e,e,e,e,e,e,e,e,e,e,e,e,e,e,e,e,e,e,e,e,e,e,e,e,e,e,e,e,e,e,e,e,e,e,e,e,e,3.64,5.64,7.70,9.74,11.12,12.16,12.98,13.76,14.61,15.40,16.12,16.69,16.66,16.52,16.41,16.46,16.92,17.34,18.49,20.11,21.89,23.97,26.24,28.52,30.63,32.13,33.78,35.46,37.18,38.97,41.01,42.97,44.81,46.52,48.13,49.22,49.92,50.19,49.79,49.06,47.37,45.08,42.72,41.33,40.55,40.81,42.29,44.92,47.42,49.54,51.27,52.68,53.29,53.44,53.13,52.41,51.73,50.45,49.77,49.95,50.71,51.22,51.86,52.56,53.22,53.71,54.82,56.46,58.54,61.04,65.38,70.32,75.52,80.81,85.34,88.51,90.57,91.74,91.88,91.61,91.43,91.88,93.93,97.22,100.82,104.37,107.53,109.38,110.36,110.58,110.27,110.03,109.86,110.31,111.64,114.05,117.38,121.02,123.98,125.40,124.44,122.86,120.03,116.18,112.44,110.23,108.59,107.77,108.23,110.73,113.80,116.90,119.56,121.02,119.84,117.53,114.60,111.39,107.19,102.72,98.53,94.95,91.30,88.53,86.88,86.63,88.32,89.65,90.54,90.62,89.44,86.94,84.04,81.09,78.26,75.34,72.44,69.65,66.94,64.25,62.70,60.72,58.62,56.71,54.69,53.00,53.29,55.54,57.74,58.99,59.38,59.12,58.48,57.63,56.78,56.14,55.84,55.95,56.12,56.29,56.46,56.66,56.84,57.01,57.18,57.38,57.62,58.03,58.49,58.95,59.40,60.76,61.92,62.80,63.52,64.20,64.89,65.61,66.29,66.48,66.37,66.14,65.87,65.61,65.33,65.08,64.84,64.57,64.30,64.12,64.02,63.96,63.90,63.85,63.83,63.68,63.15
e,e,e,e,e,e,e,e,e,e,e,e,e,e,e,e,e,e,e,e,e,e,e,e,e,e,e,e,e,e,e,e,e,e,e,e,e,e,e,e,e,e,e,e,e,e,e,e,e,e,e,e,e,e,e,e,e,1.31,3.25,5.18,7.12,9.03,10.75,12.16,13.29,14.20,14.99,15.82,16.61,17.31,17.84,17.86,17.80,17.72,17.66,17.66,17.48,18.08,19.24,20.65,22.62,24.94,27.36,29.61,31.17,32.85,34.59,36.40,38.33,40.33,42.33,44.59,47.20,49.38,50.67,51.52,51.96,51.82,51.50,50.22,48.27,46.12,44.67,43.53,43.07,43.61,45.73,48.04,50.08,51.90,53.68,54.78,55.09,54.91,54.55,54.24,53.23,52.65,52.76,53.38,53.66,53.89,54.19,54.63,55.10,55.75,56.87,58.63,61.20,65.53,70.41,75.59,80.98,86.80,90.91,93.74,95.66,96.21,96.19,95.83,95.51,96.10,98.35,101.72,105.81,110.12,113.35,114.93,115.37,115.11,114.94,114.81,115.25,116.55,119.00,122.31,125.32,127.42,128.14,126.89,125.52,123.53,120.76,117.34,115.15,113.27,111.99,111.83,113.79,116.59,119.41,121.62,122.49,120.91,118.28,115.12,111.88,107.64,103.06,98.85,95.49,92.21,89.88,89.07,89.75,91.20,92.32,92.72,92.29,91.00,88.87,85.98,83.06,80.43,77.64,74.78,72.05,69.41,66.66,64.78,62.36,59.84,57.65,55.45,53.91,54.44,56.91,59.17,60.35,60.61,60.13,59.21,58.42,57.60,56.94,56.58,56.66,56.80,56.94,57.10,57.33,57.49,57.65,57.83,58.06,58.31,58.73,59.34,60.11,60.89,62.74,64.06,64.77,65.06,65.42,65.99,66.66,67.28,67.40,67.37,67.21,66.96,66.73,66.44,66.18,65.93,65.69,65.35,65.09,64.99,65.02,65.02,64.96,64.91,64.67,64.02
e,e,e,e,e,e,e,e,e,e,e,e,e,e,e,e,e,e,e,e,e,e,e,e,e,e,e,e,e,e,e,e,e,e,e,e,e,e,e,e,e,e,e,e,e,e,e,e,e,e,e,e,e,e,e,e,e,2.85,4.78,6.71,8.58,10.31,11.68,13.01,14.30,15.43,16.27,17.05,17.83,18.51,19.00,19.07,19.18,19.19,19.13,19.13,18.86,18.56,18.70,19.67,21.35,23.53,25.89,28.18,29.99,31.71,33.41,35.24,37.37,39.38,41.47,43.87,46.61,49.24,50.81,52.19,53.34,53.64,53.49,52.58,51.21,49.77,48.57,47.42,46.33,45.62,46.41,48.42,50.38,52.27,54.44,56.18,56.75,56.97,57.36,57.05,56.84,56.79,56.84,56.87,56.97,56.61,56.14,55.98,56.44,56.98,57.73,58.99,61.81,65.91,70.56,75.58,80.92,87.61,92.71,96.38,98.87,100.26,100.72,100.53,99.99,99.68,100.18,102.90,107.38,112.81,117.81,119.85,120.24,119.89,119.67,119.62,120.24,121.71,124.11,127.86,130.16,131.18,131.10,129.40,128.11,126.36,124.06,121.77,119.73,117.74,116.14,115.38,116.40,118.70,121.11,122.84,123.37,121.40,118.65,115.57,112.32,108.23,103.53,99.28,96.24,93.44,92.04,91.68,92.15,93.16,94.23,94.09,93.02,91.65,90.01,87.12,84.27,82.10,79.91,77.10,74.37,71.79,69.15,66.70,64.08,61.31,58.46,55.96,54.59,55.32,57.83,59.95,61.07,61.37,60.90,59.79,59.14,58.40,57.73,57.28,57.36,57.50,57.62,57.74,57.97,58.13,58.29,58.47,58.70,59.00,59.43,60.42,62.03,63.84,65.54,66.57,66.99,67.04,66.70,67.00,67.62,68.23,68.25,68.24,68.18,68.05,67.81,67.57,67.29,67.02,66.77,66.33,66.05,65.99,66.10,66.10,66.09,65.97,65.60,64.85
e,e,e,e,e,e,e,e,e,e,e,e,e,e,e,e,e,e,e,e,e,e,e,e,e,e,e,e,e,e,e,e,e,e,e,e,e,e,e,e,e,e,e,e,e,e,e,e,e,e,e,e,e,e,e,e,2.57,4.43,6.28,8.16,9.86,11.32,12.64,13.95,15.24,16.44,17.50,18.31,19.06,19.67,20.05,20.17,20.18,20.12,20.03,20.03,19.81,19.49,19.33,19.61,20.51,22.30,24.41,26.51,28.32,30.07,31.69,33.34,35.26,37.59,39.80,42.15,44.78,47.44,49.62,51.42,52.90,54.13,55.08,54.81,53.91,53.10,51.86,50.50,49.08,47.89,47.95,49.39,51.29,53.50,55.98,57.68,58.42,58.83,59.32,59.46,59.58,59.68,59.71,59.55,59.08,58.44,57.81,57.42,57.76,58.25,58.97,60.21,63.11,66.90,71.02,75.50,80.55,87.59,93.32,97.76,101.02,103.09,104.16,104.57,104.50,104.24,104.06,105.30,108.65,114.57,120.38,123.10,123.93,123.74,123.51,123.51,124.41,126.16,128.44,131.47,133.73,135.06,135.43,134.54,132.82,130.52,127.92,125.68,123.65,121.69,120.01,118.89,119.37,121.05,123.05,124.62,124.28,121.88,118.96,115.87,112.66,108.91,104.49,100.45,97.67,96.14,95.43,95.12,95.15,95.83,95.60,94.61,93.22,91.87,90.45,88.11,85.70,83.61,81.53,79.06,76.41,73.71,71.17,68.62,65.72,62.57,59.34,56.87,55.17,55.63,58.06,60.14,61.40,61.96,61.72,60.56,59.66,58.91,58.34,57.98,58.06,58.20,58.32,58.42,58.61,58.77,58.95,59.16,59.44,60.31,61.49,63.12,65.13,67.10,68.29,68.89,68.97,68.65,68.06,68.17,68.61,69.08,69.08,69.05,69.01,68.95,68.84,68.65,68.41,68.11,67.74,67.12,66.89,66.94,67.14,67.18,67.19,66.96,66.50,65.89
e,e,e,e,e,e,e,e,e,e,e,e,e,e,e,e,e,e,e,e,e,e,e,e,e,e,e,e,e,e,e,e,e,e,e,e,e,e,e,e,e,e,e,e,e,e,e,e,e,e,e,e,e,e,e,2.37,4.18,6.02,7.78,9.53,11.03,12.28,13.59,14.91,16.18,17.43,18.66,19.50,20.23,20.76,21.06,21.20,21.08,20.90,20.75,20.73,20.58,20.38,20.20,20.14,20.60,21.96,23.57,25.12,26.59,28.37,29.92,31.33,32.93,35.64,38.00,40.26,42.61,45.18,47.85,50.05,51.85,53.91,55.96,56.61,56.49,56.31,55.03,53.45,51.78,50.33,49.97,50.89,52.74,55.18,57.77,59.25,60.09,60.60,61.07,61.60,61.90,62.06,62.07,61.83,60.91,60.11,59.46,58.94,59.16,59.64,60.38,61.65,64.51,67.84,71.43,75.41,80.09,87.37,93.58,98.65,102.58,105.29,107.13,108.37,109.08,109.19,108.63,108.57,110.71,116.60,122.54,125.92,127.40,127.56,127.41,127.48,128.54,130.43,132.54,134.86,137.21,139.04,139.92,139.84,137.88,135.17,132.29,129.77,127.58,125.54,123.77,122.43,122.49,123.58,125.18,126.53,125.23,122.49,119.37,116.19,113.08,109.76,105.83,102.17,99.61,99.06,98.83,98.47,98.02,98.12,96.61,94.91,93.28,91.87,90.55,88.78,86.81,84.80,82.75,80.64,78.11,75.32,72.84,70.30,67.18,63.72,60.24,57.82,55.76,55.87,58.10,60.17,61.61,62.54,62.64,61.50,60.33,59.52,58.99,58.71,58.75,58.89,59.01,59.12,59.30,59.49,59.85,60.27,60.74,62.13,64.01,66.10,68.21,70.01,70.74,70.99,70.82,70.23,69.52,69.47,69.73,70.00,69.94,69.87,69.84,69.84,69.83,69.70,69.49,69.15,68.64,67.85,67.70,67.88,68.16,68.25,68.26,67.95,67.44,66.96
e,e,e,e,e,e,e,e,e,e,e,e,e,e,e,e,e,e,e,e,e,e,e,e,e,e,e,e,e,e,e,e,e,e,e,e,e,e,e,e,e,e,e,e,e,e,e,e,e,e,e,e,e,e,e,4.00,5.82,7.61,9.33,10.72,11.99,13.24,14.55,15.86,17.17,18.45,19.68,20.47,21.15,21.67,22.01,22.10,21.89,21.61,21.37,21.25,21.09,20.89,21.02,21.86,23.20,24.13,24.62,24.78,25.01,26.82,28.33,29.49,30.70,33.75,36.35,38.49,40.28,42.60,45.24,47.82,50.24,52.49,54.97,57.23,58.85,59.38,58.25,56.56,54.69,53.09,52.83,53.59,55.33,57.61,59.76,60.94,61.72,62.26,62.73,63.21,63.54,63.72,63.73,63.50,62.66,61.90,61.23,60.67,60.84,61.38,62.08,63.13,65.70,68.22,71.45,75.35,79.59,87.10,93.59,98.92,103.09,106.44,109.40,111.92,113.84,114.69,113.92,113.65,115.31,120.07,124.72,128.54,130.97,131.89,132.09,132.29,133.12,134.59,136.51,138.82,141.30,143.22,144.01,143.93,142.56,140.44,137.81,134.80,132.02,129.48,127.43,126.13,125.79,126.52,127.69,128.45,126.32,123.49,120.15,116.69,113.77,111.03,107.99,105.03,102.58,101.69,101.42,100.99,100.09,98.76,96.95,95.10,93.29,91.49,90.11,88.55,86.88,85.14,83.23,81.32,78.98,76.33,73.80,71.31,68.17,64.65,61.12,58.61,56.45,56.27,58.09,60.12,61.72,63.18,63.82,62.78,61.56,60.55,59.86,59.52,59.42,59.53,59.67,59.85,60.13,60.46,61.42,62.62,63.67,65.07,66.98,68.85,70.41,71.66,72.29,72.56,72.45,71.95,71.20,71.10,71.21,71.18,70.87,70.81,70.80,70.78,70.72,70.69,70.45,70.01,69.40,68.51,68.49,68.79,69.12,69.26,69.28,69.03,68.57,67.98
e,e,e,e,e,e,e,e,e,e,e,e,e,e,e,e,e,e,e,e,e,e,e,e,e,e,e,e,e,e,e,e,e,e,e,e,e,e,e,e,e,e,e,e,e,e,e,e,e,e,e,e,e,e,3.87,5.67,7.43,9.06,10.52,11.80,13.02,14.23,15.47,16.78,18.09,19.34,20.44,21.28,22.01,22.59,22.95,22.89,22.63,22.34,22.07,21.81,22.22,22.76,23.59,24.89,26.48,27.14,27.01,26.38,25.95,26.81,27.66,28.52,29.73,32.29,34.74,36.83,38.53,40.64,43.26,45.96,48.58,51.03,53.81,56.84,59.45,60.90,60.39,58.99,57.22,55.65,55.59,56.41,57.90,59.73,61.43,62.62,63.44,63.98,64.38,64.81,65.20,65.42,65.42,65.12,64.46,63.77,63.09,62.48,62.67,63.24,63.91,64.74,66.44,68.40,71.28,74.96,78.99,86.34,92.83,98.23,102.54,106.47,110.42,114.16,117.29,118.91,118.96,118.97,120.09,123.35,127.56,131.39,134.00,135.23,136.22,137.34,138.30,139.40,141.26,143.50,145.77,147.56,148.44,148.30,147.07,145.24,142.91,139.91,136.72,134.19,132.25,130.69,129.89,130.47,131.04,130.65,128.43,125.31,121.56,117.82,115.17,112.94,110.41,107.77,105.35,104.31,103.61,102.56,100.94,98.86,96.64,94.60,92.66,90.70,88.70,86.93,85.38,83.98,82.54,80.92,78.88,76.50,74.05,71.61,68.66,65.38,62.00,59.21,57.13,56.86,58.38,60.32,61.95,63.56,64.54,64.10,62.90,62.03,61.42,60.99,60.74,60.80,60.92,61.08,61.39,61.87,62.95,64.36,65.84,67.43,69.17,70.75,72.07,73.15,73.81,74.12,74.08,73.68,73.01,72.90,72.85,72.55,72.13,71.87,71.76,71.74,71.66,71.62,71.32,70.79,70.13,69.34,69.37,69.71,70.13,70.52,70.65,70.41,69.85,69.13
e,e,e,e,e,e,e,e,e,e,e,e,e,e,e,e,e,e,e,e,e,e,e,e,e,e,e,e,e,e,e,e,e,e,e,e,e,e,e,e,e,e,e,e,e,e,e,e,e,e,e,e,2.05,3.82,5.61,7.35,8.97,10.35,11.51,12.78,14.03,15.20,16.37,17.66,18.97,20.17,21.09,22.01,22.84,23.48,23.86,23.63,23.32,23.05,22.78,22.39,23.53,25.01,26.59,28.13,29.62,30.16,29.81,28.82,28.03,27.63,27.60,28.11,29.43,31.20,33.35,35.45,37.26,39.20,41.80,44.46,47.05,49.67,52.67,56.04,59.23,61.64,62.03,61.10,59.57,58.17,58.32,59.26,60.44,61.71,62.99,64.28,65.18,65.73,66.05,66.43,66.88,67.14,67.12,66.75,66.30,65.69,64.99,64.33,64.57,65.15,65.80,66.41,67.09,68.65,71.17,74.52,78.40,85.36,91.65,97.02,101.47,105.90,110.72,115.59,119.91,122.33,123.62,124.23,125.01,126.92,130.89,134.40,136.84,138.26,140.14,142.40,143.72,144.65,146.56,148.69,150.62,152.19,153.21,152.99,151.75,150.05,147.98,145.23,141.78,139.44,137.73,135.83,134.55,134.87,134.69,133.10,131.07,127.71,123.61,119.64,117.14,115.25,112.96,110.44,107.98,106.79,105.41,103.53,101.13,98.56,95.95,93.70,91.66,89.58,86.79,84.67,83.15,82.12,81.19,79.88,78.18,76.14,73.88,71.53,68.86,65.91,62.77,59.73,57.79,57.55,58.90,60.72,62.27,63.84,65.07,65.44,64.34,63.75,63.30,62.79,62.41,62.41,62.49,62.61,62.89,63.48,64.46,65.84,67.59,69.44,70.96,72.27,73.46,74.54,75.30,75.68,75.71,75.40,74.87,74.75,74.55,74.02,73.55,73.03,72.76,72.71,72.62,72.52,72.14,71.55,70.88,70.28,70.31,70.66,71.17,71.87,72.18,71.93,71.26,70.42
e,e,e,e,e,e,e,e,e,e,e,e,e,e,e,e,e,e,e,e,e,e,e,e,e,e,e,e,e,e,e,e,e,e,e,e,e,e,e,e,e,e,e,e,e,e,e,e,e,e,e,e,3.84,5.61,7.44,8.95,10.11,10.99,12.15,13.39,14.67,15.98,17.19,18.50,19.78,20.92,21.79,22.72,23.57,24.25,24.62,24.34,23.99,23.66,23.35,22.97,24.06,25.49,27.01,28.42,29.47,30.51,31.06,30.91,30.02,29.35,28.93,28.97,29.75,31.47,33.54,35.66,37.65,39.64,42.01,44.35,46.65,49.16,52.30,55.72,59.03,61.83,63.55,63.17,62.04,61.03,61.13,61.85,62.76,63.72,64.65,65.79,66.78,67.45,67.77,68.16,68.56,68.80,68.81,68.59,68.20,67.57,66.84,66.19,66.47,67.03,67.58,68.05,68.64,70.09,72.12,74.77,78.15,84.33,90.03,95.26,100.09,104.77,109.91,115.51,120.86,124.12,126.34,128.25,130.42,133.31,135.60,137.87,140.07,142.19,144.32,146.66,148.78,150.86,153.32,155.17,156.90,158.34,159.28,159.16,158.26,156.61,154.35,151.79,148.62,146.06,144.02,142.20,140.58,139.18,137.82,136.34,134.22,131.64,128.23,124.39,121.00,118.32,115.71,113.01,110.20,108.12,105.82,103.32,100.51,97.10,94.55,92.27,89.99,87.47,84.58,82.33,80.83,80.01,79.08,77.81,76.35,74.73,72.97,70.92,68.54,65.84,62.87,60.22,58.29,58.29,60.05,61.58,62.97,64.36,65.66,66.72,66.11,65.67,65.24,64.77,64.44,64.45,64.53,64.60,64.63,65.12,66.09,67.41,68.93,70.79,72.45,73.78,74.80,75.89,76.77,77.27,77.38,77.13,76.64,76.36,76.02,75.49,75.02,74.50,74.07,73.77,73.58,73.34,72.91,72.39,71.92,71.46,71.45,71.79,72.39,73.14,73.63,73.55,73.01,72.27
e,e,e,e,e,e,e,e,e,e,e,e,e,e,e,e,e,e,e,e,e,e,e,e,e,e,e,e,e,e,e,e,e,e,e,e,e,e,e,e,e,e,e,e,e,e,e,e,e,e,2.36,4.00,5.66,7.44,8.95,10.10,10.96,11.67,12.82,14.04,15.31,16.62,17.91,19.24,20.57,21.79,22.78,23.70,24.57,25.23,25.51,25.07,24.65,24.26,23.90,23.54,24.56,25.82,27.13,28.34,29.16,30.25,31.32,32.12,32.17,31.55,30.87,30.50,30.85,32.00,33.85,35.94,37.98,40.07,42.50,44.83,47.07,49.54,53.07,56.53,59.67,62.31,64.57,65.14,64.82,64.22,64.30,64.68,65.29,66.02,66.74,67.68,68.55,69.19,69.53,69.89,70.27,70.52,70.59,70.44,70.09,69.47,68.72,68.04,68.43,69.08,69.72,70.31,71.07,72.13,73.66,75.75,78.51,83.25,88.23,93.16,97.97,103.28,108.60,114.53,120.61,125.06,128.51,131.92,135.27,138.38,139.82,141.75,144.12,146.79,149.36,152.03,154.65,157.19,159.73,161.37,162.88,164.17,165.06,164.90,164.31,163.04,161.12,158.87,155.98,153.13,150.54,148.34,146.53,144.27,142.08,140.09,137.49,135.01,131.77,127.89,123.96,120.63,117.60,114.61,111.51,108.63,105.65,102.65,99.48,95.61,92.83,90.51,88.24,85.61,82.65,80.41,78.89,77.95,76.86,75.56,74.21,72.85,71.49,69.77,67.90,65.65,62.89,60.64,58.86,58.94,60.74,62.30,63.73,65.09,66.41,67.72,67.58,67.40,67.13,66.76,66.51,66.51,66.49,66.37,66.15,66.61,67.58,68.87,70.34,72.17,73.94,75.31,76.28,77.34,78.28,78.88,79.10,78.92,78.38,77.94,77.49,76.95,76.43,75.89,75.38,74.93,74.58,74.27,73.87,73.44,73.08,72.70,72.62,72.94,73.62,74.42,75.06,75.15,74.77,74.16
e,e,e,e,e,e,e,e,e,e,e,e,e,e,e,e,e,e,e,e,e,e,e,e,e,e,e,e,e,e,e,e,e,e,e,e,e,e,e,e,e,e,e,e,e,e,e,e,e,e,4.19,5.85,7.51,9.29,10.19,10.90,11.57,12.37,13.53,14.74,15.94,17.15,18.54,19.93,21.36,22.76,23.99,24.92,25.79,26.38,26.50,25.81,25.31,24.85,24.42,24.11,25.04,26.05,27.03,27.95,28.72,29.50,30.78,32.62,34.45,34.13,33.28,32.58,32.58,32.75,34.26,36.28,38.25,40.49,43.23,45.80,48.15,50.63,54.75,58.26,60.98,63.00,65.17,67.02,67.86,67.67,67.75,67.70,67.98,68.55,69.16,69.86,70.45,70.93,71.31,71.62,71.99,72.30,72.44,72.29,71.99,71.39,70.62,69.90,70.44,71.27,72.16,73.05,74.21,74.64,75.66,77.34,79.35,82.15,86.26,90.80,95.25,101.50,106.88,112.85,119.39,125.32,130.26,135.30,139.67,142.40,143.64,145.96,148.83,151.92,155.08,158.31,161.16,163.63,165.87,167.36,168.62,169.72,170.61,170.30,169.99,169.36,168.23,166.37,163.74,160.56,157.24,154.27,152.42,150.00,147.24,144.25,140.86,137.93,134.43,130.37,126.21,122.34,118.80,115.43,112.09,108.46,105.02,101.63,98.11,94.09,90.85,88.49,86.44,83.95,80.94,78.83,77.25,75.93,74.54,73.15,71.81,70.57,69.56,68.18,66.99,65.36,62.86,61.00,59.50,59.51,61.06,62.91,64.55,65.98,67.27,68.50,68.80,68.99,68.98,68.76,68.60,68.58,68.37,67.97,67.51,68.00,68.95,70.25,71.81,73.58,75.42,76.86,77.87,78.87,79.81,80.50,80.86,80.77,80.08,79.50,78.96,78.41,77.79,77.24,76.69,76.15,75.62,75.30,74.99,74.67,74.36,73.97,73.83,74.12,74.84,75.69,76.47,76.74,76.54,76.08
e,e,e,e,e,e,e,e,e,e,e,e,e,e,e,e,e,e,e,e,e,e,e,e,e,e,e,e,e,e,e,e,e,e,e,e,e,e,e,e,e,e,e,e,e,e,e,e,3.03,4.35,5.94,7.60,9.12,10.17,10.89,11.50,12.18,13.07,14.23,15.45,16.65,17.83,19.12,20.63,22.16,23.62,24.95,26.02,26.97,27.51,27.47,26.82,26.21,25.65,25.17,24.81,25.10,25.77,26.65,27.56,28.29,29.01,29.90,31.11,32.96,34.27,34.94,35.10,35.00,35.01,35.69,36.71,37.92,39.96,42.75,45.73,48.92,52.76,57.21,60.15,62.16,64.08,66.09,67.82,69.04,69.73,70.20,70.15,70.24,70.53,70.90,71.45,71.96,72.48,73.04,73.40,73.74,74.07,74.30,74.14,73.98,73.46,72.92,72.78,73.61,74.81,75.89,76.69,77.51,77.80,78.50,79.75,81.51,83.61,86.03,89.10,93.24,99.88,105.39,111.20,117.50,123.49,128.63,133.88,138.62,142.03,143.85,146.83,150.48,154.45,158.50,162.28,165.42,168.21,171.23,173.59,175.92,178.06,179.82,180.88,181.39,181.35,180.71,179.29,176.21,171.68,166.58,161.98,157.98,154.56,151.08,147.33,143.93,140.04,135.33,130.29,125.92,121.86,118.31,115.09,111.95,108.13,104.10,100.31,96.71,92.75,89.90,87.89,86.24,84.39,82.16,80.19,78.47,76.95,75.37,73.21,71.09,69.36,68.40,67.50,66.44,65.06,63.25,61.54,60.08,59.97,61.33,63.28,65.02,66.68,68.14,69.26,69.67,69.97,70.18,70.31,70.25,70.24,69.87,69.25,68.78,69.46,70.67,72.16,73.70,75.29,76.93,78.34,79.46,80.47,81.40,82.13,82.55,82.56,81.96,81.02,80.01,79.12,78.55,77.97,77.43,76.95,76.51,76.28,76.01,75.70,75.39,75.05,74.88,75.19,75.99,76.84,77.66,78.18,78.31,77.99
e,e,e,e,e,e,e,e,e,e,e,e,e,e,e,e,e,e,e,e,e,e,e,e,e,e,e,e,e,e,e,e,0.91,0.86,0.64,e,e,e,e,e,e,e,e,e,e,e,1.96,3.36,4.70,6.14,7.66,9.13,10.34,10.94,11.54,12.10,12.79,13.77,14.93,16.13,17.29,18.40,19.55,21.27,22.95,24.52,25.99,27.13,28.10,28.60,28.45,27.82,27.15,26.52,25.99,25.60,25.50,25.83,26.44,27.18,27.85,28.51,29.17,29.99,31.60,33.90,35.72,36.82,37.21,37.30,37.50,37.82,38.38,39.93,42.61,45.79,49.44,53.93,58.55,61.31,63.11,65.10,66.99,68.62,70.04,71.23,72.03,72.16,72.22,72.34,72.57,72.99,73.44,74.00,74.67,75.14,75.48,75.83,76.11,76.02,75.96,75.57,75.30,75.64,76.74,78.26,79.57,80.43,80.99,81.16,81.58,82.47,84.01,85.53,86.80,88.81,92.43,98.72,104.14,109.70,115.61,121.59,126.60,131.54,136.28,140.55,143.03,146.60,150.87,155.62,160.82,165.53,169.59,173.26,177.03,180.60,184.23,187.42,189.78,191.36,192.14,192.31,191.92,190.86,188.23,183.59,177.26,169.86,164.27,159.43,154.88,150.46,146.56,141.70,135.82,129.83,125.39,121.27,117.73,114.57,111.47,107.26,102.95,99.03,95.60,92.41,90.21,88.58,87.21,85.71,83.85,81.92,80.10,78.43,76.80,74.27,71.68,69.56,68.57,68.04,67.22,66.10,64.70,62.91,61.31,60.73,61.49,63.52,65.42,67.34,69.03,70.17,70.69,71.12,71.49,71.81,71.93,72.01,71.63,70.99,70.65,71.30,72.61,74.20,75.72,77.19,78.62,79.91,81.03,82.04,82.97,83.74,84.24,84.35,83.87,82.80,81.49,80.22,79.37,78.71,78.19,77.77,77.42,77.24,77.00,76.72,76.41,76.10,75.94,76.25,77.03,77.88,78.78,79.56,79.97,79.72
e,e,e,e,e,e,e,e,e,e,e,e,e,e,e,e,e,e,e,e,e,e,e,e,e,e,e,e,e,e,e,e,1.41,1.11,0.77,e,e,e,e,e,e,e,e,e,e,e,3.22,4.96,6.21,7.94,9.35,10.36,11.03,11.58,12.13,12.67,13.40,14.47,15.63,16.80,17.86,18.81,19.76,21.81,23.74,25.47,27.14,28.23,29.15,29.62,29.47,28.78,28.15,27.49,26.88,26.49,26.40,26.37,26.48,26.79,27.42,27.99,28.64,29.44,30.45,32.86,35.31,37.45,39.12,39.61,39.82,39.87,39.94,40.61,42.96,46.04,49.61,53.76,58.36,61.46,63.74,66.05,67.85,69.45,70.82,71.97,73.02,73.57,73.82,73.94,74.17,74.49,74.91,75.47,76.16,76.83,77.20,77.55,77.86,77.92,77.92,77.74,77.78,78.46,79.81,81.57,83.18,84.31,84.71,84.78,84.99,85.61,86.95,88.03,88.93,90.44,93.25,98.16,103.23,108.39,113.73,119.62,124.07,127.99,132.25,137.64,140.86,144.91,149.60,154.96,161.69,167.84,173.67,179.00,183.46,188.69,193.89,198.13,200.71,201.65,201.90,201.75,201.29,200.48,199.54,196.51,189.72,177.94,171.57,164.74,158.65,153.67,148.59,142.75,135.77,128.90,124.56,120.58,117.06,113.81,110.52,105.67,101.50,97.83,94.87,93.46,92.23,91.04,89.74,88.20,86.14,84.12,82.22,80.50,79.01,76.67,74.03,71.70,70.56,70.26,69.82,69.00,67.61,65.43,63.42,61.92,61.50,63.58,65.70,67.96,69.97,71.25,71.93,72.54,72.98,73.25,73.67,73.92,73.74,73.36,73.32,73.66,74.85,76.42,77.89,79.36,80.56,81.60,82.57,83.57,84.51,85.33,85.93,86.14,85.81,84.92,83.56,81.85,80.26,79.48,78.98,78.62,78.38,78.15,77.96,77.74,77.43,77.12,77.04,77.30,77.92,78.77,79.81,80.85,81.49,81.19
e,e,e,e,e,e,e,e,e,e,e,e,e,e,e,e,e,e,e,e,e,e,e,e,e,e,e,e,1.37,1.70,1.94,1.87,1.60,1.28,0.94,0.59,0.28,e,e,e,e,e,e,1.44,1.98,2.48,3.59,5.07,6.80,8.91,10.29,11.17,11.72,12.22,12.80,13.36,14.01,14.90,15.97,17.01,18.00,18.94,19.95,22.05,24.19,26.23,28.18,29.39,30.43,30.88,30.53,29.66,28.93,28.23,27.67,27.54,27.38,27.22,27.18,27.39,27.97,28.48,28.95,29.46,30.30,32.53,34.95,37.27,39.34,40.47,41.37,41.84,41.91,42.45,44.04,46.28,49.17,52.88,57.10,60.28,62.95,65.79,68.37,70.20,71.57,72.69,73.81,74.69,75.25,75.59,75.82,76.04,76.43,76.97,77.63,78.33,78.91,79.43,79.89,80.30,80.33,80.35,80.80,82.10,83.70,85.45,86.98,88.06,88.62,88.62,88.85,89.49,90.55,91.77,92.94,94.53,96.89,100.21,103.84,107.82,112.28,117.47,121.76,125.67,129.83,134.84,138.66,143.55,149.25,155.63,162.58,170.10,177.20,183.80,190.09,195.88,201.00,205.00,207.49,207.96,208.02,207.62,206.74,205.41,204.09,201.52,196.45,187.74,177.58,169.06,162.04,156.21,150.62,143.99,136.46,129.24,124.45,120.16,116.53,113.21,109.75,104.42,100.49,97.97,96.65,95.87,94.70,93.42,91.96,90.19,88.15,86.07,84.19,82.60,81.13,79.17,76.68,74.32,73.46,72.80,71.73,70.56,69.50,67.98,66.11,64.38,63.21,63.35,65.38,67.69,69.79,71.31,72.55,73.68,74.46,74.84,75.43,75.87,75.96,75.88,76.10,76.40,77.32,78.57,79.83,81.08,82.21,83.19,84.08,85.00,86.01,86.95,87.67,87.98,87.76,87.07,85.89,84.33,83.05,82.04,80.91,79.82,79.29,79.09,78.92,78.72,78.46,78.24,78.18,78.36,78.88,80.07,81.65,82.68,82.98,82.55
e,e,e,e,e,e,e,e,e,e,e,e,e,e,e,e,0.27,0.42,0.45,0.26,e,e,e,e,0.76,1.12,1.44,1.81,2.14,2.41,2.48,2.11,1.80,1.48,1.14,0.77,0.46,e,e,0.43,0.82,1.33,1.87,2.43,3.00,3.47,4.03,5.14,7.02,9.36,10.76,11.71,12.39,12.99,13.59,14.14,14.71,15.38,16.27,17.13,18.03,18.99,20.06,22.22,24.56,26.88,29.11,30.41,31.59,32.07,31.56,30.57,29.76,29.07,28.59,28.61,28.37,28.08,27.96,28.17,28.70,29.22,29.56,29.80,30.48,32.44,34.70,36.99,39.14,40.80,42.32,43.34,43.77,44.50,45.50,47.00,49.15,52.22,55.83,58.96,61.94,65.23,68.55,70.68,72.19,73.42,74.61,75.72,76.56,77.11,77.37,77.58,77.97,78.52,79.22,79.95,80.74,81.44,82.06,82.75,82.94,83.18,83.98,85.76,87.46,89.11,90.53,91.65,92.45,92.60,93.03,93.81,94.69,96.03,97.41,98.99,100.89,102.93,105.28,108.24,111.88,116.18,120.18,124.22,128.45,132.95,137.17,142.86,149.53,156.75,163.80,172.28,180.34,188.00,195.97,201.95,206.88,210.72,213.32,213.52,213.52,213.02,211.82,209.63,207.38,204.77,201.19,195.82,183.46,173.61,165.60,158.88,152.84,145.66,137.91,130.57,125.25,120.29,116.45,113.13,109.62,104.25,100.74,99.22,99.10,98.50,97.15,95.64,93.96,92.02,90.02,87.93,86.06,84.53,83.01,81.31,79.03,76.78,75.93,74.78,73.20,71.79,71.01,70.11,68.57,66.90,65.29,63.78,65.12,67.12,69.18,70.91,72.65,74.31,75.58,76.37,77.14,77.79,78.21,78.50,78.91,79.24,79.94,80.87,81.85,82.74,83.78,84.76,85.62,86.44,87.48,88.60,89.58,90.11,89.95,89.48,88.57,87.26,86.32,85.17,83.63,82.05,81.28,80.97,80.68,80.38,80.06,79.83,79.81,79.94,80.38,81.86,83.73,84.53,84.39,83.83
e,e,e,e,e,e,e,e,e,e,e,e,e,e,e,e,0.81,0.77,0.66,0.50,e,e,e,e,1.40,1.76,2.07,2.39,2.75,2.88,2.75,2.43,2.12,1.77,1.41,1.09,0.78,e,e,1.33,1.71,2.18,2.73,3.36,4.02,4.49,5.02,5.71,6.74,8.88,10.42,11.77,13.01,14.05,14.63,15.13,15.62,16.12,16.62,17.20,17.99,18.99,20.00,22.33,24.83,27.33,29.81,31.06,32.37,32.99,32.52,31.58,30.78,30.22,29.89,29.71,29.36,28.88,28.65,29.00,29.48,30.14,30.56,30.70,31.09,32.67,34.67,36.78,38.63,40.38,42.11,43.72,45.19,46.55,47.63,48.87,50.42,52.36,54.98,57.84,60.97,64.41,67.97,70.50,72.51,74.20,75.49,76.65,77.60,78.29,78.64,79.05,79.50,80.15,81.08,81.97,82.87,83.71,84.49,85.18,85.82,86.40,87.37,89.13,90.59,91.99,93.44,94.90,96.04,96.83,97.79,98.88,99.86,101.05,102.22,103.38,104.62,106.21,108.16,110.74,113.87,117.04,120.31,124.40,128.91,133.26,137.39,143.71,150.96,158.39,165.79,174.28,182.73,191.17,199.97,205.63,210.79,215.22,218.51,218.85,218.96,218.76,217.66,214.03,210.40,206.99,203.39,198.97,189.52,179.14,169.72,162.11,155.48,148.34,140.90,133.76,127.95,121.68,117.44,114.23,110.97,106.54,103.86,102.61,102.20,101.10,99.34,97.51,95.61,93.62,91.67,89.66,87.76,86.04,84.32,82.51,80.56,78.62,76.98,75.28,73.85,72.75,71.97,71.17,70.24,69.06,67.63,65.97,65.25,66.14,68.00,69.83,71.72,73.81,75.87,77.68,78.70,79.63,80.51,81.27,81.78,82.16,82.82,83.56,84.17,84.42,85.32,86.32,87.19,87.92,88.90,90.33,91.85,92.92,92.71,92.51,91.97,90.96,89.96,88.93,87.78,86.65,85.87,85.14,84.42,83.71,83.04,82.57,82.61,82.79,83.20,84.73,86.08,86.23,85.59,84.98
e,e,e,e,e,e,e,e,e,e,e,e,0.23,0.57,0.90,1.19,1.27,1.15,0.99,0.84,0.77,0.88,1.23,1.54,1.88,2.23,2.57,2.87,3.25,3.32,3.10,2.79,2.48,2.15,1.80,1.46,1.22,1.31,1.63,2.10,2.60,3.06,3.55,4.12,4.82,5.42,6.01,6.59,7.28,8.72,10.18,11.67,13.14,14.52,15.47,16.10,16.56,17.02,17.44,17.93,18.55,19.37,20.48,22.84,25.37,27.88,30.28,31.77,33.24,33.98,33.63,32.81,32.06,31.55,31.25,30.94,30.36,29.68,29.31,29.61,30.33,31.19,31.82,32.10,32.34,33.23,34.52,36.13,37.94,39.72,41.47,43.27,45.17,47.25,48.69,50.18,51.87,53.63,55.65,58.04,60.86,64.13,67.66,70.35,72.61,74.62,76.33,77.59,78.65,79.52,80.20,80.77,81.31,82.04,83.04,84.00,84.96,85.90,86.80,87.60,88.34,89.16,90.30,91.96,93.31,94.69,96.20,97.84,99.40,100.69,102.03,103.37,104.52,105.71,107.05,108.49,110.02,111.81,113.83,116.13,118.51,120.40,122.77,126.33,130.51,134.56,138.83,145.33,152.71,160.28,168.06,176.90,185.66,194.16,202.48,208.28,213.95,218.43,220.86,221.21,220.94,220.49,219.32,215.55,211.55,207.79,204.02,199.82,192.10,182.66,173.62,165.92,158.52,151.00,143.98,137.37,130.75,124.21,119.67,116.31,113.25,109.65,107.50,106.16,105.09,103.39,101.25,99.07,96.92,94.84,92.77,90.66,88.69,86.92,85.14,83.24,81.31,79.40,77.55,75.83,74.63,73.71,72.84,72.11,71.34,70.43,69.30,67.88,66.60,66.48,67.47,69.25,71.22,73.47,75.79,77.97,79.59,81.09,82.36,83.44,84.45,85.04,85.85,86.63,87.07,87.07,87.50,88.11,88.84,89.82,91.14,92.80,94.50,95.83,95.77,95.75,95.44,94.67,93.73,92.83,91.93,91.06,90.29,89.51,88.73,87.97,87.24,86.66,86.57,86.66,86.90,87.73,88.16,87.81,86.99,86.23
e,e,e,e,e,e,e,e,e,e,e,e,0.27,0.74,1.21,1.57,1.68,1.54,1.39,1.23,1.22,1.36,1.67,1.98,2.29,2.64,3.01,3.32,3.69,3.74,3.49,3.17,2.87,2.56,2.22,1.86,1.75,2.02,2.41,2.85,3.45,3.94,4.37,4.86,5.53,6.29,6.96,7.56,8.13,8.83,10.14,11.62,13.19,14.81,16.23,17.04,17.52,17.99,18.46,18.97,19.51,20.16,21.34,23.60,26.08,28.50,30.71,32.49,34.13,35.01,34.83,34.13,33.43,32.95,32.62,32.19,31.36,30.51,30.01,30.18,31.19,32.26,33.13,33.66,33.83,34.05,34.57,35.57,37.24,38.97,40.67,42.52,44.66,47.36,49.27,51.21,53.31,55.28,56.97,58.88,61.25,64.22,67.58,70.31,72.70,74.92,77.09,78.50,79.70,80.79,81.82,82.57,83.24,84.02,85.01,86.02,87.03,88.04,89.03,89.94,90.65,91.64,92.94,94.48,95.83,97.28,98.89,100.67,102.60,104.32,106.05,107.73,109.20,110.54,112.20,114.10,116.19,118.34,120.54,122.58,124.21,124.96,126.40,129.12,132.64,136.29,140.89,147.35,154.66,162.34,170.59,179.86,188.76,196.95,204.41,210.65,216.71,220.88,222.02,222.13,221.34,220.33,218.82,215.30,211.36,207.51,203.62,199.42,192.89,184.82,176.85,169.55,161.56,153.57,146.88,140.78,133.42,126.95,122.27,118.81,115.94,113.02,111.21,109.60,107.78,105.50,102.99,100.46,98.04,95.87,93.63,91.39,89.34,87.55,85.75,83.77,81.76,79.79,77.92,76.43,75.46,74.65,73.69,72.98,72.23,71.45,70.63,69.57,68.31,67.36,67.35,68.97,70.99,73.27,75.62,77.94,80.19,82.28,83.96,85.36,86.90,87.90,89.00,89.90,90.29,90.22,90.14,90.26,90.80,92.10,93.84,95.71,97.48,98.95,99.14,99.26,99.11,98.60,97.76,96.97,96.20,95.43,94.62,93.89,93.17,92.46,91.76,91.11,90.77,90.67,90.72,90.71,90.19,89.43,88.52,87.56
e,e,e,e,e,e,e,e,e,e,e,e,0.27,0.74,1.26,1.75,2.00,1.99,1.83,1.68,1.66,1.80,2.05,2.42,2.74,3.08,3.46,3.77,4.09,4.15,3.93,3.56,3.25,2.94,2.62,2.33,2.46,2.79,3.20,3.66,4.16,4.73,5.26,5.77,6.30,7.01,7.70,8.36,9.03,9.78,10.85,12.20,13.76,15.38,16.95,17.90,18.50,19.01,19.48,20.34,21.32,22.27,23.10,24.93,27.11,29.34,31.35,33.18,34.97,36.09,36.17,35.47,34.73,34.28,33.95,33.23,32.38,31.53,30.96,30.95,32.01,33.13,34.23,35.15,35.42,35.60,35.93,36.39,36.93,38.36,39.90,41.87,44.40,47.05,49.51,51.97,54.39,56.61,58.54,60.41,62.53,65.17,68.22,70.81,73.13,75.31,77.47,79.27,80.80,82.11,83.29,84.33,85.19,86.02,86.93,87.99,89.01,90.04,91.05,91.86,92.56,93.59,94.94,96.54,98.08,99.69,101.54,103.60,105.48,107.58,109.98,112.55,115.06,117.05,118.97,120.94,123.02,125.07,127.09,128.85,130.18,130.78,131.48,132.92,135.20,138.36,143.70,149.94,156.98,164.84,173.98,183.46,191.76,199.06,206.27,213.66,218.96,221.94,222.61,221.43,220.30,218.33,215.31,211.49,207.75,204.33,200.90,197.01,191.17,183.84,176.95,171.07,163.81,155.77,148.66,142.21,135.20,128.54,124.30,121.47,119.01,116.19,114.17,112.14,109.83,107.31,104.42,101.52,98.86,96.64,94.40,92.16,90.07,88.17,86.22,84.22,82.18,80.16,78.24,77.18,76.26,75.40,74.58,73.83,73.06,72.28,71.49,70.58,69.51,68.49,68.14,69.23,71.29,73.51,75.83,78.21,80.56,82.91,85.12,87.08,88.63,90.80,92.39,93.44,94.06,94.04,93.89,93.89,94.29,95.49,97.36,99.49,101.52,103.04,103.48,103.70,103.77,103.65,102.92,102.06,101.06,99.97,98.91,97.98,97.13,96.32,95.51,94.66,93.87,93.44,93.39,93.27,92.53,91.52,90.38,89.22
e,e,e,e,e,e,e,e,e,e,e,e,0.28,0.79,1.38,1.98,2.34,2.40,2.24,2.09,2.09,2.25,2.51,2.87,3.19,3.52,3.87,4.21,4.52,4.56,4.33,3.94,3.63,3.32,3.07,2.94,3.23,3.59,4.00,4.44,4.87,5.47,6.06,6.60,7.10,7.77,8.45,9.17,9.94,10.80,11.83,13.06,14.47,16.04,17.60,18.75,19.64,20.48,21.29,22.37,23.51,24.55,25.19,26.58,28.39,30.40,32.36,34.10,35.94,37.21,37.47,36.78,36.09,35.56,35.07,34.25,33.40,32.56,31.91,31.72,32.86,34.06,35.30,36.43,36.95,37.17,37.38,37.54,37.56,38.46,39.69,41.63,44.38,47.03,49.58,52.24,54.96,57.51,59.80,61.81,63.89,66.37,69.01,71.44,73.73,75.93,78.15,80.12,81.85,83.34,84.61,85.79,86.85,87.86,88.89,90.00,91.05,92.08,93.03,93.71,94.46,95.52,96.88,98.50,100.01,101.59,103.53,105.82,107.91,110.80,113.94,117.04,119.80,122.08,124.29,126.50,128.69,130.53,132.42,134.12,135.49,136.38,137.00,137.79,139.24,141.88,147.17,153.02,159.75,167.62,177.00,186.13,193.80,200.61,208.04,215.91,220.91,222.91,222.12,219.99,217.98,215.19,211.54,207.63,204.03,200.69,197.34,193.58,188.25,181.99,176.18,171.15,164.66,156.91,149.63,142.86,135.96,130.05,126.40,123.94,121.64,118.97,116.61,114.19,111.59,108.82,105.76,102.62,99.71,97.33,95.09,92.93,90.92,89.02,86.98,84.92,82.83,80.77,78.87,77.92,77.04,76.20,75.43,74.66,73.89,73.11,72.32,71.41,70.31,69.33,69.02,69.98,72.03,74.16,76.38,78.71,81.25,83.79,86.27,88.69,91.00,93.82,95.73,96.97,97.80,97.86,97.65,97.61,98.04,99.29,101.34,103.73,105.84,106.94,107.27,107.46,107.57,107.60,107.17,106.62,105.92,105.09,104.13,102.99,101.89,100.75,99.52,98.36,97.23,96.45,96.07,95.74,94.85,93.73,92.49,91.22
e,e,e,e,e,e,e,e,e,e,e,e,0.31,0.86,1.56,2.25,2.69,2.78,2.63,2.47,2.51,2.71,3.02,3.33,3.64,3.94,4.26,4.65,4.97,4.98,4.71,4.33,4.02,3.71,3.54,3.65,4.03,4.42,4.81,5.20,5.58,6.17,6.79,7.38,7.93,8.54,9.22,9.98,10.86,11.86,12.99,14.11,15.28,16.75,18.22,19.59,20.92,22.25,23.64,24.86,25.98,26.96,27.50,28.45,29.86,31.66,33.66,35.21,37.02,38.37,38.76,38.06,37.48,36.82,36.05,35.27,34.43,33.58,32.86,32.49,33.73,35.02,36.34,37.57,38.44,38.75,38.90,38.93,38.86,39.09,39.92,41.70,44.51,47.21,49.53,52.17,55.16,58.10,60.82,63.09,65.27,67.73,69.90,72.18,74.46,76.71,79.03,81.01,82.85,84.50,85.82,87.06,88.30,89.58,90.88,92.04,93.13,94.13,94.97,95.51,96.34,97.43,98.80,100.40,101.72,103.14,105.06,107.54,110.03,113.98,117.89,121.25,123.72,126.05,128.59,131.16,133.55,135.12,136.93,138.71,140.36,141.82,142.79,143.39,144.33,146.44,151.14,156.48,162.90,170.63,179.77,188.14,195.17,201.78,209.75,217.62,222.64,223.78,220.90,218.01,214.78,211.30,207.61,203.75,200.23,196.76,193.20,189.43,184.51,179.54,174.81,170.22,164.50,157.28,150.01,142.97,136.07,131.53,128.56,126.29,123.95,121.47,118.68,115.90,113.13,110.12,107.03,103.75,100.60,97.97,95.74,93.73,91.87,90.05,87.97,85.83,83.66,81.58,79.72,78.66,77.81,77.03,76.26,75.49,74.72,73.94,73.12,72.11,70.83,70.01,69.99,71.08,73.09,75.09,77.16,79.40,82.19,84.84,87.44,90.26,93.82,96.92,99.05,100.48,101.51,101.68,101.43,101.43,102.00,103.37,105.63,108.22,110.25,110.63,110.63,110.68,110.73,110.73,110.73,110.73,110.70,110.51,109.89,108.55,107.14,105.55,103.73,102.19,100.82,99.68,98.80,98.16,97.18,96.03,94.77,93.45
e,e,e,e,e,e,e,e,e,e,e,e,0.49,1.18,1.88,2.57,3.05,3.23,3.07,2.97,2.99,3.16,3.46,3.77,4.08,4.39,4.71,5.10,5.42,5.40,5.11,4.77,4.41,4.16,4.13,4.41,4.80,5.19,5.60,6.03,6.41,6.91,7.49,8.10,8.69,9.26,10.03,10.94,11.94,12.95,14.00,15.07,16.22,17.58,19.05,20.81,22.68,24.42,25.86,27.24,28.40,29.24,29.68,30.53,32.00,33.86,35.77,37.52,39.04,40.01,40.21,39.36,38.64,37.90,37.12,36.30,35.45,34.57,33.75,33.19,34.43,35.80,37.19,38.56,39.97,40.61,40.85,40.89,40.96,41.40,42.04,43.14,44.85,47.15,49.36,51.93,54.82,57.66,60.42,63.08,65.74,68.44,70.70,73.01,75.31,77.60,79.86,81.84,83.71,85.46,87.03,88.27,89.93,91.64,93.11,94.16,95.24,96.14,96.82,97.36,98.19,99.28,100.60,102.06,103.43,104.72,106.46,108.97,112.46,116.71,120.47,123.56,126.08,128.65,131.57,134.54,137.29,139.90,142.27,144.22,145.73,146.95,148.04,149.03,150.40,152.68,156.83,162.11,168.23,174.99,182.15,189.57,196.26,203.04,211.65,219.11,223.14,223.14,219.29,215.57,212.08,208.35,204.34,200.43,196.82,193.25,189.40,184.99,180.85,176.85,172.92,168.69,162.52,155.65,148.96,142.90,137.93,134.12,131.34,128.89,126.15,123.22,120.23,117.29,114.41,111.39,108.31,105.00,101.70,98.75,96.91,95.08,93.34,91.68,89.85,87.78,85.61,83.43,81.32,79.69,78.64,77.87,77.09,76.32,75.55,74.68,73.65,72.39,71.35,71.30,72.02,73.06,74.81,76.61,78.54,80.76,83.64,86.52,89.74,93.30,97.01,99.74,102.02,103.87,105.25,105.96,106.30,106.67,107.22,107.86,108.98,110.29,111.41,111.85,111.79,111.76,111.75,111.76,111.81,111.98,112.33,112.56,111.99,111.22,110.62,109.83,108.54,107.24,105.66,104.23,102.99,101.51,99.87,98.34,96.91,95.50
e,e,e,e,e,e,e,e,e,e,e,0.51,0.83,1.48,2.19,2.89,3.41,3.65,3.49,3.43,3.47,3.62,3.91,4.22,4.53,4.84,5.15,5.52,5.84,5.81,5.50,5.19,4.83,4.68,4.80,5.21,5.60,5.98,6.40,6.83,7.21,7.67,8.21,8.81,9.40,9.87,10.56,11.49,12.63,13.75,14.85,15.97,17.14,18.36,19.97,22.01,24.21,26.25,27.88,29.28,30.39,31.20,31.72,32.54,34.01,35.93,37.88,39.66,41.04,41.86,41.99,41.06,40.06,39.06,38.11,37.23,36.38,35.50,34.65,34.00,35.06,36.43,37.82,39.18,40.86,42.13,42.88,43.24,43.51,44.07,44.56,45.08,45.83,47.62,49.73,52.19,54.87,57.52,60.25,63.12,66.06,68.94,71.37,73.79,76.15,78.50,80.99,83.01,84.87,86.62,88.27,89.85,91.96,93.94,95.33,96.32,97.34,98.16,98.77,99.33,100.26,101.41,102.65,103.84,105.21,106.37,107.93,110.39,114.56,118.94,122.65,125.71,128.44,131.23,134.33,137.66,141.15,144.70,147.55,149.70,151.33,152.94,154.34,155.80,157.66,160.28,164.02,168.91,174.23,179.63,185.32,191.73,197.93,204.60,213.22,220.55,223.44,222.20,217.70,213.37,209.52,205.52,201.31,197.32,193.60,189.79,185.71,181.24,177.67,174.21,170.63,166.56,160.67,154.40,148.61,143.69,139.98,136.81,134.19,131.63,128.71,125.50,122.22,119.03,115.95,112.96,109.94,106.69,103.38,100.30,98.43,96.68,95.01,93.39,91.69,89.78,87.72,85.55,83.31,81.25,79.78,78.75,77.95,77.20,76.38,75.31,73.99,72.60,72.43,73.16,74.32,75.33,76.77,78.41,80.31,82.53,85.30,88.43,92.16,96.17,99.68,102.18,104.51,106.61,108.35,109.27,109.80,110.27,110.72,110.98,111.45,112.01,112.57,113.03,112.95,112.89,112.85,112.83,112.87,113.24,113.89,114.42,114.09,113.87,113.85,113.55,112.54,111.40,109.91,108.48,107.11,105.18,103.04,100.98,99.05,97.25
e,e,e,e,e,e,e,e,e,e,e,1.18,1.36,1.73,2.50,3.21,3.75,4.03,3.87,3.85,3.94,4.12,4.36,4.67,4.98,5.29,5.60,5.91,6.22,6.19,5.88,5.57,5.26,5.29,5.59,6.04,6.43,6.81,7.20,7.59,7.98,8.43,8.95,9.49,10.04,10.36,10.76,11.55,12.85,14.22,15.52,16.82,18.05,19.07,21.00,23.19,25.47,27.68,29.65,30.90,31.88,32.79,33.61,34.45,35.90,37.84,39.98,41.62,43.02,43.94,44.16,43.23,41.78,40.29,38.99,38.07,37.21,36.36,35.56,34.94,35.60,36.87,38.17,39.36,40.99,43.26,44.99,46.06,46.58,47.19,47.55,47.61,47.54,48.69,50.73,53.03,55.38,57.73,60.35,63.22,66.22,69.21,71.89,74.51,76.98,79.42,82.45,84.59,86.38,87.99,89.55,91.86,94.47,96.53,97.56,98.50,99.43,100.20,100.82,101.43,102.60,103.87,104.99,105.76,107.07,108.11,109.48,111.78,116.31,120.60,124.36,127.67,130.80,133.79,136.81,140.49,145.12,149.52,152.77,155.17,157.20,159.94,161.88,163.90,166.34,169.46,172.96,177.09,181.01,184.60,189.41,194.76,200.29,206.50,214.38,221.94,223.49,220.89,216.13,211.46,207.11,202.81,198.54,194.46,190.59,186.38,182.15,178.31,175.04,171.62,167.88,163.72,158.97,153.58,149.07,145.48,142.26,139.63,137.13,134.54,131.70,128.39,124.74,121.15,117.81,114.87,111.99,108.88,105.72,102.78,100.37,98.58,96.93,95.18,93.48,91.82,90.00,87.97,85.73,83.44,81.30,79.69,78.85,78.15,77.23,75.84,74.12,72.73,74.15,75.68,76.94,77.94,78.99,80.56,82.52,84.78,87.21,90.61,94.71,98.83,101.75,104.17,106.42,108.61,110.70,111.42,111.72,111.94,112.20,112.51,112.89,113.30,113.72,114.18,114.10,114.08,114.04,113.97,113.90,114.51,115.34,116.06,116.17,116.49,116.79,116.62,115.61,114.52,113.46,112.38,111.13,109.20,106.75,104.00,101.20,98.65
e,e,e,e,e,e,e,0.85,1.13,1.40,1.64,1.82,2.01,2.26,2.81,3.51,4.12,4.47,4.32,4.30,4.39,4.57,4.81,5.11,5.42,5.73,6.04,6.35,6.66,6.61,6.27,5.96,5.86,6.04,6.40,6.81,7.20,7.62,8.03,8.42,8.80,9.22,9.63,10.04,10.45,10.76,11.09,11.73,12.81,14.16,15.48,16.79,18.08,19.31,21.28,23.52,25.87,28.17,30.18,31.55,32.70,33.82,35.02,36.19,37.57,39.26,41.29,43.18,44.79,45.91,46.33,45.35,43.70,41.91,40.24,38.92,38.08,37.31,36.55,35.87,36.04,36.97,38.09,39.25,40.74,43.28,45.71,47.76,49.41,50.60,51.18,51.37,51.45,52.18,53.89,55.80,57.70,59.71,61.56,63.72,66.22,69.02,71.85,74.80,77.55,80.21,83.65,86.30,88.39,90.23,92.31,94.70,97.05,99.05,100.54,102.00,102.81,103.24,103.55,104.17,105.16,106.36,107.60,108.69,109.88,110.93,112.27,114.31,118.03,121.94,125.72,129.21,132.25,135.22,138.55,142.76,148.07,153.30,157.25,160.69,163.93,167.05,169.36,171.58,173.96,176.72,180.28,183.67,186.90,190.23,194.72,199.63,204.64,210.26,217.49,224.11,223.80,219.85,215.24,210.71,206.44,202.23,198.06,194.14,190.23,186.22,182.27,178.63,175.48,171.66,167.71,163.85,159.79,155.56,151.67,148.21,145.13,142.52,139.98,137.38,134.59,131.22,127.11,123.32,120.19,117.56,114.68,111.68,108.67,105.79,103.27,101.01,98.92,96.97,95.31,93.65,91.93,90.14,88.20,85.94,83.77,81.83,80.23,79.09,77.75,76.10,74.56,74.49,76.30,78.15,79.68,80.73,81.78,83.38,85.31,87.45,90.11,93.58,97.24,100.63,103.18,105.50,107.80,109.95,111.78,112.87,113.27,113.50,113.78,114.04,114.42,114.80,115.14,115.39,115.35,115.31,115.25,115.17,115.00,115.65,116.57,117.51,118.19,118.80,119.16,119.07,118.41,117.64,116.69,115.56,114.17,112.20,109.79,106.82,103.36,99.54
e,e,e,e,0.20,0.59,0.95,1.28,1.61,1.94,2.20,2.45,2.67,2.86,3.20,3.84,4.48,4.90,4.74,4.76,4.85,5.02,5.27,5.57,5.87,6.18,6.49,6.80,7.09,7.02,6.66,6.38,6.50,6.81,7.20,7.60,7.99,8.42,8.85,9.28,9.75,10.07,10.36,10.63,10.89,11.15,11.45,11.94,12.74,14.04,15.35,16.66,17.96,19.29,21.09,23.29,25.68,28.04,30.20,31.64,32.80,33.94,35.37,36.81,38.28,39.95,42.05,44.21,46.12,47.58,48.34,47.41,45.63,43.63,41.66,39.92,38.97,38.19,37.47,36.76,36.58,37.18,38.13,39.27,40.70,43.36,46.16,48.92,51.59,53.65,54.81,55.44,55.86,56.26,57.64,59.34,61.04,62.51,63.64,64.92,66.60,68.87,71.74,74.92,77.99,81.02,84.98,88.09,90.54,92.71,95.22,97.86,100.24,102.34,104.19,105.85,106.44,106.55,106.57,107.01,107.83,109.09,110.59,112.08,113.25,114.36,115.63,117.31,120.00,123.37,127.00,130.52,133.48,136.45,140.22,145.03,150.89,156.81,161.60,165.96,169.99,173.42,176.09,178.48,180.82,183.37,187.15,190.16,193.10,196.46,200.69,205.41,210.27,215.47,221.49,226.07,224.06,219.24,214.86,210.69,206.75,202.80,198.86,195.17,191.50,187.81,184.13,180.51,177.12,173.02,168.93,165.24,161.77,158.49,155.09,151.67,148.51,145.64,143.00,140.36,137.51,134.03,129.40,125.43,122.58,120.20,117.46,114.60,111.70,108.85,106.12,103.42,100.89,98.67,96.98,95.28,93.60,91.93,90.26,88.14,86.02,83.87,81.68,80.03,78.23,76.41,75.20,76.37,78.42,80.47,82.22,83.46,84.62,86.32,88.27,90.38,93.19,96.57,99.71,102.39,104.56,106.78,109.04,111.09,112.72,114.17,114.75,115.08,115.39,115.60,115.97,116.32,116.56,116.62,116.60,116.53,116.44,116.33,116.08,116.71,117.67,118.75,119.82,120.65,121.07,121.06,120.67,120.16,119.37,118.31,116.91,114.89,112.44,109.29,105.34,100.54
