50.55,59.26,63.11,65.10,66.89,68.06,65.81,62.79,59.95,57.99,56.24,53.75,51.05,48.65,46.57,44.50,42.81,41.60,40.67,38.72,37.14,35.79,34.24,32.77,34.34,37.09,39.92,43.16,46.60,49.87,52.93,55.87,58.82,62.29,65.79,68.99,72.96,76.68,77.40,74.80,71.29,66.98,62.63,58.59,55.18,51.87,47.86,43.95,40.76,39.02,37.64,36.41,35.45,35.05,35.41,35.70,35.83,35.73,35.33,34.71,34.04,33.38,32.53,32.96,33.61,34.42,35.50,36.51,37.41,38.30,39.20,39.87,41.91,44.11,46.23,48.46,51.06,53.82,56.98,60.70,63.98,67.23,71.56,77.00,81.93,85.84,89.84,92.36,90.88,87.95,85.24,82.61,80.02,77.77,75.96,74.65,73.70,72.71,72.36,73.33,75.16,77.27,79.89,83.59,87.47,91.13,94.66,98.37,100.91,102.35,103.21,103.84,103.73,103.15,102.38,101.90,103.40,105.99,109.42,113.69,117.87,123.79,130.21,135.59,139.90,146.82,153.95,160.56,168.59,174.76,182.95,191.61,197.01,204.23,211.85,220.11,228.85,235.72,241.77,247.91,254.45,261.48,268.93,275.21,280.72,286.09,289.34,290.26,290.26,289.75,287.26,284.45,282.20,280.29,277.98,274.72,271.11,267.37,263.63,259.83,255.78,251.88,248.34,245.48,241.92,238.56,235.50,232.71,229.78,225.33,220.66,216.51,213.11,211.63,211.30,211.66,212.08,213.28,214.26,214.82,214.71,212.85,209.96,206.83,203.61,199.98,195.78,191.19,186.27,181.00,172.23,164.44,158.66,155.04,151.56,147.55,143.00,139.29,139.12,142.29,146.32,149.72,151.43,152.91,154.09,155.44,157.02,158.44,160.67,163.42,166.36,169.16,172.59,176.44,180.04,182.97,184.91,186.72,188.55,190.62,193.35,195.91,198.36,201.06,204.24,206.99,210.29,214.06,218.43,223.96,229.22,233.91,238.30,242.84,246.81,251.67,257.24,263.70,272.98,279.45,284.34,289.09,296.15,301.99,307.12,312.81,319.91,324.10,328.23,332.73,337.22,339.54,339.80,339.34,338.84,338.99
48.49,56.87,61.52,64.72,67.57,69.03,68.63,66.81,64.06,61.21,58.53,55.50,52.27,49.10,47.12,45.42,44.37,43.82,42.85,41.51,39.79,37.90,36.15,34.43,35.04,36.96,39.51,42.55,45.96,49.34,52.62,55.86,59.20,63.16,67.44,71.80,76.71,79.26,79.06,76.28,71.83,67.65,63.37,59.26,55.76,52.64,49.58,46.36,42.97,39.99,38.49,37.41,36.56,36.02,36.70,37.14,37.29,37.18,36.59,35.92,35.14,34.26,33.36,33.17,33.52,34.31,35.44,36.60,37.68,38.75,39.95,42.05,44.50,46.90,49.09,50.97,53.31,55.77,58.34,61.13,65.14,68.76,72.97,77.89,82.42,86.12,89.86,92.04,90.11,87.33,84.66,82.03,79.42,76.87,74.64,72.91,71.75,71.15,71.01,71.77,73.34,75.54,77.96,80.60,83.52,86.61,89.45,91.82,93.33,94.28,95.29,96.16,96.85,97.37,97.85,99.20,101.56,104.77,108.80,113.71,117.94,123.38,129.53,135.60,141.58,148.82,155.87,162.45,170.33,177.00,184.54,192.02,197.27,204.05,211.47,219.58,228.13,234.75,240.48,246.29,252.59,259.62,267.03,273.07,278.07,282.58,285.77,287.45,288.15,288.13,287.17,286.44,285.17,283.37,281.36,279.01,276.31,272.93,268.69,264.29,259.85,255.77,252.19,249.07,245.72,241.91,238.21,235.33,232.55,228.76,224.27,219.57,216.12,214.80,214.97,216.14,217.54,220.54,222.35,222.86,222.10,220.04,217.31,212.93,207.49,203.75,199.37,194.55,189.35,183.77,176.04,168.35,162.32,158.48,154.95,150.60,145.11,140.24,139.52,144.19,148.68,152.28,154.66,156.58,157.97,159.44,161.25,163.41,165.99,168.91,171.97,174.92,179.29,183.11,186.28,188.84,191.23,193.19,195.22,197.67,200.99,203.72,206.25,208.67,211.01,212.82,215.68,219.37,223.70,228.39,232.99,237.42,241.68,245.78,250.70,256.56,263.10,270.12,277.68,282.59,286.71,291.09,296.92,302.13,307.16,312.48,318.41,323.20,327.69,331.46,334.05,334.40,334.17,333.56,333.03,333.18
46.77,54.58,59.77,63.86,67.54,69.79,70.63,69.77,67.38,64.03,60.68,57.20,53.57,49.91,47.93,46.67,46.23,46.26,45.56,44.50,42.58,40.18,37.92,36.11,35.76,36.81,39.09,41.84,45.20,48.65,52.07,55.52,59.29,63.65,68.58,74.00,79.15,81.08,80.43,77.44,72.10,67.93,63.82,59.90,56.49,53.76,51.35,48.90,46.20,43.43,40.66,38.73,37.65,37.01,37.84,38.50,38.78,38.55,37.79,37.02,36.14,35.15,34.22,33.56,33.55,34.19,35.37,36.59,37.76,38.92,40.31,43.38,46.31,48.88,51.01,52.64,54.58,56.61,58.62,60.72,65.54,69.86,74.11,78.39,82.36,85.76,89.17,91.32,90.24,87.41,84.73,82.09,79.38,76.56,73.90,71.73,70.26,69.76,69.77,70.37,71.70,73.81,76.08,78.04,80.19,82.61,84.85,86.63,87.72,88.48,89.56,90.59,92.01,93.58,95.19,97.70,100.83,104.69,109.31,114.70,119.48,124.95,131.02,137.41,144.30,151.43,158.29,164.87,172.14,178.78,185.46,191.84,197.14,203.54,210.65,218.43,226.63,233.39,238.73,244.12,250.12,256.92,263.99,269.83,274.48,278.22,281.18,283.23,284.60,285.37,285.52,286.02,285.73,284.72,283.49,281.95,280.07,277.49,273.89,269.13,264.52,260.25,256.43,253.26,249.83,245.73,241.55,238.01,235.16,231.74,227.50,222.72,219.22,218.37,219.34,221.49,223.91,227.40,229.33,229.65,228.50,226.22,223.25,218.52,212.43,207.32,202.67,197.79,192.48,186.63,179.88,172.39,166.17,162.05,158.31,153.50,147.67,142.42,140.78,145.81,150.50,154.40,157.43,160.13,162.30,164.32,166.45,169.07,171.83,174.88,178.13,181.48,185.77,189.45,192.53,195.16,198.04,200.48,203.05,205.99,209.45,211.85,213.95,215.84,217.53,218.72,221.38,224.95,229.07,233.32,237.32,241.48,245.77,250.08,255.41,261.43,267.99,274.78,280.66,284.49,288.06,292.07,297.03,301.99,307.10,312.33,317.61,322.55,326.68,329.34,330.23,329.14,328.40,327.71,327.27,327.43
45.41,52.43,57.84,62.45,66.70,70.29,71.71,71.53,69.79,66.40,62.66,58.86,54.96,51.12,49.04,48.30,48.43,48.94,48.88,47.71,45.53,42.65,39.52,37.81,36.48,36.64,38.65,41.01,44.31,47.78,51.27,54.81,59.06,63.71,69.16,75.49,80.10,82.07,81.47,78.24,72.06,67.75,63.95,60.50,57.39,55.25,53.19,51.58,50.58,49.64,44.34,40.42,38.73,38.04,38.81,39.79,40.29,39.82,38.91,37.99,37.04,36.05,35.12,34.15,33.74,34.08,35.31,36.47,37.63,38.79,40.23,43.75,47.24,49.96,51.87,53.35,54.72,56.19,57.68,59.37,65.08,70.47,74.95,78.45,81.69,84.69,87.66,90.14,91.39,88.26,85.53,82.86,79.99,76.93,73.82,71.18,69.31,68.56,68.65,69.16,70.25,72.08,74.25,75.97,77.56,79.21,80.96,82.97,84.32,85.22,86.30,87.38,89.47,92.03,94.66,97.56,101.37,105.92,111.10,116.79,122.68,128.75,134.94,141.24,148.19,154.73,161.27,167.88,174.01,180.03,185.64,191.02,196.56,202.68,209.35,216.58,224.26,231.62,236.47,241.32,246.95,253.25,259.65,265.32,269.84,272.90,275.41,277.43,279.40,281.32,282.11,282.86,283.58,284.12,284.22,283.34,282.21,280.92,279.24,274.38,269.88,265.38,261.12,258.10,254.28,250.10,245.58,240.74,237.60,234.21,230.29,225.97,222.42,222.41,224.50,227.83,231.28,233.81,235.07,235.05,233.78,231.25,227.61,223.53,218.57,210.65,205.64,200.87,195.66,189.59,183.78,176.57,170.23,165.76,161.63,156.21,150.72,145.97,143.01,147.13,151.72,156.02,159.69,163.52,167.14,170.18,172.74,175.50,178.28,181.39,184.92,188.93,191.99,195.39,198.79,202.00,205.43,208.70,212.18,215.73,218.86,220.34,221.44,222.51,223.77,224.72,227.44,230.85,234.57,238.82,242.29,246.15,250.65,255.89,261.08,266.28,271.77,277.46,281.71,285.02,288.26,291.90,296.42,301.54,306.94,312.37,317.59,322.18,325.13,326.27,325.68,323.75,322.47,321.78,321.59,321.74
45.20,51.53,57.15,62.21,66.72,70.24,72.38,72.75,71.37,68.51,64.54,60.16,56.12,53.10,51.28,51.53,52.48,53.32,53.14,51.10,48.36,45.13,41.50,39.05,37.48,37.34,38.74,40.75,43.88,47.24,50.76,54.67,58.98,63.66,69.12,75.48,80.30,82.96,82.54,79.03,73.49,69.44,65.84,62.36,58.75,56.75,54.81,53.70,53.67,53.43,50.48,47.14,43.66,39.30,40.44,41.79,42.25,41.19,39.90,38.86,37.87,36.88,35.96,34.96,34.24,34.14,35.02,36.13,37.28,38.42,39.74,42.58,46.12,49.12,51.28,52.61,53.97,55.37,56.80,58.42,63.05,68.76,73.34,76.42,80.17,83.28,86.33,89.35,92.24,89.45,86.79,84.04,81.02,77.84,74.53,71.48,69.14,68.28,67.95,68.38,69.35,70.62,72.29,73.90,75.49,77.07,78.64,80.15,81.43,82.86,85.05,87.38,90.07,92.95,95.90,99.01,103.36,108.35,113.77,119.58,125.71,131.77,137.71,143.55,150.10,156.69,163.08,169.11,174.56,179.74,184.68,189.53,194.60,200.86,207.34,214.01,220.96,228.87,233.88,238.40,243.32,248.86,254.35,258.91,262.27,264.34,266.14,268.21,270.71,273.56,276.06,278.11,280.08,281.65,282.15,282.12,281.77,281.14,280.07,276.81,273.07,269.42,265.99,262.58,258.77,254.65,250.23,245.52,240.84,236.85,233.09,229.45,226.61,227.31,229.51,232.53,235.86,238.46,239.90,239.97,238.57,235.44,231.22,226.67,221.63,214.82,208.70,203.50,198.49,192.70,186.80,180.42,174.40,169.18,164.56,159.65,153.68,147.91,145.23,148.08,152.13,156.63,161.11,165.72,170.43,174.70,178.25,180.77,183.88,186.77,189.57,192.59,195.53,199.10,202.83,206.60,211.45,215.06,218.03,220.55,222.74,224.69,226.30,227.57,228.62,230.03,233.14,236.40,239.33,242.46,246.08,249.90,254.04,258.74,262.71,266.98,271.84,277.22,281.54,284.87,287.99,291.64,297.06,302.33,307.82,313.27,318.32,321.72,322.85,322.57,321.32,319.36,317.92,317.20,317.05,317.16
45.23,51.09,56.82,62.05,66.53,69.96,72.69,73.79,73.05,70.54,66.37,61.50,57.38,55.11,53.66,54.80,56.46,57.55,57.10,54.53,51.30,47.60,43.49,40.33,38.60,38.22,39.02,40.68,43.68,46.97,50.48,54.62,58.92,63.60,68.99,75.21,80.52,83.93,83.73,80.04,75.42,71.73,68.31,64.73,60.58,58.30,56.40,55.66,56.27,56.61,56.14,53.81,49.30,42.58,43.12,43.98,43.98,42.51,40.96,39.75,38.68,37.69,36.76,35.78,34.88,34.37,34.67,35.77,36.91,38.03,39.21,41.23,44.55,47.74,50.24,51.71,53.09,54.44,55.88,57.61,61.06,66.66,71.22,74.11,78.28,81.73,85.07,88.54,92.40,90.44,88.28,85.73,82.64,79.20,75.41,71.84,69.04,67.91,67.25,67.60,68.49,69.34,70.53,71.94,73.47,75.06,76.54,77.88,79.33,81.35,84.56,87.92,91.07,94.16,97.32,100.75,105.41,110.76,116.47,122.16,128.31,134.28,139.96,145.38,151.57,158.16,164.26,169.53,174.30,178.75,183.12,187.51,192.07,198.12,204.57,211.09,217.56,225.09,230.40,234.83,239.02,243.54,248.21,251.95,254.59,256.14,257.53,259.51,262.12,265.36,269.05,272.29,275.47,278.08,279.13,279.83,280.11,279.93,279.20,277.57,275.20,272.62,269.88,266.59,262.86,258.94,254.82,250.44,244.98,240.21,236.15,232.86,230.68,231.80,234.06,236.95,240.31,243.12,244.70,244.74,243.03,239.34,234.64,229.55,224.26,218.68,211.80,206.15,201.17,195.75,189.49,183.53,177.69,171.97,166.97,162.55,156.49,150.24,147.63,149.35,152.61,156.90,161.82,166.92,172.39,177.52,181.78,184.28,187.60,190.36,192.68,194.98,197.87,201.59,205.66,209.99,215.81,219.52,221.98,223.72,225.42,227.81,229.91,231.56,232.81,234.69,237.63,240.41,242.63,244.63,248.20,251.71,255.28,259.37,262.52,266.34,271.03,276.46,281.17,284.74,288.07,292.11,298.37,303.75,309.07,314.17,318.69,320.52,320.05,318.61,316.83,314.92,313.48,312.78,312.66,312.75
45.49,51.29,56.94,61.83,65.77,69.31,72.39,74.59,75.06,72.46,68.09,62.99,58.87,57.00,56.04,57.83,59.94,61.11,60.27,58.02,54.46,50.05,45.40,41.79,39.91,39.26,39.55,40.86,43.85,47.13,50.58,54.62,58.87,63.54,68.80,74.76,80.91,85.08,85.15,81.47,78.04,74.83,71.57,67.85,63.25,59.94,57.95,57.42,58.19,59.07,60.38,59.32,55.53,49.75,47.71,46.39,45.20,43.72,42.18,40.69,39.45,38.46,37.53,36.59,35.71,34.92,34.29,35.44,36.59,37.69,38.72,39.85,42.57,45.69,48.62,50.78,52.15,53.39,54.89,56.97,59.44,64.32,68.63,71.68,75.85,80.00,83.92,87.64,91.25,90.96,90.14,88.34,85.32,81.28,76.46,72.15,68.91,67.19,66.43,66.74,67.57,68.36,69.21,70.20,71.47,73.02,74.56,76.50,78.64,81.32,85.13,88.84,92.20,95.41,98.72,102.69,107.30,112.91,119.03,124.18,130.11,135.94,141.46,146.59,152.58,158.93,164.43,168.71,172.74,176.71,180.63,184.58,188.70,193.77,200.49,207.63,214.16,219.51,225.27,230.01,233.53,236.57,240.62,244.31,247.28,249.31,250.96,252.52,254.45,257.05,260.69,264.73,268.99,272.74,274.82,275.98,276.61,276.59,275.94,275.64,275.70,274.40,271.79,269.74,266.16,262.69,259.16,255.19,250.72,244.94,239.72,236.11,234.32,235.29,237.72,241.13,245.09,248.15,249.64,249.29,246.96,242.87,237.86,232.32,226.69,221.75,214.98,208.92,203.62,198.67,191.72,185.29,179.26,173.61,168.47,164.23,159.03,153.66,150.40,151.34,153.41,156.71,161.31,166.41,172.07,177.28,181.56,184.61,187.80,190.66,193.24,195.68,198.42,202.18,206.60,211.50,217.17,220.61,222.91,224.73,226.87,229.38,231.63,233.79,236.03,238.20,239.79,241.45,243.22,244.29,247.27,249.91,252.59,256.24,259.59,263.92,269.23,275.26,280.67,284.76,288.96,294.01,300.71,306.11,310.82,314.90,318.17,317.88,316.39,314.31,312.05,310.19,308.97,308.40,308.33,308.47
46.08,51.65,57.07,61.72,65.39,68.83,72.04,74.96,76.66,75.36,70.23,65.07,61.08,59.10,58.75,60.52,62.56,63.67,62.36,60.38,56.83,52.15,47.12,43.37,41.52,40.72,40.57,41.92,44.35,47.34,50.81,54.82,59.46,64.59,69.94,75.30,80.91,85.72,87.01,84.62,81.49,78.19,74.85,71.02,66.13,62.39,60.41,60.48,62.35,63.89,64.70,63.31,59.77,55.09,50.48,47.83,46.27,44.84,43.33,41.83,40.43,39.22,38.30,37.37,36.47,35.58,34.70,35.28,36.22,37.26,38.22,39.14,40.85,43.43,46.52,49.26,50.94,52.46,54.18,56.38,58.43,62.25,66.08,69.45,73.62,78.47,82.86,86.81,90.59,91.02,90.79,89.78,87.75,83.50,77.68,72.34,68.35,66.39,65.61,65.88,66.68,67.45,68.26,69.16,70.34,71.90,73.90,76.17,78.53,81.36,85.26,89.08,92.66,96.15,99.72,103.82,108.45,114.23,120.51,125.11,130.15,135.73,141.35,146.51,152.19,157.84,162.47,165.93,169.64,173.08,176.66,180.61,185.16,189.46,196.00,203.50,210.59,215.19,219.77,223.59,226.62,229.40,232.58,235.65,238.55,241.25,243.11,244.81,246.82,249.61,254.38,258.90,263.30,267.10,269.50,270.99,271.77,272.03,272.04,272.62,273.44,273.44,272.49,271.25,268.73,265.60,262.16,258.70,254.64,249.35,244.01,239.65,238.18,239.50,242.43,246.28,250.22,253.26,254.20,253.07,250.06,245.77,240.90,235.21,229.09,223.96,218.25,211.81,205.62,200.83,194.06,187.33,180.94,175.02,169.50,165.38,161.02,156.54,152.87,154.06,155.63,157.64,160.36,164.89,169.81,174.70,179.19,182.58,185.77,188.87,191.73,194.17,196.98,200.50,204.90,210.14,215.55,219.43,221.95,223.71,225.92,228.08,230.15,232.19,234.27,236.16,237.25,238.51,240.09,241.13,244.10,247.52,251.19,255.09,258.83,264.24,270.59,277.07,281.83,286.06,290.89,296.64,303.36,308.37,312.30,314.74,315.31,314.08,312.13,309.82,307.46,305.56,304.46,303.91,303.78,303.90
46.87,52.11,57.23,61.62,65.10,68.43,71.79,75.29,78.03,78.30,72.64,67.45,63.58,61.56,61.83,63.39,65.09,65.92,64.19,62.26,58.79,54.04,48.72,45.03,43.25,42.28,41.74,43.24,45.09,47.69,51.09,55.24,60.33,65.92,71.35,76.14,81.08,86.35,88.92,88.04,85.15,81.67,78.16,74.18,69.08,65.38,63.71,64.43,67.19,69.09,68.73,66.55,63.12,59.39,52.93,49.21,47.29,45.89,44.42,42.95,41.46,40.03,39.04,38.11,37.18,36.25,35.34,35.24,35.87,36.81,37.73,38.66,39.44,41.32,44.28,47.45,49.50,51.33,53.25,55.41,57.32,60.31,63.74,67.42,71.62,77.00,81.78,85.95,89.94,90.82,90.97,90.64,89.65,85.46,78.83,72.54,67.80,65.62,64.79,65.03,65.81,66.60,67.45,68.41,69.61,71.21,73.67,76.15,78.58,81.40,85.22,89.02,92.81,96.61,100.47,104.53,109.09,114.85,121.05,125.20,129.30,134.54,140.22,145.47,150.71,155.51,159.24,161.98,165.33,168.43,171.92,176.11,181.29,185.27,191.56,199.20,206.87,211.07,214.20,216.92,219.54,222.24,224.61,226.98,229.62,232.74,234.77,236.75,239.18,242.62,248.51,253.53,257.88,261.44,263.99,265.73,266.59,267.10,267.74,268.81,269.93,271.21,272.24,271.79,270.44,267.78,264.52,261.53,257.80,253.34,248.36,243.69,242.61,244.27,247.59,251.67,255.26,257.96,258.22,256.34,252.82,248.39,243.73,238.05,231.58,225.89,221.24,214.52,207.47,202.62,196.27,189.35,182.56,176.29,170.38,166.31,162.58,158.85,155.10,156.97,158.55,159.59,160.38,163.81,167.47,171.67,176.14,179.75,182.97,186.27,189.40,191.93,194.93,198.19,202.35,207.55,212.65,216.96,219.79,221.64,223.86,225.54,227.23,228.94,230.63,232.31,233.41,234.86,236.78,238.27,241.51,245.93,250.78,255.13,259.46,265.92,273.10,279.70,283.62,287.94,293.21,299.39,306.05,310.37,313.17,313.79,311.84,310.03,307.79,305.36,302.93,300.93,299.79,299.05,298.67,298.71
48.01,52.80,57.44,61.47,64.79,68.11,72.02,75.91,79.04,80.25,75.61,70.34,66.39,65.18,65.99,67.32,68.23,68.13,66.25,63.55,60.01,55.55,50.14,46.89,45.05,43.77,42.91,44.56,46.39,48.53,51.51,56.30,61.56,67.03,72.29,77.06,82.35,87.54,90.49,90.58,88.62,85.29,81.57,77.28,72.09,69.52,69.20,70.33,72.12,73.13,71.51,68.67,65.23,61.80,56.25,51.49,48.23,46.78,45.32,43.85,42.40,41.00,39.72,38.75,37.79,36.85,36.05,35.45,35.69,36.42,37.35,38.28,38.98,40.08,41.99,45.22,47.45,49.32,51.10,53.00,55.21,58.53,62.17,65.91,70.26,75.57,80.51,84.88,88.72,90.10,90.64,90.59,89.85,86.30,79.55,72.88,67.70,65.08,64.03,64.23,65.06,65.90,66.75,67.97,69.44,71.20,73.62,76.08,78.58,81.41,85.03,88.54,92.47,96.58,100.65,104.56,108.61,113.68,119.24,123.29,127.02,131.73,137.02,142.24,146.70,150.52,153.51,155.76,158.12,161.60,165.85,170.79,176.37,181.51,187.74,195.02,202.72,206.33,208.75,211.03,213.38,215.34,217.37,219.38,221.50,223.86,225.99,228.15,231.48,236.38,241.97,247.97,252.61,255.99,258.94,260.78,261.64,262.08,262.59,263.21,264.76,267.17,269.74,270.47,269.72,268.16,265.94,263.21,260.12,256.05,252.15,249.36,249.01,250.36,253.27,256.85,259.50,260.93,260.57,258.57,255.17,250.65,245.93,240.54,234.38,227.71,223.00,216.37,209.23,203.90,197.85,190.90,183.88,177.28,171.17,166.99,163.17,159.60,156.79,159.84,162.56,164.22,164.59,165.56,167.03,169.51,172.93,176.44,179.69,182.99,186.27,189.44,192.74,195.98,199.50,203.54,208.24,212.11,215.23,217.81,220.27,221.40,222.43,223.70,225.44,227.76,229.88,233.02,237.01,239.73,243.68,248.07,252.71,257.50,263.02,269.71,276.41,282.18,286.00,290.59,295.84,301.77,308.47,311.49,312.01,310.80,308.67,306.32,303.81,301.15,298.46,296.11,294.55,292.92,291.65,291.49
47.88,52.33,56.99,61.18,64.65,68.10,72.41,76.63,80.07,81.84,78.56,74.07,70.70,70.17,71.24,71.88,71.59,70.17,67.51,64.24,60.50,56.21,51.30,48.40,46.55,45.15,44.19,45.57,47.30,49.18,51.86,56.69,61.76,66.91,72.11,77.33,83.02,88.11,91.41,92.51,91.49,88.64,84.92,80.43,75.19,73.44,73.96,75.35,76.46,76.11,73.42,69.98,66.39,63.04,58.35,53.02,48.90,47.44,46.06,44.74,43.44,42.10,40.58,39.40,38.39,37.52,36.75,35.97,35.74,36.09,36.96,37.82,38.51,39.28,40.53,42.98,45.12,46.98,48.75,50.63,53.11,56.58,60.46,64.52,68.99,74.20,79.12,83.40,86.77,88.77,89.93,90.34,89.78,86.30,79.71,72.73,66.90,63.99,63.13,63.43,64.30,65.17,66.43,67.88,69.50,71.35,73.65,75.99,78.36,80.97,84.11,87.22,90.97,95.18,99.62,103.64,107.33,111.65,116.40,120.32,123.61,127.32,131.45,135.84,139.98,143.33,146.21,148.82,151.40,155.91,161.62,167.98,174.30,180.03,185.63,191.65,198.04,201.00,202.78,204.44,206.17,207.68,209.58,211.56,213.75,216.31,218.79,221.30,225.13,230.63,236.46,242.02,246.43,249.87,253.03,254.94,255.85,256.25,256.55,256.89,257.96,259.89,262.40,264.47,266.01,266.45,265.74,263.95,261.34,258.54,256.29,255.03,254.96,255.87,257.83,260.30,262.27,263.10,262.31,260.26,257.28,252.62,247.89,242.85,237.06,229.36,224.44,218.08,211.08,205.07,199.31,192.54,185.38,178.33,172.12,167.79,164.01,160.99,159.72,163.54,167.06,169.26,169.59,169.19,169.43,170.71,172.96,175.40,177.59,180.19,183.22,186.59,190.05,193.28,196.48,199.78,203.24,205.82,208.21,210.71,213.64,215.91,218.36,221.06,224.07,227.22,230.97,235.33,239.88,243.26,247.23,251.28,255.53,260.23,266.15,273.03,279.52,284.80,289.00,293.83,298.86,304.07,309.65,310.88,309.93,307.82,305.45,302.80,299.59,296.50,293.59,290.05,287.81,286.28,285.62,286.12
47.04,51.16,56.10,60.71,64.51,68.18,72.81,77.33,81.06,83.22,81.44,78.25,75.85,75.89,76.97,76.67,74.98,72.04,68.28,64.55,60.57,56.43,52.33,49.73,47.88,46.47,45.53,46.40,47.95,49.69,52.16,56.66,61.28,66.00,71.14,76.93,83.08,88.07,91.75,93.88,93.90,91.83,88.35,83.76,78.47,77.31,78.29,79.74,80.31,78.37,74.74,70.78,66.97,63.57,59.67,54.15,49.52,48.00,46.77,45.66,44.54,43.27,41.57,40.07,39.00,38.21,37.44,36.67,35.96,35.85,36.56,37.33,38.04,38.74,39.57,40.85,42.70,44.52,46.35,48.33,51.02,54.53,58.63,63.12,67.68,72.75,77.53,81.55,84.36,86.97,88.84,89.77,89.37,85.71,79.44,72.25,65.74,62.60,62.14,62.63,63.51,64.40,66.23,67.85,69.58,71.52,73.68,75.83,77.97,80.21,82.72,85.43,88.83,93.02,97.88,102.12,105.56,109.13,112.96,116.68,119.54,122.05,124.67,127.85,131.95,135.19,138.40,141.92,145.43,151.30,158.72,166.71,173.87,179.76,184.45,188.75,193.07,195.29,196.49,197.42,198.39,199.59,201.41,203.50,206.11,209.52,212.56,215.59,219.70,225.27,231.51,235.83,239.66,243.26,246.56,248.59,249.62,250.01,250.08,250.21,250.34,251.00,252.66,256.07,260.63,263.49,264.52,263.99,261.89,260.85,260.52,260.59,260.56,261.04,261.81,262.86,264.28,264.82,263.68,261.62,259.18,254.43,249.69,245.01,239.58,231.04,225.73,219.67,212.90,206.11,200.64,194.17,186.97,179.50,173.24,168.71,165.03,162.77,163.38,167.72,171.79,174.47,175.03,174.00,173.57,173.99,175.08,176.01,176.74,178.32,180.80,184.00,187.36,190.47,193.46,196.26,198.11,199.10,200.32,202.36,205.93,210.27,215.16,220.25,225.18,229.24,234.74,239.90,244.14,247.84,251.49,255.09,258.90,263.26,269.10,276.07,282.50,287.55,292.35,297.33,301.99,306.18,309.87,309.14,307.25,304.75,302.04,299.18,295.09,291.47,288.38,283.42,280.51,279.61,280.28,281.78
46.13,49.61,54.23,58.91,63.12,67.33,72.21,77.06,81.37,84.46,83.71,82.06,80.88,81.11,81.26,80.06,77.21,72.99,68.54,64.48,60.55,56.83,53.42,51.06,49.22,47.81,46.90,47.09,48.23,49.92,52.34,56.05,59.60,63.80,68.27,72.82,79.51,84.89,89.27,92.72,95.00,94.98,92.87,88.92,83.58,82.37,82.34,82.60,82.21,79.13,74.98,70.82,66.97,63.57,59.86,55.51,51.56,49.03,47.95,46.91,45.72,44.29,42.59,41.05,39.78,38.79,38.02,37.24,36.60,36.20,36.17,36.89,37.64,38.36,39.09,39.92,41.09,42.73,44.65,46.66,49.10,52.40,56.37,60.82,65.38,70.02,74.30,78.09,81.29,83.71,85.59,86.67,86.57,83.55,77.72,71.13,65.07,61.24,61.20,61.73,62.44,63.17,64.60,66.32,68.49,71.00,73.05,75.06,76.91,78.72,80.68,83.54,86.91,90.94,95.57,99.77,103.23,106.34,109.25,112.08,114.96,117.20,119.37,122.17,126.32,130.49,135.14,140.31,145.30,151.92,159.42,167.05,173.81,178.68,182.84,186.11,188.34,189.17,189.59,190.05,190.69,191.45,192.51,194.11,197.30,202.99,207.52,211.81,216.35,221.32,226.32,229.32,232.01,235.09,239.13,242.00,243.70,244.41,244.36,244.09,243.87,244.63,246.75,250.31,255.24,259.32,261.79,262.13,261.80,262.35,263.43,264.64,265.20,266.10,266.44,266.51,267.24,266.42,264.73,262.60,260.24,256.04,251.22,246.36,241.16,234.10,227.53,220.70,213.65,206.63,201.25,195.17,188.57,181.73,175.48,170.49,166.56,164.81,167.39,171.95,175.97,178.92,180.45,180.16,179.54,179.57,180.38,181.31,183.15,184.57,185.76,187.22,188.06,189.76,191.78,193.76,195.56,197.12,198.68,201.05,205.75,211.89,217.82,223.91,230.40,235.16,239.54,243.60,247.38,251.04,254.81,258.65,262.74,267.34,272.79,278.94,285.13,290.89,295.84,299.99,303.80,306.64,306.92,305.45,303.38,300.58,296.93,293.09,288.88,285.01,281.67,278.48,276.52,276.03,276.61,277.57
45.87,48.68,52.68,57.11,61.55,66.20,71.36,76.55,81.24,84.62,85.49,85.40,85.19,85.39,84.61,82.29,78.41,73.39,68.61,64.60,61.02,57.96,55.55,53.13,50.71,48.91,48.07,47.97,48.80,50.34,52.55,55.45,58.38,62.02,65.89,69.70,75.75,81.27,86.42,91.14,95.06,97.49,97.28,94.46,89.47,87.98,86.55,85.00,83.02,79.21,74.67,70.35,66.46,62.99,59.34,55.93,52.83,50.15,49.18,48.16,46.92,45.42,43.80,42.20,40.70,39.44,38.59,37.84,37.26,36.73,36.30,36.64,37.32,38.04,38.70,39.27,40.01,41.35,43.18,45.35,47.74,50.77,54.47,58.72,63.07,67.32,71.11,74.52,77.74,80.01,82.02,83.32,83.43,80.98,75.70,69.22,63.12,60.11,60.27,60.79,61.38,61.97,62.98,64.82,67.27,70.01,72.11,73.96,75.64,77.30,79.10,81.87,85.21,89.00,93.11,97.28,100.66,103.36,105.65,108.07,110.76,113.05,115.63,119.30,123.88,128.76,134.29,140.40,146.11,153.01,160.23,167.15,173.02,177.27,180.79,182.94,183.34,182.74,182.64,182.95,183.52,184.01,184.85,186.94,191.27,198.60,204.10,208.89,213.32,217.48,220.95,222.95,225.32,228.45,232.38,235.22,237.00,237.78,237.73,237.45,237.32,238.55,241.38,245.34,250.14,254.44,257.63,259.22,260.33,262.29,264.73,267.20,268.40,269.37,269.52,269.18,269.19,267.45,265.37,263.15,260.79,257.07,252.48,247.52,242.15,235.76,228.56,221.30,214.11,207.04,201.63,195.70,189.51,183.26,177.28,172.02,168.38,167.48,171.08,175.80,179.83,183.04,185.36,186.02,185.71,185.62,186.13,187.00,189.18,190.55,191.19,191.59,191.23,191.67,192.55,193.68,195.23,196.93,198.97,201.99,207.22,214.14,220.64,227.14,234.00,239.10,243.05,246.66,250.26,253.94,257.89,262.06,266.54,271.46,276.66,282.43,288.33,293.93,298.50,301.85,304.40,305.57,303.93,301.30,298.48,295.18,291.15,286.95,283.12,279.56,276.38,274.14,272.65,272.15,272.39,272.93
46.23,48.36,51.45,55.32,59.81,64.81,70.27,75.82,80.71,83.74,86.78,88.31,88.82,88.77,87.04,83.40,78.60,73.27,68.48,64.92,61.95,59.78,58.67,55.91,52.36,49.79,49.05,49.04,49.64,50.94,52.79,54.85,57.60,60.67,63.98,67.53,71.80,77.24,83.21,89.16,94.12,99.40,101.60,100.37,96.10,94.12,90.89,86.96,82.78,78.63,73.83,69.39,65.47,61.85,58.15,55.46,53.35,51.37,50.44,49.40,48.13,46.66,45.19,43.52,41.74,40.16,39.17,38.47,37.93,37.44,36.92,36.57,37.09,37.78,38.43,38.89,39.44,40.36,41.94,44.40,46.94,49.63,52.90,56.80,60.76,64.65,67.95,70.84,73.72,75.89,78.14,79.72,79.98,78.02,73.39,66.54,59.94,59.19,59.37,59.80,60.32,60.79,61.36,63.35,65.93,68.57,70.88,72.53,74.17,75.95,77.94,80.43,83.71,87.17,90.49,94.66,97.84,100.20,102.15,104.62,106.90,109.56,113.41,119.15,124.51,129.89,135.77,142.12,147.84,154.57,161.17,167.03,171.51,175.54,178.33,179.25,178.08,176.00,175.65,176.12,176.86,177.25,178.40,181.88,187.91,196.25,202.25,206.80,210.58,213.75,215.39,216.71,219.54,223.28,226.27,228.27,229.55,230.16,230.23,230.29,230.70,232.75,236.54,241.14,245.31,248.87,252.09,255.29,257.54,260.70,264.49,268.32,270.21,270.91,271.11,270.90,270.17,267.93,265.62,263.28,260.82,257.55,253.49,248.48,242.57,236.09,228.83,221.50,214.28,207.36,201.80,195.79,189.80,184.10,178.66,173.33,170.46,170.76,174.47,179.28,183.37,186.84,189.79,191.58,192.06,192.13,192.30,193.08,194.85,196.28,197.07,197.09,196.77,196.08,195.66,195.92,197.02,198.44,201.09,205.11,210.29,217.02,223.61,229.97,236.04,241.14,245.33,249.11,252.77,256.54,260.73,265.32,270.30,275.61,280.71,286.53,292.07,296.70,300.38,302.96,303.84,303.02,300.89,296.69,292.56,288.59,284.71,280.76,277.78,275.07,272.45,270.35,268.88,267.97,267.64,267.88
46.37,48.17,50.77,54.26,58.58,63.28,68.39,74.02,79.44,83.24,87.10,89.26,90.11,90.07,88.57,84.36,79.17,74.03,70.08,68.01,66.36,64.82,63.18,59.84,56.20,53.05,51.05,51.24,51.66,52.66,54.19,55.97,58.17,60.93,64.13,67.68,71.58,76.69,82.54,88.74,94.70,100.27,104.27,105.20,101.46,98.01,93.83,88.95,83.51,78.03,72.61,68.18,64.62,61.17,58.63,56.52,54.57,52.59,51.71,51.14,49.95,48.06,46.59,44.84,43.03,41.31,39.80,39.10,38.54,38.00,37.42,36.95,37.05,37.48,38.08,38.68,39.14,39.76,40.91,42.90,45.40,48.13,51.36,55.06,58.68,61.94,64.83,67.34,69.45,71.20,73.08,74.57,75.16,73.98,69.22,63.73,59.38,58.66,58.53,58.72,59.08,59.46,60.00,61.55,63.84,66.58,69.04,71.15,73.16,75.19,77.34,79.67,82.80,86.05,89.01,92.58,95.29,97.55,99.72,102.47,105.70,109.35,113.97,120.07,126.08,131.89,137.79,143.83,149.45,155.48,161.22,166.36,170.58,173.50,175.06,174.82,172.70,170.25,169.24,169.39,170.47,172.07,174.92,179.94,186.55,193.83,199.76,203.72,206.34,208.04,209.12,210.81,214.22,218.44,221.46,222.92,223.91,224.30,224.01,223.29,223.39,225.75,230.23,235.15,239.65,243.11,245.85,248.39,251.03,255.44,260.77,266.16,269.82,270.83,271.08,270.79,269.69,267.32,264.88,262.40,259.82,256.76,253.39,248.56,242.24,235.47,228.10,220.67,213.58,207.25,201.64,195.65,189.84,184.48,179.31,174.47,172.72,174.13,177.56,182.24,186.47,190.40,194.09,196.09,196.49,196.41,196.60,198.16,201.54,203.71,204.52,204.32,203.26,201.93,200.64,199.75,200.13,201.31,203.85,207.85,213.17,219.23,225.19,231.08,236.93,241.94,246.41,250.62,254.66,258.49,263.20,268.40,273.91,279.52,284.15,289.17,293.85,297.72,300.61,301.86,301.78,300.00,295.65,291.20,286.90,283.04,279.89,276.83,274.07,271.29,268.56,266.52,264.76,263.45,262.76,262.90
46.34,47.99,50.15,53.27,57.39,61.77,66.49,71.89,77.52,82.37,86.98,89.70,90.96,91.19,89.95,85.90,81.07,76.58,73.65,72.26,71.05,69.49,67.14,63.28,59.58,56.12,53.36,53.52,53.79,54.54,55.80,57.38,59.15,61.50,64.43,67.87,71.58,76.69,82.71,89.24,95.70,101.64,106.70,108.92,105.93,101.12,95.98,90.31,84.06,77.71,71.86,67.44,64.19,60.96,59.11,57.38,55.62,53.85,53.34,53.23,52.09,49.79,47.99,46.14,44.32,42.51,40.68,39.74,39.09,38.51,37.91,37.41,37.21,37.35,37.81,38.47,38.87,39.30,40.07,41.46,43.87,46.66,49.80,53.20,56.49,59.23,61.72,63.87,65.49,66.83,68.22,69.42,70.10,69.24,64.99,61.11,58.70,57.87,57.51,57.64,58.03,58.46,59.06,60.17,62.17,64.96,67.62,70.11,72.43,74.64,76.88,79.06,81.92,84.89,87.62,90.75,93.40,95.88,98.43,101.40,105.27,109.65,114.85,121.17,127.66,133.79,139.74,145.53,151.02,156.28,161.11,165.43,169.17,170.79,171.12,169.93,167.30,164.81,163.37,163.25,164.61,167.67,172.10,178.14,184.80,190.84,195.87,198.93,200.59,201.43,202.51,205.17,209.28,213.70,216.46,217.40,217.83,217.67,216.89,215.83,216.25,219.08,223.93,228.84,233.40,236.80,239.34,241.57,244.41,249.80,256.47,263.31,268.34,270.20,270.70,270.20,268.72,266.35,263.85,261.25,258.55,255.59,252.52,247.66,241.01,234.41,226.90,219.53,212.73,206.88,201.24,195.43,189.86,184.73,179.75,175.57,174.82,177.14,180.53,185.13,189.58,193.93,198.13,200.38,201.10,201.41,202.12,204.43,208.33,210.54,211.12,210.74,209.28,207.71,206.05,204.52,204.18,204.76,206.75,210.32,215.45,220.94,226.36,231.79,237.32,242.49,247.18,251.73,256.22,260.44,265.60,271.31,277.19,282.71,286.96,290.95,294.63,297.88,299.99,299.89,298.76,296.21,290.79,286.46,282.27,278.63,275.90,273.28,270.43,267.50,264.73,262.82,260.95,259.49,258.67,258.72
46.09,47.78,49.60,52.33,56.20,60.34,64.65,69.33,74.62,80.85,86.23,89.49,91.30,92.22,91.18,88.42,85.09,82.00,80.30,78.14,75.85,73.26,70.07,65.82,61.97,58.61,56.05,55.82,55.98,56.58,57.63,59.11,60.69,62.45,64.75,67.87,71.58,77.23,83.98,91.10,97.26,103.92,108.87,110.93,109.05,103.15,96.97,90.63,84.25,77.85,71.90,67.52,64.44,61.46,59.43,57.77,56.35,55.18,55.56,55.85,54.72,52.05,49.36,47.41,45.57,43.74,41.95,40.38,39.53,38.96,38.37,37.96,37.66,37.53,37.66,38.22,38.61,39.05,39.54,40.17,42.44,45.26,48.20,51.11,54.10,56.54,58.62,60.42,62.04,63.04,63.81,64.43,64.75,63.44,60.85,58.81,57.58,56.60,56.19,56.55,57.30,58.02,58.77,59.54,61.23,63.99,66.94,69.65,72.10,74.38,76.62,78.66,81.03,83.60,86.27,89.30,92.58,95.79,98.90,101.97,105.85,110.47,115.98,122.46,129.14,135.47,141.50,147.23,152.52,156.98,160.81,164.08,166.88,166.99,166.13,164.37,161.91,159.76,158.35,158.05,159.56,164.40,170.06,176.27,182.20,186.92,189.74,191.41,192.50,193.51,195.44,199.90,204.90,209.12,210.99,211.42,210.82,209.59,208.19,207.56,209.45,213.09,217.76,222.18,226.24,229.57,232.43,235.18,237.97,243.89,251.57,259.64,265.31,268.82,269.90,269.00,267.07,264.88,262.45,259.79,256.95,253.94,250.51,245.20,238.39,232.73,225.04,217.97,211.72,206.12,200.48,195.09,189.89,184.81,179.92,176.59,176.64,179.54,183.32,187.99,192.75,197.41,201.74,204.43,206.18,207.82,209.83,212.74,215.19,216.23,216.18,215.66,214.45,213.23,211.96,210.69,209.66,209.05,209.84,212.37,216.76,221.88,226.99,232.01,236.98,242.74,247.56,252.31,257.29,262.45,267.92,273.98,279.92,284.75,288.80,291.47,293.96,296.76,298.14,296.68,294.30,291.21,286.78,283.01,279.33,275.98,273.13,270.11,266.76,263.61,261.01,259.34,257.68,256.51,255.90,255.84
46.14,47.72,49.30,51.82,55.54,59.12,62.99,67.08,71.65,77.17,82.85,87.71,91.02,92.36,92.56,91.18,89.23,87.17,85.22,81.97,78.55,75.03,71.31,67.58,63.96,60.75,58.35,57.88,57.94,58.58,59.87,61.90,63.66,64.92,66.29,68.42,72.57,78.89,86.11,93.37,99.43,105.93,110.51,112.06,109.64,103.73,97.18,90.57,84.29,78.36,72.61,68.29,65.23,62.37,60.06,58.52,57.60,57.15,57.77,58.25,57.49,55.15,51.57,48.95,46.84,45.01,43.23,41.53,40.26,39.37,38.82,38.48,38.16,37.91,37.82,38.08,38.46,38.90,39.33,39.78,41.13,43.66,46.49,49.18,51.63,53.82,55.69,57.25,58.59,59.44,60.10,60.54,60.62,59.63,58.19,56.90,55.96,55.35,55.55,56.19,57.03,57.84,58.61,59.32,60.83,63.40,66.50,69.32,71.83,74.06,76.06,77.95,79.99,82.41,85.35,88.88,92.53,96.13,99.62,102.99,106.70,111.68,117.62,124.04,130.56,136.91,142.78,147.96,152.25,156.30,159.71,162.16,163.26,162.15,160.53,158.53,156.27,154.15,153.00,153.76,156.81,162.26,168.02,173.60,178.49,182.19,184.55,185.63,186.56,188.12,191.12,196.06,200.59,203.76,204.74,204.59,203.81,202.52,201.06,201.12,203.76,207.65,212.01,215.98,219.55,222.72,225.80,229.20,233.38,240.30,247.87,255.00,262.20,265.99,267.37,266.90,265.25,263.22,260.78,258.03,255.09,252.08,247.56,242.06,236.06,230.45,222.94,215.85,209.72,204.79,199.75,194.73,189.77,184.87,179.96,177.90,178.83,182.11,186.38,190.57,195.08,199.94,204.98,208.08,210.81,213.52,216.23,218.52,220.05,220.64,220.62,220.42,219.26,218.13,216.96,215.74,214.58,214.01,214.25,215.49,218.02,222.58,227.31,232.04,236.72,242.11,247.57,252.98,258.38,263.99,269.45,275.11,280.51,284.98,288.87,291.40,293.58,295.70,295.49,293.60,291.18,288.38,284.90,281.31,277.64,274.06,270.72,267.39,263.95,260.71,257.96,256.26,254.66,253.58,253.04,252.97
46.25,47.68,49.08,51.41,54.90,57.95,61.38,64.97,68.85,73.31,78.99,85.01,89.76,92.07,93.54,93.59,92.85,91.43,88.97,84.85,80.55,76.26,72.04,68.85,65.54,62.66,60.63,60.15,60.15,61.01,62.75,65.23,67.02,67.83,68.42,69.69,74.05,80.87,88.35,95.53,101.56,107.69,111.91,112.93,109.61,103.84,97.06,90.34,84.34,79.02,73.66,69.39,66.21,63.47,61.06,59.74,59.28,59.38,60.08,60.55,59.97,57.90,53.96,50.67,48.19,46.27,44.51,42.82,41.17,39.92,39.27,38.98,38.67,38.36,38.11,38.07,38.37,38.78,39.20,39.60,40.10,42.19,44.81,47.36,49.41,51.28,52.86,54.16,55.23,56.04,56.74,57.15,57.10,56.51,55.82,55.05,54.40,54.34,55.13,55.98,56.83,57.68,58.46,59.19,60.56,62.88,66.06,69.00,71.52,73.64,75.42,77.21,79.05,81.46,84.79,88.81,92.69,96.50,100.25,103.88,107.51,112.86,119.17,125.44,131.75,138.06,143.72,148.35,151.65,155.11,157.79,159.18,158.73,156.85,154.83,152.76,150.67,148.40,147.66,149.76,154.49,160.22,165.66,170.32,173.99,176.58,178.87,180.05,181.54,184.13,188.02,192.90,196.64,198.69,198.90,198.13,197.18,195.95,194.61,195.26,198.23,202.18,206.37,209.97,213.14,216.20,219.61,223.90,229.94,237.84,244.97,250.67,258.59,262.70,264.45,264.44,263.23,261.30,258.87,256.08,253.02,249.50,244.17,238.77,233.64,227.83,220.56,213.59,207.68,203.43,199.02,194.27,189.52,184.95,180.61,179.96,181.67,185.07,189.36,192.98,197.18,202.22,207.95,211.46,215.06,218.65,221.82,223.46,224.32,224.69,224.82,224.98,224.01,223.03,221.92,220.65,219.45,219.05,218.93,219.15,220.00,223.64,227.75,232.06,236.48,241.40,247.44,253.50,259.26,265.13,270.47,275.62,280.41,284.58,288.34,291.00,293.06,294.48,292.91,290.86,288.60,286.16,283.41,279.96,276.24,272.42,268.64,265.05,261.59,258.28,255.30,253.31,251.63,250.56,250.08,250.14
46.31,47.60,48.91,50.96,53.92,56.82,59.77,63.04,66.63,70.40,75.48,80.65,85.93,91.10,93.21,94.79,94.78,93.04,90.34,86.28,81.86,77.22,72.42,69.13,66.19,64.11,63.13,63.19,63.32,64.79,67.28,69.46,70.58,70.99,71.46,72.76,76.33,83.05,90.35,97.13,103.16,108.89,112.90,113.63,109.48,103.51,96.47,89.84,84.49,79.87,75.23,70.99,67.40,64.80,63.01,62.17,61.93,61.93,62.69,62.71,61.47,59.02,56.31,52.77,49.79,47.50,45.79,44.15,42.48,40.94,39.73,39.48,39.18,38.87,38.58,38.33,38.39,38.68,39.08,39.46,39.82,41.23,43.33,45.79,47.99,49.31,50.25,51.08,52.10,53.05,53.94,54.51,54.56,54.06,53.36,53.11,53.41,54.04,54.88,55.73,56.58,57.42,58.26,59.03,60.25,62.25,65.47,68.59,71.03,72.95,74.78,76.62,78.47,81.14,85.04,89.06,92.90,96.70,100.45,104.08,107.98,113.65,120.09,126.07,132.28,138.49,143.99,148.35,151.25,153.34,153.93,153.34,152.36,150.85,149.23,147.42,145.32,142.61,142.62,145.98,151.88,157.66,162.29,165.72,167.88,168.85,171.04,173.88,177.82,182.68,186.67,190.84,193.74,195.07,194.89,193.38,191.73,190.19,189.13,189.93,192.46,196.29,200.72,204.23,207.26,210.44,214.55,220.39,228.70,237.16,243.71,247.97,253.51,259.03,261.60,261.54,260.72,258.77,256.42,253.71,250.48,244.89,240.06,235.53,230.75,224.54,217.50,211.31,206.25,202.35,198.24,193.54,188.94,185.10,183.23,184.08,186.23,189.06,191.97,195.06,199.20,204.40,210.35,214.30,218.46,222.49,225.92,227.60,228.21,228.52,228.74,229.01,228.84,228.36,227.39,225.93,224.59,223.83,223.53,223.67,224.23,226.02,228.72,232.17,236.22,241.04,247.13,253.43,259.51,265.38,270.55,275.32,279.68,283.56,287.22,289.99,291.89,292.74,291.07,289.05,286.76,284.27,281.61,278.46,274.87,271.07,267.29,263.55,259.98,256.57,253.35,250.47,248.39,247.17,246.86,247.46
46.93,47.83,48.94,50.68,53.19,55.88,58.56,61.31,64.31,67.86,72.50,77.23,82.54,88.52,91.92,94.56,95.62,94.78,92.03,88.09,83.53,78.56,73.40,69.64,67.38,66.32,66.14,66.34,66.76,68.71,71.61,73.60,74.72,75.35,75.96,77.03,79.47,85.37,92.03,98.38,104.40,110.32,114.01,114.10,109.35,103.19,95.99,89.48,84.55,80.21,75.96,72.09,68.91,66.90,65.84,65.41,65.31,65.26,65.23,63.91,61.81,59.30,57.01,53.93,51.14,48.83,47.06,45.44,43.81,42.23,40.80,40.00,39.55,39.21,38.91,38.63,38.59,38.74,39.04,39.42,39.69,40.60,42.26,44.52,46.56,47.71,48.52,49.20,49.97,50.74,51.45,51.94,52.09,52.00,51.90,52.21,52.92,53.77,54.62,55.47,56.32,57.17,58.02,58.84,59.93,61.65,64.86,67.85,70.27,72.25,74.10,76.02,78.08,80.97,85.00,89.05,92.86,96.59,100.36,104.29,108.64,114.45,120.74,126.39,132.27,138.27,143.32,146.92,149.23,150.15,149.80,148.64,147.45,145.97,144.37,142.50,140.33,138.48,139.52,143.21,148.69,153.85,157.43,159.60,160.78,161.60,165.11,170.34,176.30,182.02,185.60,188.85,190.73,191.13,190.32,188.37,186.35,184.74,183.98,185.27,187.56,190.88,194.89,198.64,202.01,205.91,211.16,218.58,227.85,236.24,242.43,246.36,250.81,255.88,258.46,258.64,257.88,256.08,253.67,250.29,245.68,240.60,236.42,232.09,227.09,220.99,214.42,209.08,204.81,201.05,197.14,192.79,189.05,186.81,187.64,189.72,191.92,193.81,195.11,197.50,201.20,206.14,211.97,216.40,221.39,226.06,229.82,231.85,232.61,233.10,233.45,233.69,233.63,233.38,232.68,231.46,230.17,228.89,228.30,228.47,229.13,229.90,231.33,233.52,236.53,240.79,246.82,253.28,259.51,265.14,270.23,274.78,278.86,282.58,285.97,288.44,290.13,290.88,289.15,287.26,285.08,282.60,279.87,276.77,273.37,269.59,265.39,261.03,257.09,253.49,250.17,247.00,244.67,243.73,243.96,244.86
47.86,48.30,49.13,50.55,52.62,55.09,57.56,59.70,62.00,65.47,69.80,74.34,79.42,85.20,90.10,93.61,95.88,96.52,94.03,90.23,85.54,80.28,74.85,70.67,69.20,69.15,69.60,69.74,70.47,72.76,75.82,77.66,79.09,80.18,81.00,81.73,83.00,87.74,93.56,99.53,105.62,112.04,115.39,114.64,109.32,102.97,95.72,89.31,84.61,80.34,76.35,73.09,70.76,69.52,69.15,69.03,68.99,68.79,67.59,64.65,61.64,59.15,56.93,54.62,52.32,50.17,48.34,46.72,45.17,43.66,42.18,40.64,39.92,39.49,39.18,38.95,38.86,38.88,39.05,39.42,39.66,40.19,41.45,43.40,45.14,46.30,47.21,47.90,48.36,48.82,49.24,49.60,49.89,50.31,51.02,51.83,52.68,53.53,54.38,55.23,56.07,56.92,57.77,58.62,59.60,61.07,64.19,66.94,69.40,71.55,73.43,75.45,77.77,80.79,84.69,88.78,92.60,96.29,100.08,104.41,109.31,115.16,121.17,126.46,131.87,137.54,142.01,144.72,146.33,146.25,145.52,144.41,143.08,141.32,139.58,137.66,135.61,135.20,137.28,140.80,145.06,149.21,151.59,152.67,153.44,155.13,160.62,168.35,175.85,181.61,184.56,186.77,187.55,186.97,185.47,183.23,181.04,179.45,179.00,180.82,183.00,185.69,189.03,193.22,197.28,202.25,208.85,217.68,227.15,235.13,241.13,245.27,249.25,253.05,255.26,255.74,254.90,253.28,250.72,246.41,240.21,236.63,233.03,228.58,223.18,217.39,211.45,206.96,203.36,199.66,196.02,192.29,189.76,189.44,192.82,195.90,197.99,198.92,198.72,200.30,203.32,207.70,213.21,218.09,223.96,229.31,233.45,236.09,237.30,238.16,238.74,238.97,238.78,238.62,238.22,237.41,236.22,234.38,233.37,233.45,234.31,234.49,234.83,235.72,237.52,241.04,246.81,253.18,259.29,264.60,269.69,274.11,277.99,281.61,284.69,286.72,288.16,289.01,287.28,285.54,283.50,281.06,278.18,275.03,271.74,267.88,263.07,257.95,253.51,249.66,246.30,243.22,240.81,240.31,241.18,242.26
49.13,49.37,49.97,50.93,52.36,54.77,56.65,58.27,60.08,62.81,67.45,72.07,76.79,81.83,87.72,92.21,95.69,97.84,97.17,93.55,88.89,83.53,77.68,74.84,73.84,73.99,74.63,74.68,75.35,77.26,79.81,81.50,83.11,84.20,84.91,85.47,86.40,90.06,95.17,101.16,107.79,115.29,118.44,116.58,110.08,103.64,96.57,90.17,85.09,80.57,77.20,75.10,74.06,73.51,72.98,72.80,72.37,71.08,68.79,65.31,61.78,58.80,56.72,55.04,53.14,51.20,49.62,48.05,46.58,45.13,43.65,42.11,40.82,39.96,39.50,39.27,39.18,39.13,39.21,39.49,39.77,40.31,41.21,42.45,43.84,44.96,45.92,46.68,47.15,47.55,48.14,48.78,49.41,50.13,50.89,51.70,52.55,53.40,54.25,55.07,55.88,56.73,57.58,58.43,59.32,60.55,63.22,65.92,68.52,70.91,72.98,75.10,77.31,79.99,83.41,87.50,91.64,95.55,99.39,103.77,109.27,115.16,120.84,125.73,130.50,135.27,139.15,141.66,142.48,142.03,141.09,139.64,137.47,134.44,132.64,131.85,131.82,132.49,134.75,137.44,140.13,142.69,143.63,145.00,147.79,152.85,160.41,168.75,175.71,180.25,182.65,183.74,183.53,182.30,180.56,178.17,175.89,174.35,174.05,175.52,177.87,180.49,183.64,188.61,194.23,200.95,208.80,217.65,226.19,233.59,239.60,244.21,247.95,251.00,252.61,252.83,252.09,250.28,247.19,242.88,237.70,233.87,229.87,225.29,220.06,214.32,209.50,205.49,201.90,198.28,195.98,193.69,192.61,193.60,197.53,200.78,202.94,203.96,204.01,204.61,206.29,209.49,214.37,219.34,225.55,231.22,235.84,239.90,242.24,244.15,245.66,246.58,246.73,246.74,246.48,245.81,244.38,242.16,240.12,238.86,239.13,239.18,239.39,240.08,241.59,244.87,249.09,253.65,258.37,263.53,268.96,273.36,277.02,280.59,283.57,285.50,286.80,287.52,286.19,284.28,282.15,279.73,276.66,273.49,269.63,264.95,259.48,254.16,249.26,245.03,241.65,239.36,237.56,237.31,238.19,239.33
50.76,50.94,51.32,51.92,52.84,54.53,55.99,57.40,58.97,60.93,65.58,70.23,74.78,79.40,85.41,90.62,95.35,99.08,99.89,97.03,92.76,87.74,82.50,80.32,79.33,79.20,79.56,79.50,80.03,81.58,83.71,85.33,87.18,88.43,89.26,89.92,90.61,93.48,97.85,103.44,110.13,117.43,119.96,117.45,110.89,104.51,97.98,91.91,86.68,82.31,79.11,77.59,77.37,77.30,76.82,76.23,75.05,72.85,69.93,66.08,62.26,59.11,57.43,56.39,55.21,53.79,52.16,49.99,48.18,46.61,45.16,43.61,42.07,40.83,39.99,39.60,39.48,39.37,39.39,39.65,40.48,41.10,41.86,42.86,43.94,44.83,45.57,46.15,46.56,47.08,47.80,48.60,49.40,50.23,51.01,51.81,52.62,53.42,54.24,55.03,55.81,56.61,57.43,58.25,59.06,60.09,62.29,64.86,67.44,69.90,72.15,74.31,76.49,78.90,81.78,85.91,90.32,94.58,98.77,103.49,108.93,114.56,119.89,124.47,128.54,132.44,135.66,137.81,138.19,137.50,136.34,134.54,131.69,128.39,127.04,127.21,128.37,129.61,131.42,133.29,135.05,136.72,138.24,140.85,145.31,152.23,160.68,168.45,174.22,177.55,179.39,179.77,179.02,177.54,175.95,173.48,170.77,168.86,168.56,169.93,172.80,176.03,179.81,185.65,192.44,200.27,208.83,217.63,225.36,232.11,237.93,242.81,246.36,248.82,250.06,250.12,249.18,247.28,244.13,239.95,235.12,231.01,226.75,222.27,217.47,212.16,208.25,205.05,202.16,199.20,197.23,195.57,195.22,196.87,201.20,204.85,207.32,208.61,208.98,209.17,210.35,212.88,216.91,221.83,227.98,233.95,239.22,243.87,247.02,249.65,251.71,252.99,253.57,253.79,253.63,253.00,251.51,249.43,247.13,245.16,244.45,244.34,244.59,245.35,246.80,249.59,252.61,255.73,259.16,263.80,268.99,273.20,276.68,280.12,282.51,284.27,285.45,286.00,285.03,283.16,280.86,278.18,274.95,271.68,267.33,262.05,256.16,250.51,245.34,241.10,237.97,236.01,234.49,234.29,235.10,236.18
52.67,52.90,53.08,53.41,53.94,54.34,55.52,57.00,58.51,59.68,64.12,68.73,73.27,77.76,83.18,88.88,94.88,100.27,102.26,100.63,97.06,92.73,88.95,86.87,85.51,84.74,84.40,84.25,84.55,85.74,87.54,89.17,91.30,92.84,93.99,94.96,95.50,97.79,101.41,106.25,112.59,118.67,120.21,117.45,111.72,105.54,99.84,94.38,89.17,85.30,81.89,80.48,80.70,80.93,80.64,79.38,77.18,74.17,71.01,66.95,63.03,59.99,58.90,58.49,58.30,57.66,55.73,52.42,49.94,48.10,46.69,45.14,43.60,42.02,40.62,39.93,39.75,39.60,39.58,39.90,41.66,42.43,43.26,44.41,45.19,45.69,45.98,46.19,46.50,47.27,48.09,48.94,49.78,50.55,51.33,52.10,52.86,53.55,54.32,55.09,55.84,56.54,57.31,58.09,58.83,59.69,61.40,63.78,66.21,68.60,70.99,73.16,75.38,77.56,79.87,84.04,88.71,93.41,98.19,103.51,108.35,113.44,118.42,122.77,126.11,129.16,131.65,133.31,133.55,132.71,131.31,129.15,125.76,123.03,122.55,123.53,125.19,126.58,127.43,128.49,129.87,131.19,134.95,139.56,145.41,153.00,161.34,167.59,171.65,173.75,175.00,175.05,174.11,172.69,171.60,169.09,165.66,163.06,162.63,164.10,167.77,172.19,177.26,184.04,191.67,200.10,208.93,217.61,224.65,230.67,236.15,241.13,244.53,246.55,247.60,247.58,246.19,244.28,241.46,237.51,232.47,228.07,223.67,219.46,215.32,210.75,207.58,205.45,203.81,202.00,199.53,197.85,197.63,199.40,204.03,208.27,211.24,212.93,213.69,213.94,215.30,217.58,220.60,225.32,231.12,237.37,243.41,247.97,251.69,254.75,257.04,258.43,259.50,259.96,259.87,259.21,257.82,256.29,254.36,252.18,250.20,249.89,250.31,251.36,252.94,255.04,257.14,259.14,261.37,265.17,269.65,273.53,276.88,280.11,281.52,283.02,284.12,284.45,283.83,282.18,279.62,276.43,273.11,269.64,264.86,259.17,253.07,246.97,241.70,237.74,235.09,233.08,231.55,231.27,231.93,232.86
54.90,54.94,54.92,55.11,55.56,55.75,56.44,57.34,58.40,59.65,63.53,67.65,71.91,76.32,81.29,87.47,93.96,99.79,103.06,103.14,101.66,98.88,95.03,92.84,91.35,90.36,89.73,89.38,89.93,91.09,92.75,94.86,96.65,97.75,98.45,99.05,99.50,101.98,105.53,109.56,113.57,116.73,117.20,114.92,110.36,105.49,101.12,96.71,92.20,89.11,86.11,84.31,83.66,83.46,82.00,80.25,77.99,75.02,72.00,69.35,67.32,65.94,65.05,63.35,62.48,61.67,59.49,56.32,53.14,50.34,48.16,46.61,44.99,43.36,41.84,40.66,40.22,40.29,41.17,43.06,45.13,45.53,45.70,46.26,47.09,47.29,47.32,47.35,47.57,47.90,48.50,49.30,50.23,51.00,51.45,52.02,52.75,53.49,54.21,54.97,55.73,56.47,57.20,57.96,58.70,59.43,60.35,62.46,64.83,67.28,69.72,71.93,74.26,76.65,79.18,83.06,87.44,92.09,96.92,101.91,106.40,110.83,115.20,119.43,122.99,125.65,127.44,128.28,127.79,126.43,124.66,122.46,119.74,118.14,118.61,120.03,121.37,122.13,122.80,124.69,127.74,130.65,136.33,141.68,147.21,153.77,160.76,165.37,167.96,168.99,169.45,168.92,167.58,165.73,163.82,161.38,159.06,157.55,157.46,159.75,164.73,170.65,176.96,183.76,191.27,199.54,208.32,217.22,223.66,228.77,233.71,238.84,242.67,244.47,245.47,245.59,244.20,242.05,238.83,234.74,230.09,225.49,221.43,218.52,216.49,213.87,212.13,210.45,208.69,206.76,204.38,201.80,200.83,202.51,207.05,211.11,214.33,216.61,218.02,220.90,224.34,227.64,230.34,233.45,238.03,243.24,248.38,252.31,256.10,259.49,262.27,264.23,265.51,266.28,266.48,266.06,264.87,263.13,261.00,258.56,255.97,255.31,255.62,256.78,258.64,260.83,262.97,265.13,267.63,271.47,274.34,276.94,279.13,280.67,281.82,283.01,283.58,283.19,282.28,280.95,278.31,274.69,271.32,266.89,262.13,256.81,250.77,244.91,239.96,235.99,232.98,230.68,228.94,228.32,228.69,229.66
57.13,56.95,56.76,56.81,57.15,57.23,57.60,58.12,58.87,60.08,63.35,66.91,70.77,74.99,79.58,86.07,92.74,98.64,102.85,104.85,105.53,104.59,101.66,99.58,97.83,96.52,95.69,95.25,95.41,96.11,97.39,99.34,100.70,101.47,101.84,102.00,102.20,104.39,107.37,110.41,112.62,113.79,113.57,111.76,108.23,104.44,101.29,98.02,94.43,91.93,89.30,87.21,85.78,84.87,82.69,80.71,78.63,76.11,73.44,71.78,70.93,70.56,69.83,67.73,66.51,65.49,63.23,60.10,56.58,53.14,50.15,48.09,46.35,44.68,43.09,41.74,41.99,42.82,44.38,46.73,48.34,48.42,48.22,48.32,48.95,48.90,48.74,48.62,48.65,48.71,49.15,49.87,50.77,51.64,51.93,52.28,52.83,53.43,54.14,54.88,55.64,56.41,57.10,57.83,58.51,59.12,59.58,61.11,63.13,65.49,68.17,70.76,73.33,75.91,78.62,82.20,86.24,90.63,95.21,99.67,103.99,107.99,111.77,115.48,119.07,121.44,122.72,122.94,121.98,120.29,118.33,116.25,114.18,113.52,114.45,115.95,117.22,118.45,120.04,123.05,127.34,131.64,137.98,143.43,148.48,154.02,159.64,162.85,164.19,164.19,163.80,162.55,160.79,158.72,156.51,154.42,153.00,152.44,153.04,156.73,162.88,169.80,176.81,183.59,190.74,198.72,207.39,216.40,222.52,227.03,231.49,236.50,240.88,242.64,243.67,243.92,242.59,240.54,237.29,233.32,229.10,224.63,221.20,219.50,219.12,218.00,217.25,215.98,214.19,212.05,209.57,206.58,204.92,205.76,209.83,213.76,217.41,220.62,223.14,227.16,231.60,235.71,238.92,241.41,244.89,248.88,253.05,256.87,260.97,264.66,267.74,270.13,271.44,272.31,272.66,272.44,271.65,270.05,268.09,265.82,263.09,261.79,261.83,262.90,264.68,266.98,269.31,271.62,274.04,277.06,278.77,280.34,281.52,281.75,282.41,283.07,283.12,282.25,281.17,279.58,276.66,272.82,269.40,264.73,259.99,254.83,248.88,243.10,238.41,234.43,231.05,228.49,226.57,225.57,225.53,226.41
59.36,58.93,58.60,58.52,58.68,58.76,59.05,59.49,60.15,61.11,63.70,66.61,69.94,73.81,78.11,84.65,91.11,96.62,101.27,105.45,108.38,109.67,109.07,107.39,105.22,103.44,102.53,102.14,100.98,100.64,101.21,102.07,102.91,103.55,103.75,103.37,103.13,104.30,106.02,107.79,109.02,109.51,109.19,107.79,105.04,101.99,99.90,97.91,95.56,93.35,91.02,88.80,86.73,84.73,82.50,80.65,79.06,77.56,75.53,74.21,73.51,73.20,72.56,71.40,70.34,69.05,66.94,63.71,60.33,56.71,52.88,49.58,47.67,45.97,44.37,43.32,45.59,47.90,49.80,51.05,51.12,51.00,50.81,50.65,50.73,50.49,50.24,50.01,49.74,49.75,50.13,50.72,51.43,52.55,52.88,53.03,53.18,53.40,54.12,54.85,55.58,56.35,57.04,57.69,58.25,58.73,59.20,59.74,60.96,63.08,66.25,69.68,72.64,75.39,78.21,81.49,85.11,88.98,92.93,96.60,101.00,104.86,108.08,110.75,114.03,116.26,117.30,117.18,116.11,114.37,112.50,110.73,109.25,109.28,109.95,111.07,112.63,115.88,119.89,124.38,129.29,134.62,139.91,144.59,148.99,153.53,157.82,159.95,160.32,159.39,158.06,155.87,153.68,151.68,149.92,148.56,147.72,147.87,149.67,155.52,162.67,169.88,176.80,183.53,190.00,197.54,206.03,214.99,221.16,225.55,229.59,234.11,239.18,241.17,242.32,242.68,241.50,240.03,237.27,233.76,230.04,226.17,223.76,223.12,223.69,223.41,223.06,222.13,220.48,218.04,215.17,212.47,210.24,209.20,212.28,216.14,220.52,225.10,229.40,232.40,236.29,240.89,245.75,249.03,251.60,254.16,257.26,261.72,266.46,270.40,273.55,276.13,277.24,277.95,278.24,278.15,278.05,277.06,275.82,274.30,272.07,269.76,269.30,270.01,271.21,273.66,276.32,278.71,280.56,281.56,282.75,283.68,284.04,283.53,283.35,283.21,282.74,281.74,280.66,278.00,274.54,270.77,267.30,263.41,258.71,253.35,247.53,241.60,237.11,233.09,229.35,226.60,224.53,223.08,222.51,223.09
63.16,62.49,61.72,61.21,61.18,61.51,62.25,63.02,63.71,64.22,65.03,66.91,69.74,73.34,77.25,82.98,89.10,94.88,99.72,104.88,109.01,111.55,112.08,110.84,109.47,108.29,107.46,106.61,104.12,102.94,103.06,103.04,102.94,102.76,102.36,101.68,101.41,102.14,103.30,104.55,105.51,105.85,105.49,104.20,101.74,98.76,96.72,95.25,94.03,92.62,90.66,88.64,86.59,84.39,82.27,80.53,78.98,77.41,75.82,74.75,73.94,73.27,72.69,72.26,71.65,70.67,69.12,66.72,63.34,59.38,55.18,51.20,48.75,46.83,45.37,44.79,46.86,48.98,51.03,52.95,52.97,52.88,52.81,52.81,52.89,52.67,52.45,52.22,51.91,51.91,51.91,52.12,52.67,53.33,53.74,53.96,54.04,54.15,54.57,55.01,55.55,56.27,56.84,57.39,57.87,58.29,58.71,59.14,59.63,60.89,64.01,67.89,71.18,74.13,76.96,79.83,83.01,86.42,89.85,92.81,97.14,101.11,104.42,107.01,109.29,110.87,111.60,111.50,110.84,109.51,108.00,106.52,105.26,105.35,106.31,108.21,111.16,116.10,121.04,125.96,130.92,136.07,140.67,144.77,148.50,151.99,154.74,155.68,155.30,153.99,152.10,149.60,147.36,145.52,143.99,142.95,143.28,145.14,148.75,155.68,162.86,169.86,176.54,182.80,188.93,195.87,203.75,212.53,219.72,224.56,228.78,233.41,238.84,241.43,243.21,244.17,243.60,242.28,239.49,235.88,232.11,228.66,227.07,227.06,228.01,228.41,228.20,227.29,225.56,222.95,219.46,216.39,213.89,212.51,214.48,218.46,223.26,228.13,232.14,235.13,239.50,244.61,249.63,252.77,255.35,258.50,262.69,267.92,272.86,277.14,280.63,283.28,284.74,285.66,286.08,286.13,286.13,285.01,283.68,282.30,280.77,279.02,278.29,278.32,278.86,280.49,282.40,284.07,285.21,285.53,286.15,286.43,286.26,285.64,284.49,283.34,282.21,281.06,279.47,276.09,272.36,268.77,265.51,261.67,256.97,251.59,245.76,240.02,235.61,231.71,228.08,225.04,222.51,220.61,219.60,219.72
67.43,66.38,65.09,64.18,64.01,64.68,65.96,66.98,67.48,67.31,66.72,67.66,69.92,73.14,76.67,81.55,87.30,93.30,98.23,104.06,109.07,112.46,113.50,112.36,111.49,110.70,109.84,108.62,105.44,103.78,103.56,102.96,102.07,101.09,100.05,99.04,98.83,99.24,100.06,101.05,101.81,102.10,101.75,100.56,98.34,95.40,93.19,91.92,91.50,90.86,89.37,87.70,85.96,84.04,82.05,80.29,78.56,76.68,75.20,74.20,73.22,72.24,71.81,72.02,71.89,71.32,70.42,68.72,65.24,60.95,56.54,52.21,49.48,47.50,46.21,45.98,47.56,49.31,51.48,54.19,54.64,54.72,54.78,54.93,55.08,54.94,54.77,54.57,54.28,54.25,53.87,53.69,53.96,54.11,54.60,54.91,54.99,55.07,55.22,55.40,55.71,56.22,56.58,57.01,57.43,57.82,58.22,58.65,58.52,58.93,61.73,65.96,69.49,72.54,75.33,77.88,80.52,83.32,86.16,88.72,92.87,96.85,100.37,103.28,104.79,105.87,106.35,106.22,105.84,104.95,103.86,102.71,101.62,101.87,103.60,106.65,110.93,116.97,122.27,127.26,132.08,136.76,140.71,144.06,146.93,149.46,150.58,150.43,149.48,147.97,145.70,143.07,140.88,139.24,138.02,137.56,139.57,143.34,148.31,155.57,162.55,169.38,175.91,181.57,187.51,193.96,201.25,209.66,217.75,223.46,228.31,233.27,238.91,242.10,244.55,246.23,246.48,245.13,242.21,238.45,234.58,231.54,230.58,230.98,232.14,233.11,233.03,232.11,230.30,227.57,223.56,219.97,217.17,215.59,216.58,220.74,225.80,230.67,234.21,237.45,242.44,247.96,252.73,255.79,258.80,262.89,268.24,274.05,279.23,283.81,287.61,290.43,292.16,293.22,293.76,293.93,293.96,292.92,291.65,290.44,289.45,288.28,287.46,287.05,287.10,287.89,289.02,289.92,290.31,290.00,289.75,289.15,288.27,287.29,285.40,283.46,281.74,280.24,277.81,273.93,270.15,266.81,263.75,259.74,254.92,249.40,243.41,238.08,233.81,230.01,226.48,223.32,220.48,218.19,216.74,216.41
72.13,70.40,68.56,67.37,67.26,68.38,70.18,71.07,70.76,69.46,68.88,69.31,70.79,73.30,76.49,80.87,86.22,92.02,96.90,103.11,108.70,112.35,112.84,110.97,109.32,107.92,106.72,105.55,103.29,101.96,101.53,100.98,99.90,98.46,96.87,95.41,95.24,95.40,96.10,97.16,97.63,97.89,97.59,96.59,94.77,92.08,89.58,88.03,87.66,87.46,86.62,85.59,84.57,83.79,81.91,79.78,77.50,75.17,73.10,71.74,70.56,69.56,69.53,70.23,70.53,70.43,70.16,68.47,64.71,60.16,55.74,51.66,49.41,47.85,46.78,46.55,47.85,49.54,51.82,54.83,56.31,56.75,56.88,57.04,57.19,57.17,57.07,56.89,56.64,56.51,55.97,55.42,55.14,54.99,55.51,55.87,55.95,56.03,56.18,56.30,56.32,56.20,56.22,56.53,56.92,57.32,57.77,58.12,57.63,57.44,59.50,63.97,67.50,70.44,73.10,75.64,77.53,79.29,81.31,84.16,87.92,91.61,95.32,99.13,100.79,101.95,102.32,101.90,101.27,100.69,100.06,99.33,98.49,99.42,102.82,107.48,112.44,118.23,123.13,127.75,132.20,136.24,139.45,141.53,143.13,144.93,144.26,143.33,142.16,140.67,138.31,135.71,133.65,132.31,131.68,132.63,137.28,143.06,148.02,154.19,160.84,167.79,174.48,179.40,185.32,191.70,198.62,206.21,214.50,221.82,228.19,233.78,239.42,243.03,246.06,248.51,249.89,248.30,245.21,241.38,237.56,234.96,234.25,234.70,235.87,237.29,237.38,236.52,234.71,231.97,227.71,223.59,220.21,218.12,218.52,222.92,228.00,232.64,236.13,239.84,245.36,250.98,255.19,258.70,262.81,267.79,273.55,279.41,285.13,289.92,293.82,297.07,298.65,299.53,300.01,300.33,300.46,300.30,299.85,299.14,298.20,296.99,296.44,296.31,296.33,296.62,297.41,297.78,297.32,295.92,294.11,292.06,289.88,287.68,285.63,283.58,281.50,279.16,275.25,271.32,267.90,264.92,261.96,257.53,252.26,246.25,239.75,235.27,231.34,227.56,223.92,221.06,218.42,215.89,213.95,213.28
76.25,74.18,72.36,71.32,71.34,72.54,74.10,74.69,74.08,72.50,71.40,71.44,72.54,74.55,77.10,81.01,86.12,91.90,96.84,104.17,109.60,112.20,111.59,108.61,106.15,104.25,102.90,101.74,100.25,99.27,98.71,97.99,96.82,95.17,93.35,91.76,91.54,91.52,91.94,92.64,92.89,93.06,92.77,91.88,90.28,87.94,85.60,83.97,83.37,83.33,83.04,82.65,82.26,82.01,80.77,78.78,76.38,73.90,71.34,69.53,68.02,66.75,66.12,66.81,67.18,67.11,66.78,65.44,62.46,58.68,54.72,50.95,49.04,47.99,47.51,47.53,48.46,50.29,53.05,56.55,58.04,58.79,59.28,59.72,60.02,60.21,60.21,60.01,59.60,59.16,58.22,57.29,56.75,56.45,56.59,56.78,56.91,56.98,57.07,57.03,56.86,56.56,56.34,56.31,56.47,56.82,57.36,57.38,57.41,57.83,59.12,62.13,65.15,68.07,70.79,73.09,74.80,76.36,78.13,80.71,84.13,87.55,90.86,93.99,96.12,97.88,98.70,98.46,97.90,97.43,97.08,96.91,96.96,98.76,102.79,107.91,113.19,118.48,122.98,127.14,130.98,134.17,136.54,137.87,138.49,138.77,137.44,135.89,134.23,132.43,130.11,127.77,126.28,126.12,127.79,130.81,136.95,143.22,147.49,152.43,158.71,165.66,172.44,177.22,183.07,189.58,196.58,203.92,212.51,221.11,228.59,234.53,239.88,243.66,247.13,250.21,252.31,250.82,248.09,244.58,240.84,238.51,238.04,238.75,240.28,242.32,243.12,242.38,240.20,236.83,232.26,227.61,223.71,221.27,221.46,225.69,230.35,234.54,238.09,242.69,248.26,253.68,258.04,262.16,266.91,272.31,278.22,284.17,289.82,294.52,298.24,301.09,302.74,303.85,304.65,305.30,305.81,306.10,306.02,305.60,304.95,304.05,303.24,302.50,301.83,301.67,301.82,301.64,300.77,298.93,295.87,292.57,289.44,286.86,284.67,282.45,279.83,276.53,272.35,268.84,265.77,262.77,259.19,253.94,247.91,241.57,235.45,230.95,227.31,223.98,220.83,218.15,215.72,213.31,211.29,210.24
80.18,78.00,76.44,75.69,75.85,76.94,77.97,78.19,77.47,75.87,74.18,73.86,74.67,76.28,78.33,81.89,86.80,92.55,97.65,105.95,110.90,112.11,110.30,106.14,102.82,100.40,98.82,97.60,96.73,96.09,95.49,94.59,93.39,91.67,89.78,88.13,87.65,87.45,87.57,87.89,88.01,88.07,87.70,86.81,85.37,83.44,81.46,79.88,78.97,78.86,78.98,79.15,79.28,79.30,78.81,77.20,74.95,72.55,69.66,67.39,65.54,63.98,62.52,62.90,63.16,62.98,62.39,61.50,59.61,56.89,53.56,50.25,48.68,48.18,48.35,48.74,49.57,51.73,54.99,58.84,60.10,61.14,62.06,62.85,63.36,63.75,63.86,63.65,63.09,62.37,61.10,59.93,59.22,58.53,57.89,57.69,57.86,57.91,57.89,57.68,57.37,57.05,56.67,56.29,56.15,56.37,56.97,56.72,57.45,58.71,59.32,60.48,62.71,65.51,68.34,70.38,72.18,73.88,75.66,77.86,81.05,84.22,86.96,88.96,91.49,93.88,95.23,95.33,94.97,94.55,94.45,94.91,96.15,98.81,103.00,108.09,113.44,118.17,122.27,125.91,129.00,131.20,132.75,133.54,133.35,132.06,130.53,128.46,126.30,124.24,122.20,120.37,119.80,121.22,125.52,130.64,137.52,143.56,146.98,150.81,156.67,163.50,170.31,175.25,181.02,187.83,195.24,202.73,211.65,221.21,229.42,235.44,240.43,244.32,248.14,251.74,254.40,253.09,250.81,247.74,244.20,242.09,241.95,243.05,245.05,247.65,249.07,248.44,245.95,242.04,237.15,231.98,227.63,224.98,225.17,228.85,232.86,236.58,240.23,245.67,251.06,256.17,260.95,265.75,270.92,276.55,282.53,288.53,293.93,298.43,301.85,304.06,305.99,307.65,308.95,309.89,310.75,311.23,311.28,311.02,310.69,310.05,308.83,307.27,305.72,304.96,304.31,303.53,302.33,300.13,296.00,291.77,288.08,285.46,283.12,280.64,277.43,273.30,269.36,266.36,263.46,260.12,255.62,249.55,242.81,236.24,230.63,225.99,222.64,219.91,217.46,215.01,212.74,210.53,208.58,207.23
84.28,82.55,81.36,80.82,80.96,81.54,82.17,82.11,81.15,79.21,77.50,76.75,77.03,78.39,81.23,85.07,89.67,94.89,100.54,107.51,111.59,112.37,110.16,105.06,100.80,97.38,94.80,93.13,92.49,92.14,91.76,91.00,90.01,88.45,86.56,84.60,82.98,82.34,82.52,83.21,83.57,83.53,82.69,81.38,80.14,78.70,77.29,76.00,74.92,74.07,74.15,74.38,74.59,74.76,74.41,73.44,71.99,70.20,67.61,65.03,63.04,61.69,60.28,59.79,59.64,59.53,59.14,58.49,57.09,54.92,52.16,49.88,49.10,49.05,49.50,50.44,52.74,55.78,59.02,61.88,63.78,65.24,66.34,67.18,67.99,68.32,68.42,68.36,68.20,67.83,67.22,66.46,65.45,62.78,60.09,58.80,58.78,58.69,58.47,58.19,57.86,57.50,57.17,56.80,56.41,56.15,56.60,56.90,57.49,58.26,58.88,59.54,60.60,62.49,65.30,67.53,69.61,71.58,73.61,76.06,79.35,82.41,84.90,86.63,88.57,90.51,91.74,92.04,91.88,91.66,91.93,93.16,95.93,99.01,103.02,107.66,112.57,116.90,120.57,123.54,125.66,126.57,127.75,128.03,127.30,125.67,124.24,121.80,119.63,118.31,117.55,117.13,118.49,121.83,126.97,132.88,138.87,143.84,147.15,150.79,155.97,162.29,169.01,174.44,180.12,187.69,196.40,205.10,214.21,223.79,231.56,236.75,241.54,245.78,249.75,253.46,256.87,255.30,252.95,250.17,247.29,245.53,246.24,248.06,250.38,252.77,253.19,252.48,250.78,248.17,243.18,237.44,232.85,230.57,230.95,233.00,235.95,239.49,243.29,248.46,253.34,258.23,263.42,268.81,274.23,280.05,286.20,292.00,297.37,301.67,304.81,306.89,309.81,312.84,314.89,315.52,315.93,316.01,315.85,315.52,315.04,313.74,312.38,310.75,308.69,306.49,304.76,303.11,301.08,297.65,292.73,288.87,285.99,283.42,280.87,277.70,274.04,270.10,266.60,263.55,259.90,255.32,249.74,243.75,237.25,230.61,224.37,220.66,217.79,215.53,213.68,211.87,209.63,207.31,205.32,204.16
88.49,87.20,86.24,85.77,85.82,86.12,86.49,86.14,84.89,82.69,80.91,79.93,80.05,81.52,84.83,88.57,92.70,97.46,103.68,109.88,112.80,112.56,109.99,104.47,99.71,95.68,92.34,89.76,88.87,88.29,87.71,87.19,86.67,85.51,83.81,81.69,79.14,78.19,78.25,78.88,79.31,79.09,78.06,76.67,75.54,74.34,73.37,72.49,71.58,70.60,70.16,70.02,70.10,70.33,69.94,68.79,67.25,65.72,64.09,62.27,60.79,59.74,58.58,57.69,57.13,56.80,56.52,55.89,54.65,53.09,51.54,50.65,50.58,51.19,52.39,54.07,56.79,59.86,62.82,65.26,67.31,68.76,69.79,70.55,71.30,71.52,71.58,71.58,71.58,71.35,71.07,70.68,69.94,67.63,65.23,63.87,62.81,59.52,59.01,58.70,58.38,58.02,57.68,57.24,56.72,56.24,56.30,56.71,57.23,57.80,58.39,58.86,59.41,60.51,62.45,64.94,67.19,69.30,71.47,74.11,77.34,80.31,82.71,84.36,86.00,87.37,88.32,88.77,88.69,89.05,89.92,91.78,95.35,98.91,102.87,106.92,110.81,114.46,117.58,119.97,121.45,121.78,122.11,121.65,120.53,118.98,117.45,115.40,113.80,113.26,114.22,115.83,118.95,123.62,129.51,135.67,140.84,145.01,148.42,152.23,156.87,162.92,169.79,175.26,181.89,189.76,198.69,208.31,216.98,226.01,233.36,238.36,242.96,247.47,252.06,256.25,259.11,257.83,255.74,253.24,250.79,250.12,251.73,253.86,255.77,257.19,256.90,256.14,255.03,253.44,249.00,243.71,239.07,236.23,236.81,237.96,240.19,243.36,246.93,251.33,255.81,260.65,266.04,271.57,277.24,283.37,289.74,295.28,300.66,305.00,308.72,312.48,314.95,317.48,319.06,319.32,319.40,319.31,319.10,318.76,318.22,316.59,314.50,311.97,309.03,306.04,303.70,301.18,298.00,293.59,289.28,286.02,283.43,280.73,277.82,274.24,270.38,266.56,263.18,259.50,255.08,249.78,243.64,237.38,230.60,224.17,218.99,215.93,213.36,211.38,209.88,208.39,206.19,203.79,201.77,200.83
92.75,91.92,91.08,90.57,90.52,90.68,90.89,90.26,88.67,86.28,84.41,83.34,83.54,85.38,88.93,92.29,95.85,100.25,107.05,112.84,114.40,112.73,109.79,104.23,99.29,94.91,90.98,87.19,85.71,84.52,83.47,83.24,83.37,82.76,81.35,79.16,75.86,74.71,74.54,74.80,75.17,74.74,73.74,72.51,71.44,70.29,69.69,69.27,68.78,68.08,66.81,65.99,65.79,66.00,65.43,63.57,61.38,59.86,59.63,59.28,58.74,58.03,57.26,56.28,55.33,54.62,54.39,53.62,52.33,51.45,51.55,52.25,52.83,54.23,56.47,59.01,61.41,63.90,66.43,68.86,70.71,71.86,72.64,73.24,73.69,73.75,73.75,73.75,73.75,73.52,73.34,73.25,73.21,72.83,72.31,71.57,68.93,60.53,59.68,59.29,58.91,58.59,58.20,57.64,57.06,56.53,56.07,56.27,56.75,57.34,57.88,58.35,58.86,59.27,59.76,62.55,64.89,67.05,69.29,72.06,75.12,78.01,80.42,82.11,83.65,84.37,84.94,85.52,85.47,86.67,88.29,90.65,94.50,98.59,102.58,105.93,108.43,111.19,113.70,115.56,116.62,116.83,116.00,114.69,113.28,112.10,110.36,109.24,108.66,108.96,111.92,115.93,120.69,126.26,132.83,138.84,143.23,146.84,150.47,154.73,158.93,164.88,172.04,177.22,185.50,193.36,201.75,212.08,219.89,227.96,234.91,240.18,244.59,249.33,254.85,259.72,261.20,260.57,258.95,256.74,254.58,255.50,258.00,260.13,261.17,261.10,260.33,259.58,258.88,258.11,254.66,250.53,245.98,241.99,242.75,243.52,245.26,247.93,250.99,254.29,258.43,263.33,268.79,274.11,280.06,286.58,293.19,298.45,303.86,308.44,313.29,319.84,320.93,321.68,321.97,321.81,321.65,321.55,321.37,321.04,320.46,318.70,315.48,311.49,307.46,304.14,301.51,298.14,293.61,288.47,285.71,283.19,280.52,277.57,274.17,270.38,266.50,262.75,259.25,254.55,249.35,243.70,237.33,230.58,223.23,217.23,214.24,211.61,209.22,207.38,206.06,204.66,202.51,200.04,197.99,197.32
95.71,95.82,95.48,95.13,94.97,94.98,94.92,94.13,92.58,90.49,88.58,87.85,88.27,89.75,92.80,95.67,99.68,105.26,112.21,116.68,116.85,113.77,109.28,104.02,99.20,94.74,90.58,86.64,83.73,81.58,80.29,80.11,80.20,79.54,77.81,74.94,72.37,71.62,71.48,71.46,71.45,71.23,70.68,69.96,69.34,68.68,68.18,67.74,67.24,66.55,65.27,64.09,63.12,62.29,61.75,60.87,59.80,58.84,58.55,58.15,57.54,56.75,55.98,54.96,54.31,54.01,53.88,53.61,53.40,53.57,54.28,55.38,56.43,57.83,59.58,61.47,63.70,66.17,68.76,71.28,72.93,74.15,75.03,75.63,75.89,75.92,75.95,75.97,75.92,75.74,75.65,75.64,75.64,75.25,74.74,73.92,72.20,68.35,67.20,63.26,59.46,59.10,58.61,58.10,57.57,57.04,56.52,56.24,56.38,56.82,57.31,57.82,58.14,58.22,58.37,61.25,63.53,65.67,67.85,70.17,73.07,75.75,77.99,79.66,80.70,81.16,81.66,82.50,83.53,85.22,87.18,89.64,93.10,97.38,101.09,104.10,106.43,108.35,109.86,110.71,110.86,110.44,109.55,108.39,107.16,106.09,106.08,105.95,106.86,109.37,113.31,118.10,123.77,130.13,136.85,141.76,145.85,149.77,154.02,158.73,163.61,168.95,174.63,180.01,188.45,196.39,204.61,214.32,222.17,229.60,236.13,241.56,246.27,251.73,256.99,261.18,263.10,262.49,261.33,259.98,258.84,259.62,261.66,263.51,264.68,265.26,264.77,264.02,263.08,261.90,259.59,256.30,252.73,249.80,250.27,250.91,252.20,253.99,255.77,258.49,262.59,267.34,272.09,277.22,283.71,290.27,296.39,301.99,307.97,313.44,317.94,321.00,322.23,323.13,323.50,323.31,322.91,322.14,321.25,319.99,317.73,314.29,310.31,306.27,302.62,299.50,295.92,292.00,287.99,284.58,281.96,279.30,276.42,273.23,269.58,265.68,261.65,257.55,253.37,248.30,242.65,236.21,228.47,222.67,217.56,213.37,210.27,207.44,205.05,203.30,202.05,200.41,197.79,195.18,193.49,193.81
97.45,98.88,99.42,99.46,99.36,99.80,99.69,98.82,97.28,95.37,93.55,93.06,93.60,94.85,97.38,100.33,104.84,110.88,117.05,119.54,118.00,113.69,108.46,103.74,99.09,94.57,90.24,86.20,82.43,79.71,78.16,77.55,77.14,76.22,74.45,71.77,70.08,69.63,69.46,69.20,68.88,68.76,68.42,67.96,67.52,67.12,66.67,66.20,65.71,65.02,63.74,62.46,61.28,60.11,59.57,59.16,58.69,58.01,57.59,57.17,56.65,56.04,55.50,54.79,54.56,54.63,54.62,54.67,55.08,55.84,56.90,58.21,59.52,60.86,62.26,63.80,65.93,68.39,71.01,73.56,75.19,76.50,77.44,78.00,78.11,78.14,78.18,78.20,78.12,78.04,78.01,78.03,78.04,77.70,77.12,76.21,75.00,73.61,72.27,67.73,63.31,62.44,59.62,58.58,58.08,57.54,57.00,56.44,56.25,56.42,56.79,57.13,57.57,57.85,58.08,60.47,62.56,64.60,66.63,68.63,71.13,73.42,75.40,77.03,78.00,78.52,79.18,80.31,81.98,84.02,86.21,88.65,91.56,95.72,99.28,102.11,104.18,105.40,106.01,106.03,105.50,104.50,103.54,102.68,101.87,101.16,102.70,104.02,106.32,110.09,114.79,120.27,126.66,133.58,140.26,144.50,148.58,152.85,157.49,162.37,167.46,172.39,177.40,183.51,191.26,199.01,207.13,216.17,223.92,230.85,237.09,242.71,247.74,254.04,259.02,262.34,264.45,264.55,264.09,263.48,263.09,263.83,265.35,266.85,268.04,268.95,268.77,268.18,267.15,265.60,264.01,261.45,258.82,256.95,257.35,258.08,259.21,260.56,261.80,263.90,267.34,271.41,275.52,280.54,287.12,293.69,299.79,305.93,311.92,317.16,320.82,322.03,323.16,323.97,324.14,323.57,322.78,320.88,318.48,315.69,312.48,308.39,304.44,300.77,297.42,294.03,289.92,285.98,282.63,280.16,277.66,274.97,271.96,268.47,264.55,260.48,256.25,251.82,247.08,241.88,235.76,228.77,221.26,216.44,212.69,209.47,206.36,203.45,201.06,199.20,197.70,195.78,193.26,190.98,189.70,190.24
97.75,100.96,102.81,103.52,103.67,105.25,105.35,104.47,102.91,101.05,99.47,99.10,99.65,100.81,102.80,106.53,111.59,117.22,121.51,121.24,117.62,112.28,107.26,103.39,98.96,94.40,89.98,85.89,81.94,79.11,77.27,75.68,74.24,72.80,71.33,69.87,69.21,68.95,68.66,68.21,67.69,67.50,67.12,66.58,66.05,65.60,65.13,64.67,64.18,63.48,62.21,61.17,60.44,59.77,59.16,58.65,58.11,57.42,56.75,56.35,56.12,56.00,55.95,56.01,56.33,56.72,56.86,57.00,57.48,58.28,59.39,60.70,62.01,63.22,64.43,65.97,68.10,70.56,73.17,75.68,77.51,78.94,79.89,80.35,80.36,80.42,80.45,80.43,80.36,80.42,80.44,80.44,80.42,80.17,79.45,78.45,77.24,75.85,74.46,72.81,71.07,69.14,61.34,59.09,58.59,58.05,57.51,56.91,56.41,56.17,56.35,56.24,57.16,58.29,59.10,60.31,62.06,63.89,65.70,67.49,69.34,71.04,72.62,74.17,75.59,76.55,77.64,79.12,80.88,83.11,85.41,87.68,89.85,93.51,97.08,99.94,101.64,102.31,102.15,101.55,100.60,99.11,98.07,97.65,97.54,97.51,100.38,103.69,107.26,111.19,116.39,122.44,129.34,136.51,142.95,147.04,151.44,156.10,160.87,165.59,170.34,175.08,180.37,187.87,193.93,201.14,209.25,217.57,225.02,231.62,237.75,243.60,248.96,256.24,260.90,263.14,265.16,266.78,267.30,267.29,267.31,268.15,269.07,270.12,271.23,272.08,272.26,272.00,271.06,269.18,267.84,265.85,264.12,263.30,263.89,264.99,266.30,267.74,269.32,270.72,272.80,275.58,279.10,284.12,290.28,296.81,303.45,310.32,315.68,319.36,321.62,322.91,323.65,324.11,323.72,322.35,321.02,317.42,312.56,307.56,304.25,300.72,297.75,294.93,291.81,287.57,283.43,280.09,277.59,275.11,272.70,270.11,267.06,263.23,259.02,254.69,250.18,245.45,240.31,235.25,228.67,221.37,216.04,212.22,208.76,205.55,202.54,199.67,197.29,195.09,192.92,190.71,188.93,187.58,186.75,186.60
96.77,100.48,103.12,105.11,106.85,109.21,110.19,110.14,109.27,107.86,106.61,106.07,106.32,107.46,109.79,113.45,117.66,121.62,123.78,121.63,117.31,112.08,107.31,103.70,99.44,94.68,89.76,85.93,82.41,79.76,77.76,75.66,74.14,72.69,71.27,69.93,69.17,68.71,68.29,67.81,67.27,66.88,66.38,65.84,65.38,64.87,64.34,63.78,63.21,62.47,61.55,60.79,60.17,59.51,59.01,58.54,58.12,57.78,57.57,57.35,57.22,57.23,57.40,57.56,57.94,58.47,58.98,59.40,59.96,60.75,61.83,63.18,64.50,65.67,66.78,68.10,70.22,72.68,75.26,77.75,79.86,81.43,82.43,82.88,82.88,82.95,82.95,82.86,82.65,82.73,82.75,82.82,82.96,82.82,82.24,81.27,79.89,78.05,76.59,75.10,73.52,71.72,67.16,62.14,59.09,58.51,57.97,57.44,56.87,56.35,56.02,56.38,57.30,58.34,59.21,60.30,61.97,63.72,65.39,66.99,68.42,69.79,71.14,72.55,73.93,75.31,76.83,78.51,80.15,82.34,84.52,86.59,88.58,91.10,93.92,96.26,97.54,97.50,96.37,95.01,93.80,93.05,92.67,93.32,95.00,97.63,100.91,104.44,108.30,112.66,118.17,124.59,132.00,139.39,144.97,149.45,154.03,158.64,163.20,167.65,172.90,177.85,182.78,189.50,195.18,201.96,209.71,217.95,225.32,231.87,238.03,244.05,249.99,257.03,261.47,263.66,265.80,267.80,269.04,269.78,270.32,270.95,271.71,272.72,273.90,275.01,275.50,275.73,275.51,274.59,273.49,272.07,270.85,270.25,270.87,271.64,272.66,273.90,275.22,276.57,278.34,280.74,283.96,288.63,294.45,300.69,306.83,312.11,316.39,319.32,321.02,321.75,322.01,322.02,320.65,317.47,313.80,309.27,304.66,300.51,297.58,294.72,291.60,288.10,284.21,280.99,277.84,275.04,272.61,270.18,267.62,264.84,261.55,257.43,253.13,249.11,245.04,240.67,235.58,229.56,222.96,216.63,212.19,208.48,205.12,202.05,199.23,196.55,194.17,191.99,189.95,188.02,186.32,184.99,183.98,183.18
94.97,99.15,102.50,105.53,108.56,111.73,113.89,115.08,115.28,114.40,113.61,113.08,113.12,114.04,116.59,120.09,123.35,125.52,125.38,121.84,117.23,112.33,107.79,104.28,100.25,95.39,89.94,86.30,83.09,80.49,78.27,75.89,74.38,73.06,71.87,70.78,69.63,68.89,68.35,67.90,67.41,66.91,66.35,65.79,65.39,64.85,64.21,63.51,62.78,61.96,61.30,60.70,60.13,59.48,59.08,58.67,58.39,58.36,58.53,58.51,58.51,58.64,59.00,59.26,59.78,60.52,61.34,61.91,62.42,63.12,64.16,65.58,66.97,68.17,69.25,70.41,72.41,74.80,77.41,80.05,82.33,83.97,84.98,85.41,85.43,85.47,85.42,85.24,84.93,85.02,85.07,85.24,85.57,85.54,85.16,84.30,82.87,80.73,78.87,77.07,75.34,73.70,72.00,66.06,61.04,58.98,58.44,57.91,57.26,56.53,55.81,56.53,57.39,58.28,59.15,60.20,61.79,63.43,64.97,66.39,67.56,68.70,69.88,71.16,72.46,74.09,75.89,77.73,79.37,81.49,83.52,85.39,87.15,88.69,90.39,91.88,92.79,92.43,90.82,89.27,88.31,88.22,88.78,90.54,93.74,98.44,101.90,105.40,109.40,114.20,120.06,126.79,134.41,141.74,146.71,151.59,156.30,160.83,165.22,169.63,175.33,180.43,184.92,190.56,196.01,202.38,209.74,217.93,225.24,231.75,237.89,243.98,250.38,257.10,261.44,263.80,266.02,268.31,270.16,271.62,272.76,273.45,274.25,275.29,276.54,277.87,278.83,279.63,280.15,280.21,279.53,278.75,277.97,277.37,277.78,278.19,278.93,279.95,281.03,282.37,284.12,286.45,289.51,293.67,298.84,304.10,308.89,312.45,315.42,317.57,318.80,319.07,318.62,317.63,315.11,310.74,305.77,300.96,296.99,293.84,291.06,288.50,285.25,281.43,277.34,274.84,272.20,269.67,267.33,265.21,262.55,259.54,256.10,252.11,248.14,244.49,240.68,236.32,230.91,224.23,217.83,212.39,208.50,204.84,201.61,198.72,196.04,193.53,191.25,189.19,187.33,185.63,183.93,182.46,181.18,179.96
91.79,96.71,100.70,104.15,107.48,111.65,115.46,118.54,120.36,120.13,119.97,119.95,120.02,120.28,122.58,126.00,128.45,128.85,126.14,121.99,117.59,113.17,108.87,105.27,101.60,96.83,90.96,87.26,83.96,81.05,78.47,76.14,74.64,73.61,73.05,72.78,70.93,69.85,69.21,68.82,68.48,68.13,67.62,67.06,66.60,66.06,65.28,64.34,63.34,62.37,61.64,61.00,60.42,59.92,59.53,59.22,59.07,59.13,59.35,59.53,59.78,60.14,60.64,61.19,62.12,63.25,64.21,64.63,64.82,65.27,66.28,67.80,69.36,70.74,71.93,73.09,74.76,76.94,79.66,82.85,85.04,86.58,87.51,87.91,87.98,87.94,87.76,87.47,87.16,87.31,87.44,87.75,88.27,88.39,88.24,87.65,86.46,84.36,81.45,79.08,77.17,75.48,73.78,71.17,66.03,59.49,58.95,58.24,57.46,56.63,55.81,56.43,57.23,58.09,58.95,59.90,61.31,62.77,64.17,65.44,66.60,67.68,68.76,69.95,71.19,72.74,74.51,76.43,78.37,80.40,82.34,84.03,85.24,86.29,86.38,86.45,87.10,87.28,86.21,85.71,85.99,86.10,87.99,90.81,94.69,99.72,103.13,106.50,110.60,115.80,122.10,129.11,136.31,142.98,148.05,153.17,157.96,162.48,166.87,171.77,177.57,182.57,186.65,191.11,196.32,202.33,209.31,217.35,224.56,230.97,236.97,242.93,249.52,256.02,260.50,263.21,265.38,268.05,270.36,272.43,274.35,275.73,276.83,277.97,279.23,280.61,282.43,283.92,285.04,285.85,285.91,285.94,285.55,284.69,284.46,284.65,285.18,286.02,287.10,288.29,290.35,293.06,296.15,299.58,303.39,306.33,308.30,310.49,311.71,312.80,313.60,313.75,312.17,309.04,305.15,301.08,297.44,293.46,290.29,287.66,284.44,281.39,278.33,275.33,272.47,269.61,266.25,263.40,261.42,260.13,257.53,254.29,250.92,247.97,245.09,241.82,237.71,232.47,225.88,219.40,213.52,208.53,204.79,201.33,198.33,195.61,192.98,190.57,188.58,186.74,184.96,183.26,181.56,179.84,178.26,177.09
87.74,93.29,98.12,102.49,106.65,111.09,115.65,119.78,123.00,124.64,124.88,125.17,125.51,125.97,127.84,130.35,131.20,129.61,125.84,121.80,117.46,113.03,108.80,105.32,101.76,97.10,91.33,87.47,84.13,81.13,78.60,76.81,76.30,76.08,76.14,76.37,75.11,73.49,71.79,70.33,69.91,69.49,68.93,68.29,67.72,66.88,65.92,64.88,63.81,62.77,62.01,61.40,60.88,60.41,60.02,59.76,59.81,60.30,60.76,61.21,61.73,62.31,62.92,63.61,64.76,66.06,66.99,67.22,67.21,67.49,68.41,70.10,71.83,73.38,74.71,75.87,77.36,79.59,82.49,85.85,87.86,89.22,90.08,90.50,90.58,90.62,90.41,90.07,89.84,89.99,90.30,90.81,91.45,91.68,91.72,91.39,90.44,88.43,85.38,82.29,79.50,77.27,75.49,73.63,70.03,64.60,59.93,58.67,57.85,56.99,56.10,56.26,56.90,57.75,58.60,59.49,60.70,61.98,63.24,64.44,65.49,66.51,67.58,68.78,69.98,71.38,73.10,75.10,77.11,79.06,80.73,81.92,82.37,82.62,82.24,81.98,82.34,82.77,82.70,83.08,84.05,85.22,87.79,91.37,95.78,100.70,104.03,107.35,111.63,117.27,123.84,131.22,138.08,144.02,148.82,154.06,159.04,163.75,168.29,173.42,178.79,183.36,187.09,190.93,195.78,201.41,207.77,214.85,222.41,229.06,235.00,240.58,246.89,253.13,258.00,261.41,263.72,266.71,269.45,271.76,273.60,275.60,277.79,279.76,281.44,283.13,285.25,287.01,288.29,289.10,289.48,289.84,289.86,289.52,289.62,289.87,290.49,291.34,291.97,293.04,294.80,296.81,298.68,300.80,302.90,304.26,305.00,306.33,306.89,307.41,307.74,307.56,305.37,302.05,298.27,294.52,291.05,287.53,284.60,282.05,279.10,276.09,273.10,270.22,267.49,264.25,261.32,259.06,257.47,256.13,253.30,250.31,247.43,244.84,242.03,238.50,233.80,227.74,220.75,214.47,209.04,204.62,201.40,198.36,195.45,192.72,190.22,188.06,186.13,184.33,182.57,180.72,178.77,176.83,175.08,173.73
83.92,89.90,95.52,100.80,105.77,110.36,115.47,120.42,124.88,128.48,129.23,129.82,130.50,131.43,132.74,133.75,132.70,129.32,124.90,121.10,116.81,112.33,108.24,104.94,101.40,96.85,91.33,87.47,84.12,81.17,78.86,77.73,78.27,78.84,79.41,79.90,79.48,77.51,74.82,72.27,71.60,70.98,70.24,69.43,68.65,67.50,66.40,65.32,64.24,63.16,62.41,61.85,61.40,60.94,60.54,60.37,60.70,61.70,62.45,63.16,63.89,64.66,65.38,66.19,67.49,68.90,69.78,69.89,69.77,69.91,70.68,72.44,74.28,76.00,77.51,78.68,80.15,82.58,85.63,88.80,90.62,91.82,92.62,93.09,93.21,93.37,93.21,92.89,92.79,92.98,93.46,94.12,94.82,95.17,95.34,95.24,94.54,92.57,89.60,85.93,82.23,79.22,77.18,75.15,73.12,69.97,61.27,59.23,58.28,57.41,56.48,56.10,56.54,57.36,58.20,59.04,60.04,61.12,62.25,63.38,64.32,65.30,66.39,67.62,68.79,70.05,71.64,73.60,75.58,77.39,78.73,79.41,79.23,78.82,78.39,78.19,78.40,78.98,79.85,80.93,82.38,84.74,87.76,91.99,96.86,101.57,104.82,108.17,112.67,118.68,125.42,133.11,139.63,144.84,149.27,154.55,159.73,164.69,169.43,174.64,179.45,183.52,186.96,190.40,194.92,200.12,205.78,211.71,219.45,226.32,232.29,237.60,243.40,249.30,254.52,258.67,261.35,264.65,267.80,270.31,271.93,274.34,277.47,280.36,282.72,284.68,286.71,288.54,289.96,290.71,291.39,291.89,292.22,292.49,293.03,293.37,294.08,294.89,295.04,295.89,297.08,298.12,298.63,299.44,300.00,300.26,300.39,301.06,301.30,301.46,301.41,300.91,298.43,295.49,292.26,288.86,285.33,282.20,279.39,276.78,274.21,271.34,268.37,265.45,262.67,259.28,257.05,255.49,254.19,252.49,249.51,246.86,244.50,242.04,238.93,234.88,229.45,222.61,215.59,209.53,204.63,200.92,198.31,195.67,192.79,189.98,187.58,185.66,183.74,181.89,180.07,178.02,175.80,173.72,171.96,170.68
82.19,87.98,93.83,99.34,104.38,109.57,115.56,121.48,126.83,131.07,133.13,134.23,135.21,136.67,137.13,135.18,132.05,128.06,122.75,118.73,114.59,110.58,107.22,104.02,100.51,96.00,90.67,87.60,84.38,81.61,79.71,79.18,79.69,80.31,80.85,81.13,80.90,79.56,77.49,75.21,73.91,72.86,71.55,70.14,68.97,67.87,66.78,65.70,64.62,63.54,62.88,62.39,61.97,61.51,61.06,61.23,62.07,63.50,64.55,65.33,66.09,66.92,67.73,68.77,70.20,71.70,72.79,73.04,73.03,73.11,73.56,74.83,76.58,78.49,80.27,81.49,83.42,86.31,89.25,91.35,92.96,94.16,95.00,95.55,95.87,96.14,96.19,96.17,96.37,96.70,97.19,97.77,98.36,98.90,99.03,99.06,98.58,96.42,93.29,89.79,85.94,81.85,78.88,76.25,73.70,70.39,63.48,60.28,58.67,57.79,56.87,56.14,56.31,56.96,57.75,58.54,59.33,60.22,61.20,62.18,63.06,64.09,65.23,66.41,67.68,68.86,70.05,71.40,73.23,74.73,75.69,76.17,76.29,76.13,75.88,75.94,76.56,77.34,78.33,79.59,81.36,84.31,87.70,92.45,97.72,102.34,105.64,109.22,113.91,119.97,126.81,134.34,140.39,145.02,149.15,154.33,159.55,164.67,169.66,174.68,179.09,182.84,186.09,189.39,193.81,198.48,203.36,208.48,215.08,221.62,227.87,233.66,238.66,243.98,249.08,253.64,257.35,261.07,264.59,267.47,269.48,271.54,273.97,277.22,280.76,282.47,283.49,285.21,287.17,288.62,290.04,290.59,290.80,290.97,291.11,291.35,291.71,292.07,292.16,292.40,292.72,293.04,293.28,293.44,293.72,293.87,293.90,294.02,294.03,294.05,293.93,293.44,291.31,288.68,285.81,282.86,279.88,277.33,274.81,272.22,269.56,266.54,263.48,260.76,258.64,256.09,254.20,252.62,251.05,248.95,246.41,243.98,241.65,239.29,235.69,230.83,224.48,216.92,210.34,204.72,200.77,198.22,196.05,193.39,190.49,187.61,185.03,183.16,181.29,179.30,177.15,174.85,172.60,170.67,169.48,169.53
82.57,87.48,92.91,98.20,103.15,108.62,115.22,121.79,127.87,133.09,136.08,137.82,139.11,140.41,139.48,135.80,131.34,126.64,121.06,116.88,112.80,109.04,106.04,103.00,99.33,94.85,89.97,87.41,84.93,82.89,81.51,81.04,81.39,81.84,82.23,82.41,81.91,80.72,78.99,76.97,75.30,73.84,72.18,70.50,69.13,68.05,66.97,65.87,64.82,64.17,63.59,63.06,62.57,62.05,61.61,62.16,63.42,64.99,66.34,67.32,68.23,69.18,70.12,71.50,73.08,74.61,75.83,76.20,76.38,76.54,76.85,77.68,79.10,81.00,82.98,84.21,86.53,89.43,92.12,93.89,95.28,96.48,97.38,98.00,98.67,99.29,99.77,100.27,101.11,101.68,102.32,102.96,103.52,103.80,103.34,102.95,102.24,99.75,96.18,92.59,88.72,84.30,80.67,77.57,74.60,71.19,65.90,61.39,59.05,58.19,57.29,56.44,56.16,56.45,57.22,57.99,58.78,59.40,59.94,60.74,61.76,62.93,64.19,65.47,66.66,67.70,68.65,69.63,70.98,72.02,72.63,72.90,73.07,73.33,73.49,73.87,74.69,75.63,76.76,78.38,80.71,84.09,87.72,92.90,98.48,102.95,106.36,110.24,115.09,121.10,128.01,134.95,140.52,144.86,148.78,153.68,158.73,163.86,169.02,173.84,178.08,181.77,185.05,188.30,192.27,196.42,200.64,204.93,210.37,216.35,222.41,228.26,233.84,238.73,243.45,248.08,252.64,256.68,260.68,263.98,266.14,267.92,269.79,272.47,275.68,277.86,278.95,280.23,281.59,282.72,283.68,284.23,284.59,284.85,284.76,284.83,284.92,284.98,284.96,284.81,284.68,284.64,284.76,284.84,284.99,285.08,285.07,285.02,285.00,285.13,285.19,284.89,283.13,281.00,278.82,276.69,274.16,272.00,269.78,267.34,264.58,261.65,258.92,256.64,254.96,253.03,251.29,249.63,247.90,245.78,243.45,241.13,238.84,236.54,232.88,227.40,220.23,212.03,205.96,201.27,198.02,195.84,193.80,191.11,188.21,185.28,182.51,180.57,178.64,176.62,174.42,171.99,169.68,168.09,167.78,169.35
84.27,87.93,92.53,97.33,102.08,107.66,114.66,121.67,128.36,134.70,138.43,140.87,142.44,143.22,140.58,135.93,130.62,125.21,119.77,115.48,111.41,107.77,104.93,102.03,98.10,93.67,89.41,87.21,85.78,84.72,83.89,83.18,83.29,83.40,83.52,83.60,82.59,81.30,79.73,77.93,76.06,74.18,72.33,70.61,69.18,68.10,67.02,65.93,64.96,64.96,64.45,63.83,63.21,62.60,62.19,63.12,64.72,66.27,67.90,69.22,70.38,71.46,72.54,74.31,76.05,77.60,78.91,79.38,79.81,80.15,80.42,80.87,81.84,83.58,85.66,86.92,89.52,92.17,94.55,96.47,97.67,98.90,99.85,100.54,101.63,102.72,103.72,104.85,106.45,107.30,108.13,108.89,109.45,109.21,107.93,106.83,105.61,102.74,98.54,94.72,90.90,86.60,82.50,79.02,75.69,72.21,68.36,62.59,59.50,58.58,57.74,56.88,56.08,55.92,56.67,57.44,58.33,58.63,58.56,59.16,60.45,61.83,63.25,64.68,65.67,66.56,67.36,68.11,68.80,69.36,69.64,69.72,69.82,70.57,71.23,71.93,72.79,73.87,75.20,77.31,80.30,84.01,87.78,93.31,99.14,103.44,107.00,111.20,116.19,122.09,129.04,135.15,140.23,144.46,148.24,152.74,157.49,162.52,167.77,172.39,176.60,180.42,183.87,187.10,190.47,194.08,197.74,201.21,205.49,210.79,216.38,222.06,228.85,233.47,237.72,242.23,247.45,251.72,256.19,259.88,262.04,263.66,265.12,266.75,268.81,271.76,273.48,274.15,274.29,274.56,274.40,274.88,275.48,275.83,275.54,275.41,275.33,275.25,275.17,274.83,274.50,274.30,274.35,274.59,274.72,274.79,274.84,274.88,275.00,275.39,275.77,275.73,274.41,272.90,271.57,270.42,268.30,266.41,264.48,262.27,259.45,256.76,254.60,252.89,251.50,250.03,248.32,246.54,244.74,242.82,240.56,238.31,236.08,233.83,230.38,224.47,216.60,207.83,202.26,198.68,195.96,193.68,191.57,188.81,185.92,182.96,180.02,177.92,175.89,173.87,171.77,169.32,166.91,165.83,166.65,169.79
87.06,90.04,93.55,97.50,101.98,107.75,114.74,121.84,128.73,135.27,140.10,142.98,144.57,145.15,141.08,135.81,130.28,124.97,120.27,116.14,112.23,108.81,106.19,102.65,98.66,94.63,91.10,89.65,88.66,87.59,86.47,85.62,85.53,84.95,84.10,83.21,82.10,80.98,79.51,77.62,75.45,73.23,71.36,69.93,68.99,68.01,66.96,66.22,65.99,65.99,65.47,64.85,64.24,63.62,63.17,64.08,65.71,67.36,68.98,71.18,72.98,74.13,75.10,76.95,78.99,80.88,82.30,82.87,83.60,84.22,84.55,84.91,85.78,86.96,88.35,89.90,92.34,94.82,97.26,99.64,101.58,103.03,103.95,104.57,105.71,107.03,108.22,109.35,110.61,111.30,111.88,112.25,112.31,111.92,111.10,110.00,108.30,105.18,100.37,96.22,92.39,88.32,84.12,80.28,76.64,73.08,69.48,64.56,60.98,58.98,58.18,57.28,56.40,56.01,56.42,57.24,57.94,57.87,57.33,57.59,59.36,61.03,62.46,63.65,64.50,65.27,65.93,66.51,67.15,67.66,67.91,68.09,68.53,69.15,69.69,70.23,70.88,72.01,74.34,77.18,80.35,84.01,87.78,93.34,99.24,103.64,107.30,111.63,116.66,122.46,129.30,134.73,139.41,143.54,147.22,150.99,155.47,160.39,165.38,169.65,174.07,178.33,182.18,185.26,188.40,191.55,194.67,197.74,201.23,205.74,210.97,216.62,221.97,227.39,232.25,236.71,241.34,245.50,249.37,252.36,254.22,256.97,259.02,260.82,262.58,264.39,265.60,266.19,266.27,266.00,265.74,265.62,265.11,264.01,262.78,262.30,262.76,263.87,265.03,265.31,264.98,264.32,263.60,262.81,262.91,263.46,264.24,264.97,265.97,266.85,267.33,267.06,266.72,266.02,265.12,264.06,262.69,261.09,259.24,257.17,254.89,252.65,250.96,249.60,248.31,246.89,245.03,243.22,241.58,239.80,237.87,235.87,233.78,231.53,228.47,223.35,215.79,206.54,200.87,197.28,194.42,191.86,189.36,186.34,183.30,180.38,177.71,175.36,173.15,171.01,168.87,166.61,164.18,164.48,167.19,171.07
91.41,93.79,96.48,99.64,103.46,108.47,114.93,121.93,129.13,136.24,141.56,145.02,146.93,147.27,142.18,136.47,130.82,125.66,121.44,117.42,113.68,110.35,107.59,103.85,100.00,96.45,93.59,92.17,90.90,89.50,88.10,87.10,86.55,85.51,84.16,82.75,81.47,80.25,78.76,76.88,74.66,72.41,70.69,69.53,68.86,68.13,67.32,66.90,67.03,66.98,66.48,65.86,65.18,64.36,64.00,64.96,66.62,68.34,70.28,73.10,75.42,76.80,77.73,79.55,81.68,83.77,85.43,86.42,87.43,88.25,88.73,89.07,89.93,90.87,91.92,93.47,95.89,98.82,101.79,104.35,106.28,107.55,108.30,108.78,109.70,110.99,112.20,113.27,114.25,114.85,115.19,115.26,115.04,114.50,113.70,112.47,110.54,107.39,102.04,97.55,93.63,89.73,85.65,81.66,77.82,74.13,70.50,66.04,62.05,59.27,58.47,57.55,56.62,56.07,56.15,56.90,57.29,57.16,56.85,57.25,58.87,60.35,61.56,62.53,63.23,63.87,64.44,64.95,65.47,65.94,66.24,66.56,67.25,67.87,68.36,68.82,69.38,70.61,73.60,76.99,80.41,84.04,87.75,93.20,99.08,103.68,107.43,111.82,116.80,122.41,128.91,133.96,138.46,142.49,145.95,149.26,153.30,157.81,162.42,166.44,170.84,175.25,179.42,182.87,185.74,188.48,191.29,194.37,197.41,201.22,205.90,211.23,216.02,221.46,226.49,231.05,235.53,239.68,243.29,245.94,247.54,250.03,251.93,253.52,254.90,256.09,256.90,257.44,257.62,257.35,257.14,256.60,255.51,253.82,251.95,251.16,251.48,252.60,253.89,254.41,254.27,253.67,252.81,251.96,252.06,252.81,254.02,255.45,257.09,258.49,259.36,259.47,259.74,259.54,258.92,257.98,256.95,255.61,254.07,252.36,250.52,248.87,247.58,246.42,245.14,243.70,241.78,239.95,238.35,236.75,235.10,233.31,231.39,229.36,226.60,222.23,215.10,205.60,199.88,196.26,193.11,190.05,187.17,184.05,180.95,178.06,175.50,173.02,170.54,168.19,165.97,163.76,162.10,163.67,167.76,172.63
97.34,99.23,101.35,103.76,106.54,109.82,115.22,121.94,129.56,137.61,142.83,147.00,149.52,149.58,143.91,137.91,132.26,127.30,123.27,119.32,115.74,112.42,109.13,105.64,102.14,99.15,96.88,94.77,92.48,90.43,88.76,87.61,86.36,85.06,83.69,82.22,80.70,79.12,77.47,75.70,73.68,71.72,70.32,69.42,68.80,68.46,68.12,67.99,68.11,67.96,67.48,66.86,66.04,64.83,64.68,65.76,67.45,69.21,71.79,74.99,77.70,79.48,80.41,82.10,84.12,86.25,88.31,90.03,91.30,92.25,92.96,93.34,94.29,95.33,96.39,97.64,100.18,104.18,108.16,110.63,111.77,112.47,112.89,113.17,113.59,114.60,115.65,116.60,117.38,117.93,118.05,117.92,117.64,116.96,115.72,114.23,112.30,109.36,103.56,98.70,94.62,90.83,87.10,83.16,79.22,75.35,71.44,67.02,62.70,59.45,58.60,57.67,56.75,56.08,55.88,56.43,56.37,56.52,57.12,58.16,59.01,59.78,60.53,61.31,61.86,62.35,62.89,63.45,63.78,64.22,64.63,65.13,65.97,66.74,67.24,67.69,68.31,69.69,72.99,76.75,80.48,84.11,87.68,92.89,98.67,103.55,107.41,111.79,116.63,121.93,127.84,132.86,137.37,141.31,144.43,147.53,150.98,154.79,158.90,162.77,166.90,171.19,175.58,179.92,182.51,184.88,187.61,191.11,194.05,197.26,201.17,205.91,210.99,215.68,220.43,225.26,230.03,234.28,237.96,240.62,242.04,242.85,243.85,244.82,245.75,246.84,247.38,247.89,248.34,248.60,248.59,247.82,246.67,245.28,243.06,242.01,241.52,241.43,241.73,242.12,242.37,242.34,241.96,242.05,242.20,242.85,244.20,246.31,248.37,250.28,251.87,252.96,253.48,253.45,252.98,252.16,251.08,249.98,248.95,247.85,246.35,245.43,244.45,243.33,242.01,240.47,238.56,236.71,235.07,233.66,232.26,230.62,228.90,227.32,224.76,221.11,214.53,205.03,199.31,195.65,192.02,188.24,185.02,181.92,178.88,176.00,173.39,170.92,168.06,165.39,163.08,160.77,160.67,163.41,168.39,174.48
103.75,105.28,107.00,108.94,111.14,113.85,117.67,123.00,130.01,138.81,144.22,148.38,150.80,150.82,145.88,139.99,134.34,129.33,124.76,120.47,116.78,113.45,110.12,106.33,102.53,99.32,96.92,94.72,92.39,90.24,88.43,87.18,85.91,84.61,83.28,81.91,80.69,79.51,78.45,77.38,75.88,74.20,72.56,71.27,70.70,70.34,69.96,69.60,69.29,69.00,68.42,67.59,66.50,65.22,65.39,66.53,68.20,70.10,73.60,77.27,80.18,82.03,83.19,85.06,87.14,89.37,91.78,93.65,94.99,96.05,97.01,97.99,99.28,100.52,101.78,103.38,106.55,110.29,113.60,115.57,116.42,117.00,117.42,117.75,118.14,118.81,119.53,120.30,121.17,121.80,121.87,121.49,120.69,119.03,117.51,115.52,112.89,109.63,104.13,99.37,95.30,91.56,87.86,84.09,80.31,76.49,72.41,67.86,63.19,59.58,58.73,57.85,57.03,56.36,55.93,56.01,56.17,56.49,56.99,57.66,58.34,58.82,59.25,59.79,60.29,60.76,61.23,61.70,62.10,62.59,63.17,63.85,64.70,65.51,66.10,66.80,67.90,69.47,72.75,76.44,80.10,83.64,87.20,92.22,97.90,103.07,107.12,111.48,116.10,121.03,126.67,131.49,135.85,139.72,142.95,145.73,148.63,151.78,155.24,158.88,162.79,166.87,171.06,175.33,178.31,181.06,183.89,187.03,190.38,193.62,197.05,200.85,205.12,209.75,214.41,219.20,224.40,228.15,231.36,233.86,235.50,236.52,237.38,238.15,238.77,239.02,239.17,239.50,239.73,239.48,238.79,237.51,236.11,234.75,232.93,231.58,230.86,230.80,231.30,231.78,232.28,232.68,232.91,233.39,233.72,234.32,235.57,238.15,241.03,243.49,245.37,246.56,247.24,247.50,247.36,246.81,245.64,244.69,244.00,243.44,242.70,241.82,240.85,239.65,238.09,236.31,234.71,233.22,231.80,230.36,228.89,227.61,226.35,224.80,222.85,218.93,212.55,204.23,198.60,194.19,190.18,186.41,182.98,179.92,176.92,174.03,171.26,168.52,165.57,162.80,160.40,158.50,160.14,163.90,169.46,176.51
109.70,111.05,112.54,114.19,116.03,118.28,120.93,124.95,131.01,139.88,145.54,149.82,152.11,151.73,147.27,141.48,135.83,130.73,125.67,121.06,117.28,114.01,110.73,106.66,102.57,99.17,96.73,94.47,92.18,90.05,88.28,87.13,85.95,84.80,83.64,82.45,81.49,80.79,80.25,79.69,78.69,77.12,75.35,73.91,73.44,73.09,72.70,72.19,71.52,70.71,69.54,68.26,66.96,65.61,66.05,67.24,68.99,71.23,75.32,79.14,82.13,84.18,85.78,87.94,90.23,92.65,95.31,97.34,98.96,100.34,101.64,103.19,104.75,106.12,107.48,109.42,112.81,115.99,118.48,119.96,120.81,121.50,122.05,122.51,122.92,123.33,123.76,124.33,125.18,125.86,125.85,125.17,123.80,121.25,119.17,116.57,113.29,109.58,104.37,99.79,95.80,92.13,88.46,84.84,81.21,77.45,73.24,68.64,63.81,59.95,58.88,58.08,57.33,56.60,55.91,55.48,55.76,56.17,56.56,56.97,57.47,57.75,57.94,58.21,58.66,59.13,59.56,59.97,60.60,61.15,61.83,62.63,63.47,64.31,65.04,66.00,67.46,69.14,72.31,75.96,79.64,83.14,86.67,91.39,96.86,102.38,106.65,111.01,115.47,120.11,125.44,129.98,134.14,137.92,141.20,143.79,146.24,148.79,151.58,154.73,158.44,162.29,166.21,170.38,173.96,177.12,180.01,182.82,186.28,189.61,192.86,196.12,199.67,203.92,208.28,212.86,218.15,221.64,224.59,226.97,228.76,230.04,230.92,231.67,232.18,231.91,231.81,231.85,231.73,231.08,229.76,227.91,226.11,224.61,223.00,221.65,220.98,221.05,221.78,222.38,223.11,223.87,224.60,225.39,226.00,226.74,227.97,230.50,233.67,236.49,238.72,240.25,241.35,241.89,241.99,241.66,240.59,239.84,239.41,239.15,238.74,237.80,236.74,235.43,233.76,231.78,230.26,228.97,227.78,226.61,225.37,224.50,223.63,222.14,220.43,216.39,210.41,203.24,197.54,192.55,188.29,184.59,181.06,178.02,175.06,171.95,168.56,165.55,162.75,160.14,157.96,157.14,160.20,164.81,170.77,178.27
114.81,116.26,117.78,119.43,121.21,123.07,125.32,128.32,132.96,140.75,146.70,151.47,153.67,152.23,147.62,141.84,136.19,130.99,125.64,120.77,116.98,113.86,110.72,106.50,102.24,98.81,96.53,94.22,91.96,90.02,88.58,87.88,86.86,86.08,85.35,84.44,83.57,83.40,83.19,82.71,82.15,80.41,78.78,77.68,77.40,77.15,76.89,76.43,75.52,73.59,70.94,68.89,67.44,66.00,66.62,67.88,69.88,72.76,76.86,80.26,83.15,85.67,88.06,90.66,93.37,96.13,98.89,101.16,103.45,105.53,107.31,109.31,110.99,112.30,113.60,115.79,118.59,120.87,122.52,123.56,124.86,125.99,126.89,127.57,128.02,128.31,128.53,128.87,129.53,130.16,129.99,128.96,126.99,123.79,120.63,117.26,113.52,109.17,104.15,99.82,96.03,92.45,88.88,85.36,81.83,78.14,73.83,69.35,64.66,60.74,59.08,58.42,57.65,56.74,55.72,54.75,54.89,55.28,55.68,56.13,56.36,56.54,56.61,56.55,56.95,57.44,57.88,58.32,59.39,60.00,60.71,61.53,62.32,63.16,64.13,65.34,66.88,68.51,71.48,75.15,79.08,82.62,86.11,90.32,95.41,101.37,105.88,110.31,114.72,119.21,124.09,128.23,132.14,135.78,138.97,141.60,143.80,145.84,147.92,150.19,153.67,157.27,160.84,165.01,169.50,173.04,175.86,178.46,181.48,184.91,188.48,191.97,195.07,198.29,201.92,206.08,210.82,214.58,217.66,220.06,221.81,223.18,224.28,225.28,226.01,225.83,225.75,225.33,224.69,223.98,222.21,219.71,217.29,215.39,213.58,212.78,212.53,212.77,213.60,214.35,215.29,216.31,217.34,218.37,219.42,220.61,221.98,223.63,226.13,228.93,231.70,234.07,236.06,236.88,237.03,236.80,236.17,235.70,235.42,235.07,234.16,233.11,231.82,230.38,228.84,226.70,224.85,223.40,222.44,222.12,221.67,221.26,220.61,219.26,217.11,213.33,208.16,201.98,195.88,190.70,186.43,182.82,179.33,176.29,173.33,169.68,164.84,161.64,159.35,157.34,155.93,157.27,161.20,166.32,172.44,179.55
118.59,119.98,121.43,123.18,125.37,127.90,130.65,133.84,138.17,144.79,150.23,154.30,155.30,152.10,147.11,141.24,135.65,130.37,124.18,119.46,115.75,112.65,109.66,106.12,102.39,99.30,97.17,95.01,92.92,91.22,89.94,89.01,88.24,87.75,87.28,86.58,85.85,85.90,85.99,85.88,85.77,84.49,83.23,82.35,82.08,81.73,81.29,80.40,78.69,75.46,71.76,69.19,67.74,66.47,67.37,68.62,70.61,73.70,77.24,80.43,83.41,86.30,89.28,92.65,95.92,99.01,101.91,104.50,107.23,109.80,112.04,114.20,116.31,117.84,119.03,120.68,122.73,124.51,125.90,126.90,128.61,130.35,131.73,132.69,133.59,134.32,134.65,134.65,134.44,134.30,132.97,130.80,128.07,124.63,121.16,117.37,113.21,108.73,104.01,99.83,96.08,92.57,89.10,85.65,82.16,78.47,74.06,69.59,65.09,61.21,58.92,58.05,57.12,56.10,55.02,53.94,53.99,54.35,54.75,55.06,55.11,55.25,55.27,54.99,55.25,55.70,56.31,57.14,58.41,59.12,59.83,60.60,61.37,62.10,63.08,64.35,65.94,67.57,69.83,73.14,77.39,81.93,85.42,89.22,93.95,100.00,104.80,109.36,113.77,118.12,122.64,126.42,129.93,133.22,136.23,138.59,140.66,142.62,144.67,147.11,150.18,153.48,156.94,160.75,164.81,168.67,172.03,174.62,177.44,180.91,184.46,187.73,190.51,193.29,196.43,199.97,203.86,207.46,210.21,212.29,213.90,214.89,215.77,216.52,217.02,216.95,216.83,216.48,215.99,215.47,214.01,211.85,209.69,207.91,206.29,205.45,205.35,205.87,206.76,207.57,208.51,209.50,210.46,211.38,212.49,214.09,216.11,217.97,220.35,223.13,226.05,228.75,231.15,232.24,232.54,232.44,232.18,231.84,231.41,230.78,229.77,228.51,227.03,225.45,223.82,220.98,218.54,216.95,216.29,216.30,216.65,216.77,216.43,215.47,213.66,209.94,204.78,198.67,192.57,188.42,184.92,181.31,176.65,174.33,171.09,166.69,161.37,158.68,156.66,154.98,154.27,157.35,161.91,167.52,173.79,180.26
121.39,122.87,124.42,126.44,129.13,132.51,135.96,139.59,143.85,149.51,154.24,157.18,156.67,151.80,146.35,140.40,134.83,129.40,122.36,117.97,114.38,111.25,108.44,105.77,102.79,100.18,98.20,96.25,94.50,93.16,92.14,91.11,90.64,90.35,89.98,89.32,88.54,88.73,89.16,89.52,89.74,88.98,88.08,87.29,86.75,86.26,85.58,84.02,81.15,76.76,72.25,69.35,68.00,67.04,68.13,69.43,71.41,74.47,77.38,80.41,83.51,86.70,90.12,94.24,98.12,101.60,104.71,107.62,110.73,113.76,116.54,119.13,121.62,123.29,124.25,125.22,127.03,128.77,130.17,131.10,132.80,134.76,136.33,137.38,138.52,139.53,139.92,139.61,138.63,137.64,135.10,131.81,128.38,124.83,121.22,117.12,112.63,108.19,103.74,99.70,96.02,92.58,89.19,85.80,82.33,78.63,74.13,69.66,65.35,61.53,58.73,57.54,56.39,55.28,54.21,53.12,53.09,53.41,53.76,53.88,53.83,53.92,53.88,53.45,53.58,54.02,54.86,56.08,57.46,58.30,59.00,59.68,60.40,61.05,61.99,63.28,64.91,66.55,68.23,71.13,75.56,81.20,84.69,88.16,92.55,98.51,103.57,108.22,112.60,116.83,121.04,124.51,127.62,130.53,133.34,135.46,137.47,139.54,141.82,144.63,147.34,150.32,153.63,157.10,160.45,164.37,168.14,170.85,173.57,176.98,180.39,183.42,186.03,188.50,191.15,194.01,196.95,200.09,202.47,204.32,205.82,206.47,207.16,207.70,208.02,208.13,208.08,207.93,207.67,207.25,206.10,204.43,202.66,201.03,199.59,198.54,198.44,199.13,200.06,201.02,201.99,202.95,203.86,204.76,205.88,207.69,210.15,212.53,215.05,217.85,220.78,223.59,226.20,227.66,228.26,228.29,228.34,228.07,227.43,226.47,225.39,223.82,222.09,220.27,218.29,214.95,212.16,210.52,210.10,210.25,211.22,211.73,211.65,211.07,209.58,205.80,200.55,194.61,189.12,186.09,183.27,179.52,173.64,171.65,168.09,163.31,158.24,156.03,154.14,152.85,153.03,157.45,162.64,168.69,175.03,180.82
