3.50,3.58,3.62,3.65,3.71,3.79,3.87,3.90,3.92,4.00,4.07,4.12,4.15,4.21,4.28,4.36,4.40,4.42,4.49,4.57,4.61,4.65,4.70,4.78,4.82,4.85,4.91,4.99,5.06,5.10,5.10,5.10,5.10,5.10,5.10,5.09,5.02,5.00,5.00,5.00,5.00,5.07,5.10,5.10,5.10,5.10,5.10,5.10,5.10,5.10,5.10,5.10,5.10,5.10,5.10,5.10,5.10,5.10,5.10,5.10,5.10,5.10,5.10,5.10,5.10,5.10,5.10,5.10,5.10,5.10,5.10,5.10,5.10,5.10,5.10,5.10,5.10,5.10,5.10,5.10,5.10,5.10,5.10,5.10,5.10,5.10,5.10,5.10,5.10,5.10,5.10,5.10,5.10,5.07,5.07,5.07,5.07,5.07,5.02,5.00,5.00,5.00,5.00,5.00,5.00,5.00,5.00,5.00,5.00,5.00,5.00,5.00,5.00,5.00,5.00,5.00,5.00,5.00,5.00,5.00,5.00,5.00,5.00,5.00,5.00,5.00,5.00,5.00,5.00,5.00,5.00,5.00,5.00,5.00,5.00,5.00,5.00,5.00,5.00,5.00,5.00,5.00,5.00,5.03,5.07,5.07,5.09,5.10,5.10,5.10,5.10,5.10,5.13,5.18,5.20,5.10,5.03,5.01,5.03,5.06,5.08,5.13,5.21,5.29,5.43,5.64,5.87,6.10,6.25,6.46,6.69,6.93,7.19,7.47,7.69,7.87,8.16,8.42,8.71,8.99,9.23,9.54,9.78,10.05,10.38,10.76,11.13,11.47,11.82,12.21,12.47,12.71,12.91,13.07,13.28,13.44,13.59,13.73,13.81,13.79,13.73,13.65,13.57,13.49,13.48,13.44,13.36,13.29,13.21,13.18,13.18,13.18,13.18,13.18,13.25,13.44,13.75,14.10,14.44,14.75,15.08,15.37,15.67,15.99,16.33,16.58,16.84,17.05,17.22,17.42,17.65,17.89,18.12,18.35,18.51,18.55,18.58,18.66,18.81,19.04,19.33,19.64,19.85,19.98,20.27,20.69,21.15,21.62,22.12,22.62,23.11,23.57,24.08,24.58,25.06,25.52
3.50,3.58,3.60,3.63,3.71,3.79,3.84,3.88,3.92,4.00,4.07,4.10,4.13,4.21,4.28,4.34,4.38,4.42,4.49,4.57,4.60,4.62,4.70,4.78,4.80,4.83,4.91,4.99,5.04,5.08,5.10,5.10,5.10,5.10,5.10,5.09,5.02,5.00,5.00,5.00,5.00,5.07,5.10,5.10,5.10,5.10,5.10,5.10,5.10,5.10,5.10,5.10,5.10,5.10,5.10,5.10,5.10,5.10,5.10,5.10,5.10,5.10,5.10,5.10,5.10,5.10,5.10,5.10,5.10,5.10,5.10,5.10,5.10,5.10,5.10,5.10,5.10,5.10,5.10,5.10,5.10,5.10,5.10,5.10,5.10,5.10,5.10,5.10,5.10,5.10,5.10,5.10,5.10,5.10,5.10,5.10,5.10,5.10,5.05,5.03,5.03,5.03,5.03,5.01,5.00,5.00,5.00,5.00,5.00,5.00,5.00,5.00,5.00,5.00,5.00,5.00,5.00,5.00,5.00,5.00,5.00,5.00,5.00,5.00,5.00,5.00,5.00,5.00,5.00,5.00,5.00,5.00,5.00,5.00,5.00,5.00,5.00,5.00,5.00,5.01,5.03,5.03,5.03,5.07,5.10,5.10,5.10,5.10,5.10,5.10,5.10,5.10,5.14,5.20,5.20,5.15,5.08,5.03,5.03,5.01,5.00,5.03,5.08,5.13,5.27,5.48,5.71,5.94,6.15,6.39,6.65,6.91,7.22,7.51,7.73,7.93,8.19,8.42,8.71,8.99,9.23,9.54,9.78,10.07,10.41,10.77,11.15,11.49,11.82,12.21,12.54,12.84,13.07,13.23,13.43,13.60,13.75,13.89,14.00,14.00,13.97,13.90,13.83,13.75,13.73,13.70,13.62,13.54,13.49,13.47,13.47,13.47,13.47,13.47,13.49,13.56,13.80,14.14,14.45,14.74,15.05,15.36,15.69,16.03,16.39,16.67,16.97,17.24,17.48,17.71,17.96,18.20,18.44,18.67,18.90,19.02,19.08,19.10,19.10,19.18,19.48,19.92,20.28,20.42,20.63,20.91,21.22,21.53,21.94,22.39,22.85,23.34,23.86,24.34,24.81,25.30
3.50,3.58,3.60,3.63,3.71,3.79,3.80,3.84,3.92,4.00,4.07,4.10,4.13,4.21,4.28,4.30,4.34,4.42,4.49,4.57,4.60,4.62,4.70,4.78,4.80,4.83,4.91,4.99,5.00,5.04,5.10,5.10,5.10,5.10,5.10,5.09,5.02,5.00,5.00,5.00,5.00,5.07,5.10,5.10,5.10,5.10,5.10,5.10,5.10,5.10,5.10,5.10,5.10,5.10,5.10,5.10,5.10,5.10,5.10,5.10,5.10,5.10,5.10,5.10,5.10,5.10,5.10,5.10,5.10,5.10,5.10,5.10,5.10,5.10,5.10,5.10,5.10,5.10,5.10,5.10,5.10,5.10,5.10,5.10,5.10,5.10,5.10,5.10,5.10,5.10,5.10,5.10,5.10,5.10,5.10,5.10,5.10,5.10,5.10,5.10,5.10,5.10,5.10,5.04,5.00,5.00,5.00,5.00,5.00,5.00,5.00,5.00,5.00,5.00,5.00,5.00,5.00,5.00,5.00,5.00,5.00,5.00,5.00,5.00,5.00,5.00,5.00,5.00,5.00,5.00,5.00,5.00,5.00,5.00,5.00,5.00,5.00,5.00,5.00,5.04,5.10,5.10,5.10,5.10,5.10,5.10,5.10,5.10,5.10,5.10,5.10,5.10,5.14,5.20,5.20,5.20,5.14,5.10,5.09,5.02,5.00,5.00,5.00,5.01,5.15,5.35,5.58,5.81,6.12,6.43,6.73,7.04,7.35,7.59,7.83,8.04,8.19,8.42,8.71,8.99,9.23,9.54,9.78,10.09,10.46,10.77,11.15,11.49,11.82,12.21,12.59,12.98,13.26,13.41,13.57,13.72,13.88,14.03,14.19,14.19,14.19,14.16,14.08,14.01,13.99,13.95,13.87,13.80,13.79,13.79,13.79,13.79,13.79,13.79,13.79,13.80,13.88,14.16,14.43,14.68,14.99,15.30,15.66,16.01,16.33,16.71,17.04,17.38,17.73,17.96,18.26,18.52,18.76,18.99,19.22,19.45,19.61,19.67,19.67,19.68,20.01,20.62,21.22,21.47,21.56,21.57,21.58,21.60,21.78,22.13,22.61,23.15,23.62,24.09,24.57,25.11
3.50,3.53,3.57,3.63,3.71,3.79,3.80,3.84,3.92,4.00,4.03,4.07,4.13,4.21,4.28,4.30,4.34,4.42,4.49,4.53,4.57,4.62,4.70,4.73,4.77,4.83,4.91,4.99,5.00,5.04,5.10,5.10,5.10,5.10,5.10,5.09,5.02,5.00,5.00,5.00,5.00,5.07,5.10,5.10,5.10,5.10,5.10,5.10,5.10,5.10,5.10,5.10,5.10,5.10,5.10,5.10,5.10,5.10,5.10,5.10,5.10,5.10,5.10,5.10,5.10,5.10,5.10,5.10,5.10,5.10,5.10,5.10,5.10,5.10,5.10,5.10,5.10,5.10,5.10,5.10,5.10,5.10,5.10,5.10,5.10,5.10,5.10,5.10,5.10,5.10,5.10,5.10,5.10,5.10,5.10,5.10,5.10,5.10,5.10,5.10,5.10,5.10,5.10,5.08,5.06,5.06,5.06,5.06,5.03,5.00,5.00,5.00,5.00,5.00,5.00,5.00,5.00,5.00,5.00,5.00,5.00,5.00,5.00,5.00,5.00,5.00,5.00,5.00,5.00,5.00,5.00,5.00,5.00,5.00,5.00,5.00,5.00,5.05,5.06,5.08,5.10,5.10,5.10,5.10,5.10,5.10,5.10,5.10,5.10,5.10,5.10,5.10,5.12,5.14,5.14,5.14,5.12,5.10,5.10,5.07,5.02,5.00,5.00,5.00,5.14,5.37,5.65,5.93,6.24,6.55,6.86,7.17,7.48,7.72,7.92,8.11,8.32,8.50,8.74,8.99,9.23,9.54,9.78,10.09,10.46,10.77,11.15,11.52,11.88,12.27,12.61,12.98,13.33,13.60,13.76,13.91,14.07,14.21,14.32,14.37,14.38,14.37,14.34,14.26,14.21,14.17,14.14,14.11,14.11,14.11,14.11,14.11,14.11,14.11,14.11,14.11,14.14,14.32,14.52,14.73,14.99,15.29,15.65,16.03,16.39,16.77,17.10,17.45,17.81,18.09,18.40,18.69,18.97,19.25,19.48,19.98,20.46,20.74,20.74,20.82,21.14,21.70,22.36,22.57,22.64,22.64,22.64,22.69,22.77,22.90,23.09,23.30,23.52,23.86,24.32,24.86
3.50,3.50,3.56,3.63,3.71,3.77,3.79,3.84,3.92,4.00,4.00,4.05,4.13,4.20,4.26,4.29,4.34,4.42,4.49,4.50,4.55,4.62,4.70,4.70,4.76,4.83,4.91,4.97,4.99,5.04,5.10,5.10,5.10,5.10,5.10,5.09,5.02,5.00,5.00,5.00,5.00,5.05,5.09,5.10,5.10,5.10,5.10,5.10,5.10,5.10,5.10,5.10,5.10,5.10,5.10,5.10,5.10,5.10,5.10,5.10,5.10,5.10,5.10,5.10,5.10,5.10,5.10,5.10,5.10,5.10,5.10,5.10,5.10,5.10,5.10,5.10,5.10,5.10,5.10,5.10,5.10,5.10,5.10,5.10,5.10,5.10,5.10,5.10,5.10,5.10,5.10,5.10,5.10,5.10,5.10,5.10,5.10,5.10,5.10,5.10,5.10,5.10,5.10,5.10,5.10,5.10,5.10,5.10,5.07,5.02,5.02,5.02,5.02,5.02,5.02,5.00,5.00,5.00,5.00,5.00,5.00,5.00,5.00,5.00,5.00,5.00,5.00,5.00,5.00,5.00,5.00,5.00,5.00,5.00,5.01,5.02,5.03,5.09,5.10,5.10,5.10,5.10,5.10,5.10,5.10,5.10,5.10,5.10,5.10,5.10,5.10,5.08,5.09,5.09,5.08,5.08,5.08,5.08,5.08,5.08,5.03,5.00,5.00,5.00,5.16,5.43,5.75,6.06,6.37,6.68,6.99,7.29,7.60,7.83,8.02,8.21,8.42,8.59,8.79,9.01,9.25,9.54,9.78,10.09,10.47,10.79,11.17,11.55,11.92,12.31,12.64,13.01,13.39,13.75,13.94,14.11,14.26,14.39,14.47,14.55,14.57,14.57,14.57,14.51,14.44,14.40,14.40,14.40,14.40,14.40,14.41,14.42,14.42,14.42,14.43,14.45,14.47,14.59,14.71,14.85,15.06,15.33,15.68,16.07,16.45,16.82,17.15,17.51,17.88,18.19,18.50,18.81,19.12,19.43,19.68,20.48,21.34,21.90,21.90,22.07,22.41,22.90,23.54,23.68,23.72,23.72,23.73,23.81,23.82,23.82,23.82,23.82,23.86,23.99,24.26,24.73
3.50,3.50,3.56,3.63,3.70,3.71,3.77,3.84,3.92,4.00,4.00,4.05,4.13,4.20,4.21,4.27,4.34,4.42,4.49,4.50,4.55,4.62,4.70,4.70,4.76,4.83,4.90,4.91,4.97,5.04,5.10,5.10,5.10,5.10,5.10,5.09,5.02,5.00,5.00,5.00,5.00,5.01,5.05,5.10,5.10,5.10,5.10,5.10,5.10,5.10,5.10,5.10,5.10,5.10,5.10,5.10,5.10,5.10,5.10,5.10,5.10,5.10,5.10,5.10,5.10,5.10,5.10,5.10,5.10,5.10,5.10,5.10,5.10,5.10,5.10,5.10,5.10,5.10,5.10,5.10,5.10,5.10,5.10,5.10,5.10,5.10,5.10,5.10,5.10,5.10,5.10,5.10,5.10,5.10,5.10,5.10,5.10,5.10,5.10,5.10,5.10,5.10,5.10,5.10,5.10,5.10,5.10,5.10,5.09,5.09,5.09,5.09,5.09,5.09,5.08,5.01,5.00,5.00,5.00,5.00,5.00,5.00,5.00,5.00,5.00,5.00,5.00,5.00,5.00,5.00,5.00,5.00,5.00,5.00,5.05,5.09,5.09,5.10,5.10,5.10,5.10,5.10,5.10,5.10,5.10,5.10,5.10,5.10,5.10,5.10,5.10,5.04,5.05,5.08,5.01,5.01,5.01,5.01,5.01,5.01,5.00,5.00,5.00,5.00,5.20,5.52,5.88,6.19,6.50,6.80,7.11,7.42,7.73,7.92,8.11,8.32,8.48,8.70,8.89,9.08,9.31,9.55,9.78,10.09,10.48,10.85,11.24,11.58,11.92,12.31,12.69,13.07,13.46,13.83,14.12,14.30,14.45,14.59,14.66,14.74,14.77,14.77,14.77,14.76,14.69,14.66,14.66,14.66,14.66,14.66,14.68,14.74,14.74,14.74,14.77,14.84,14.91,14.99,15.04,15.10,15.26,15.43,15.74,16.13,16.51,16.83,17.19,17.57,17.95,18.26,18.56,18.87,19.18,19.49,19.79,20.92,22.23,23.18,23.18,23.47,23.85,24.27,24.76,24.80,24.81,24.81,24.81,24.89,24.91,24.91,24.91,24.91,24.86,24.65,24.52,24.79
3.45,3.49,3.56,3.63,3.70,3.70,3.77,3.84,3.91,3.95,3.99,4.05,4.13,4.20,4.20,4.26,4.34,4.41,4.44,4.48,4.55,4.61,4.65,4.69,4.76,4.83,4.90,4.90,4.96,5.04,5.10,5.10,5.10,5.10,5.10,5.09,5.02,5.00,5.00,5.00,5.00,5.00,5.05,5.10,5.10,5.10,5.10,5.10,5.10,5.10,5.10,5.10,5.10,5.10,5.10,5.10,5.10,5.10,5.10,5.10,5.10,5.10,5.10,5.10,5.10,5.10,5.10,5.10,5.10,5.10,5.10,5.10,5.10,5.10,5.10,5.10,5.10,5.10,5.10,5.10,5.10,5.10,5.10,5.10,5.10,5.10,5.10,5.10,5.10,5.10,5.10,5.10,5.10,5.10,5.10,5.10,5.10,5.10,5.10,5.10,5.10,5.10,5.10,5.10,5.10,5.10,5.10,5.10,5.10,5.10,5.10,5.10,5.10,5.10,5.10,5.06,5.05,5.05,5.05,5.05,5.01,5.00,5.00,5.00,5.00,5.00,5.00,5.00,5.00,5.00,5.00,5.01,5.05,5.05,5.08,5.10,5.10,5.10,5.10,5.10,5.10,5.10,5.10,5.10,5.10,5.10,5.10,5.10,5.08,5.05,5.05,5.02,5.02,5.04,5.00,5.00,5.00,5.00,5.00,5.00,5.03,5.05,5.07,5.15,5.33,5.62,5.97,6.31,6.62,6.93,7.24,7.54,7.81,8.02,8.21,8.40,8.60,8.79,8.98,9.18,9.37,9.56,9.82,10.14,10.53,10.92,11.27,11.61,11.98,12.36,12.75,13.13,13.52,13.90,14.25,14.44,14.61,14.78,14.85,14.93,14.96,14.96,14.96,14.96,14.93,14.91,14.91,14.91,14.91,14.91,14.92,14.96,14.96,14.99,15.04,15.12,15.20,15.28,15.31,15.35,15.50,15.66,15.88,16.19,16.57,16.88,17.25,17.62,17.97,18.31,18.63,18.96,19.30,19.61,20.08,21.38,22.93,24.23,24.56,24.90,25.24,25.58,25.88,25.86,25.84,25.84,25.85,25.88,25.89,25.85,25.74,25.50,25.29,25.01,24.83,25.06
3.40,3.48,3.56,3.63,3.69,3.70,3.77,3.84,3.90,3.90,3.97,4.05,4.12,4.18,4.20,4.26,4.34,4.40,4.40,4.47,4.55,4.60,4.60,4.68,4.76,4.83,4.89,4.90,4.96,5.04,5.09,5.10,5.10,5.10,5.10,5.09,5.02,5.00,5.00,5.00,5.00,5.00,5.05,5.10,5.10,5.10,5.10,5.10,5.10,5.10,5.10,5.10,5.10,5.10,5.10,5.10,5.10,5.10,5.10,5.10,5.10,5.10,5.10,5.10,5.10,5.10,5.10,5.10,5.10,5.10,5.10,5.10,5.10,5.10,5.10,5.10,5.10,5.10,5.10,5.10,5.10,5.10,5.10,5.10,5.10,5.10,5.10,5.10,5.10,5.10,5.10,5.10,5.10,5.10,5.10,5.10,5.10,5.10,5.10,5.10,5.10,5.10,5.10,5.10,5.10,5.10,5.10,5.10,5.10,5.10,5.10,5.10,5.10,5.10,5.10,5.10,5.10,5.10,5.10,5.10,5.04,5.02,5.02,5.02,5.02,5.01,5.00,5.00,5.01,5.02,5.02,5.03,5.10,5.10,5.10,5.10,5.10,5.10,5.10,5.10,5.10,5.10,5.10,5.10,5.10,5.10,5.09,5.08,5.05,5.00,5.00,5.00,5.01,5.02,5.05,5.06,5.07,5.07,5.07,5.05,5.11,5.15,5.18,5.34,5.49,5.73,6.05,6.43,6.75,7.06,7.37,7.67,7.90,8.12,8.31,8.49,8.71,8.88,9.08,9.28,9.43,9.60,9.87,10.20,10.58,10.96,11.29,11.65,12.04,12.43,12.81,13.20,13.58,13.97,14.36,14.57,14.77,14.96,15.05,15.11,15.13,15.13,15.13,15.15,15.15,15.15,15.15,15.15,15.15,15.15,15.15,15.15,15.16,15.22,15.30,15.37,15.44,15.51,15.56,15.60,15.76,15.91,16.08,16.31,16.65,16.95,17.32,17.67,17.99,18.37,18.69,19.05,19.41,19.72,20.42,21.84,23.56,25.17,25.88,26.28,26.60,26.87,27.01,26.89,26.85,26.85,26.85,26.82,26.76,26.62,26.37,25.93,25.61,25.30,25.16,25.40
3.40,3.48,3.56,3.61,3.63,3.69,3.77,3.84,3.90,3.90,3.97,4.05,4.11,4.12,4.19,4.26,4.34,4.40,4.40,4.47,4.55,4.60,4.60,4.68,4.76,4.81,4.83,4.89,4.96,5.01,5.04,5.10,5.10,5.10,5.10,5.09,5.02,5.00,5.00,5.00,5.00,5.00,5.05,5.10,5.10,5.10,5.10,5.10,5.10,5.10,5.10,5.10,5.10,5.10,5.10,5.10,5.10,5.10,5.10,5.10,5.10,5.10,5.10,5.10,5.10,5.10,5.10,5.10,5.10,5.10,5.10,5.10,5.10,5.10,5.10,5.10,5.10,5.10,5.10,5.10,5.10,5.10,5.10,5.10,5.10,5.10,5.10,5.10,5.10,5.10,5.10,5.10,5.10,5.10,5.10,5.10,5.10,5.10,5.10,5.10,5.10,5.10,5.10,5.10,5.10,5.10,5.10,5.10,5.10,5.10,5.10,5.10,5.10,5.10,5.10,5.10,5.10,5.10,5.10,5.10,5.09,5.08,5.08,5.08,5.08,5.03,5.00,5.01,5.07,5.08,5.08,5.08,5.10,5.10,5.10,5.10,5.10,5.10,5.10,5.10,5.10,5.10,5.10,5.10,5.10,5.10,5.04,5.02,5.01,5.00,5.00,5.00,5.04,5.11,5.24,5.30,5.32,5.32,5.32,5.25,5.30,5.34,5.37,5.53,5.68,5.89,6.17,6.49,6.86,7.19,7.50,7.79,8.03,8.21,8.40,8.61,8.78,8.99,9.18,9.34,9.50,9.72,9.96,10.24,10.58,10.96,11.34,11.72,12.10,12.49,12.88,13.26,13.65,14.03,14.42,14.72,14.93,15.10,15.24,15.26,15.26,15.26,15.27,15.33,15.34,15.34,15.34,15.34,15.34,15.34,15.34,15.34,15.40,15.48,15.55,15.62,15.64,15.71,15.78,15.86,16.01,16.17,16.36,16.58,16.78,17.03,17.38,17.73,18.05,18.44,18.76,19.11,19.47,19.79,20.78,22.32,24.13,25.92,26.97,27.51,27.87,28.13,28.22,27.92,27.81,27.81,27.80,27.67,27.36,26.97,26.58,26.24,25.93,25.62,25.49,25.78
3.40,3.48,3.56,3.60,3.61,3.69,3.77,3.82,3.86,3.90,3.97,4.05,4.10,4.11,4.18,4.26,4.32,4.36,4.40,4.47,4.53,4.57,4.60,4.68,4.73,4.77,4.81,4.89,4.96,5.00,5.02,5.10,5.10,5.10,5.10,5.09,5.02,5.00,5.00,5.00,5.00,5.00,5.05,5.10,5.10,5.10,5.10,5.10,5.10,5.10,5.10,5.10,5.10,5.10,5.10,5.10,5.10,5.10,5.10,5.10,5.10,5.10,5.10,5.10,5.10,5.10,5.10,5.10,5.10,5.10,5.10,5.10,5.10,5.10,5.10,5.10,5.10,5.10,5.10,5.10,5.10,5.10,5.10,5.10,5.10,5.10,5.10,5.10,5.10,5.10,5.10,5.10,5.10,5.10,5.10,5.10,5.10,5.10,5.10,5.10,5.10,5.10,5.10,5.10,5.10,5.10,5.10,5.10,5.10,5.10,5.10,5.10,5.10,5.10,5.10,5.10,5.10,5.10,5.10,5.10,5.10,5.10,5.10,5.10,5.10,5.07,5.04,5.05,5.09,5.10,5.10,5.10,5.10,5.10,5.10,5.10,5.10,5.10,5.10,5.10,5.10,5.10,5.07,5.06,5.06,5.05,5.01,5.00,5.00,5.00,5.00,5.00,5.06,5.19,5.34,5.45,5.51,5.52,5.49,5.48,5.51,5.55,5.61,5.76,5.92,6.10,6.32,6.60,6.95,7.30,7.62,7.92,8.12,8.31,8.50,8.69,8.88,9.08,9.27,9.45,9.61,9.80,10.03,10.31,10.67,11.05,11.41,11.78,12.17,12.55,12.94,13.33,13.70,14.05,14.44,14.79,15.03,15.18,15.34,15.41,15.43,15.43,15.44,15.48,15.52,15.53,15.53,15.53,15.53,15.53,15.54,15.58,15.66,15.73,15.80,15.84,15.87,15.94,16.02,16.12,16.27,16.42,16.63,16.83,16.99,17.19,17.48,17.79,18.12,18.50,18.82,19.15,19.50,19.86,21.31,23.05,24.93,26.78,28.04,28.64,29.07,29.39,29.40,28.93,28.70,28.57,28.39,28.10,27.65,27.22,26.87,26.56,26.25,25.96,25.86,26.17
3.40,3.48,3.55,3.59,3.61,3.69,3.77,3.80,3.82,3.90,3.97,4.05,4.09,4.11,4.18,4.26,4.29,4.32,4.39,4.47,4.50,4.52,4.60,4.68,4.70,4.73,4.81,4.89,4.96,5.00,5.02,5.10,5.10,5.10,5.10,5.09,5.02,5.00,5.00,5.00,5.00,5.00,5.04,5.09,5.10,5.10,5.10,5.10,5.10,5.10,5.10,5.10,5.10,5.10,5.10,5.10,5.10,5.10,5.10,5.10,5.10,5.10,5.10,5.10,5.10,5.10,5.10,5.10,5.10,5.10,5.10,5.10,5.10,5.10,5.10,5.10,5.10,5.10,5.10,5.10,5.10,5.10,5.10,5.10,5.10,5.10,5.10,5.10,5.10,5.10,5.10,5.10,5.10,5.10,5.10,5.10,5.10,5.10,5.10,5.10,5.10,5.10,5.10,5.10,5.10,5.10,5.10,5.10,5.10,5.10,5.10,5.10,5.10,5.10,5.10,5.10,5.10,5.10,5.10,5.10,5.10,5.10,5.10,5.10,5.10,5.10,5.10,5.10,5.10,5.10,5.10,5.10,5.10,5.10,5.10,5.10,5.10,5.10,5.10,5.10,5.09,5.09,5.03,5.00,5.00,5.00,5.00,5.00,5.00,5.00,5.00,5.00,5.09,5.25,5.41,5.57,5.67,5.69,5.63,5.71,5.72,5.77,5.86,6.01,6.17,6.32,6.50,6.73,7.03,7.40,7.75,8.03,8.19,8.41,8.60,8.78,9.00,9.16,9.36,9.56,9.71,9.87,10.09,10.41,10.79,11.17,11.49,11.85,12.24,12.62,13.00,13.39,13.74,14.06,14.45,14.83,15.08,15.24,15.39,15.55,15.61,15.62,15.62,15.62,15.69,15.72,15.73,15.73,15.73,15.73,15.76,15.83,15.90,15.98,16.03,16.04,16.12,16.20,16.27,16.37,16.53,16.68,16.89,17.09,17.24,17.40,17.61,17.87,18.19,18.57,18.88,19.20,19.54,19.95,21.92,23.89,25.85,27.72,29.10,29.70,30.16,30.51,30.41,29.85,29.49,29.19,28.80,28.33,27.82,27.44,27.19,26.88,26.57,26.31,26.24,26.55
3.40,3.48,3.52,3.55,3.61,3.69,3.77,3.80,3.82,3.90,3.97,4.01,4.05,4.11,4.18,4.22,4.26,4.32,4.39,4.47,4.50,4.52,4.60,4.68,4.70,4.73,4.81,4.89,4.92,4.96,5.02,5.10,5.10,5.10,5.10,5.10,5.08,5.03,5.00,5.00,5.00,5.00,5.01,5.04,5.10,5.10,5.10,5.10,5.10,5.10,5.10,5.10,5.10,5.10,5.10,5.10,5.10,5.10,5.10,5.10,5.10,5.10,5.10,5.10,5.10,5.10,5.10,5.10,5.10,5.10,5.10,5.10,5.10,5.10,5.10,5.10,5.10,5.10,5.10,5.10,5.10,5.10,5.10,5.10,5.10,5.10,5.10,5.10,5.10,5.10,5.10,5.10,5.10,5.10,5.10,5.10,5.10,5.10,5.10,5.10,5.10,5.10,5.10,5.10,5.10,5.10,5.10,5.10,5.10,5.10,5.10,5.10,5.10,5.10,5.10,5.10,5.10,5.10,5.10,5.10,5.10,5.10,5.10,5.10,5.10,5.10,5.10,5.10,5.10,5.10,5.10,5.10,5.10,5.10,5.10,5.10,5.10,5.10,5.10,5.07,5.03,5.03,5.01,5.00,5.00,5.00,5.00,5.00,5.00,5.00,5.00,5.00,5.09,5.27,5.54,5.69,5.80,5.84,5.82,5.90,5.92,5.98,6.11,6.21,6.36,6.51,6.67,6.85,7.16,7.53,7.86,8.10,8.31,8.49,8.69,8.89,9.07,9.28,9.43,9.56,9.71,9.87,10.17,10.54,10.91,11.24,11.60,11.98,12.35,12.68,13.07,13.45,13.81,14.13,14.51,14.85,15.08,15.24,15.39,15.55,15.67,15.76,15.82,15.82,15.88,15.92,15.93,15.98,15.99,15.99,16.01,16.09,16.11,16.17,16.24,16.30,16.38,16.45,16.53,16.63,16.78,16.94,17.14,17.34,17.50,17.65,17.82,18.04,18.31,18.64,18.95,19.29,19.69,20.21,22.47,24.78,26.96,28.86,30.14,30.55,30.72,30.72,30.42,30.13,29.81,29.43,28.98,28.46,28.10,27.80,27.51,27.20,26.94,26.70,26.62,26.93
3.40,3.48,3.50,3.53,3.61,3.69,3.74,3.78,3.82,3.90,3.97,4.00,4.03,4.11,4.18,4.20,4.24,4.32,4.39,4.44,4.48,4.52,4.60,4.65,4.68,4.73,4.81,4.86,4.89,4.94,5.01,5.06,5.09,5.10,5.10,5.10,5.10,5.04,5.00,5.00,5.00,5.00,5.00,5.02,5.10,5.10,5.10,5.10,5.10,5.10,5.10,5.10,5.10,5.10,5.10,5.10,5.10,5.10,5.10,5.10,5.10,5.10,5.10,5.10,5.10,5.10,5.10,5.10,5.10,5.10,5.10,5.10,5.10,5.10,5.10,5.10,5.10,5.10,5.10,5.10,5.10,5.10,5.10,5.10,5.10,5.10,5.10,5.10,5.10,5.10,5.10,5.10,5.10,5.10,5.10,5.10,5.10,5.10,5.10,5.10,5.10,5.10,5.10,5.10,5.10,5.10,5.10,5.10,5.10,5.10,5.10,5.10,5.10,5.10,5.10,5.10,5.10,5.10,5.10,5.10,5.10,5.10,5.10,5.10,5.10,5.10,5.10,5.10,5.10,5.10,5.10,5.10,5.10,5.10,5.10,5.10,5.10,5.07,5.06,5.04,5.00,5.00,5.00,5.00,5.00,5.00,5.00,5.00,5.00,5.00,5.00,5.00,5.09,5.28,5.59,5.78,5.93,6.02,6.05,6.10,6.13,6.21,6.33,6.43,6.59,6.74,6.89,7.02,7.30,7.64,7.95,8.20,8.41,8.59,8.79,8.98,9.13,9.33,9.47,9.59,9.75,9.93,10.28,10.65,11.00,11.34,11.72,12.09,12.44,12.78,13.17,13.53,13.88,14.22,14.58,14.90,15.12,15.28,15.43,15.58,15.74,15.88,15.97,16.00,16.07,16.12,16.15,16.20,16.21,16.21,16.23,16.31,16.34,16.40,16.48,16.55,16.63,16.71,16.79,16.88,17.04,17.19,17.40,17.60,17.75,17.91,18.04,18.22,18.46,18.74,19.05,19.39,19.85,20.57,22.99,25.43,27.76,29.78,30.68,30.99,31.03,30.87,30.42,30.25,29.98,29.61,29.14,28.72,28.42,28.13,27.83,27.55,27.29,27.04,26.97,27.28
3.40,3.48,3.50,3.53,3.61,3.69,3.70,3.74,3.82,3.90,3.97,4.00,4.03,4.11,4.18,4.20,4.24,4.32,4.39,4.40,4.45,4.52,4.60,4.60,4.66,4.73,4.80,4.80,4.86,4.94,5.00,5.00,5.07,5.10,5.10,5.10,5.10,5.04,5.00,5.00,5.00,5.00,5.00,5.02,5.10,5.10,5.10,5.10,5.10,5.10,5.10,5.10,5.10,5.10,5.10,5.10,5.10,5.10,5.10,5.10,5.10,5.10,5.10,5.10,5.10,5.10,5.10,5.10,5.10,5.10,5.10,5.10,5.10,5.10,5.10,5.10,5.10,5.10,5.10,5.10,5.10,5.10,5.10,5.10,5.10,5.10,5.10,5.10,5.10,5.10,5.10,5.10,5.10,5.10,5.10,5.10,5.10,5.10,5.10,5.10,5.10,5.10,5.10,5.10,5.10,5.10,5.10,5.10,5.10,5.10,5.10,5.10,5.10,5.10,5.10,5.10,5.10,5.10,5.10,5.10,5.10,5.10,5.10,5.10,5.10,5.10,5.10,5.10,5.10,5.10,5.10,5.10,5.10,5.10,5.10,5.10,5.09,5.02,5.00,5.00,5.00,5.00,5.00,5.00,5.00,5.00,5.00,5.00,5.00,5.00,5.00,5.00,5.09,5.28,5.59,5.83,6.06,6.23,6.30,6.30,6.36,6.44,6.53,6.69,6.84,7.00,7.12,7.21,7.44,7.73,8.04,8.32,8.48,8.70,8.89,9.04,9.19,9.35,9.50,9.66,9.82,10.05,10.40,10.75,11.08,11.46,11.85,12.19,12.52,12.91,13.29,13.62,13.97,14.34,14.65,14.96,15.18,15.34,15.49,15.65,15.80,15.96,16.11,16.18,16.26,16.34,16.40,16.40,16.40,16.40,16.42,16.50,16.58,16.66,16.73,16.81,16.89,16.96,17.04,17.14,17.29,17.45,17.65,17.86,18.01,18.16,18.26,18.41,18.64,18.87,19.18,19.48,20.00,21.02,23.49,25.91,28.34,30.54,30.85,31.09,31.16,30.97,30.43,30.25,30.05,29.73,29.29,29.05,28.76,28.45,28.16,27.93,27.63,27.36,27.29,27.60
3.40,3.43,3.47,3.53,3.61,3.69,3.70,3.74,3.82,3.90,3.93,3.97,4.03,4.10,4.13,4.17,4.24,4.31,4.33,4.38,4.45,4.52,4.60,4.60,4.66,4.73,4.80,4.80,4.86,4.94,5.00,5.00,5.07,5.10,5.10,5.10,5.10,5.04,5.00,5.00,5.00,5.00,5.00,5.02,5.10,5.10,5.10,5.10,5.10,5.10,5.10,5.10,5.10,5.10,5.10,5.10,5.10,5.10,5.10,5.10,5.10,5.10,5.10,5.10,5.10,5.10,5.10,5.10,5.10,5.10,5.10,5.10,5.10,5.10,5.10,5.10,5.10,5.10,5.10,5.10,5.10,5.10,5.10,5.10,5.10,5.10,5.10,5.10,5.10,5.10,5.10,5.10,5.10,5.10,5.10,5.10,5.10,5.10,5.10,5.10,5.10,5.10,5.10,5.10,5.10,5.10,5.10,5.10,5.10,5.10,5.10,5.10,5.10,5.10,5.10,5.10,5.10,5.10,5.10,5.10,5.10,5.10,5.10,5.10,5.10,5.10,5.10,5.10,5.10,5.10,5.10,5.10,5.10,5.10,5.07,5.04,5.03,5.01,5.00,5.00,5.00,5.00,5.00,5.00,5.00,5.00,5.00,5.00,5.00,5.00,5.00,5.00,5.09,5.28,5.59,5.83,6.06,6.27,6.43,6.48,6.55,6.65,6.79,6.94,7.05,7.19,7.33,7.46,7.64,7.88,8.14,8.39,8.60,8.78,8.95,9.10,9.26,9.41,9.57,9.72,9.89,10.17,10.49,10.84,11.21,11.59,11.93,12.25,12.59,12.97,13.31,13.66,14.01,14.35,14.71,14.98,15.18,15.35,15.56,15.71,15.87,16.02,16.17,16.30,16.43,16.50,16.54,16.59,16.59,16.62,16.68,16.76,16.83,16.91,16.99,17.07,17.14,17.18,17.26,17.39,17.55,17.70,17.88,18.05,18.20,18.36,18.49,18.67,18.90,19.13,19.34,19.58,20.14,21.40,23.63,26.01,28.15,29.78,30.63,31.01,31.12,30.97,30.43,30.21,30.05,29.83,29.47,29.19,28.89,28.60,28.34,28.06,27.75,27.55,27.53,27.79
3.40,3.40,3.46,3.53,3.61,3.66,3.69,3.74,3.82,3.90,3.90,3.95,4.03,4.10,4.10,4.16,4.24,4.30,4.30,4.37,4.45,4.52,4.57,4.59,4.66,4.72,4.78,4.80,4.86,4.93,4.98,5.00,5.07,5.10,5.10,5.10,5.10,5.04,5.00,5.00,5.00,5.00,5.00,5.02,5.10,5.10,5.10,5.10,5.10,5.10,5.10,5.10,5.10,5.10,5.10,5.10,5.10,5.10,5.10,5.10,5.10,5.10,5.10,5.10,5.10,5.10,5.10,5.10,5.10,5.10,5.10,5.10,5.10,5.10,5.10,5.10,5.10,5.10,5.10,5.10,5.10,5.10,5.10,5.10,5.10,5.10,5.10,5.10,5.10,5.10,5.10,5.10,5.10,5.10,5.10,5.10,5.10,5.10,5.10,5.10,5.10,5.10,5.10,5.10,5.10,5.10,5.10,5.10,5.10,5.10,5.10,5.10,5.10,5.10,5.10,5.10,5.10,5.10,5.10,5.10,5.10,5.10,5.10,5.10,5.10,5.10,5.10,5.10,5.10,5.10,5.10,5.09,5.07,5.07,5.03,5.00,5.00,5.00,5.00,5.00,5.00,5.00,5.00,5.00,5.00,5.00,5.00,5.00,5.00,5.00,5.00,5.00,5.09,5.28,5.57,5.80,6.03,6.26,6.48,6.60,6.71,6.84,7.02,7.17,7.27,7.41,7.56,7.71,7.85,8.04,8.26,8.49,8.70,8.86,9.01,9.17,9.32,9.48,9.63,9.79,9.95,10.26,10.57,10.92,11.30,11.67,12.00,12.32,12.65,13.03,13.34,13.71,14.06,14.38,14.77,15.01,15.20,15.38,15.59,15.75,15.90,16.06,16.21,16.39,16.55,16.65,16.70,16.78,16.80,16.86,16.93,17.01,17.09,17.17,17.23,17.29,17.37,17.40,17.49,17.65,17.80,17.96,18.11,18.27,18.42,18.58,18.73,18.91,19.13,19.36,19.54,19.88,20.60,21.95,23.84,25.95,27.70,28.83,29.84,30.34,30.62,30.67,30.28,30.10,29.98,29.82,29.56,29.29,28.97,28.68,28.42,28.11,27.82,27.67,27.70,27.93
3.40,3.40,3.46,3.53,3.60,3.61,3.67,3.74,3.82,3.90,3.90,3.95,4.03,4.10,4.10,4.16,4.24,4.30,4.30,4.37,4.45,4.50,4.51,4.58,4.66,4.70,4.72,4.79,4.86,4.90,4.93,5.00,5.07,5.10,5.10,5.10,5.10,5.04,5.00,5.00,5.00,5.00,5.00,5.02,5.10,5.10,5.10,5.10,5.10,5.10,5.10,5.10,5.10,5.10,5.10,5.10,5.10,5.10,5.10,5.10,5.10,5.10,5.10,5.10,5.10,5.10,5.10,5.10,5.10,5.10,5.10,5.10,5.10,5.10,5.10,5.10,5.10,5.10,5.10,5.10,5.10,5.10,5.10,5.10,5.10,5.10,5.10,5.10,5.10,5.10,5.10,5.10,5.10,5.10,5.10,5.10,5.10,5.10,5.10,5.10,5.10,5.10,5.10,5.10,5.10,5.10,5.10,5.10,5.10,5.10,5.10,5.10,5.10,5.10,5.10,5.10,5.10,5.10,5.10,5.10,5.10,5.10,5.10,5.10,5.10,5.10,5.10,5.10,5.10,5.10,5.10,5.08,5.01,5.01,5.00,5.00,5.00,5.00,5.00,5.00,5.00,5.00,5.00,5.00,5.00,5.00,5.00,5.00,5.00,5.00,5.00,5.00,5.09,5.26,5.50,5.73,5.97,6.20,6.43,6.65,6.81,7.00,7.21,7.36,7.51,7.66,7.82,7.97,8.05,8.19,8.39,8.61,8.77,8.92,9.08,9.23,9.39,9.54,9.70,9.85,10.02,10.33,10.64,10.98,11.35,11.67,12.04,12.38,12.71,13.10,13.41,13.77,14.13,14.45,14.83,15.03,15.22,15.43,15.59,15.75,15.90,16.06,16.22,16.44,16.61,16.76,16.89,16.97,17.04,17.11,17.19,17.27,17.34,17.42,17.47,17.48,17.56,17.63,17.75,17.90,18.06,18.21,18.37,18.52,18.68,18.83,18.99,19.14,19.32,19.55,19.78,20.43,21.46,22.71,24.16,25.68,26.90,27.64,28.30,28.90,29.52,29.99,29.94,29.92,29.82,29.67,29.50,29.33,29.00,28.66,28.35,28.04,27.80,27.70,27.76,27.99
3.35,3.39,3.46,3.53,3.60,3.60,3.67,3.74,3.81,3.84,3.89,3.95,4.01,4.05,4.09,4.16,4.22,4.25,4.30,4.37,4.42,4.46,4.50,4.58,4.62,4.66,4.71,4.79,4.83,4.87,4.92,5.00,5.07,5.10,5.10,5.10,5.10,5.04,5.00,5.00,5.00,5.00,5.00,5.01,5.05,5.09,5.10,5.10,5.10,5.10,5.10,5.10,5.10,5.10,5.10,5.10,5.10,5.10,5.10,5.10,5.10,5.10,5.10,5.10,5.10,5.10,5.10,5.10,5.10,5.10,5.10,5.10,5.10,5.10,5.10,5.10,5.10,5.10,5.10,5.10,5.10,5.10,5.10,5.10,5.10,5.10,5.10,5.10,5.10,5.10,5.10,5.10,5.10,5.10,5.10,5.10,5.10,5.10,5.10,5.10,5.10,5.10,5.10,5.10,5.10,5.10,5.10,5.10,5.10,5.10,5.10,5.10,5.10,5.10,5.10,5.10,5.10,5.10,5.10,5.10,5.10,5.10,5.10,5.10,5.10,5.10,5.10,5.10,5.10,5.06,5.04,5.04,5.00,5.00,5.00,5.00,5.00,5.00,5.00,5.00,5.00,5.00,5.00,5.00,5.00,5.00,5.00,5.00,5.02,5.05,5.01,5.00,5.09,5.25,5.44,5.67,5.90,6.12,6.31,6.54,6.75,6.94,7.12,7.28,7.43,7.61,7.79,7.95,8.07,8.21,8.38,8.57,8.77,8.93,9.09,9.24,9.40,9.55,9.70,9.87,10.08,10.39,10.70,11.05,11.42,11.73,12.11,12.44,12.78,13.16,13.47,13.84,14.19,14.50,14.85,15.07,15.26,15.44,15.59,15.79,15.96,16.11,16.26,16.37,16.48,16.61,16.76,16.88,17.04,17.17,17.31,17.47,17.54,17.62,17.68,17.73,17.81,17.89,17.98,18.12,18.31,18.47,18.60,18.72,18.88,19.03,19.19,19.34,19.51,19.74,20.51,21.44,22.46,23.53,24.58,25.65,26.57,27.27,27.97,28.67,29.28,29.68,29.68,29.64,29.55,29.42,29.27,29.16,29.13,28.90,28.43,27.99,27.70,27.69,27.88,28.11
3.30,3.38,3.46,3.53,3.58,3.60,3.67,3.73,3.78,3.80,3.87,3.94,3.99,4.01,4.08,4.15,4.19,4.22,4.29,4.37,4.40,4.42,4.50,4.58,4.60,4.63,4.71,4.79,4.80,4.84,4.92,5.00,5.06,5.08,5.09,5.10,5.10,5.04,5.00,5.00,5.00,5.00,5.00,5.00,5.00,5.08,5.10,5.10,5.10,5.10,5.10,5.10,5.10,5.10,5.10,5.10,5.10,5.10,5.10,5.10,5.10,5.10,5.10,5.10,5.10,5.10,5.10,5.10,5.10,5.10,5.10,5.10,5.10,5.10,5.10,5.10,5.10,5.10,5.10,5.10,5.10,5.10,5.10,5.10,5.10,5.10,5.10,5.10,5.10,5.10,5.10,5.10,5.10,5.10,5.10,5.10,5.10,5.10,5.10,5.10,5.10,5.10,5.10,5.10,5.10,5.10,5.10,5.10,5.10,5.10,5.10,5.10,5.10,5.10,5.10,5.10,5.10,5.10,5.10,5.10,5.10,5.10,5.10,5.10,5.10,5.10,5.09,5.08,5.08,5.03,5.00,5.00,5.00,5.00,5.00,5.00,5.00,5.00,5.00,5.00,5.00,5.00,5.01,5.02,5.02,5.02,5.02,5.02,5.05,5.09,5.01,5.00,5.07,5.21,5.38,5.61,5.83,6.02,6.18,6.41,6.65,6.85,7.01,7.17,7.32,7.51,7.71,7.87,8.04,8.19,8.35,8.51,8.73,8.91,9.07,9.23,9.39,9.55,9.70,9.89,10.13,10.44,10.76,11.10,11.47,11.79,12.16,12.49,12.82,13.21,13.52,13.88,14.23,14.55,14.87,15.10,15.28,15.44,15.59,15.81,15.98,16.13,16.24,16.26,16.32,16.44,16.59,16.75,16.96,17.14,17.33,17.54,17.65,17.75,17.85,17.95,18.04,18.14,18.22,18.33,18.55,18.71,18.82,18.93,19.09,19.24,19.39,19.53,19.72,20.04,21.19,22.29,23.24,24.13,24.88,25.64,26.38,27.10,27.87,28.64,29.17,29.41,29.42,29.36,29.28,29.17,29.02,28.92,29.11,29.04,28.61,28.11,27.74,27.73,27.98,28.24
3.30,3.38,3.46,3.51,3.53,3.59,3.67,3.71,3.73,3.80,3.87,3.91,3.94,4.01,4.08,4.11,4.15,4.22,4.29,4.37,4.40,4.42,4.50,4.58,4.60,4.63,4.71,4.79,4.80,4.84,4.92,5.00,5.01,5.02,5.04,5.10,5.10,5.04,5.00,5.00,5.00,5.00,5.00,5.00,5.00,5.08,5.10,5.10,5.10,5.10,5.10,5.10,5.10,5.10,5.10,5.10,5.10,5.10,5.10,5.10,5.10,5.10,5.10,5.10,5.10,5.10,5.10,5.10,5.10,5.10,5.10,5.10,5.10,5.10,5.10,5.10,5.10,5.10,5.10,5.10,5.10,5.10,5.10,5.10,5.10,5.10,5.10,5.10,5.10,5.10,5.10,5.10,5.10,5.10,5.10,5.10,5.10,5.10,5.10,5.10,5.10,5.10,5.10,5.10,5.10,5.10,5.10,5.10,5.10,5.10,5.10,5.10,5.10,5.10,5.10,5.10,5.10,5.10,5.10,5.10,5.10,5.10,5.10,5.10,5.10,5.10,5.07,5.02,5.02,5.01,5.00,5.00,5.00,5.00,5.00,5.00,5.00,5.00,5.00,5.00,5.00,5.00,5.06,5.08,5.08,5.08,5.08,5.08,5.09,5.09,5.01,5.00,5.01,5.09,5.31,5.54,5.73,5.89,6.05,6.29,6.52,6.74,6.95,7.10,7.26,7.42,7.58,7.74,7.96,8.13,8.28,8.44,8.61,8.82,9.00,9.17,9.39,9.55,9.70,9.89,10.13,10.44,10.79,11.14,11.47,11.85,12.17,12.49,12.82,13.21,13.52,13.88,14.23,14.55,14.93,15.12,15.28,15.44,15.59,15.76,15.92,16.03,16.06,16.12,16.19,16.31,16.46,16.62,16.78,16.98,17.19,17.35,17.56,17.72,17.89,18.09,18.23,18.37,18.47,18.57,18.74,18.90,19.04,19.19,19.34,19.50,19.60,19.72,19.96,20.58,21.59,22.58,23.46,24.19,24.90,25.61,26.34,27.10,27.87,28.64,29.03,29.10,29.16,29.15,29.06,28.91,28.76,28.62,28.67,28.84,28.95,28.61,28.12,27.91,28.01,28.37
3.30,3.38,3.46,3.50,3.51,3.59,3.67,3.70,3.72,3.80,3.87,3.90,3.93,4.01,4.08,4.10,4.14,4.22,4.29,4.34,4.38,4.42,4.50,4.54,4.58,4.63,4.71,4.75,4.78,4.84,4.91,4.95,4.99,5.00,5.02,5.06,5.09,5.04,5.00,5.00,5.00,5.00,5.00,5.00,5.00,5.04,5.05,5.07,5.10,5.10,5.10,5.10,5.10,5.10,5.10,5.10,5.10,5.10,5.10,5.10,5.10,5.10,5.10,5.10,5.10,5.10,5.10,5.10,5.10,5.10,5.10,5.10,5.10,5.10,5.10,5.10,5.10,5.10,5.10,5.10,5.10,5.10,5.10,5.10,5.10,5.10,5.10,5.10,5.10,5.10,5.10,5.10,5.10,5.10,5.10,5.10,5.10,5.10,5.10,5.10,5.10,5.10,5.10,5.10,5.10,5.10,5.10,5.10,5.10,5.10,5.10,5.10,5.10,5.11,5.14,5.11,5.10,5.10,5.10,5.10,5.10,5.10,5.10,5.10,5.10,5.10,5.08,5.04,5.00,5.00,5.00,5.00,5.00,5.00,5.00,5.00,5.00,5.04,5.05,5.05,5.05,5.05,5.08,5.10,5.10,5.10,5.10,5.10,5.10,5.09,5.01,5.00,5.00,5.04,5.20,5.40,5.59,5.77,5.93,6.16,6.39,6.62,6.85,7.04,7.19,7.35,7.50,7.66,7.85,8.02,8.19,8.38,8.53,8.75,8.94,9.11,9.35,9.50,9.66,9.85,10.13,10.44,10.81,11.15,11.48,11.86,12.18,12.49,12.82,13.21,13.52,13.88,14.23,14.55,14.94,15.10,15.24,15.40,15.59,15.71,15.81,15.87,15.91,15.95,16.02,16.13,16.29,16.44,16.63,16.82,17.02,17.21,17.40,17.60,17.79,17.98,18.17,18.40,18.58,18.72,18.84,18.99,19.15,19.29,19.41,19.57,19.69,19.82,20.10,20.90,21.82,22.68,23.46,24.16,24.85,25.58,26.32,27.10,27.87,28.49,28.78,28.82,28.86,28.90,28.81,28.67,28.55,28.39,28.33,28.43,28.63,28.65,28.46,28.18,28.03,28.31
3.30,3.38,3.45,3.49,3.51,3.59,3.66,3.69,3.72,3.80,3.87,3.89,3.93,4.01,4.07,4.10,4.14,4.21,4.28,4.30,4.35,4.42,4.49,4.50,4.56,4.63,4.70,4.70,4.76,4.84,4.90,4.90,4.97,5.00,5.00,5.01,5.07,5.04,5.00,5.00,5.00,5.00,5.00,5.00,5.00,5.00,5.00,5.03,5.09,5.10,5.10,5.10,5.10,5.10,5.10,5.10,5.10,5.10,5.10,5.10,5.10,5.10,5.10,5.10,5.10,5.10,5.10,5.10,5.10,5.10,5.10,5.10,5.10,5.10,5.10,5.10,5.10,5.10,5.10,5.10,5.10,5.10,5.10,5.10,5.10,5.10,5.10,5.10,5.10,5.10,5.10,5.10,5.10,5.10,5.10,5.10,5.10,5.10,5.10,5.10,5.10,5.10,5.10,5.10,5.10,5.10,5.10,5.10,5.10,5.10,5.10,5.10,5.10,5.13,5.18,5.11,5.10,5.10,5.10,5.10,5.10,5.10,5.10,5.10,5.10,5.10,5.10,5.09,5.01,5.00,5.00,5.01,5.01,5.01,5.01,5.01,5.02,5.09,5.10,5.10,5.10,5.10,5.10,5.10,5.10,5.10,5.10,5.10,5.10,5.09,5.01,5.00,5.00,5.02,5.09,5.23,5.43,5.63,5.80,6.03,6.26,6.49,6.73,6.96,7.13,7.28,7.44,7.59,7.75,7.90,8.09,8.31,8.47,8.68,8.87,9.05,9.27,9.44,9.60,9.81,10.12,10.43,10.80,11.15,11.48,11.85,12.18,12.49,12.82,13.21,13.52,13.88,14.23,14.55,14.94,15.07,15.18,15.35,15.57,15.65,15.68,15.70,15.77,15.78,15.84,15.95,16.10,16.26,16.48,16.67,16.85,17.07,17.23,17.45,17.65,17.83,18.06,18.36,18.63,18.83,18.91,19.06,19.21,19.34,19.42,19.58,19.72,19.89,20.21,21.12,21.96,22.72,23.41,24.11,24.80,25.55,26.32,27.09,27.86,28.29,28.49,28.55,28.56,28.62,28.56,28.44,28.35,28.19,28.04,28.00,28.13,28.47,28.66,28.42,28.09,28.19
3.30,3.38,3.41,3.45,3.51,3.59,3.62,3.66,3.72,3.80,3.82,3.86,3.93,4.00,4.02,4.07,4.14,4.20,4.22,4.28,4.35,4.41,4.43,4.48,4.56,4.63,4.70,4.70,4.76,4.84,4.90,4.90,4.97,5.00,5.00,5.00,5.02,5.01,5.00,5.00,5.00,5.00,5.00,5.00,5.00,5.00,5.00,5.01,5.03,5.09,5.10,5.10,5.10,5.10,5.10,5.10,5.10,5.10,5.10,5.10,5.10,5.10,5.10,5.10,5.10,5.10,5.10,5.10,5.10,5.10,5.10,5.10,5.10,5.10,5.10,5.10,5.10,5.10,5.10,5.10,5.10,5.10,5.10,5.10,5.10,5.10,5.10,5.10,5.10,5.10,5.10,5.10,5.10,5.10,5.10,5.10,5.10,5.10,5.10,5.10,5.10,5.10,5.10,5.10,5.10,5.10,5.10,5.10,5.10,5.10,5.10,5.10,5.10,5.11,5.12,5.10,5.10,5.10,5.10,5.10,5.10,5.10,5.10,5.10,5.10,5.10,5.10,5.09,5.01,5.00,5.03,5.07,5.07,5.07,5.07,5.07,5.08,5.10,5.10,5.10,5.10,5.10,5.10,5.10,5.10,5.10,5.10,5.10,5.10,5.09,5.01,5.00,5.00,5.01,5.02,5.12,5.27,5.46,5.67,5.90,6.14,6.37,6.60,6.83,7.04,7.22,7.38,7.53,7.68,7.84,8.03,8.25,8.40,8.57,8.77,8.97,9.14,9.36,9.57,9.80,10.06,10.42,10.76,11.11,11.47,11.79,12.16,12.49,12.82,13.21,13.52,13.88,14.23,14.55,14.94,15.07,15.18,15.33,15.45,15.52,15.55,15.56,15.58,15.64,15.71,15.80,15.92,16.13,16.31,16.50,16.70,16.88,17.09,17.32,17.57,17.83,18.06,18.36,18.66,18.89,18.97,19.12,19.28,19.40,19.49,19.64,19.75,19.99,20.45,21.26,22.00,22.72,23.41,24.11,24.80,25.55,26.30,27.02,27.79,28.10,28.21,28.24,28.30,28.32,28.34,28.28,28.09,27.94,27.78,27.76,27.89,27.99,28.19,28.35,28.37,28.13
3.30,3.35,3.38,3.43,3.51,3.55,3.59,3.64,3.71,3.76,3.79,3.85,3.93,4.00,4.00,4.06,4.14,4.20,4.20,4.27,4.35,4.40,4.40,4.48,4.56,4.62,4.67,4.70,4.76,4.83,4.87,4.90,4.97,5.00,5.00,5.00,5.00,5.02,5.02,5.00,5.00,5.00,5.00,5.00,5.00,5.00,5.00,5.00,5.01,5.05,5.09,5.10,5.10,5.10,5.10,5.10,5.10,5.10,5.10,5.10,5.10,5.10,5.10,5.10,5.10,5.10,5.10,5.10,5.10,5.10,5.10,5.10,5.10,5.10,5.10,5.10,5.10,5.10,5.10,5.10,5.10,5.10,5.10,5.10,5.10,5.10,5.10,5.10,5.10,5.10,5.10,5.10,5.10,5.10,5.10,5.10,5.10,5.10,5.10,5.10,5.10,5.10,5.10,5.10,5.10,5.10,5.10,5.10,5.10,5.10,5.10,5.10,5.10,5.10,5.10,5.10,5.10,5.10,5.10,5.10,5.10,5.10,5.10,5.10,5.10,5.10,5.10,5.09,5.05,5.04,5.07,5.10,5.10,5.10,5.10,5.10,5.10,5.10,5.10,5.10,5.10,5.10,5.10,5.10,5.10,5.10,5.10,5.10,5.10,5.09,5.01,5.00,5.00,5.00,5.00,5.05,5.15,5.31,5.54,5.78,6.01,6.24,6.47,6.70,6.93,7.14,7.31,7.47,7.62,7.77,7.95,8.15,8.33,8.49,8.69,8.91,9.09,9.30,9.52,9.75,9.99,10.38,10.73,11.09,11.46,11.77,12.15,12.49,12.82,13.21,13.52,13.88,14.23,14.55,14.91,15.05,15.17,15.27,15.32,15.37,15.40,15.42,15.43,15.47,15.54,15.64,15.76,15.96,16.15,16.34,16.55,16.77,17.03,17.27,17.53,17.83,18.10,18.37,18.67,18.93,19.07,19.20,19.34,19.47,19.55,19.70,19.80,20.05,20.54,21.28,21.98,22.69,23.41,24.11,24.80,25.53,26.27,26.99,27.67,27.89,27.95,27.96,28.00,28.03,28.08,28.04,27.88,27.78,27.73,27.79,27.93,27.99,28.12,28.28,28.35,28.14
3.30,3.30,3.36,3.43,3.50,3.50,3.57,3.64,3.70,3.70,3.77,3.85,3.93,4.00,4.00,4.06,4.14,4.20,4.20,4.27,4.35,4.40,4.40,4.48,4.55,4.60,4.61,4.69,4.76,4.80,4.82,4.90,4.97,5.00,5.00,5.00,5.00,5.06,5.06,5.00,5.00,5.00,5.00,5.00,5.00,5.00,5.00,5.00,5.00,5.00,5.06,5.10,5.10,5.10,5.10,5.10,5.10,5.10,5.10,5.10,5.10,5.10,5.10,5.10,5.10,5.10,5.10,5.10,5.10,5.10,5.10,5.10,5.10,5.10,5.10,5.10,5.10,5.10,5.10,5.10,5.10,5.10,5.10,5.10,5.10,5.10,5.10,5.10,5.10,5.10,5.10,5.10,5.10,5.10,5.10,5.10,5.10,5.10,5.10,5.10,5.10,5.10,5.10,5.10,5.10,5.10,5.10,5.10,5.10,5.10,5.10,5.10,5.10,5.10,5.10,5.10,5.10,5.10,5.10,5.10,5.10,5.10,5.10,5.10,5.10,5.10,5.10,5.10,5.10,5.10,5.10,5.10,5.10,5.10,5.10,5.10,5.10,5.10,5.10,5.10,5.10,5.10,5.10,5.10,5.10,5.10,5.10,5.10,5.10,5.09,5.01,5.00,5.00,5.00,5.00,5.00,5.05,5.19,5.42,5.65,5.88,6.11,6.34,6.57,6.81,7.04,7.24,7.40,7.56,7.71,7.87,8.03,8.26,8.43,8.63,8.86,9.09,9.25,9.46,9.69,9.93,10.32,10.70,11.09,11.46,11.77,12.15,12.49,12.82,13.20,13.52,13.88,14.23,14.54,14.84,15.02,15.13,15.19,15.19,15.19,15.24,15.29,15.29,15.29,15.35,15.47,15.62,15.78,16.00,16.19,16.40,16.70,17.01,17.27,17.53,17.84,18.15,18.40,18.67,18.96,19.19,19.28,19.40,19.53,19.61,19.77,19.87,20.09,20.53,21.23,21.92,22.66,23.41,24.10,24.80,25.50,26.22,26.97,27.50,27.65,27.69,27.69,27.69,27.76,27.79,27.77,27.70,27.71,27.83,27.98,28.14,28.29,28.31,28.23,28.14,28.21
3.30,3.30,3.36,3.43,3.50,3.50,3.57,3.64,3.70,3.70,3.77,3.85,3.91,3.94,3.99,4.06,4.11,4.14,4.19,4.27,4.32,4.35,4.40,4.48,4.52,4.56,4.61,4.69,4.72,4.76,4.82,4.90,4.92,4.97,5.00,5.00,5.00,5.06,5.06,5.00,5.00,5.00,5.00,5.00,5.00,5.00,5.00,5.00,5.00,5.00,5.02,5.06,5.10,5.10,5.10,5.10,5.10,5.10,5.10,5.10,5.10,5.10,5.10,5.10,5.10,5.10,5.10,5.10,5.10,5.10,5.10,5.10,5.10,5.10,5.10,5.10,5.10,5.10,5.10,5.10,5.10,5.10,5.10,5.10,5.10,5.10,5.10,5.10,5.10,5.10,5.10,5.10,5.10,5.10,5.10,5.10,5.10,5.10,5.10,5.10,5.10,5.10,5.10,5.10,5.10,5.10,5.10,5.10,5.10,5.10,5.10,5.10,5.10,5.10,5.10,5.10,5.10,5.10,5.10,5.10,5.10,5.10,5.10,5.10,5.10,5.10,5.10,5.10,5.10,5.10,5.10,5.10,5.10,5.10,5.10,5.10,5.10,5.10,5.10,5.10,5.10,5.10,5.10,5.10,5.10,5.10,5.15,5.13,5.10,5.09,5.01,5.00,5.00,5.00,5.00,5.00,5.02,5.10,5.29,5.52,5.75,5.98,6.22,6.45,6.68,6.91,7.12,7.27,7.48,7.65,7.80,7.97,8.20,8.41,8.60,8.79,9.03,9.23,9.46,9.67,9.87,10.25,10.64,11.02,11.41,11.77,12.10,12.45,12.81,13.14,13.50,13.84,14.15,14.40,14.66,14.83,14.94,15.01,15.07,15.07,15.08,15.10,15.10,15.10,15.16,15.28,15.44,15.65,15.92,16.19,16.45,16.70,17.01,17.30,17.58,17.84,18.15,18.44,18.71,18.97,19.25,19.34,19.47,19.59,19.68,19.83,20.01,20.26,20.64,21.24,21.92,22.63,23.34,24.04,24.73,25.47,26.22,26.94,27.28,27.36,27.40,27.43,27.43,27.46,27.53,27.65,27.77,27.88,28.02,28.20,28.39,28.55,28.66,28.64,28.56,28.53
3.27,3.29,3.36,3.42,3.47,3.50,3.57,3.63,3.68,3.70,3.77,3.84,3.88,3.91,3.98,4.04,4.08,4.12,4.19,4.25,4.28,4.32,4.40,4.48,4.50,4.53,4.61,4.69,4.70,4.74,4.82,4.90,4.90,4.95,5.00,5.00,5.00,5.06,5.06,5.00,5.00,5.00,5.00,5.00,5.00,5.00,5.00,5.00,5.00,5.00,5.00,5.03,5.08,5.10,5.10,5.10,5.10,5.10,5.10,5.10,5.10,5.10,5.10,5.10,5.10,5.10,5.10,5.10,5.10,5.10,5.10,5.10,5.10,5.10,5.10,5.10,5.10,5.10,5.10,5.10,5.10,5.10,5.10,5.10,5.10,5.10,5.10,5.10,5.10,5.10,5.10,5.10,5.10,5.10,5.10,5.10,5.11,5.13,5.13,5.13,5.12,5.10,5.12,5.11,5.10,5.10,5.10,5.10,5.10,5.10,5.10,5.10,5.10,5.10,5.10,5.10,5.10,5.10,5.10,5.10,5.10,5.10,5.10,5.10,5.10,5.10,5.10,5.10,5.10,5.10,5.10,5.10,5.10,5.10,5.10,5.10,5.10,5.10,5.10,5.11,5.13,5.13,5.13,5.13,5.12,5.10,5.16,5.13,5.10,5.09,5.01,5.00,5.00,5.00,5.00,5.00,5.00,5.05,5.19,5.42,5.64,5.86,6.09,6.32,6.55,6.78,6.99,7.15,7.38,7.57,7.75,7.93,8.14,8.37,8.57,8.76,8.99,9.20,9.43,9.64,9.83,10.19,10.57,10.96,11.35,11.73,12.07,12.44,12.80,13.11,13.47,13.78,14.03,14.24,14.45,14.59,14.69,14.77,14.85,14.87,14.89,14.91,14.91,14.91,14.99,15.14,15.35,15.60,15.89,16.19,16.48,16.73,17.02,17.32,17.61,17.87,18.15,18.46,18.74,19.00,19.29,19.40,19.53,19.66,19.74,19.92,20.14,20.41,20.75,21.25,21.92,22.62,23.31,24.01,24.70,25.45,26.20,26.86,27.02,27.07,27.11,27.15,27.18,27.22,27.39,27.63,27.90,28.06,28.23,28.42,28.62,28.80,28.96,29.02,28.98,28.88
3.21,3.28,3.36,3.40,3.42,3.49,3.57,3.60,3.62,3.70,3.77,3.80,3.83,3.91,3.98,4.00,4.04,4.12,4.19,4.20,4.25,4.32,4.40,4.48,4.50,4.53,4.61,4.69,4.70,4.74,4.82,4.90,4.90,4.95,5.00,5.00,5.00,5.06,5.06,5.00,5.00,5.00,5.00,5.00,5.00,5.00,5.00,5.00,5.00,5.00,5.00,5.00,5.02,5.10,5.10,5.10,5.10,5.10,5.10,5.10,5.10,5.10,5.10,5.10,5.10,5.10,5.10,5.10,5.10,5.10,5.10,5.10,5.10,5.10,5.10,5.10,5.10,5.10,5.10,5.10,5.10,5.10,5.10,5.10,5.10,5.10,5.10,5.10,5.10,5.10,5.10,5.10,5.10,5.10,5.10,5.10,5.12,5.19,5.19,5.19,5.17,5.10,5.18,5.14,5.10,5.10,5.10,5.10,5.10,5.10,5.10,5.10,5.10,5.10,5.10,5.10,5.10,5.10,5.10,5.10,5.10,5.10,5.10,5.10,5.10,5.10,5.10,5.10,5.10,5.10,5.10,5.10,5.10,5.10,5.10,5.10,5.10,5.10,5.10,5.14,5.19,5.19,5.19,5.19,5.17,5.10,5.10,5.10,5.10,5.09,5.01,5.00,5.00,5.00,5.00,5.00,5.00,5.03,5.13,5.36,5.53,5.73,5.96,6.19,6.42,6.65,6.86,7.02,7.25,7.48,7.71,7.92,8.08,8.30,8.53,8.76,8.99,9.15,9.36,9.59,9.83,10.14,10.51,10.90,11.28,11.67,12.05,12.44,12.80,13.11,13.42,13.68,13.88,14.04,14.20,14.29,14.37,14.45,14.53,14.60,14.67,14.72,14.72,14.72,14.83,15.06,15.36,15.66,15.91,16.19,16.49,16.80,17.03,17.32,17.63,17.93,18.16,18.46,18.77,19.05,19.29,19.44,19.60,19.72,19.81,20.04,20.27,20.54,20.86,21.26,21.92,22.62,23.31,24.01,24.70,25.45,26.16,26.71,26.73,26.79,26.83,26.85,26.92,27.06,27.35,27.73,28.09,28.25,28.46,28.65,28.82,29.05,29.21,29.36,29.42,29.26
3.20,3.28,3.32,3.36,3.41,3.49,3.57,3.60,3.62,3.70,3.77,3.80,3.83,3.91,3.98,4.00,4.04,4.12,4.19,4.20,4.25,4.32,4.40,4.43,4.47,4.53,4.60,4.64,4.68,4.74,4.81,4.84,4.88,4.95,5.00,5.00,5.00,5.06,5.06,5.00,5.00,5.00,5.00,5.00,5.00,5.00,5.00,5.00,5.00,5.00,5.00,5.00,5.01,5.04,5.08,5.10,5.10,5.10,5.10,5.10,5.10,5.10,5.10,5.10,5.10,5.10,5.10,5.10,5.10,5.10,5.10,5.10,5.10,5.10,5.10,5.10,5.10,5.10,5.10,5.10,5.10,5.10,5.10,5.10,5.10,5.10,5.10,5.10,5.10,5.10,5.10,5.10,5.10,5.10,5.10,5.10,5.11,5.14,5.18,5.20,5.19,5.16,5.14,5.12,5.10,5.10,5.10,5.10,5.10,5.10,5.10,5.10,5.10,5.10,5.10,5.10,5.10,5.10,5.10,5.10,5.10,5.10,5.10,5.10,5.10,5.10,5.10,5.10,5.10,5.10,5.10,5.10,5.10,5.10,5.13,5.16,5.16,5.16,5.12,5.12,5.14,5.14,5.14,5.14,5.13,5.10,5.10,5.10,5.10,5.09,5.01,5.04,5.06,5.05,5.00,5.00,5.03,5.11,5.24,5.47,5.68,5.87,6.06,6.30,6.49,6.70,6.92,7.12,7.31,7.50,7.70,7.93,8.13,8.36,8.56,8.76,8.99,9.19,9.41,9.63,9.83,10.18,10.56,10.93,11.28,11.66,12.05,12.41,12.73,12.99,13.25,13.46,13.63,13.78,13.89,13.97,14.05,14.13,14.21,14.24,14.30,14.40,14.54,14.67,14.89,15.15,15.41,15.67,15.95,16.22,16.50,16.80,17.08,17.35,17.63,17.94,18.21,18.48,18.77,19.07,19.35,19.51,19.66,19.79,19.88,20.15,20.43,20.72,21.04,21.38,21.92,22.56,23.25,23.95,24.69,25.42,26.04,26.47,26.47,26.49,26.53,26.61,26.77,27.06,27.41,27.80,28.17,28.42,28.65,28.85,29.02,29.25,29.41,29.57,29.70,29.76
3.20,3.28,3.30,3.33,3.41,3.49,3.55,3.59,3.62,3.70,3.76,3.79,3.83,3.90,3.97,3.99,4.04,4.11,4.17,4.19,4.25,4.32,4.38,4.40,4.46,4.53,4.58,4.60,4.66,4.74,4.80,4.80,4.87,4.95,5.00,5.00,5.00,5.05,5.06,5.02,5.00,5.00,5.00,5.00,5.00,5.00,5.00,5.00,5.00,5.00,5.00,5.00,5.00,5.00,5.06,5.08,5.08,5.10,5.10,5.10,5.10,5.10,5.10,5.10,5.10,5.10,5.10,5.10,5.10,5.10,5.10,5.10,5.10,5.10,5.10,5.10,5.10,5.10,5.10,5.10,5.10,5.10,5.10,5.10,5.10,5.10,5.10,5.10,5.10,5.10,5.10,5.10,5.10,5.10,5.10,5.10,5.10,5.10,5.16,5.19,5.20,5.20,5.12,5.10,5.10,5.10,5.10,5.10,5.10,5.10,5.10,5.10,5.10,5.10,5.10,5.10,5.10,5.10,5.10,5.10,5.10,5.10,5.10,5.10,5.10,5.10,5.10,5.10,5.12,5.12,5.12,5.12,5.12,5.11,5.14,5.18,5.18,5.18,5.13,5.10,5.10,5.10,5.10,5.10,5.10,5.10,5.10,5.10,5.10,5.09,5.01,5.10,5.15,5.15,5.07,5.08,5.14,5.24,5.39,5.60,5.83,6.03,6.21,6.43,6.60,6.81,7.04,7.25,7.40,7.57,7.76,7.98,8.19,8.42,8.62,8.80,9.04,9.27,9.49,9.69,9.88,10.26,10.65,11.00,11.31,11.67,12.02,12.33,12.61,12.84,13.05,13.24,13.39,13.50,13.58,13.66,13.73,13.82,13.93,13.97,14.06,14.23,14.46,14.71,14.99,15.26,15.49,15.72,16.01,16.26,16.52,16.83,17.12,17.38,17.65,17.94,18.25,18.49,18.77,19.08,19.39,19.56,19.72,19.86,19.99,20.30,20.61,20.91,21.22,21.53,21.95,22.53,23.21,23.91,24.66,25.39,25.93,26.19,26.21,26.21,26.29,26.46,26.73,27.09,27.47,27.86,28.24,28.57,28.82,29.03,29.21,29.44,29.60,29.80,30.03,30.30
3.20,3.28,3.30,3.33,3.41,3.49,3.51,3.55,3.62,3.70,3.71,3.76,3.83,3.90,3.91,3.97,4.04,4.10,4.11,4.17,4.25,4.30,4.32,4.38,4.46,4.50,4.52,4.59,4.66,4.74,4.80,4.80,4.87,4.95,5.00,5.00,5.00,5.01,5.04,5.07,5.01,5.00,5.00,5.00,5.00,5.00,5.00,5.00,5.00,5.00,5.00,5.00,5.00,5.00,5.01,5.01,5.04,5.10,5.10,5.10,5.10,5.10,5.10,5.10,5.10,5.10,5.10,5.10,5.10,5.10,5.10,5.10,5.10,5.10,5.10,5.10,5.10,5.10,5.10,5.10,5.10,5.10,5.10,5.10,5.10,5.10,5.10,5.10,5.10,5.10,5.10,5.10,5.10,5.10,5.10,5.10,5.10,5.10,5.11,5.16,5.20,5.20,5.12,5.10,5.10,5.10,5.10,5.10,5.10,5.10,5.10,5.10,5.10,5.10,5.10,5.10,5.10,5.10,5.10,5.10,5.10,5.10,5.10,5.10,5.10,5.10,5.10,5.11,5.18,5.19,5.19,5.19,5.19,5.12,5.11,5.11,5.11,5.11,5.11,5.10,5.10,5.10,5.10,5.10,5.10,5.10,5.10,5.10,5.10,5.09,5.01,5.18,5.31,5.34,5.26,5.32,5.40,5.48,5.57,5.74,5.96,6.18,6.39,6.56,6.77,7.00,7.21,7.38,7.53,7.73,7.93,8.10,8.26,8.48,8.71,8.93,9.16,9.40,9.58,9.77,10.00,10.39,10.78,11.12,11.42,11.68,11.93,12.18,12.42,12.65,12.81,13.02,13.15,13.18,13.26,13.34,13.41,13.52,13.73,13.87,14.10,14.36,14.59,14.89,15.15,15.38,15.62,15.85,16.09,16.33,16.58,16.89,17.13,17.41,17.69,17.94,18.25,18.49,18.77,19.08,19.39,19.61,19.79,19.96,20.18,20.49,20.80,21.11,21.42,21.72,22.05,22.56,23.21,23.91,24.61,25.36,25.82,25.88,25.95,25.96,26.14,26.49,26.85,27.17,27.54,27.92,28.31,28.68,28.95,29.18,29.40,29.63,29.79,30.11,30.51,30.87
3.20,3.24,3.28,3.33,3.41,3.44,3.48,3.54,3.61,3.65,3.69,3.75,3.81,3.85,3.89,3.96,4.04,4.10,4.10,4.17,4.25,4.30,4.30,4.38,4.46,4.50,4.51,4.59,4.66,4.72,4.76,4.80,4.87,4.93,4.96,5.00,5.00,5.00,5.04,5.09,5.01,5.00,5.00,5.00,5.00,5.00,5.00,5.00,5.00,5.00,5.00,5.00,5.00,5.00,5.00,5.00,5.01,5.05,5.09,5.10,5.10,5.10,5.10,5.10,5.10,5.10,5.10,5.10,5.10,5.10,5.10,5.10,5.10,5.10,5.10,5.10,5.10,5.10,5.10,5.10,5.10,5.10,5.10,5.10,5.10,5.10,5.10,5.10,5.10,5.10,5.10,5.10,5.10,5.10,5.10,5.10,5.10,5.10,5.14,5.17,5.20,5.20,5.12,5.10,5.10,5.10,5.10,5.10,5.10,5.10,5.10,5.10,5.10,5.10,5.10,5.10,5.10,5.10,5.10,5.10,5.10,5.10,5.11,5.15,5.15,5.15,5.15,5.15,5.15,5.15,5.15,5.15,5.15,5.11,5.10,5.10,5.10,5.10,5.10,5.10,5.10,5.10,5.10,5.10,5.10,5.10,5.10,5.13,5.13,5.10,5.10,5.30,5.44,5.50,5.50,5.57,5.65,5.74,5.86,5.98,6.15,6.35,6.54,6.73,6.93,7.14,7.35,7.51,7.70,7.89,8.07,8.22,8.38,8.56,8.78,9.01,9.24,9.47,9.68,9.90,10.18,10.48,10.76,11.03,11.30,11.53,11.76,11.99,12.22,12.45,12.61,12.74,12.83,12.92,13.03,13.18,13.31,13.46,13.69,13.89,14.13,14.40,14.67,14.94,15.21,15.46,15.69,15.93,16.16,16.41,16.68,16.95,17.22,17.49,17.75,17.99,18.30,18.54,18.80,19.08,19.39,19.66,19.85,20.05,20.32,20.67,20.99,21.28,21.56,21.87,22.18,22.62,23.21,23.91,24.60,25.21,25.57,25.61,25.69,25.86,26.16,26.54,26.93,27.28,27.65,28.02,28.37,28.76,29.09,29.36,29.59,29.82,30.09,30.45,30.87,31.30
3.19,3.20,3.26,3.33,3.40,3.40,3.47,3.54,3.60,3.60,3.67,3.75,3.80,3.81,3.88,3.96,4.03,4.09,4.10,4.17,4.24,4.29,4.30,4.38,4.45,4.49,4.51,4.59,4.66,4.69,4.72,4.80,4.86,4.89,4.93,5.00,5.00,5.00,5.04,5.09,5.01,5.00,5.00,5.00,5.00,5.00,5.00,5.00,5.00,5.00,5.00,5.00,5.00,5.00,5.00,5.00,5.00,5.00,5.07,5.09,5.10,5.10,5.10,5.10,5.10,5.10,5.10,5.10,5.10,5.10,5.10,5.10,5.10,5.10,5.10,5.10,5.10,5.10,5.10,5.10,5.10,5.10,5.10,5.10,5.10,5.10,5.10,5.10,5.10,5.10,5.10,5.10,5.10,5.10,5.10,5.10,5.10,5.10,5.17,5.20,5.20,5.20,5.12,5.10,5.10,5.10,5.10,5.10,5.10,5.10,5.10,5.10,5.10,5.10,5.10,5.10,5.11,5.11,5.11,5.11,5.11,5.11,5.12,5.19,5.19,5.19,5.19,5.18,5.11,5.10,5.10,5.10,5.10,5.10,5.10,5.10,5.10,5.10,5.10,5.10,5.10,5.10,5.10,5.10,5.10,5.10,5.11,5.16,5.15,5.10,5.21,5.44,5.59,5.68,5.75,5.83,5.91,6.02,6.16,6.24,6.37,6.52,6.69,6.91,7.08,7.28,7.48,7.65,7.87,8.04,8.20,8.35,8.50,8.66,8.85,9.07,9.29,9.52,9.76,10.02,10.31,10.54,10.71,10.90,11.13,11.35,11.58,11.81,12.03,12.26,12.42,12.47,12.56,12.72,12.88,13.10,13.28,13.46,13.70,13.94,14.17,14.42,14.72,14.94,15.24,15.52,15.76,16.00,16.24,16.51,16.79,17.02,17.33,17.58,17.82,18.07,18.37,18.61,18.85,19.10,19.40,19.70,19.92,20.14,20.47,20.84,21.17,21.44,21.70,22.01,22.32,22.71,23.22,23.89,24.60,25.05,25.29,25.39,25.50,25.83,26.22,26.61,26.99,27.38,27.77,28.13,28.45,28.84,29.22,29.53,29.77,30.04,30.41,30.80,31.22,31.67
3.12,3.18,3.26,3.33,3.40,3.40,3.47,3.54,3.60,3.60,3.67,3.75,3.80,3.81,3.88,3.96,4.01,4.03,4.09,4.17,4.21,4.24,4.30,4.38,4.41,4.45,4.51,4.59,4.61,4.66,4.72,4.80,4.82,4.86,4.93,5.00,5.00,5.00,5.04,5.09,5.01,5.00,5.00,5.00,5.00,5.00,5.00,5.00,5.00,5.00,5.00,5.00,5.00,5.00,5.00,5.00,5.00,5.00,5.02,5.07,5.10,5.10,5.10,5.10,5.10,5.10,5.10,5.10,5.10,5.10,5.10,5.10,5.10,5.10,5.10,5.10,5.10,5.10,5.10,5.10,5.10,5.10,5.10,5.10,5.10,5.10,5.10,5.10,5.10,5.10,5.10,5.10,5.10,5.10,5.10,5.10,5.10,5.10,5.17,5.20,5.20,5.20,5.12,5.10,5.10,5.10,5.10,5.10,5.10,5.10,5.10,5.10,5.10,5.10,5.10,5.10,5.15,5.18,5.18,5.18,5.18,5.14,5.11,5.12,5.12,5.12,5.12,5.12,5.10,5.10,5.10,5.10,5.10,5.10,5.10,5.10,5.10,5.10,5.10,5.10,5.10,5.10,5.10,5.10,5.10,5.10,5.16,5.15,5.09,5.06,5.32,5.61,5.81,5.93,6.01,6.09,6.20,6.32,6.42,6.49,6.59,6.71,6.87,7.04,7.25,7.44,7.62,7.84,8.01,8.17,8.32,8.48,8.63,8.79,8.95,9.12,9.29,9.52,9.80,10.05,10.24,10.47,10.64,10.84,11.06,11.23,11.45,11.65,11.84,12.07,12.23,12.35,12.52,12.72,12.88,13.10,13.28,13.47,13.77,14.00,14.23,14.47,14.71,14.89,15.21,15.54,15.83,16.13,16.36,16.61,16.85,17.08,17.39,17.64,17.90,18.19,18.44,18.67,18.94,19.22,19.47,19.72,19.98,20.29,20.66,20.98,21.29,21.60,21.89,22.20,22.51,22.84,23.25,23.83,24.58,24.90,25.07,25.28,25.53,25.90,26.28,26.67,27.06,27.44,27.83,28.21,28.58,28.97,29.31,29.62,29.93,30.34,30.73,31.15,31.58,31.99
3.10,3.18,3.26,3.32,3.36,3.40,3.47,3.52,3.57,3.60,3.67,3.73,3.77,3.81,3.88,3.94,3.97,4.02,4.09,4.14,4.18,4.22,4.30,4.35,4.38,4.43,4.51,4.59,4.60,4.64,4.72,4.80,4.80,4.85,4.93,5.00,5.00,5.00,5.04,5.09,5.01,5.00,5.00,5.00,5.00,5.00,5.00,5.00,5.00,5.00,5.00,5.00,5.00,5.00,5.00,5.00,5.00,5.00,5.00,5.03,5.07,5.10,5.10,5.10,5.10,5.10,5.10,5.10,5.10,5.10,5.10,5.10,5.10,5.10,5.10,5.10,5.10,5.10,5.10,5.10,5.10,5.10,5.10,5.10,5.10,5.10,5.10,5.10,5.10,5.10,5.10,5.10,5.10,5.10,5.10,5.10,5.10,5.10,5.17,5.20,5.20,5.20,5.12,5.10,5.10,5.10,5.10,5.10,5.10,5.10,5.10,5.13,5.14,5.14,5.14,5.14,5.15,5.16,5.16,5.16,5.16,5.13,5.10,5.10,5.10,5.10,5.10,5.10,5.10,5.10,5.10,5.10,5.10,5.10,5.10,5.10,5.10,5.10,5.10,5.10,5.10,5.10,5.07,5.06,5.07,5.10,5.18,5.12,5.05,5.09,5.40,5.68,5.89,6.03,6.14,6.25,6.39,6.53,6.63,6.74,6.85,6.97,7.09,7.21,7.41,7.60,7.79,7.99,8.14,8.30,8.45,8.61,8.76,8.91,9.07,9.22,9.38,9.58,9.83,10.06,10.22,10.45,10.62,10.81,11.03,11.19,11.41,11.59,11.77,12.00,12.16,12.31,12.50,12.72,12.88,13.10,13.30,13.52,13.83,14.03,14.25,14.47,14.67,14.86,15.18,15.51,15.82,16.17,16.44,16.70,16.95,17.19,17.46,17.71,17.97,18.27,18.50,18.76,19.03,19.30,19.53,19.76,20.07,20.41,20.76,21.07,21.41,21.73,22.04,22.35,22.69,23.01,23.36,23.81,24.45,24.76,24.98,25.28,25.63,26.00,26.37,26.73,27.12,27.51,27.91,28.32,28.71,29.09,29.44,29.79,30.15,30.61,31.01,31.44,31.89,32.31
3.10,3.18,3.25,3.30,3.31,3.39,3.46,3.50,3.52,3.60,3.67,3.70,3.73,3.81,3.88,3.90,3.94,4.02,4.09,4.10,4.15,4.22,4.30,4.30,4.36,4.43,4.51,4.58,4.60,4.64,4.72,4.79,4.80,4.85,4.93,4.99,5.00,5.00,5.04,5.08,5.01,5.00,5.00,5.00,5.00,5.00,5.00,5.00,5.00,5.00,5.00,5.00,5.00,5.00,5.00,5.00,5.00,5.00,5.00,5.00,5.03,5.10,5.10,5.10,5.10,5.10,5.10,5.10,5.10,5.10,5.10,5.10,5.10,5.10,5.10,5.10,5.10,5.10,5.10,5.10,5.10,5.10,5.10,5.10,5.10,5.10,5.10,5.10,5.10,5.10,5.10,5.10,5.10,5.10,5.10,5.10,5.10,5.10,5.17,5.20,5.20,5.20,5.12,5.10,5.10,5.11,5.11,5.11,5.11,5.10,5.10,5.17,5.19,5.19,5.19,5.19,5.14,5.10,5.10,5.10,5.10,5.10,5.10,5.10,5.10,5.10,5.10,5.10,5.10,5.10,5.10,5.10,5.10,5.10,5.10,5.10,5.10,5.10,5.09,5.09,5.09,5.09,5.03,5.00,5.03,5.10,5.18,5.09,5.03,5.15,5.46,5.70,5.88,6.04,6.19,6.35,6.50,6.65,6.81,6.96,7.12,7.24,7.32,7.40,7.55,7.75,7.96,8.11,8.26,8.42,8.57,8.73,8.88,9.04,9.19,9.35,9.50,9.65,9.86,10.06,10.22,10.45,10.62,10.81,11.03,11.19,11.41,11.59,11.77,12.00,12.16,12.31,12.50,12.72,12.88,13.10,13.33,13.58,13.88,14.05,14.25,14.45,14.61,14.84,15.13,15.44,15.77,16.15,16.47,16.78,17.07,17.31,17.54,17.78,18.04,18.34,18.57,18.87,19.13,19.36,19.59,19.83,20.16,20.51,20.83,21.14,21.50,21.85,22.16,22.47,22.85,23.19,23.50,23.81,24.27,24.62,24.97,25.36,25.75,26.13,26.48,26.81,27.20,27.58,28.02,28.45,28.84,29.22,29.61,30.00,30.40,30.86,31.26,31.69,32.15,32.61
3.10,3.18,3.22,3.25,3.31,3.39,3.42,3.46,3.52,3.60,3.67,3.70,3.73,3.81,3.88,3.90,3.94,4.02,4.09,4.10,4.15,4.22,4.30,4.30,4.36,4.43,4.50,4.53,4.58,4.64,4.71,4.73,4.78,4.85,4.91,4.93,4.99,5.00,5.01,5.04,5.07,5.02,5.00,5.00,5.00,5.00,5.00,5.00,5.00,5.00,5.00,5.00,5.00,5.00,5.00,5.00,5.00,5.00,5.00,5.00,5.01,5.04,5.09,5.10,5.10,5.10,5.10,5.10,5.10,5.10,5.10,5.10,5.10,5.10,5.10,5.10,5.10,5.10,5.10,5.10,5.10,5.10,5.10,5.10,5.10,5.10,5.10,5.10,5.10,5.10,5.10,5.10,5.10,5.10,5.10,5.10,5.10,5.10,5.17,5.20,5.20,5.20,5.18,5.13,5.12,5.17,5.17,5.17,5.17,5.15,5.10,5.12,5.13,5.13,5.13,5.13,5.11,5.10,5.10,5.10,5.10,5.10,5.10,5.10,5.10,5.10,5.10,5.10,5.10,5.10,5.10,5.10,5.10,5.10,5.10,5.10,5.09,5.04,5.03,5.03,5.03,5.03,5.01,5.00,5.03,5.10,5.18,5.09,5.03,5.15,5.46,5.65,5.82,5.97,6.13,6.28,6.44,6.59,6.74,6.90,7.10,7.27,7.40,7.53,7.68,7.85,8.02,8.17,8.33,8.48,8.64,8.79,8.95,9.10,9.26,9.41,9.56,9.72,9.89,10.06,10.22,10.45,10.62,10.81,11.03,11.19,11.41,11.59,11.77,12.00,12.16,12.31,12.50,12.73,12.94,13.16,13.40,13.62,13.82,14.03,14.22,14.39,14.55,14.78,15.03,15.34,15.70,16.03,16.39,16.75,17.09,17.37,17.60,17.87,18.15,18.41,18.69,18.95,19.20,19.43,19.66,19.89,20.19,20.53,20.89,21.20,21.57,21.92,22.23,22.54,22.91,23.25,23.58,23.94,24.30,24.66,25.05,25.49,25.87,26.26,26.63,27.00,27.39,27.77,28.18,28.58,28.96,29.35,29.74,30.15,30.59,31.05,31.45,31.88,32.33,32.74
3.10,3.18,3.20,3.23,3.31,3.39,3.40,3.44,3.52,3.60,3.65,3.68,3.73,3.80,3.86,3.89,3.94,4.01,4.06,4.09,4.15,4.22,4.27,4.29,4.36,4.42,4.47,4.50,4.56,4.63,4.67,4.70,4.77,4.85,4.90,4.91,4.98,5.00,5.00,5.01,5.09,5.03,5.00,5.00,5.00,5.00,5.00,5.00,5.00,5.00,5.00,5.00,5.00,5.00,5.00,5.00,5.00,5.00,5.00,5.00,5.00,5.01,5.06,5.07,5.08,5.10,5.10,5.10,5.10,5.10,5.10,5.10,5.10,5.10,5.10,5.10,5.10,5.10,5.10,5.10,5.10,5.10,5.10,5.10,5.10,5.10,5.10,5.10,5.10,5.10,5.10,5.10,5.10,5.10,5.10,5.10,5.10,5.10,5.17,5.20,5.20,5.20,5.20,5.16,5.15,5.17,5.17,5.17,5.17,5.15,5.10,5.10,5.10,5.10,5.10,5.10,5.10,5.10,5.10,5.10,5.10,5.10,5.10,5.10,5.10,5.10,5.10,5.10,5.10,5.10,5.09,5.07,5.07,5.07,5.07,5.07,5.06,5.01,5.00,5.00,5.00,5.00,5.00,5.00,5.03,5.13,5.16,5.07,5.05,5.17,5.43,5.60,5.75,5.91,6.06,6.22,6.37,6.53,6.68,6.84,7.03,7.22,7.40,7.55,7.71,7.86,8.02,8.17,8.33,8.48,8.65,8.82,8.98,9.13,9.29,9.44,9.60,9.75,9.90,10.06,10.22,10.45,10.62,10.81,11.03,11.19,11.41,11.59,11.77,12.00,12.16,12.31,12.50,12.73,12.96,13.17,13.39,13.61,13.76,13.99,14.17,14.33,14.52,14.72,14.93,15.22,15.60,15.93,16.29,16.67,17.04,17.37,17.65,17.96,18.23,18.47,18.78,19.01,19.23,19.46,19.69,19.92,20.22,20.56,20.92,21.23,21.60,21.97,22.33,22.66,23.04,23.41,23.78,24.17,24.53,24.85,25.18,25.55,25.93,26.32,26.71,27.10,27.51,27.90,28.28,28.67,29.06,29.44,29.83,30.25,30.71,31.15,31.56,31.99,32.42,32.83
3.10,3.18,3.20,3.23,3.31,3.39,3.40,3.44,3.52,3.60,3.60,3.65,3.73,3.80,3.80,3.86,3.94,4.00,4.00,4.07,4.15,4.20,4.20,4.28,4.36,4.40,4.41,4.49,4.56,4.60,4.62,4.70,4.77,4.85,4.90,4.91,4.98,5.00,5.00,5.01,5.09,5.03,5.00,5.00,5.00,5.00,5.00,5.00,5.00,5.00,5.00,5.00,5.00,5.00,5.00,5.00,5.00,5.00,5.00,5.00,5.00,5.00,5.00,5.00,5.05,5.10,5.10,5.10,5.10,5.10,5.10,5.10,5.10,5.10,5.10,5.10,5.10,5.10,5.10,5.10,5.10,5.10,5.10,5.10,5.10,5.10,5.10,5.10,5.10,5.10,5.10,5.10,5.10,5.10,5.10,5.10,5.10,5.10,5.17,5.20,5.20,5.20,5.20,5.20,5.16,5.10,5.10,5.10,5.10,5.10,5.10,5.10,5.10,5.10,5.10,5.10,5.10,5.10,5.10,5.10,5.10,5.10,5.10,5.10,5.10,5.10,5.10,5.10,5.10,5.10,5.06,5.00,5.00,5.00,5.00,5.00,5.00,5.00,5.00,5.00,5.00,5.00,5.00,5.00,5.05,5.19,5.12,5.04,5.07,5.22,5.38,5.54,5.69,5.84,6.00,6.15,6.31,6.46,6.62,6.77,6.93,7.12,7.34,7.49,7.64,7.80,7.95,8.11,8.26,8.42,8.60,8.82,8.98,9.13,9.29,9.44,9.60,9.75,9.90,10.06,10.22,10.45,10.62,10.81,11.03,11.19,11.41,11.59,11.77,12.00,12.16,12.31,12.50,12.73,12.96,13.13,13.33,13.54,13.70,13.93,14.11,14.29,14.51,14.67,14.83,15.09,15.48,15.86,16.18,16.54,16.93,17.31,17.69,18.02,18.30,18.54,18.85,19.03,19.23,19.46,19.69,19.92,20.25,20.61,20.92,21.23,21.60,22.02,22.47,22.85,23.24,23.67,24.10,24.49,24.95,25.19,25.36,25.55,25.93,26.32,26.71,27.11,27.57,27.96,28.35,28.74,29.12,29.51,29.89,30.32,30.77,31.16,31.61,32.03,32.44,32.90
3.10,3.13,3.17,3.23,3.30,3.33,3.38,3.44,3.51,3.54,3.58,3.65,3.71,3.74,3.79,3.86,3.91,3.95,4.00,4.07,4.15,4.20,4.20,4.28,4.36,4.40,4.41,4.49,4.56,4.60,4.62,4.70,4.77,4.82,4.86,4.91,4.98,5.00,5.00,5.01,5.09,5.03,5.00,5.00,5.00,5.00,5.00,5.00,5.00,5.00,5.00,5.00,5.00,5.00,5.00,5.00,5.00,5.00,5.00,5.00,5.00,5.00,5.00,5.00,5.02,5.05,5.10,5.10,5.10,5.10,5.10,5.10,5.10,5.10,5.10,5.10,5.10,5.10,5.10,5.10,5.10,5.10,5.10,5.10,5.10,5.10,5.10,5.10,5.10,5.10,5.10,5.10,5.10,5.10,5.10,5.10,5.10,5.10,5.17,5.20,5.20,5.20,5.15,5.14,5.13,5.10,5.10,5.10,5.10,5.10,5.10,5.10,5.10,5.10,5.10,5.10,5.10,5.10,5.10,5.10,5.10,5.10,5.10,5.10,5.10,5.06,5.04,5.04,5.04,5.04,5.02,5.00,5.00,5.00,5.00,5.00,5.00,5.00,5.00,5.00,5.00,5.00,5.00,5.03,5.08,5.14,5.11,5.04,5.05,5.16,5.32,5.47,5.63,5.78,5.94,6.09,6.24,6.40,6.55,6.71,6.86,7.03,7.22,7.42,7.58,7.73,7.89,8.04,8.20,8.35,8.52,8.71,8.91,9.07,9.23,9.38,9.53,9.69,9.87,10.06,10.22,10.45,10.62,10.81,11.03,11.19,11.41,11.59,11.76,11.94,12.15,12.35,12.54,12.73,12.91,13.11,13.30,13.49,13.69,13.88,14.07,14.27,14.45,14.61,14.80,15.07,15.41,15.80,16.16,16.53,16.92,17.31,17.64,18.00,18.32,18.59,18.80,19.01,19.20,19.41,19.69,19.97,20.35,20.75,21.11,21.51,21.90,22.30,22.72,23.10,23.53,23.95,24.37,24.81,25.27,25.62,25.83,25.95,26.15,26.43,26.77,27.16,27.58,27.97,28.35,28.74,29.13,29.56,29.96,30.38,30.83,31.22,31.75,32.29,32.84,33.45
3.08,3.09,3.16,3.23,3.28,3.30,3.37,3.44,3.50,3.50,3.57,3.65,3.70,3.71,3.78,3.86,3.90,3.92,3.99,4.07,4.14,4.18,4.20,4.28,4.34,4.38,4.41,4.49,4.55,4.59,4.62,4.70,4.76,4.79,4.83,4.90,4.96,4.99,5.00,5.01,5.09,5.03,5.00,5.00,5.00,5.00,5.00,5.00,5.00,5.00,5.00,5.00,5.00,5.00,5.00,5.00,5.00,5.00,5.00,5.00,5.00,5.00,5.00,5.00,5.00,5.02,5.08,5.09,5.10,5.10,5.10,5.10,5.10,5.10,5.10,5.10,5.10,5.10,5.10,5.10,5.10,5.10,5.10,5.10,5.10,5.10,5.10,5.10,5.10,5.10,5.10,5.10,5.10,5.10,5.10,5.10,5.10,5.12,5.18,5.20,5.20,5.20,5.12,5.10,5.10,5.10,5.10,5.10,5.10,5.10,5.10,5.10,5.10,5.10,5.10,5.10,5.10,5.10,5.10,5.10,5.10,5.10,5.09,5.08,5.08,5.03,5.00,5.00,5.00,5.00,5.00,5.00,5.00,5.00,5.00,5.00,5.00,5.00,5.00,5.00,5.00,5.00,5.00,5.04,5.08,5.08,5.08,5.05,5.06,5.15,5.30,5.46,5.60,5.74,5.90,6.05,6.21,6.36,6.51,6.65,6.80,6.95,7.12,7.33,7.51,7.67,7.83,7.98,8.13,8.29,8.44,8.61,8.84,9.01,9.16,9.32,9.47,9.62,9.83,10.04,10.22,10.43,10.61,10.81,11.01,11.18,11.39,11.58,11.75,11.91,12.14,12.37,12.57,12.72,12.90,13.10,13.30,13.48,13.69,13.87,14.07,14.26,14.41,14.59,14.79,15.06,15.40,15.79,16.17,16.55,16.92,17.31,17.63,17.99,18.33,18.62,18.80,19.00,19.18,19.37,19.66,19.95,20.38,20.86,21.31,21.79,22.20,22.59,23.00,23.38,23.82,24.24,24.66,25.13,25.59,26.01,26.31,26.43,26.51,26.68,26.94,27.25,27.58,27.98,28.38,28.76,29.15,29.60,30.03,30.49,30.98,31.44,32.05,32.67,33.32,34.00
3.01,3.08,3.16,3.20,3.22,3.29,3.37,3.44,3.50,3.50,3.57,3.65,3.70,3.71,3.78,3.86,3.90,3.92,3.99,4.07,4.11,4.13,4.20,4.28,4.31,4.34,4.41,4.49,4.51,4.55,4.62,4.70,4.71,4.76,4.83,4.90,4.91,4.96,5.00,5.01,5.09,5.03,5.00,5.00,5.00,5.00,5.00,5.00,5.00,5.00,5.00,5.00,5.00,5.00,5.00,5.00,5.00,5.00,5.00,5.00,5.00,5.00,5.00,5.00,5.00,5.00,5.01,5.08,5.10,5.10,5.10,5.10,5.10,5.10,5.10,5.10,5.10,5.10,5.10,5.10,5.10,5.10,5.10,5.10,5.10,5.10,5.10,5.10,5.10,5.10,5.10,5.10,5.10,5.10,5.10,5.10,5.12,5.18,5.20,5.20,5.20,5.20,5.12,5.10,5.10,5.10,5.10,5.10,5.10,5.10,5.10,5.10,5.10,5.10,5.10,5.10,5.10,5.10,5.10,5.10,5.10,5.10,5.08,5.01,5.01,5.00,5.00,5.00,5.00,5.00,5.00,5.00,5.00,5.00,5.00,5.00,5.00,5.00,5.00,5.00,5.00,5.00,5.00,5.01,5.01,5.01,5.01,5.06,5.12,5.21,5.37,5.52,5.64,5.74,5.90,6.05,6.21,6.36,6.51,6.59,6.73,6.89,7.05,7.21,7.43,7.61,7.76,7.92,8.07,8.22,8.38,8.55,8.78,8.94,9.10,9.25,9.41,9.56,9.77,10.00,10.21,10.38,10.59,10.78,10.96,11.18,11.35,11.55,11.75,11.91,12.14,12.37,12.57,12.73,12.95,13.13,13.32,13.53,13.69,13.91,14.10,14.26,14.42,14.64,14.82,15.08,15.46,15.85,16.24,16.58,16.92,17.31,17.68,18.02,18.33,18.63,18.85,19.03,19.18,19.36,19.60,19.84,20.32,20.92,21.50,22.04,22.45,22.87,23.32,23.70,24.10,24.53,24.98,25.45,25.91,26.37,26.75,27.01,27.08,27.18,27.28,27.41,27.59,28.03,28.44,28.83,29.21,29.61,30.10,30.66,31.27,31.93,32.56,33.21,33.88,34.51
3.00,3.08,3.16,3.20,3.21,3.29,3.37,3.42,3.46,3.50,3.57,3.62,3.66,3.71,3.78,3.83,3.87,3.92,3.99,4.03,4.07,4.12,4.20,4.24,4.28,4.33,4.40,4.44,4.48,4.54,4.62,4.70,4.70,4.75,4.83,4.90,4.90,4.96,5.00,5.01,5.04,5.05,5.03,5.00,5.00,5.00,5.00,5.00,5.00,5.00,5.00,5.00,5.00,5.00,5.00,5.00,5.00,5.00,5.00,5.00,5.00,5.00,5.00,5.00,5.00,5.00,5.00,5.04,5.08,5.10,5.10,5.10,5.10,5.10,5.10,5.10,5.10,5.10,5.10,5.10,5.10,5.10,5.10,5.10,5.10,5.10,5.10,5.10,5.10,5.10,5.10,5.10,5.10,5.10,5.10,5.10,5.12,5.19,5.20,5.20,5.20,5.20,5.12,5.10,5.10,5.10,5.10,5.10,5.10,5.10,5.10,5.10,5.10,5.10,5.10,5.10,5.10,5.10,5.10,5.10,5.10,5.07,5.04,5.00,5.00,5.00,5.00,5.00,5.00,5.00,5.00,5.00,5.00,5.00,5.00,5.00,5.00,5.00,5.00,5.00,5.00,5.00,5.00,5.05,5.11,5.11,5.11,5.13,5.21,5.32,5.44,5.59,5.72,5.85,6.00,6.12,6.26,6.41,6.56,6.68,6.80,6.93,7.08,7.24,7.43,7.57,7.70,7.85,8.01,8.16,8.33,8.53,8.72,8.88,9.03,9.19,9.34,9.50,9.70,9.95,10.21,10.37,10.55,10.74,10.94,11.13,11.32,11.54,11.76,11.96,12.15,12.37,12.58,12.78,12.97,13.16,13.36,13.55,13.74,13.94,14.13,14.31,14.47,14.66,14.85,15.14,15.52,15.87,16.25,16.61,16.97,17.36,17.70,18.02,18.33,18.64,18.91,19.08,19.24,19.40,19.59,19.78,20.20,20.77,21.38,21.96,22.52,23.07,23.58,23.97,24.39,24.84,25.30,25.77,26.23,26.69,27.13,27.48,27.60,27.68,27.76,27.85,27.96,28.21,28.53,28.91,29.33,29.72,30.41,31.13,31.79,32.44,33.07,33.73,34.40,35.02
3.00,3.08,3.15,3.19,3.21,3.29,3.35,3.39,3.42,3.50,3.56,3.59,3.63,3.71,3.78,3.80,3.84,3.92,3.99,4.00,4.05,4.12,4.20,4.20,4.26,4.33,4.40,4.40,4.46,4.54,4.62,4.68,4.70,4.75,4.82,4.88,4.90,4.96,5.00,5.00,5.00,5.07,5.05,5.00,5.00,5.00,5.00,5.00,5.00,5.00,5.00,5.00,5.00,5.00,5.00,5.00,5.00,5.00,5.00,5.00,5.00,5.00,5.00,5.00,5.00,5.00,5.00,5.00,5.05,5.09,5.10,5.10,5.10,5.10,5.10,5.10,5.10,5.10,5.10,5.10,5.10,5.10,5.10,5.10,5.10,5.10,5.10,5.10,5.10,5.10,5.10,5.10,5.10,5.10,5.10,5.11,5.13,5.20,5.20,5.20,5.20,5.20,5.12,5.10,5.10,5.10,5.10,5.10,5.10,5.10,5.10,5.10,5.10,5.10,5.10,5.10,5.10,5.10,5.10,5.10,5.10,5.05,5.00,5.00,5.00,5.00,5.00,5.00,5.00,5.00,5.00,5.00,5.00,5.00,5.00,5.00,5.00,5.00,5.00,5.00,5.00,5.00,5.01,5.11,5.22,5.22,5.22,5.23,5.30,5.43,5.52,5.67,5.81,5.96,6.11,6.20,6.34,6.49,6.63,6.79,6.89,7.01,7.16,7.30,7.46,7.56,7.67,7.82,7.98,8.12,8.30,8.51,8.66,8.82,8.97,9.12,9.28,9.45,9.65,9.90,10.20,10.36,10.52,10.71,10.93,11.10,11.31,11.54,11.77,12.00,12.17,12.39,12.61,12.82,12.99,13.20,13.39,13.57,13.79,13.96,14.16,14.36,14.53,14.68,14.90,15.20,15.56,15.88,16.26,16.65,17.03,17.40,17.71,18.02,18.34,18.66,18.97,19.15,19.30,19.45,19.61,19.76,20.12,20.64,21.26,21.88,22.55,23.20,23.78,24.20,24.69,25.15,25.61,26.09,26.55,27.01,27.48,27.90,28.08,28.19,28.27,28.35,28.43,28.49,28.68,29.01,29.46,29.91,30.81,31.67,32.34,32.96,33.59,34.25,34.91,35.53
3.00,3.08,3.11,3.15,3.21,3.29,3.31,3.35,3.42,3.50,3.51,3.56,3.63,3.71,3.78,3.80,3.84,3.92,3.99,4.00,4.05,4.12,4.20,4.20,4.26,4.33,4.40,4.40,4.46,4.54,4.60,4.62,4.68,4.75,4.81,4.82,4.89,4.96,5.00,5.00,5.00,5.07,5.05,5.00,5.00,5.00,5.00,5.00,5.00,5.00,5.00,5.00,5.00,5.00,5.00,5.00,5.00,5.00,5.00,5.00,5.00,5.00,5.00,5.00,5.00,5.00,5.00,5.00,5.01,5.05,5.10,5.10,5.10,5.10,5.10,5.10,5.10,5.10,5.10,5.10,5.10,5.10,5.10,5.10,5.10,5.10,5.10,5.10,5.10,5.10,5.10,5.10,5.10,5.10,5.10,5.13,5.18,5.20,5.20,5.20,5.20,5.20,5.12,5.10,5.10,5.10,5.10,5.10,5.10,5.10,5.10,5.10,5.10,5.10,5.10,5.10,5.10,5.10,5.10,5.10,5.10,5.05,5.00,5.00,5.00,5.00,5.00,5.00,5.00,5.00,5.00,5.00,5.00,5.00,5.00,5.00,5.00,5.00,5.00,5.00,5.00,5.00,5.06,5.18,5.28,5.28,5.28,5.33,5.40,5.50,5.64,5.79,5.91,6.02,6.18,6.32,6.47,6.60,6.69,6.85,6.99,7.14,7.28,7.37,7.52,7.63,7.73,7.88,8.04,8.15,8.27,8.44,8.60,8.75,8.91,9.06,9.21,9.43,9.61,9.84,10.14,10.35,10.52,10.71,10.94,11.16,11.33,11.54,11.77,12.00,12.22,12.45,12.65,12.83,13.05,13.22,13.42,13.62,13.79,14.01,14.19,14.38,14.59,14.75,14.96,15.24,15.57,15.94,16.33,16.71,17.08,17.40,17.71,18.02,18.36,18.72,19.03,19.21,19.36,19.52,19.67,19.83,20.19,20.71,21.32,21.94,22.57,23.20,23.81,24.38,24.97,25.44,25.88,26.41,26.87,27.33,27.80,28.24,28.51,28.68,28.78,28.86,28.94,28.96,29.00,29.18,29.60,30.30,31.33,32.22,32.85,33.47,34.14,34.80,35.43,36.04
3.00,3.08,3.10,3.13,3.21,3.29,3.30,3.34,3.42,3.50,3.50,3.55,3.63,3.70,3.75,3.78,3.84,3.91,3.95,3.99,4.05,4.11,4.16,4.19,4.26,4.32,4.36,4.39,4.46,4.52,4.56,4.60,4.67,4.73,4.77,4.81,4.88,4.96,5.00,5.00,5.00,5.07,5.05,5.00,5.00,5.00,5.00,5.00,5.00,5.00,5.00,5.00,5.00,5.00,5.00,5.00,5.00,5.00,5.00,5.00,5.00,5.00,5.00,5.00,5.00,5.00,5.00,5.00,5.00,5.02,5.06,5.09,5.10,5.10,5.10,5.10,5.10,5.10,5.10,5.10,5.10,5.10,5.10,5.10,5.10,5.10,5.10,5.10,5.10,5.10,5.10,5.10,5.10,5.10,5.10,5.14,5.20,5.20,5.20,5.20,5.19,5.15,5.11,5.10,5.10,5.10,5.10,5.10,5.10,5.10,5.10,5.10,5.10,5.10,5.10,5.10,5.10,5.10,5.10,5.10,5.10,5.05,5.00,5.00,5.00,5.00,5.00,5.00,5.00,5.00,5.00,5.00,5.00,5.00,5.02,5.04,5.04,5.04,5.04,5.04,5.04,5.00,5.10,5.24,5.36,5.39,5.39,5.45,5.52,5.61,5.73,5.88,6.01,6.12,6.24,6.39,6.55,6.69,6.80,6.92,7.07,7.22,7.36,7.44,7.59,7.71,7.83,7.95,8.10,8.23,8.34,8.47,8.62,8.78,8.91,9.04,9.20,9.39,9.56,9.79,10.12,10.35,10.52,10.71,10.95,11.18,11.37,11.59,11.81,12.01,12.24,12.47,12.67,12.83,13.06,13.23,13.43,13.65,13.84,14.03,14.23,14.42,14.61,14.80,15.03,15.30,15.62,16.01,16.36,16.73,17.10,17.40,17.71,18.05,18.39,18.74,19.05,19.26,19.43,19.58,19.74,19.92,20.36,20.95,21.56,22.18,22.80,23.42,24.03,24.61,25.26,25.81,26.30,26.77,27.23,27.67,28.10,28.53,28.94,29.17,29.30,29.36,29.36,29.33,29.32,29.43,29.79,30.70,31.83,32.75,33.37,34.02,34.68,35.32,35.95,36.60
3.00,3.07,3.10,3.13,3.21,3.28,3.30,3.34,3.42,3.49,3.50,3.55,3.63,3.69,3.70,3.76,3.83,3.89,3.90,3.97,4.04,4.09,4.10,4.18,4.26,4.30,4.31,4.39,4.46,4.50,4.52,4.60,4.67,4.70,4.73,4.81,4.88,4.96,4.99,5.00,5.00,5.07,5.05,5.00,5.00,5.00,5.00,5.00,5.00,5.00,5.00,5.00,5.00,5.00,5.00,5.00,5.00,5.00,5.00,5.00,5.00,5.00,5.00,5.00,5.00,5.00,5.00,5.00,5.00,5.00,5.01,5.08,5.09,5.10,5.10,5.10,5.10,5.10,5.10,5.10,5.10,5.10,5.10,5.10,5.10,5.10,5.10,5.10,5.10,5.10,5.10,5.10,5.10,5.10,5.10,5.14,5.20,5.20,5.20,5.20,5.17,5.10,5.10,5.10,5.10,5.10,5.10,5.10,5.10,5.10,5.10,5.10,5.10,5.10,5.10,5.10,5.10,5.10,5.10,5.10,5.10,5.05,5.00,5.00,5.00,5.00,5.00,5.01,5.01,5.01,5.01,5.01,5.01,5.01,5.06,5.11,5.11,5.11,5.10,5.10,5.08,5.01,5.14,5.30,5.44,5.52,5.52,5.57,5.65,5.72,5.80,5.94,6.10,6.23,6.31,6.47,6.62,6.77,6.92,7.00,7.13,7.29,7.43,7.51,7.65,7.80,7.94,8.02,8.17,8.32,8.44,8.54,8.69,8.84,8.95,9.06,9.20,9.36,9.51,9.75,10.12,10.35,10.53,10.72,10.95,11.18,11.41,11.64,11.85,12.01,12.25,12.47,12.67,12.84,13.06,13.24,13.43,13.66,13.89,14.05,14.25,14.46,14.63,14.85,15.09,15.36,15.68,16.06,16.38,16.74,17.10,17.40,17.72,18.08,18.43,18.74,19.05,19.30,19.49,19.65,19.80,20.05,20.59,21.26,21.88,22.50,23.11,23.73,24.33,24.88,25.56,26.21,26.76,27.16,27.62,28.04,28.43,28.83,29.38,29.74,29.94,30.01,29.95,29.85,29.80,29.87,30.12,31.15,32.32,33.26,33.89,34.58,35.21,35.83,36.48,37.17
3.00,3.02,3.07,3.13,3.20,3.22,3.28,3.34,3.41,3.43,3.48,3.55,3.61,3.63,3.69,3.76,3.81,3.84,3.89,3.97,4.01,4.05,4.10,4.18,4.26,4.30,4.31,4.39,4.46,4.50,4.52,4.60,4.67,4.70,4.73,4.81,4.88,4.92,4.95,5.00,5.00,5.07,5.05,5.00,5.00,5.00,5.00,5.00,5.00,5.00,5.00,5.00,5.00,5.00,5.00,5.00,5.00,5.00,5.00,5.00,5.00,5.00,5.00,5.00,5.00,5.00,5.00,5.00,5.00,5.00,5.00,5.02,5.03,5.06,5.10,5.10,5.10,5.10,5.10,5.10,5.10,5.10,5.10,5.10,5.10,5.10,5.10,5.10,5.10,5.10,5.10,5.10,5.10,5.10,5.10,5.14,5.20,5.20,5.20,5.20,5.17,5.10,5.10,5.10,5.10,5.10,5.10,5.10,5.10,5.10,5.10,5.10,5.10,5.10,5.10,5.10,5.10,5.10,5.10,5.10,5.10,5.05,5.00,5.00,5.00,5.00,5.03,5.07,5.07,5.07,5.07,5.07,5.07,5.07,5.13,5.17,5.17,5.17,5.13,5.10,5.08,5.01,5.14,5.33,5.52,5.64,5.64,5.70,5.75,5.79,5.93,6.03,6.16,6.31,6.44,6.59,6.71,6.83,6.98,7.12,7.22,7.35,7.50,7.63,7.73,7.87,8.02,8.15,8.25,8.39,8.53,8.66,8.76,8.90,9.05,9.17,9.27,9.42,9.58,9.80,10.12,10.35,10.57,10.79,11.01,11.18,11.41,11.64,11.87,12.08,12.31,12.50,12.69,12.90,13.07,13.28,13.47,13.66,13.89,14.05,14.25,14.48,14.69,14.86,15.12,15.42,15.74,16.07,16.43,16.77,17.10,17.41,17.77,18.11,18.43,18.74,19.05,19.34,19.56,19.71,19.86,20.31,20.88,21.53,22.20,22.82,23.40,23.99,24.60,25.20,25.88,26.53,27.11,27.61,28.07,28.52,28.94,29.35,29.95,30.89,31.55,31.82,31.86,31.58,31.40,31.31,31.31,31.94,32.91,33.77,34.40,35.10,35.72,36.37,37.05,37.75
3.00,3.00,3.06,3.13,3.20,3.20,3.27,3.33,3.37,3.40,3.47,3.55,3.60,3.61,3.68,3.76,3.80,3.82,3.89,3.97,4.00,4.02,4.10,4.18,4.24,4.28,4.31,4.39,4.44,4.48,4.52,4.60,4.65,4.68,4.73,4.80,4.85,4.89,4.94,5.00,5.00,5.04,5.05,5.03,5.00,5.00,5.00,5.00,5.00,5.00,5.00,5.00,5.00,5.00,5.00,5.00,5.00,5.00,5.00,5.00,5.00,5.00,5.00,5.00,5.00,5.00,5.00,5.00,5.00,5.00,5.00,5.00,5.00,5.04,5.10,5.10,5.10,5.10,5.10,5.10,5.10,5.10,5.10,5.10,5.10,5.10,5.10,5.10,5.10,5.10,5.10,5.10,5.10,5.10,5.12,5.16,5.20,5.20,5.20,5.20,5.17,5.10,5.10,5.10,5.10,5.10,5.10,5.10,5.10,5.10,5.10,5.10,5.10,5.10,5.10,5.10,5.10,5.10,5.10,5.10,5.10,5.07,5.04,5.04,5.04,5.04,5.07,5.14,5.14,5.14,5.12,5.10,5.10,5.10,5.13,5.16,5.16,5.13,5.09,5.06,5.06,5.04,5.18,5.36,5.55,5.70,5.76,5.81,5.85,5.89,6.02,6.13,6.26,6.41,6.53,6.69,6.81,6.92,7.05,7.20,7.32,7.44,7.57,7.72,7.83,7.95,8.09,8.24,8.34,8.46,8.60,8.75,8.86,8.98,9.12,9.26,9.37,9.52,9.68,9.87,10.12,10.35,10.58,10.81,11.04,11.22,11.45,11.66,11.87,12.11,12.34,12.53,12.72,12.93,13.11,13.31,13.50,13.69,13.89,14.08,14.27,14.49,14.71,14.90,15.18,15.49,15.80,16.10,16.46,16.79,17.10,17.44,17.80,18.12,18.43,18.74,19.05,19.36,19.60,19.79,20.00,20.58,21.19,21.82,22.49,23.10,23.68,24.28,24.90,25.55,26.24,26.88,27.48,28.02,28.51,28.98,29.53,30.22,31.12,32.34,33.34,33.97,34.13,34.14,34.14,34.09,33.92,33.91,34.06,34.46,35.09,35.79,36.44,37.11,37.81,38.50
3.00,3.00,3.06,3.13,3.20,3.20,3.27,3.30,3.32,3.40,3.47,3.55,3.60,3.61,3.68,3.76,3.80,3.82,3.89,3.97,4.00,4.02,4.10,4.18,4.20,4.23,4.31,4.39,4.40,4.44,4.52,4.60,4.60,4.65,4.73,4.80,4.80,4.86,4.94,5.00,5.00,5.00,5.05,5.08,5.00,5.00,5.00,5.00,5.00,5.00,5.00,5.00,5.00,5.00,5.00,5.00,5.00,5.00,5.00,5.00,5.00,5.00,5.00,5.00,5.00,5.00,5.00,5.00,5.00,5.00,5.00,5.00,5.00,5.04,5.10,5.10,5.10,5.10,5.10,5.10,5.10,5.10,5.10,5.10,5.10,5.10,5.10,5.10,5.10,5.10,5.10,5.10,5.10,5.10,5.16,5.20,5.20,5.20,5.20,5.20,5.17,5.10,5.10,5.10,5.10,5.10,5.10,5.10,5.10,5.10,5.10,5.10,5.10,5.10,5.10,5.10,5.10,5.10,5.10,5.10,5.10,5.10,5.10,5.10,5.10,5.10,5.13,5.20,5.20,5.20,5.16,5.10,5.10,5.10,5.10,5.10,5.09,5.02,5.00,5.00,5.02,5.09,5.24,5.40,5.55,5.71,5.86,5.90,5.93,6.01,6.09,6.23,6.39,6.52,6.60,6.75,6.90,7.03,7.11,7.27,7.42,7.54,7.63,7.79,7.94,8.05,8.15,8.30,8.46,8.56,8.67,8.82,8.98,9.07,9.19,9.34,9.49,9.65,9.80,9.96,10.12,10.35,10.58,10.81,11.05,11.28,11.51,11.69,11.87,12.11,12.34,12.57,12.77,12.93,13.16,13.33,13.53,13.74,13.89,14.12,14.30,14.49,14.72,14.95,15.24,15.55,15.86,16.17,16.48,16.79,17.12,17.50,17.81,18.12,18.43,18.74,19.05,19.36,19.63,19.88,20.18,20.86,21.51,22.12,22.74,23.36,23.98,24.60,25.23,25.92,26.62,27.27,27.86,28.40,28.94,29.43,30.18,31.37,32.76,34.02,35.30,36.37,36.67,37.35,37.79,37.90,37.63,36.79,35.64,35.29,35.92,36.62,37.31,38.01,38.70,39.40
3.00,3.00,3.06,3.13,3.20,3.20,3.27,3.30,3.32,3.40,3.47,3.52,3.55,3.61,3.68,3.72,3.76,3.82,3.89,3.93,3.97,4.02,4.10,4.13,4.17,4.23,4.30,4.33,4.38,4.44,4.51,4.54,4.58,4.65,4.73,4.80,4.80,4.86,4.94,5.00,5.00,5.00,5.05,5.08,5.00,5.00,5.00,5.00,5.00,5.00,5.00,5.00,5.00,5.00,5.00,5.00,5.00,5.00,5.00,5.00,5.00,5.00,5.00,5.00,5.00,5.00,5.00,5.00,5.00,5.00,5.00,5.00,5.00,5.04,5.10,5.10,5.10,5.10,5.10,5.10,5.10,5.10,5.10,5.10,5.10,5.10,5.10,5.10,5.10,5.10,5.10,5.10,5.10,5.10,5.16,5.20,5.20,5.20,5.20,5.17,5.13,5.10,5.10,5.10,5.10,5.10,5.10,5.10,5.10,5.10,5.10,5.10,5.10,5.10,5.10,5.10,5.10,5.10,5.11,5.16,5.16,5.16,5.15,5.10,5.10,5.10,5.11,5.14,5.14,5.09,5.06,5.04,5.04,5.04,5.04,5.04,5.03,5.01,5.00,5.00,5.03,5.15,5.31,5.46,5.61,5.77,5.92,6.00,6.06,6.13,6.16,6.30,6.45,6.60,6.72,6.83,6.97,7.11,7.24,7.34,7.49,7.63,7.75,7.85,8.00,8.14,8.26,8.37,8.52,8.66,8.80,8.94,9.05,9.17,9.31,9.45,9.56,9.71,9.87,10.02,10.18,10.41,10.65,10.85,11.05,11.28,11.51,11.72,11.94,12.17,12.35,12.57,12.77,12.93,13.16,13.37,13.56,13.75,13.96,14.14,14.34,14.53,14.72,14.95,15.24,15.55,15.86,16.17,16.48,16.82,17.17,17.50,17.81,18.12,18.43,18.74,19.05,19.36,19.65,19.99,20.49,21.13,21.79,22.44,23.06,23.68,24.30,24.92,25.55,26.24,26.94,27.62,28.25,28.79,29.33,30.30,31.66,33.28,34.67,35.94,37.16,38.30,39.20,40.14,40.70,40.70,40.04,38.85,37.66,36.93,36.87,37.52,38.21,38.90,39.52,39.97
3.00,3.00,3.06,3.13,3.20,3.20,3.27,3.30,3.32,3.40,3.47,3.50,3.53,3.60,3.66,3.69,3.74,3.81,3.87,3.89,3.95,4.02,4.10,4.10,4.16,4.23,4.30,4.30,4.36,4.44,4.50,4.50,4.57,4.65,4.72,4.77,4.80,4.86,4.93,4.98,5.00,5.00,5.05,5.08,5.00,5.00,5.00,5.00,5.00,5.00,5.00,5.00,5.00,5.00,5.00,5.00,5.00,5.00,5.00,5.00,5.00,5.00,5.00,5.00,5.00,5.00,5.00,5.00,5.00,5.00,5.00,5.00,5.00,5.04,5.10,5.10,5.10,5.10,5.10,5.10,5.10,5.10,5.10,5.10,5.10,5.10,5.10,5.10,5.10,5.10,5.10,5.10,5.10,5.12,5.17,5.20,5.20,5.20,5.20,5.15,5.10,5.10,5.10,5.10,5.10,5.10,5.10,5.10,5.10,5.10,5.10,5.12,5.13,5.13,5.13,5.10,5.10,5.10,5.11,5.17,5.17,5.16,5.13,5.07,5.07,5.07,5.07,5.07,5.07,5.02,5.00,5.00,5.00,5.00,5.00,5.00,5.00,5.02,5.03,5.02,5.03,5.19,5.34,5.50,5.66,5.83,5.97,6.06,6.14,6.23,6.25,6.39,6.53,6.67,6.82,6.92,7.05,7.19,7.34,7.44,7.56,7.71,7.84,7.92,8.05,8.20,8.33,8.43,8.56,8.71,8.87,9.01,9.09,9.23,9.37,9.50,9.60,9.73,9.88,10.04,10.22,10.45,10.68,10.89,11.07,11.28,11.51,11.74,11.97,12.20,12.38,12.58,12.78,12.96,13.17,13.40,13.60,13.78,13.99,14.17,14.37,14.57,14.75,14.98,15.27,15.58,15.89,16.20,16.49,16.82,17.17,17.48,17.79,18.10,18.40,18.72,19.05,19.36,19.69,20.11,20.75,21.41,22.08,22.74,23.35,23.99,24.62,25.23,25.87,26.56,27.26,27.95,28.61,29.17,29.95,31.44,33.29,35.18,36.61,37.84,38.97,40.12,41.48,42.70,43.38,43.36,42.50,40.96,39.52,38.44,37.94,38.45,39.09,39.68,40.16,40.47
3.00,3.00,3.06,3.13,3.20,3.20,3.27,3.30,3.32,3.40,3.47,3.50,3.53,3.60,3.61,3.66,3.74,3.80,3.81,3.87,3.95,4.02,4.10,4.10,4.16,4.23,4.30,4.30,4.36,4.44,4.50,4.50,4.57,4.65,4.70,4.71,4.78,4.86,4.90,4.92,4.99,5.00,5.05,5.08,5.00,5.00,5.00,5.00,5.00,5.00,5.00,5.00,5.00,5.00,5.00,5.00,5.00,5.00,5.00,5.00,5.00,5.00,5.00,5.00,5.00,5.00,5.00,5.00,5.00,5.00,5.00,5.00,5.00,5.04,5.10,5.10,5.10,5.10,5.10,5.10,5.10,5.10,5.10,5.10,5.10,5.10,5.10,5.10,5.10,5.10,5.10,5.10,5.11,5.18,5.20,5.20,5.20,5.20,5.20,5.15,5.10,5.10,5.10,5.10,5.10,5.10,5.10,5.10,5.10,5.10,5.10,5.17,5.19,5.19,5.18,5.11,5.10,5.10,5.10,5.11,5.11,5.06,5.01,5.01,5.01,5.01,5.01,5.01,5.01,5.00,5.00,5.00,5.00,5.00,5.00,5.00,5.01,5.08,5.09,5.06,5.03,5.19,5.34,5.50,5.67,5.89,5.98,6.06,6.17,6.30,6.37,6.52,6.63,6.73,6.89,7.04,7.14,7.25,7.40,7.55,7.65,7.77,7.91,7.98,8.07,8.20,8.35,8.49,8.58,8.71,8.87,9.01,9.09,9.23,9.35,9.45,9.60,9.68,9.81,9.99,10.22,10.45,10.68,10.91,11.12,11.28,11.51,11.74,11.97,12.21,12.43,12.61,12.80,13.01,13.17,13.40,13.62,13.83,13.99,14.22,14.40,14.58,14.81,15.04,15.33,15.64,15.95,16.26,16.51,16.79,17.10,17.41,17.72,18.03,18.34,18.66,19.04,19.36,19.74,20.25,20.94,21.70,22.37,22.99,23.61,24.30,24.94,25.55,26.19,26.88,27.58,28.27,28.94,29.56,30.88,32.91,35.10,37.04,38.57,39.74,40.72,41.79,43.45,44.96,45.78,45.82,45.04,43.15,41.18,39.76,39.18,39.44,39.96,40.31,40.54,40.85
3.00,3.00,3.06,3.13,3.20,3.20,3.27,3.30,3.32,3.40,3.47,3.50,3.53,3.60,3.60,3.66,3.74,3.80,3.80,3.87,3.95,4.01,4.05,4.09,4.16,4.21,4.25,4.29,4.36,4.42,4.46,4.50,4.57,4.62,4.66,4.71,4.78,4.83,4.87,4.91,4.99,5.00,5.05,5.08,5.00,5.00,5.00,5.00,5.00,5.00,5.00,5.00,5.00,5.00,5.00,5.00,5.00,5.00,5.00,5.00,5.00,5.00,5.00,5.00,5.00,5.00,5.00,5.00,5.00,5.00,5.00,5.00,5.00,5.04,5.10,5.10,5.10,5.10,5.10,5.10,5.10,5.10,5.10,5.10,5.10,5.10,5.10,5.10,5.10,5.10,5.10,5.10,5.11,5.19,5.20,5.20,5.20,5.20,5.20,5.15,5.10,5.10,5.10,5.13,5.16,5.16,5.16,5.12,5.10,5.10,5.10,5.13,5.14,5.14,5.14,5.11,5.10,5.10,5.10,5.10,5.06,5.02,5.00,5.00,5.04,5.06,5.06,5.06,5.06,5.06,5.06,5.06,5.06,5.06,5.06,5.06,5.06,5.09,5.13,5.09,5.04,5.24,5.40,5.55,5.70,5.85,5.92,6.00,6.09,6.21,6.33,6.48,6.59,6.69,6.84,6.95,7.07,7.19,7.30,7.46,7.55,7.65,7.76,7.88,7.96,8.09,8.24,8.39,8.47,8.60,8.76,8.90,8.98,9.12,9.23,9.33,9.48,9.61,9.72,9.89,10.16,10.40,10.63,10.86,11.08,11.28,11.51,11.74,11.97,12.21,12.44,12.64,12.86,13.08,13.23,13.45,13.66,13.85,14.05,14.28,14.46,14.64,14.87,15.10,15.40,15.69,15.96,16.27,16.51,16.79,17.10,17.40,17.71,18.02,18.33,18.66,19.09,19.45,19.91,20.49,21.19,21.92,22.60,23.26,23.92,24.57,25.23,25.89,26.55,27.21,27.90,28.59,29.35,30.28,32.27,34.58,36.89,38.93,40.26,41.31,42.34,43.56,45.26,46.97,47.98,48.17,47.47,45.41,43.20,41.43,40.47,40.83,41.05,41.15,41.19,41.29
3.00,3.00,3.06,3.13,3.20,3.20,3.27,3.30,3.32,3.40,3.47,3.50,3.53,3.60,3.60,3.66,3.74,3.80,3.80,3.87,3.94,3.99,4.00,4.08,4.15,4.19,4.21,4.29,4.36,4.40,4.42,4.50,4.57,4.60,4.63,4.71,4.78,4.80,4.84,4.91,4.99,5.00,5.04,5.07,5.02,5.00,5.00,5.00,5.00,5.00,5.00,5.00,5.00,5.00,5.00,5.00,5.00,5.00,5.00,5.00,5.00,5.00,5.00,5.00,5.00,5.00,5.00,5.00,5.00,5.00,5.00,5.00,5.01,5.05,5.10,5.10,5.10,5.10,5.10,5.10,5.10,5.10,5.10,5.10,5.10,5.10,5.10,5.10,5.10,5.10,5.10,5.11,5.13,5.19,5.20,5.20,5.20,5.20,5.20,5.15,5.10,5.10,5.10,5.15,5.18,5.18,5.18,5.13,5.10,5.10,5.10,5.10,5.10,5.10,5.10,5.10,5.10,5.10,5.10,5.10,5.04,5.02,5.02,5.02,5.08,5.11,5.12,5.12,5.12,5.12,5.12,5.12,5.10,5.10,5.10,5.10,5.10,5.10,5.14,5.11,5.07,5.28,5.44,5.59,5.71,5.78,5.86,5.94,6.02,6.10,6.24,6.39,6.51,6.62,6.76,6.85,6.98,7.09,7.17,7.31,7.42,7.50,7.59,7.73,7.83,7.96,8.11,8.25,8.34,8.48,8.63,8.77,8.85,8.99,9.11,9.22,9.36,9.51,9.62,9.80,10.12,10.35,10.58,10.81,11.05,11.28,11.51,11.74,11.98,12.22,12.46,12.69,12.91,13.12,13.29,13.50,13.69,13.88,14.11,14.34,14.52,14.71,14.94,15.17,15.46,15.73,15.98,16.29,16.53,16.80,17.10,17.40,17.70,18.02,18.36,18.70,19.15,19.56,20.08,20.73,21.43,22.12,22.82,23.51,24.18,24.80,25.49,26.19,26.88,27.51,28.18,28.87,29.74,31.01,33.51,36.01,38.37,40.45,41.68,42.74,43.92,45.32,47.01,48.66,49.66,49.91,49.36,47.55,45.26,43.16,41.81,42.17,42.14,42.06,41.98,41.91
3.00,3.00,3.06,3.13,3.20,3.20,3.27,3.30,3.32,3.40,3.47,3.50,3.53,3.60,3.60,3.66,3.74,3.80,3.80,3.87,3.91,3.94,4.00,4.08,4.11,4.14,4.21,4.29,4.36,4.40,4.42,4.50,4.57,4.60,4.63,4.71,4.78,4.80,4.84,4.91,4.99,5.00,5.01,5.03,5.08,5.02,5.00,5.00,5.00,5.00,5.00,5.00,5.00,5.00,5.00,5.00,5.00,5.00,5.00,5.00,5.00,5.00,5.00,5.00,5.00,5.00,5.00,5.00,5.00,5.00,5.00,5.00,5.05,5.09,5.10,5.10,5.10,5.10,5.10,5.10,5.10,5.10,5.10,5.10,5.10,5.10,5.10,5.10,5.10,5.10,5.10,5.13,5.18,5.20,5.20,5.20,5.20,5.20,5.20,5.15,5.10,5.10,5.10,5.11,5.12,5.12,5.12,5.11,5.10,5.10,5.10,5.10,5.10,5.10,5.10,5.10,5.10,5.10,5.10,5.10,5.09,5.08,5.08,5.08,5.10,5.15,5.18,5.18,5.18,5.18,5.18,5.17,5.10,5.10,5.10,5.10,5.10,5.10,5.06,5.05,5.12,5.29,5.44,5.56,5.64,5.72,5.80,5.87,5.95,6.03,6.12,6.27,6.41,6.54,6.63,6.77,6.88,6.96,7.04,7.13,7.26,7.37,7.45,7.54,7.68,7.83,7.96,8.05,8.20,8.35,8.50,8.65,8.72,8.87,9.01,9.14,9.23,9.38,9.53,9.76,10.12,10.35,10.58,10.81,11.05,11.28,11.51,11.74,11.99,12.29,12.52,12.75,12.96,13.13,13.35,13.52,13.72,13.94,14.17,14.41,14.59,14.77,15.00,15.23,15.52,15.80,16.04,16.35,16.59,16.83,17.10,17.40,17.65,18.03,18.44,18.82,19.22,19.66,20.24,20.92,21.62,22.31,23.01,23.68,24.31,24.93,25.66,26.38,27.08,27.76,28.40,29.06,30.04,31.65,34.25,36.81,39.14,41.12,42.59,43.99,45.46,47.04,48.67,49.66,50.17,50.25,50.01,49.39,47.25,44.91,43.21,43.23,43.16,43.08,43.01,42.93
3.00,3.00,3.06,3.13,3.20,3.20,3.27,3.30,3.32,3.40,3.47,3.50,3.53,3.60,3.60,3.66,3.74,3.80,3.80,3.87,3.90,3.92,4.00,4.08,4.10,4.13,4.21,4.29,4.33,4.37,4.42,4.50,4.54,4.58,4.63,4.70,4.74,4.78,4.84,4.91,4.95,4.99,5.00,5.02,5.10,5.02,5.00,5.00,5.00,5.00,5.00,5.00,5.00,5.00,5.00,5.00,5.00,5.00,5.00,5.00,5.00,5.00,5.00,5.00,5.00,5.00,5.00,5.00,5.00,5.00,5.00,5.00,5.06,5.10,5.10,5.10,5.10,5.10,5.10,5.10,5.10,5.10,5.10,5.10,5.10,5.10,5.10,5.10,5.10,5.10,5.10,5.13,5.20,5.20,5.20,5.20,5.20,5.20,5.20,5.15,5.10,5.10,5.10,5.10,5.10,5.10,5.10,5.10,5.10,5.10,5.10,5.14,5.15,5.15,5.15,5.15,5.15,5.13,5.10,5.10,5.10,5.10,5.10,5.10,5.10,5.13,5.15,5.15,5.15,5.15,5.15,5.14,5.10,5.06,5.05,5.05,5.05,5.05,5.02,5.04,5.13,5.29,5.41,5.48,5.52,5.56,5.68,5.76,5.86,5.96,6.04,6.15,6.29,6.43,6.50,6.62,6.71,6.79,6.87,6.98,7.10,7.20,7.28,7.40,7.55,7.68,7.80,7.91,8.07,8.22,8.36,8.48,8.59,8.74,8.89,9.03,9.10,9.26,9.43,9.71,10.12,10.35,10.58,10.81,11.05,11.28,11.51,11.76,12.03,12.31,12.57,12.79,12.98,13.17,13.37,13.56,13.77,14.00,14.19,14.42,14.63,14.83,15.06,15.30,15.59,15.86,16.10,16.37,16.64,16.89,17.14,17.45,17.72,18.05,18.40,18.76,19.18,19.61,20.18,20.86,21.48,22.14,22.78,23.40,24.01,24.63,25.37,26.14,26.90,27.63,28.33,29.02,29.99,31.59,34.25,36.86,39.20,41.17,42.82,44.38,46.02,47.73,49.35,50.03,50.40,50.50,50.37,50.02,48.15,46.08,44.61,44.46,44.37,44.29,44.22,44.14
3.00,3.00,3.06,3.13,3.20,3.20,3.27,3.30,3.32,3.40,3.47,3.50,3.53,3.60,3.60,3.66,3.74,3.80,3.80,3.87,3.90,3.92,4.00,4.08,4.10,4.13,4.21,4.28,4.30,4.34,4.42,4.49,4.50,4.55,4.63,4.69,4.70,4.76,4.84,4.90,4.90,4.97,5.00,5.02,5.10,5.02,5.00,5.00,5.00,5.00,5.00,5.00,5.00,5.00,5.00,5.00,5.00,5.00,5.00,5.00,5.00,5.00,5.00,5.00,5.00,5.00,5.00,5.00,5.00,5.00,5.00,5.01,5.07,5.10,5.10,5.10,5.10,5.10,5.10,5.10,5.10,5.10,5.10,5.10,5.10,5.10,5.10,5.10,5.10,5.10,5.10,5.13,5.20,5.20,5.20,5.20,5.20,5.20,5.20,5.16,5.11,5.11,5.11,5.11,5.11,5.10,5.10,5.10,5.10,5.10,5.10,5.17,5.19,5.19,5.19,5.19,5.19,5.15,5.10,5.09,5.09,5.09,5.09,5.09,5.09,5.09,5.09,5.09,5.09,5.09,5.09,5.09,5.09,5.02,5.00,5.00,5.00,5.00,5.01,5.05,5.14,5.29,5.36,5.38,5.38,5.38,5.53,5.62,5.74,5.88,5.97,6.04,6.16,6.29,6.37,6.44,6.53,6.61,6.69,6.84,6.93,7.01,7.11,7.26,7.41,7.52,7.63,7.78,7.94,8.09,8.21,8.30,8.46,8.61,8.76,8.89,8.98,9.14,9.35,9.67,10.11,10.34,10.58,10.81,11.05,11.29,11.52,11.80,12.08,12.32,12.62,12.82,13.01,13.22,13.39,13.61,13.83,14.04,14.20,14.43,14.66,14.89,15.12,15.36,15.65,15.92,16.16,16.39,16.69,16.95,17.21,17.52,17.82,18.08,18.35,18.67,19.10,19.49,20.02,20.65,21.20,21.81,22.38,22.95,23.57,24.19,24.93,25.74,26.57,27.35,28.12,28.86,29.79,31.21,33.88,36.49,38.84,40.81,42.57,44.23,46.00,47.81,49.47,50.08,50.50,50.71,50.65,50.20,48.61,47.03,46.00,45.75,45.65,45.57,45.49,45.40
3.00,3.00,3.06,3.13,3.20,3.20,3.27,3.30,3.32,3.40,3.47,3.50,3.53,3.60,3.60,3.66,3.74,3.80,3.80,3.87,3.90,3.92,4.00,4.08,4.10,4.13,4.20,4.22,4.27,4.34,4.40,4.42,4.48,4.55,4.61,4.63,4.69,4.76,4.84,4.90,4.90,4.97,5.00,5.02,5.10,5.02,5.00,5.00,5.00,5.00,5.00,5.00,5.00,5.00,5.00,5.00,5.00,5.00,5.00,5.00,5.00,5.00,5.00,5.00,5.00,5.00,5.00,5.00,5.00,5.00,5.01,5.06,5.09,5.10,5.10,5.10,5.10,5.10,5.10,5.10,5.10,5.10,5.10,5.10,5.10,5.10,5.10,5.10,5.10,5.10,5.10,5.13,5.20,5.20,5.20,5.20,5.20,5.20,5.20,5.19,5.17,5.17,5.17,5.17,5.15,5.10,5.10,5.10,5.10,5.10,5.10,5.12,5.13,5.13,5.13,5.13,5.13,5.12,5.09,5.03,5.03,5.03,5.03,5.03,5.03,5.03,5.03,5.03,5.03,5.03,5.03,5.03,5.03,5.01,5.00,5.00,5.00,5.00,5.05,5.11,5.20,5.29,5.32,5.29,5.25,5.25,5.35,5.43,5.54,5.70,5.83,5.92,6.01,6.10,6.17,6.25,6.37,6.48,6.56,6.66,6.74,6.84,6.98,7.14,7.24,7.36,7.50,7.66,7.81,7.92,8.04,8.17,8.33,8.48,8.60,8.71,8.85,9.06,9.32,9.65,10.04,10.28,10.55,10.81,11.06,11.35,11.58,11.86,12.15,12.38,12.63,12.85,13.05,13.23,13.44,13.67,13.87,14.05,14.27,14.50,14.69,14.89,15.12,15.41,15.67,15.94,16.22,16.45,16.75,17.01,17.27,17.58,17.89,18.18,18.46,18.71,18.94,19.30,19.70,20.15,20.75,21.31,21.90,22.50,23.12,23.74,24.52,25.33,26.13,26.96,27.74,28.54,29.44,30.57,33.05,35.42,37.62,39.59,41.25,42.97,44.84,46.78,48.63,49.77,50.50,50.93,51.07,50.28,48.96,47.93,47.45,47.04,46.93,46.85,46.74,46.54
3.00,3.00,3.06,3.13,3.20,3.20,3.27,3.30,3.32,3.40,3.47,3.50,3.53,3.60,3.60,3.66,3.74,3.80,3.80,3.87,3.90,3.92,4.00,4.08,4.10,4.13,4.20,4.20,4.26,4.34,4.40,4.40,4.47,4.55,4.60,4.61,4.68,4.76,4.82,4.87,4.90,4.97,5.00,5.02,5.10,5.02,5.00,5.00,5.00,5.00,5.00,5.00,5.00,5.00,5.00,5.00,5.00,5.00,5.00,5.00,5.00,5.00,5.00,5.00,5.00,5.00,5.00,5.00,5.00,5.00,5.01,5.09,5.10,5.10,5.10,5.10,5.10,5.10,5.10,5.10,5.10,5.10,5.10,5.10,5.10,5.10,5.10,5.10,5.10,5.10,5.10,5.13,5.20,5.20,5.20,5.20,5.20,5.20,5.17,5.16,5.16,5.16,5.16,5.16,5.14,5.10,5.10,5.10,5.10,5.10,5.10,5.10,5.10,5.10,5.10,5.10,5.10,5.08,5.05,5.00,5.00,5.00,5.00,5.00,5.00,5.00,5.00,5.00,5.00,5.00,5.00,5.00,5.00,5.00,5.00,5.00,5.00,5.00,5.04,5.10,5.17,5.22,5.22,5.17,5.12,5.12,5.17,5.24,5.35,5.51,5.66,5.75,5.83,5.91,6.02,6.10,6.21,6.31,6.39,6.47,6.57,6.70,6.85,7.01,7.09,7.22,7.37,7.53,7.65,7.76,7.89,8.05,8.20,8.38,8.54,8.69,8.87,9.13,9.40,9.70,10.02,10.28,10.56,10.83,11.09,11.37,11.64,11.91,12.18,12.44,12.68,12.91,13.11,13.27,13.50,13.71,13.90,14.09,14.29,14.52,14.72,14.92,15.16,15.47,15.72,15.99,16.28,16.52,16.79,17.06,17.33,17.64,17.95,18.28,18.59,18.84,18.99,19.24,19.51,19.85,20.35,20.88,21.48,22.09,22.71,23.33,24.10,24.92,25.72,26.54,27.27,28.02,28.87,29.85,31.92,34.03,36.07,38.00,39.74,41.46,43.30,45.24,47.14,48.65,49.71,50.49,51.13,50.86,49.90,49.18,48.92,48.55,48.30,48.04,47.71,47.27
3.00,3.00,3.06,3.13,3.20,3.20,3.27,3.30,3.32,3.40,3.47,3.50,3.53,3.60,3.60,3.66,3.74,3.80,3.80,3.87,3.90,3.92,4.00,4.08,4.10,4.13,4.20,4.20,4.26,4.34,4.40,4.40,4.47,4.55,4.60,4.61,4.68,4.76,4.80,4.81,4.89,4.97,5.00,5.02,5.10,5.02,5.00,5.00,5.00,5.00,5.00,5.00,5.00,5.00,5.00,5.00,5.00,5.00,5.00,5.00,5.00,5.00,5.00,5.00,5.00,5.00,5.00,5.00,5.00,5.00,5.01,5.09,5.10,5.10,5.10,5.10,5.10,5.10,5.10,5.10,5.10,5.10,5.10,5.10,5.10,5.10,5.10,5.10,5.10,5.10,5.10,5.13,5.20,5.20,5.20,5.20,5.20,5.20,5.13,5.10,5.10,5.10,5.10,5.10,5.10,5.10,5.10,5.10,5.10,5.10,5.10,5.10,5.10,5.10,5.10,5.10,5.10,5.06,5.00,5.00,5.00,5.00,5.00,5.00,5.00,5.00,5.00,5.00,5.00,5.00,5.00,5.00,5.00,5.00,5.00,5.00,5.00,5.00,5.00,5.04,5.10,5.10,5.10,5.05,5.00,5.00,5.00,5.06,5.17,5.32,5.47,5.56,5.64,5.74,5.89,5.97,6.05,6.12,6.20,6.28,6.42,6.57,6.73,6.88,6.96,7.09,7.24,7.39,7.47,7.61,7.77,7.93,8.08,8.30,8.54,8.77,9.00,9.31,9.56,9.79,10.03,10.34,10.59,10.86,11.15,11.38,11.68,11.94,12.20,12.51,12.74,12.97,13.17,13.33,13.56,13.73,13.93,14.14,14.30,14.53,14.76,14.99,15.23,15.53,15.78,16.05,16.35,16.58,16.81,17.09,17.40,17.71,18.02,18.38,18.74,19.03,19.18,19.27,19.43,19.68,19.99,20.52,21.11,21.72,22.34,22.95,23.68,24.48,25.32,26.09,26.72,27.39,28.15,29.09,30.61,32.42,34.31,36.18,38.10,39.77,41.52,43.37,45.22,47.00,48.38,49.60,50.90,51.70,51.21,50.64,50.42,50.18,49.72,49.16,48.49,47.71
3.00,3.00,3.06,3.13,3.20,3.20,3.27,3.30,3.32,3.40,3.47,3.50,3.53,3.60,3.60,3.66,3.74,3.80,3.80,3.87,3.90,3.92,4.00,4.08,4.10,4.13,4.20,4.20,4.26,4.34,4.40,4.40,4.47,4.52,4.55,4.61,4.68,4.72,4.76,4.81,4.89,4.92,4.96,5.02,5.10,5.07,5.03,5.00,5.00,5.00,5.00,5.00,5.00,5.00,5.00,5.00,5.00,5.00,5.00,5.00,5.00,5.00,5.00,5.00,5.00,5.00,5.00,5.00,5.00,5.02,5.07,5.10,5.10,5.10,5.10,5.10,5.10,5.10,5.10,5.10,5.10,5.10,5.10,5.10,5.10,5.10,5.10,5.10,5.10,5.10,5.14,5.18,5.20,5.20,5.20,5.20,5.20,5.20,5.13,5.10,5.10,5.10,5.10,5.10,5.10,5.10,5.10,5.10,5.10,5.10,5.10,5.10,5.10,5.10,5.10,5.10,5.10,5.09,5.07,5.07,5.02,5.00,5.00,5.00,5.00,5.00,5.00,5.00,5.00,5.00,5.00,5.00,5.00,5.00,5.00,5.00,5.00,5.00,5.00,5.01,5.03,5.03,5.03,5.02,5.00,5.00,5.00,5.02,5.08,5.19,5.35,5.43,5.51,5.60,5.70,5.78,5.85,5.93,6.01,6.14,6.29,6.44,6.59,6.69,6.82,6.96,7.10,7.20,7.33,7.52,7.75,8.00,8.20,8.47,8.73,8.96,9.19,9.50,9.72,9.90,10.09,10.40,10.65,10.92,11.21,11.44,11.75,12.01,12.26,12.57,12.80,13.00,13.19,13.39,13.57,13.77,13.99,14.21,14.36,14.59,14.79,15.01,15.29,15.54,15.82,16.09,16.35,16.64,16.87,17.15,17.46,17.77,18.13,18.47,18.82,19.17,19.42,19.53,19.64,19.80,20.05,20.53,21.07,21.62,22.14,22.65,23.21,23.86,24.60,25.33,25.95,26.65,27.45,28.38,29.51,30.96,32.67,34.56,36.34,37.95,39.59,41.31,43.11,44.89,46.36,47.82,49.54,51.08,51.71,51.96,51.96,51.42,50.54,49.68,48.85,48.03
3.00,3.00,3.06,3.13,3.20,3.20,3.27,3.30,3.32,3.40,3.47,3.50,3.53,3.60,3.60,3.66,3.74,3.80,3.80,3.87,3.90,3.92,4.00,4.08,4.10,4.13,4.20,4.20,4.26,4.34,4.40,4.40,4.47,4.50,4.53,4.61,4.68,4.70,4.74,4.81,4.89,4.90,4.95,5.02,5.07,5.09,5.04,5.00,5.00,5.00,5.00,5.00,5.00,5.00,5.00,5.00,5.00,5.00,5.00,5.00,5.00,5.00,5.00,5.00,5.00,5.00,5.00,5.00,5.00,5.02,5.07,5.10,5.10,5.10,5.10,5.10,5.10,5.10,5.10,5.10,5.10,5.10,5.10,5.10,5.10,5.10,5.10,5.10,5.10,5.10,5.15,5.20,5.20,5.20,5.20,5.20,5.20,5.20,5.13,5.10,5.10,5.10,5.10,5.10,5.10,5.10,5.10,5.10,5.10,5.10,5.10,5.10,5.10,5.10,5.10,5.10,5.10,5.10,5.10,5.10,5.05,5.03,5.03,5.03,5.03,5.03,5.03,5.03,5.00,5.00,5.00,5.00,5.00,5.00,5.00,5.00,5.00,5.03,5.03,5.02,5.00,5.00,5.00,5.00,5.01,5.03,5.03,5.01,5.02,5.09,5.22,5.31,5.37,5.43,5.51,5.58,5.66,5.75,5.85,6.01,6.16,6.31,6.43,6.53,6.68,6.84,6.98,7.11,7.28,7.52,7.79,8.07,8.32,8.62,8.89,9.13,9.38,9.69,9.89,10.05,10.21,10.48,10.71,10.98,11.28,11.51,11.81,12.07,12.33,12.64,12.84,13.03,13.22,13.42,13.60,13.83,14.04,14.25,14.42,14.63,14.82,15.05,15.35,15.58,15.85,16.12,16.39,16.67,16.93,17.22,17.53,17.87,18.23,18.57,18.92,19.27,19.58,19.87,20.11,20.32,20.57,21.07,21.59,22.09,22.58,23.07,23.52,24.00,24.53,25.06,25.55,26.09,26.75,27.58,28.53,29.73,31.19,32.86,34.54,36.10,37.69,39.34,41.07,42.82,44.38,46.06,48.14,50.26,51.61,52.52,52.99,52.51,51.35,50.20,49.20,48.35
3.00,3.00,3.06,3.13,3.20,3.20,3.27,3.30,3.32,3.40,3.47,3.50,3.53,3.60,3.60,3.66,3.74,3.80,3.80,3.87,3.90,3.92,4.00,4.08,4.10,4.13,4.20,4.20,4.26,4.34,4.40,4.40,4.47,4.50,4.53,4.61,4.68,4.70,4.74,4.81,4.89,4.90,4.95,5.00,5.01,5.08,5.04,5.00,5.00,5.00,5.00,5.00,5.00,5.00,5.00,5.00,5.00,5.00,5.00,5.00,5.00,5.00,5.00,5.00,5.00,5.00,5.00,5.00,5.00,5.00,5.01,5.09,5.10,5.10,5.10,5.10,5.10,5.10,5.10,5.10,5.10,5.10,5.10,5.10,5.10,5.10,5.10,5.10,5.10,5.10,5.15,5.20,5.20,5.20,5.20,5.20,5.20,5.20,5.13,5.10,5.10,5.10,5.10,5.10,5.10,5.10,5.10,5.10,5.10,5.10,5.10,5.10,5.10,5.10,5.10,5.10,5.10,5.10,5.10,5.10,5.10,5.09,5.09,5.09,5.09,5.09,5.09,5.08,5.01,5.00,5.00,5.00,5.00,5.00,5.00,5.00,5.01,5.08,5.09,5.06,5.00,5.00,5.00,5.00,5.02,5.09,5.09,5.04,5.00,5.02,5.10,5.18,5.21,5.24,5.32,5.39,5.47,5.58,5.73,5.88,6.03,6.15,6.25,6.40,6.55,6.71,6.88,7.11,7.33,7.62,7.89,8.14,8.44,8.75,9.02,9.27,9.57,9.88,10.09,10.24,10.40,10.56,10.78,11.05,11.34,11.57,11.87,12.14,12.39,12.70,12.86,13.07,13.26,13.43,13.66,13.89,14.08,14.26,14.49,14.65,14.85,15.11,15.41,15.64,15.88,16.15,16.44,16.68,16.97,17.28,17.61,17.99,18.31,18.67,19.02,19.33,19.64,20.31,20.88,21.29,21.59,22.19,22.70,23.20,23.73,24.27,24.69,24.98,25.17,25.36,25.54,25.73,26.05,26.69,27.69,28.76,29.87,31.07,32.69,34.25,35.84,37.46,39.09,40.79,42.44,44.32,46.69,49.21,50.84,52.26,53.46,53.42,52.13,50.73,49.52,48.67
3.00,3.00,3.06,3.13,3.20,3.20,3.27,3.30,3.32,3.40,3.47,3.50,3.53,3.60,3.60,3.66,3.74,3.80,3.80,3.87,3.90,3.92,4.00,4.08,4.10,4.13,4.20,4.20,4.26,4.34,4.40,4.40,4.47,4.50,4.53,4.61,4.68,4.70,4.74,4.81,4.84,4.88,4.95,5.00,5.00,5.08,5.04,5.00,5.00,5.00,5.00,5.00,5.00,5.00,5.00,5.00,5.00,5.00,5.00,5.00,5.00,5.00,5.00,5.00,5.00,5.00,5.00,5.00,5.00,5.00,5.01,5.09,5.10,5.10,5.10,5.10,5.10,5.10,5.10,5.10,5.10,5.10,5.10,5.10,5.10,5.10,5.10,5.10,5.10,5.14,5.18,5.20,5.20,5.20,5.20,5.20,5.20,5.20,5.17,5.16,5.16,5.16,5.16,5.16,5.14,5.10,5.10,5.10,5.10,5.10,5.10,5.10,5.10,5.10,5.10,5.10,5.10,5.10,5.10,5.10,5.10,5.10,5.10,5.10,5.10,5.10,5.10,5.09,5.06,5.06,5.06,5.06,5.06,5.06,5.06,5.04,5.01,5.08,5.10,5.08,5.06,5.06,5.06,5.06,5.07,5.10,5.10,5.08,5.04,5.00,5.04,5.07,5.08,5.09,5.13,5.24,5.34,5.44,5.60,5.75,5.87,5.99,6.12,6.27,6.47,6.67,6.88,7.11,7.34,7.63,7.90,8.15,8.45,8.76,9.03,9.28,9.59,9.90,10.19,10.43,10.59,10.74,10.92,11.12,11.36,11.63,11.90,12.17,12.44,12.70,12.90,13.13,13.33,13.49,13.72,13.92,14.11,14.32,14.55,14.71,14.91,15.17,15.48,15.71,15.94,16.21,16.51,16.79,17.09,17.35,17.62,18.00,18.31,18.65,18.99,19.34,19.65,20.46,21.39,22.25,22.78,23.31,23.82,24.36,24.94,25.48,25.97,26.29,26.45,26.60,26.80,26.94,27.08,27.30,27.50,28.16,29.06,30.01,31.01,32.42,33.99,35.63,37.34,39.17,40.78,42.65,45.24,48.01,50.38,52.48,54.25,55.19,53.96,52.28,50.58,49.11
3.00,3.00,3.06,3.13,3.20,3.20,3.27,3.30,3.32,3.40,3.47,3.50,3.53,3.60,3.60,3.66,3.74,3.80,3.80,3.87,3.90,3.92,4.00,4.08,4.10,4.13,4.20,4.20,4.26,4.34,4.40,4.40,4.47,4.50,4.53,4.61,4.68,4.70,4.74,4.80,4.80,4.87,4.95,5.00,5.00,5.08,5.04,5.00,5.00,5.00,5.00,5.00,5.00,5.00,5.00,5.00,5.00,5.00,5.00,5.00,5.00,5.00,5.00,5.00,5.00,5.00,5.00,5.00,5.00,5.01,5.03,5.09,5.10,5.10,5.10,5.10,5.10,5.10,5.10,5.10,5.10,5.10,5.10,5.10,5.10,5.10,5.10,5.10,5.10,5.18,5.20,5.20,5.20,5.20,5.20,5.20,5.20,5.20,5.20,5.20,5.20,5.20,5.20,5.20,5.17,5.12,5.12,5.12,5.12,5.12,5.12,5.12,5.11,5.10,5.10,5.10,5.10,5.10,5.10,5.10,5.10,5.10,5.10,5.10,5.10,5.10,5.10,5.10,5.10,5.10,5.10,5.10,5.10,5.10,5.10,5.08,5.03,5.11,5.12,5.12,5.12,5.12,5.12,5.12,5.12,5.12,5.12,5.11,5.07,5.02,5.00,5.00,5.00,5.00,5.00,5.12,5.21,5.32,5.47,5.62,5.73,5.86,6.01,6.19,6.41,6.64,6.88,7.11,7.36,7.64,7.90,8.15,8.45,8.76,9.03,9.28,9.59,9.88,10.24,10.55,10.74,10.91,11.08,11.24,11.42,11.70,11.93,12.21,12.50,12.73,12.96,13.18,13.37,13.55,13.77,13.94,14.15,14.38,14.59,14.76,14.98,15.23,15.52,15.77,16.03,16.32,16.65,16.98,17.29,17.50,17.71,18.05,18.31,18.60,18.94,19.30,19.64,20.53,21.70,22.91,23.74,24.38,24.96,25.54,26.13,26.69,27.24,27.61,27.79,27.96,28.17,28.30,28.31,28.19,27.79,28.00,28.56,29.24,29.80,31.02,32.56,34.28,36.09,37.97,39.48,41.26,43.94,46.98,49.92,52.56,54.82,56.73,55.82,54.00,51.82,49.71
3.00,3.00,3.06,3.13,3.20,3.20,3.27,3.30,3.32,3.40,3.47,3.50,3.53,3.60,3.60,3.66,3.74,3.80,3.80,3.87,3.90,3.92,4.00,4.08,4.10,4.13,4.20,4.20,4.26,4.34,4.40,4.40,4.47,4.50,4.53,4.61,4.68,4.70,4.74,4.80,4.80,4.87,4.95,5.00,5.00,5.08,5.04,5.00,5.00,5.00,5.00,5.00,5.00,5.00,5.00,5.00,5.00,5.00,5.00,5.00,5.00,5.00,5.00,5.00,5.00,5.00,5.00,5.00,5.00,5.03,5.09,5.10,5.10,5.10,5.10,5.10,5.10,5.10,5.10,5.10,5.10,5.10,5.10,5.10,5.10,5.10,5.10,5.10,5.10,5.18,5.20,5.20,5.20,5.20,5.20,5.20,5.20,5.20,5.20,5.20,5.20,5.20,5.20,5.20,5.19,5.19,5.19,5.19,5.19,5.19,5.19,5.19,5.14,5.10,5.10,5.10,5.10,5.10,5.10,5.10,5.10,5.10,5.10,5.10,5.10,5.10,5.10,5.10,5.10,5.10,5.10,5.10,5.10,5.10,5.10,5.10,5.09,5.17,5.19,5.19,5.19,5.19,5.19,5.19,5.19,5.19,5.19,5.14,5.10,5.08,5.01,5.00,5.00,5.00,5.00,5.02,5.08,5.19,5.34,5.50,5.64,5.79,5.96,6.18,6.41,6.64,6.88,7.11,7.41,7.66,7.90,8.15,8.45,8.76,9.03,9.28,9.59,9.83,10.17,10.52,10.80,11.03,11.25,11.43,11.59,11.77,12.00,12.27,12.56,12.79,13.02,13.21,13.40,13.61,13.77,13.99,14.21,14.43,14.59,14.81,15.04,15.28,15.52,15.82,16.17,16.54,16.92,17.29,17.61,17.82,17.99,18.17,18.28,18.54,18.85,19.19,19.63,20.49,21.66,23.00,24.23,25.36,26.15,26.73,27.29,27.89,28.45,28.87,29.14,29.36,29.54,29.61,29.55,29.34,28.89,28.59,28.56,28.86,29.47,30.46,31.97,33.86,35.77,37.51,38.80,40.38,42.94,46.27,49.39,52.25,54.91,57.66,57.55,55.84,53.26,50.60
3.00,3.00,3.06,3.13,3.20,3.20,3.27,3.30,3.32,3.40,3.47,3.50,3.53,3.60,3.60,3.66,3.74,3.80,3.80,3.87,3.90,3.92,4.00,4.08,4.10,4.13,4.20,4.20,4.26,4.34,4.40,4.40,4.47,4.50,4.53,4.60,4.64,4.68,4.74,4.80,4.80,4.87,4.95,5.00,5.00,5.04,5.08,5.10,5.09,5.01,5.00,5.00,5.00,5.00,5.00,5.00,5.00,5.00,5.00,5.00,5.00,5.00,5.00,5.00,5.00,5.00,5.00,5.00,5.00,5.03,5.10,5.10,5.10,5.10,5.10,5.10,5.10,5.10,5.10,5.10,5.10,5.10,5.10,5.10,5.10,5.10,5.10,5.10,5.10,5.18,5.20,5.20,5.20,5.20,5.20,5.20,5.20,5.20,5.16,5.15,5.15,5.15,5.15,5.15,5.17,5.20,5.20,5.20,5.20,5.20,5.20,5.20,5.17,5.15,5.15,5.15,5.15,5.15,5.14,5.10,5.10,5.10,5.10,5.10,5.10,5.10,5.10,5.10,5.10,5.10,5.10,5.10,5.10,5.10,5.10,5.10,5.11,5.18,5.23,5.25,5.25,5.25,5.25,5.25,5.24,5.20,5.20,5.17,5.13,5.09,5.06,5.05,5.03,5.00,5.00,5.00,5.03,5.11,5.26,5.42,5.57,5.75,5.95,6.18,6.41,6.64,6.88,7.11,7.42,7.67,7.92,8.19,8.46,8.73,9.00,9.28,9.59,9.82,10.16,10.50,10.77,11.00,11.26,11.50,11.69,11.88,12.11,12.36,12.62,12.85,13.05,13.24,13.43,13.63,13.82,14.05,14.26,14.45,14.64,14.87,15.10,15.36,15.68,16.02,16.40,16.79,17.17,17.56,17.88,18.12,18.30,18.45,18.57,18.77,18.97,19.17,19.67,20.56,21.73,23.08,24.39,25.67,26.73,27.61,28.35,29.12,30.22,31.21,31.88,32.11,32.07,31.99,31.78,31.23,30.04,29.31,28.97,28.97,29.55,30.48,31.82,33.52,35.45,36.98,38.26,39.76,41.99,45.65,49.14,52.41,55.50,58.59,59.01,57.54,54.90,52.04
3.00,3.00,3.06,3.13,3.20,3.20,3.27,3.30,3.32,3.40,3.47,3.50,3.53,3.60,3.60,3.66,3.74,3.80,3.80,3.87,3.90,3.92,4.00,4.08,4.10,4.13,4.20,4.20,4.26,4.34,4.40,4.40,4.47,4.50,4.53,4.60,4.61,4.67,4.74,4.80,4.81,4.87,4.95,5.00,5.00,5.01,5.12,5.21,5.22,5.04,5.00,5.00,5.00,5.00,5.00,5.00,5.00,5.00,5.00,5.00,5.00,5.00,5.00,5.00,5.00,5.00,5.00,5.00,5.00,5.03,5.10,5.10,5.10,5.10,5.10,5.10,5.10,5.10,5.10,5.10,5.10,5.10,5.10,5.10,5.10,5.10,5.10,5.10,5.10,5.18,5.20,5.20,5.20,5.20,5.20,5.20,5.20,5.20,5.13,5.10,5.10,5.10,5.10,5.10,5.13,5.19,5.19,5.19,5.19,5.19,5.19,5.20,5.20,5.20,5.20,5.20,5.20,5.20,5.19,5.12,5.11,5.11,5.11,5.11,5.11,5.11,5.11,5.10,5.10,5.10,5.10,5.10,5.10,5.10,5.10,5.10,5.11,5.18,5.27,5.31,5.30,5.30,5.30,5.30,5.28,5.21,5.21,5.21,5.17,5.11,5.10,5.10,5.06,5.01,5.01,5.00,5.00,5.05,5.19,5.35,5.52,5.72,5.95,6.18,6.41,6.64,6.88,7.11,7.42,7.67,7.94,8.23,8.47,8.71,8.98,9.28,9.59,9.82,10.15,10.47,10.71,10.95,11.24,11.50,11.73,11.96,12.21,12.44,12.67,12.90,13.07,13.28,13.48,13.65,13.88,14.11,14.30,14.47,14.70,14.95,15.20,15.50,15.89,16.28,16.67,17.06,17.44,17.83,18.15,18.41,18.62,18.78,18.94,19.09,19.17,19.23,19.73,20.66,21.83,23.14,24.45,25.76,27.07,28.26,29.27,30.51,32.31,33.98,35.12,35.31,34.99,34.71,34.28,33.35,31.38,30.20,29.54,29.31,29.88,30.81,31.96,33.36,35.16,36.49,37.81,39.30,41.22,45.16,49.00,52.66,56.13,59.39,60.31,59.12,56.54,53.58
3.00,3.00,3.06,3.13,3.20,3.20,3.27,3.30,3.32,3.40,3.47,3.50,3.53,3.60,3.60,3.66,3.74,3.80,3.80,3.87,3.90,3.92,4.00,4.08,4.10,4.13,4.20,4.20,4.26,4.34,4.40,4.40,4.47,4.50,4.53,4.60,4.66,4.69,4.74,4.81,4.87,4.89,4.95,5.00,5.00,5.06,5.15,5.28,5.40,5.12,5.03,5.00,5.00,5.00,5.00,5.00,5.00,5.00,5.00,5.00,5.00,5.00,5.00,5.00,5.00,5.00,5.00,5.00,5.00,5.03,5.10,5.10,5.10,5.10,5.10,5.10,5.10,5.10,5.10,5.10,5.10,5.10,5.10,5.10,5.10,5.10,5.10,5.10,5.10,5.18,5.20,5.20,5.20,5.20,5.20,5.20,5.20,5.20,5.13,5.10,5.10,5.10,5.10,5.10,5.11,5.12,5.12,5.12,5.12,5.12,5.12,5.18,5.20,5.20,5.20,5.20,5.20,5.20,5.20,5.18,5.18,5.18,5.18,5.18,5.18,5.18,5.15,5.10,5.10,5.10,5.10,5.10,5.10,5.10,5.10,5.10,5.11,5.18,5.31,5.35,5.30,5.30,5.30,5.30,5.29,5.28,5.28,5.23,5.19,5.17,5.11,5.10,5.09,5.08,5.08,5.02,5.00,5.01,5.06,5.28,5.49,5.72,5.95,6.18,6.41,6.64,6.88,7.11,7.42,7.67,7.94,8.23,8.47,8.75,9.02,9.28,9.59,9.82,10.12,10.41,10.65,10.94,11.20,11.44,11.67,11.90,12.19,12.44,12.67,12.90,13.12,13.35,13.54,13.71,13.94,14.17,14.36,14.54,14.77,15.06,15.39,15.75,16.14,16.59,16.99,17.38,17.76,18.15,18.47,18.73,18.95,19.17,19.32,19.43,19.49,19.53,19.83,20.77,21.94,23.20,24.52,25.77,27.07,28.37,29.76,32.48,34.99,37.21,38.79,38.79,38.14,37.54,36.79,35.52,33.41,31.58,30.36,29.96,30.69,31.64,32.68,33.79,35.00,36.25,37.59,39.12,41.09,45.03,48.95,52.73,56.34,59.70,61.24,60.45,57.98,54.92
