14.90,14.90,14.90,14.90,14.90,14.90,14.90,14.90,14.90,14.90,14.83,14.75,14.67,14.59,14.52,14.44,14.36,14.29,14.24,14.17,14.12,14.08,14.00,13.92,13.84,13.77,13.69,13.64,13.57,13.49,13.43,13.40,13.33,13.27,13.21,13.14,13.21,13.71,14.34,14.79,14.49,14.11,13.72,13.34,12.95,12.65,12.47,12.37,12.29,12.24,12.17,12.09,12.02,11.94,11.86,11.82,11.77,11.74,12.39,13.45,14.18,14.43,14.74,14.98,15.26,15.54,15.77,16.05,16.32,16.59,16.87,17.13,17.36,17.64,17.93,18.16,18.44,18.67,18.87,19.08,19.28,19.45,19.60,19.77,20.00,20.48,21.03,21.51,21.75,21.92,21.87,21.74,21.66,21.56,21.35,21.14,20.93,20.62,20.42,20.22,20.02,19.82,19.67,19.51,19.38,19.27,19.11,18.98,18.87,18.75,18.59,18.44,18.30,18.19,18.07,17.92,17.77,17.57,17.34,17.06,16.75,16.44,16.13,15.82,15.51,15.23,14.95,14.70,14.47,14.30,14.10,13.94,13.94,14.14,14.36,14.59,14.82,14.97,15.06,15.16,15.26,15.26,15.29,15.35,15.41,15.44,15.52,15.59,15.62,15.59,15.54,15.54,15.49,15.44,15.44,15.46,15.53,15.63,15.78,15.86,16.00,16.11,16.20,16.36,16.40,16.49,16.61,16.71,16.84,16.93,16.98,16.99,16.89,16.70,16.51,16.31,16.08,15.92,15.68,15.41,15.18,14.90,14.63,14.65,14.97,15.30,15.37,15.44,15.50,15.53,15.61,15.64,15.65,15.62,15.47,15.41,15.38,15.37,15.35,15.46,15.65,15.88,16.13,16.58,16.97,17.24,17.39,17.51,17.67,17.79,17.91,18.07,18.17,18.31,18.47,18.62,18.77,18.91,19.02,19.14,19.29,19.45,19.60,19.76,19.91,19.98,20.04,20.10,20.16,20.16,20.23,20.31,20.37,20.40,20.35,20.28,20.24,20.22,20.12,20.04,19.93,19.80,19.64,19.56,19.49,19.40,19.31,19.28,19.27,19.24,19.17,19.17,19.13,19.09,19.04,18.94
14.90,14.90,14.90,14.90,14.90,14.90,14.90,14.90,14.90,14.90,14.83,14.75,14.67,14.59,14.52,14.44,14.36,14.30,14.30,14.23,14.15,14.08,14.00,13.92,13.84,13.77,13.70,13.70,13.64,13.56,13.48,13.40,13.33,13.30,13.27,13.19,13.12,13.28,13.77,14.37,14.22,13.85,13.47,13.08,12.70,12.54,12.44,12.37,12.30,12.30,12.24,12.16,12.08,12.00,11.93,11.85,11.77,11.79,13.18,13.92,14.31,14.56,14.87,15.11,15.38,15.67,15.90,16.13,16.42,16.70,16.94,17.25,17.49,17.76,18.05,18.29,18.52,18.70,18.85,19.01,19.16,19.32,19.47,19.64,19.87,20.31,20.95,21.50,21.50,21.42,21.29,21.17,21.08,20.93,20.71,20.48,20.23,19.92,19.90,19.90,19.85,19.69,19.54,19.38,19.23,19.07,18.92,18.83,18.71,18.56,18.40,18.25,18.15,18.04,17.88,17.73,17.57,17.46,17.35,17.12,16.81,16.50,16.20,15.89,15.58,15.33,15.06,14.76,14.53,14.37,14.17,14.00,14.00,14.15,14.36,14.59,14.82,14.97,15.06,15.14,15.20,15.20,15.27,15.35,15.43,15.50,15.58,15.66,15.67,15.60,15.60,15.60,15.56,15.50,15.50,15.58,15.65,15.76,15.91,15.98,16.12,16.24,16.33,16.49,16.57,16.65,16.75,16.90,16.98,17.06,17.13,17.18,17.02,16.87,16.67,16.44,16.21,16.05,15.74,15.41,15.18,14.95,14.66,14.65,14.95,15.18,15.20,15.25,15.32,15.40,15.48,15.44,15.33,15.18,15.02,15.13,15.33,15.56,15.79,16.10,16.35,16.59,16.81,16.97,17.06,17.18,17.31,17.39,17.54,17.69,17.85,18.00,18.16,18.31,18.47,18.62,18.77,18.86,18.98,19.14,19.29,19.45,19.60,19.76,19.90,19.98,20.00,20.04,20.10,20.10,20.17,20.25,20.32,20.40,20.40,20.34,20.30,20.28,20.13,20.04,19.96,19.86,19.71,19.63,19.55,19.50,19.50,19.42,19.40,19.36,19.30,19.30,19.30,19.25,19.15,19.00
14.90,14.90,14.90,14.90,14.90,14.90,14.90,14.90,14.90,14.90,14.83,14.75,14.67,14.59,14.52,14.48,14.43,14.35,14.30,14.23,14.15,14.08,14.00,13.97,13.91,13.83,13.76,13.71,13.68,13.62,13.54,13.47,13.39,13.33,13.29,13.26,13.18,13.19,13.44,13.83,13.88,13.53,13.18,12.89,12.70,12.59,12.51,12.43,12.36,12.31,12.24,12.19,12.15,12.07,11.99,11.91,12.03,12.54,13.58,14.08,14.40,14.68,14.93,15.21,15.48,15.75,16.03,16.26,16.55,16.82,17.06,17.32,17.60,17.87,18.11,18.29,18.47,18.64,18.77,18.88,19.04,19.23,19.41,19.57,19.75,20.01,20.66,21.31,21.31,20.89,20.69,20.59,20.50,20.30,20.19,20.11,20.01,19.85,19.84,19.84,19.80,19.69,19.54,19.35,19.16,19.00,18.80,18.66,18.55,18.43,18.27,18.12,18.02,17.91,17.76,17.60,17.45,17.33,17.23,17.05,16.80,16.54,16.28,16.01,15.71,15.42,15.12,14.83,14.60,14.43,14.23,14.06,14.06,14.22,14.42,14.64,14.82,14.97,15.06,15.14,15.21,15.26,15.34,15.41,15.49,15.57,15.64,15.72,15.73,15.66,15.66,15.66,15.62,15.56,15.56,15.69,15.78,15.89,16.04,16.11,16.25,16.37,16.46,16.61,16.70,16.81,16.93,17.03,17.11,17.22,17.33,17.37,17.22,17.06,16.86,16.63,16.40,16.15,15.77,15.41,15.18,14.95,14.70,14.67,14.86,15.00,15.05,15.09,15.13,15.21,15.19,15.27,15.38,15.46,15.45,15.58,15.75,15.92,16.05,16.26,16.42,16.57,16.74,16.85,16.97,17.09,17.20,17.32,17.43,17.57,17.70,17.81,17.96,18.12,18.27,18.43,18.58,18.71,18.86,19.01,19.16,19.27,19.41,19.56,19.72,19.84,19.87,19.93,20.04,20.04,20.10,20.18,20.26,20.34,20.39,20.38,20.34,20.29,20.18,20.10,20.02,19.94,19.83,19.80,19.74,19.67,19.63,19.60,19.55,19.51,19.49,19.49,19.40,19.29,19.15,19.00
14.90,14.90,14.90,14.90,14.90,14.90,14.90,14.90,14.90,14.90,14.83,14.75,14.68,14.62,14.54,14.51,14.46,14.39,14.33,14.26,14.18,14.10,14.03,14.01,13.96,13.89,13.82,13.74,13.71,13.66,13.59,13.53,13.45,13.38,13.32,13.30,13.24,13.17,13.23,13.42,13.57,13.26,12.97,12.78,12.73,12.65,12.57,12.50,12.42,12.34,12.26,12.22,12.18,12.10,12.05,12.01,12.31,13.20,13.90,14.23,14.50,14.80,15.03,15.31,15.58,15.84,16.13,16.38,16.66,16.93,17.18,17.42,17.68,17.91,18.10,18.24,18.39,18.54,18.68,18.78,18.94,19.13,19.32,19.47,19.63,19.78,20.28,20.81,20.84,20.39,20.22,20.17,20.09,19.91,19.87,19.87,19.85,19.78,19.77,19.77,19.75,19.67,19.53,19.32,19.13,18.96,18.73,18.57,18.44,18.32,18.15,17.99,17.88,17.76,17.63,17.47,17.32,17.20,17.11,16.96,16.75,16.53,16.29,16.06,15.77,15.48,15.18,14.87,14.66,14.49,14.30,14.13,14.13,14.28,14.49,14.69,14.84,15.00,15.09,15.17,15.24,15.32,15.40,15.48,15.55,15.63,15.71,15.79,15.79,15.73,15.73,15.71,15.67,15.63,15.66,15.79,15.90,16.01,16.14,16.24,16.38,16.49,16.59,16.74,16.83,16.95,17.08,17.16,17.24,17.37,17.49,17.54,17.40,17.23,17.04,16.82,16.56,16.21,15.79,15.40,15.13,14.94,14.75,14.70,14.79,14.86,14.94,14.97,15.00,15.07,15.04,15.18,15.38,15.56,15.66,15.78,15.93,16.06,16.14,16.29,16.40,16.50,16.65,16.75,16.88,16.99,17.10,17.23,17.31,17.42,17.55,17.65,17.80,17.96,18.10,18.24,18.39,18.55,18.70,18.85,19.01,19.11,19.25,19.39,19.53,19.66,19.69,19.76,19.90,19.99,20.05,20.12,20.20,20.27,20.37,20.42,20.40,20.32,20.24,20.16,20.09,20.01,19.96,19.94,19.89,19.84,19.78,19.78,19.72,19.68,19.68,19.66,19.50,19.34,19.18,19.03
14.90,14.90,14.90,14.90,14.90,14.90,14.90,14.90,14.90,14.90,14.83,14.75,14.70,14.69,14.61,14.54,14.46,14.40,14.39,14.32,14.24,14.17,14.09,14.02,14.00,13.96,13.88,13.80,13.73,13.66,13.60,13.59,13.52,13.44,13.37,13.30,13.29,13.23,13.17,13.16,13.32,13.05,12.87,12.80,12.79,12.71,12.64,12.56,12.48,12.40,12.33,12.25,12.18,12.10,12.09,12.13,12.61,13.75,14.10,14.36,14.63,14.93,15.16,15.39,15.67,15.95,16.19,16.50,16.75,17.02,17.31,17.54,17.72,17.89,18.03,18.11,18.26,18.42,18.57,18.72,18.87,19.03,19.19,19.34,19.50,19.65,19.81,19.93,20.01,19.96,19.94,19.93,19.91,19.82,19.81,19.81,19.79,19.71,19.71,19.71,19.68,19.60,19.52,19.32,19.13,18.96,18.73,18.57,18.41,18.24,18.02,17.86,17.71,17.59,17.50,17.35,17.19,17.08,16.98,16.83,16.67,16.46,16.23,16.00,15.76,15.52,15.22,14.87,14.71,14.56,14.36,14.19,14.19,14.34,14.55,14.75,14.91,15.06,15.15,15.23,15.31,15.39,15.46,15.54,15.62,15.69,15.77,15.85,15.86,15.79,15.79,15.73,15.70,15.71,15.78,15.87,15.99,16.12,16.21,16.35,16.51,16.62,16.72,16.87,16.95,17.08,17.21,17.29,17.36,17.50,17.62,17.67,17.59,17.38,17.19,17.00,16.69,16.25,15.79,15.36,15.01,14.92,14.83,14.75,14.72,14.80,14.88,14.91,14.93,15.01,15.07,15.21,15.34,15.44,15.59,15.68,15.80,15.94,16.01,16.16,16.27,16.37,16.53,16.68,16.77,16.89,17.02,17.11,17.19,17.27,17.37,17.52,17.67,17.83,17.95,18.04,18.20,18.35,18.51,18.66,18.82,18.97,19.12,19.25,19.33,19.41,19.43,19.51,19.69,19.97,20.01,20.05,20.13,20.21,20.36,20.45,20.46,20.38,20.30,20.23,20.15,20.09,20.08,20.02,19.99,19.98,19.98,19.98,19.92,19.88,19.86,19.79,19.58,19.40,19.25,19.09
14.90,14.90,14.90,14.90,14.90,14.90,14.90,14.90,14.90,14.90,14.87,14.80,14.74,14.70,14.66,14.60,14.52,14.45,14.40,14.33,14.28,14.23,14.15,14.08,14.02,13.97,13.90,13.86,13.79,13.71,13.64,13.60,13.53,13.48,13.43,13.35,13.31,13.24,13.16,13.11,13.18,13.03,12.91,12.84,12.80,12.72,12.68,12.62,12.55,12.47,12.39,12.31,12.24,12.16,12.11,12.57,13.28,13.93,14.19,14.47,14.74,15.01,15.28,15.52,15.79,16.08,16.31,16.58,16.82,17.07,17.32,17.46,17.62,17.77,17.91,17.98,18.13,18.29,18.46,18.65,18.81,18.96,19.12,19.26,19.38,19.52,19.68,19.81,19.84,19.84,19.84,19.83,19.78,19.75,19.74,19.74,19.73,19.65,19.64,19.64,19.62,19.54,19.51,19.36,19.16,18.97,18.78,18.58,18.41,18.23,18.00,17.85,17.66,17.50,17.37,17.22,17.06,16.93,16.81,16.70,16.55,16.37,16.17,15.93,15.70,15.47,15.19,14.88,14.72,14.57,14.39,14.26,14.26,14.45,14.64,14.82,14.97,15.13,15.22,15.30,15.37,15.45,15.53,15.60,15.68,15.76,15.84,15.88,15.88,15.86,15.86,15.79,15.76,15.79,15.91,15.99,16.12,16.24,16.33,16.48,16.60,16.72,16.83,16.95,17.07,17.21,17.34,17.42,17.54,17.65,17.75,17.81,17.77,17.57,17.33,17.06,16.71,16.25,15.82,15.39,14.99,14.92,14.84,14.80,14.82,14.85,14.93,14.98,15.04,15.11,15.15,15.21,15.28,15.36,15.47,15.59,15.71,15.82,15.94,16.05,16.17,16.29,16.40,16.55,16.65,16.76,16.90,16.98,17.10,17.19,17.28,17.39,17.50,17.64,17.78,17.91,18.06,18.22,18.35,18.47,18.63,18.82,18.93,19.01,19.08,19.16,19.18,19.29,19.54,19.80,19.95,20.05,20.12,20.20,20.31,20.40,20.45,20.45,20.37,20.29,20.24,20.20,20.16,20.12,20.11,20.10,20.06,20.06,20.03,19.99,19.94,19.86,19.61,19.41,19.25,19.10
14.88,14.88,14.88,14.89,14.90,14.90,14.90,14.90,14.90,14.90,14.90,14.85,14.77,14.70,14.70,14.64,14.56,14.48,14.41,14.33,14.29,14.26,14.20,14.12,14.04,13.97,13.90,13.88,13.83,13.76,13.68,13.60,13.53,13.49,13.46,13.39,13.32,13.24,13.16,13.10,13.10,13.04,12.97,12.90,12.82,12.74,12.71,12.67,12.59,12.53,12.46,12.38,12.30,12.22,12.26,13.01,13.81,14.05,14.29,14.58,14.85,15.09,15.39,15.64,15.91,16.19,16.42,16.64,16.85,17.07,17.27,17.35,17.49,17.64,17.78,17.86,18.02,18.18,18.36,18.57,18.72,18.88,19.03,19.16,19.27,19.43,19.63,19.78,19.78,19.78,19.77,19.74,19.68,19.68,19.68,19.68,19.66,19.59,19.58,19.58,19.55,19.48,19.48,19.37,19.19,18.97,18.82,18.60,18.41,18.23,18.00,17.85,17.64,17.44,17.28,17.11,16.95,16.79,16.64,16.57,16.42,16.26,16.09,15.87,15.64,15.41,15.15,14.88,14.72,14.57,14.41,14.31,14.34,14.55,14.73,14.88,15.03,15.17,15.27,15.36,15.44,15.51,15.59,15.67,15.75,15.82,15.90,15.92,15.92,15.92,15.90,15.85,15.83,15.88,16.04,16.11,16.24,16.37,16.45,16.61,16.70,16.82,16.96,17.03,17.18,17.33,17.45,17.54,17.70,17.80,17.87,17.94,17.94,17.74,17.45,17.10,16.71,16.25,15.84,15.43,15.01,14.92,14.85,14.87,14.95,14.98,15.05,15.12,15.18,15.26,15.27,15.28,15.31,15.37,15.43,15.54,15.63,15.72,15.86,15.95,16.07,16.20,16.29,16.43,16.53,16.65,16.78,16.87,17.01,17.12,17.20,17.28,17.34,17.46,17.61,17.76,17.92,18.07,18.19,18.30,18.45,18.65,18.72,18.75,18.83,18.90,18.94,19.10,19.38,19.62,19.85,20.01,20.10,20.18,20.26,20.35,20.43,20.49,20.45,20.38,20.33,20.30,20.24,20.22,20.22,20.20,20.14,20.14,20.13,20.08,20.01,19.93,19.65,19.43,19.27,19.12
14.82,14.82,14.82,14.84,14.90,14.90,14.90,14.90,14.90,14.90,14.90,14.85,14.77,14.70,14.70,14.64,14.56,14.48,14.41,14.33,14.26,14.21,14.20,14.12,14.04,13.97,13.89,13.83,13.81,13.76,13.68,13.60,13.53,13.46,13.41,13.39,13.32,13.24,13.16,13.10,13.10,13.09,13.04,12.96,12.88,12.81,12.74,12.67,12.60,12.59,12.52,12.44,12.36,12.29,12.70,13.32,13.89,14.18,14.41,14.71,14.98,15.21,15.46,15.75,16.01,16.25,16.48,16.65,16.82,16.99,17.14,17.22,17.36,17.51,17.65,17.73,17.94,18.12,18.28,18.44,18.60,18.75,18.88,18.99,19.19,19.41,19.60,19.72,19.72,19.72,19.67,19.63,19.62,19.62,19.62,19.62,19.60,19.52,19.52,19.52,19.49,19.42,19.42,19.35,19.19,18.97,18.82,18.60,18.41,18.23,18.00,17.85,17.64,17.44,17.28,17.06,16.89,16.70,16.52,16.44,16.29,16.13,15.98,15.81,15.57,15.34,15.11,14.88,14.72,14.57,14.41,14.34,14.46,14.63,14.79,14.94,15.09,15.18,15.31,15.42,15.50,15.58,15.65,15.73,15.81,15.89,15.96,15.98,15.98,15.97,15.91,15.89,15.92,16.01,16.16,16.24,16.37,16.50,16.58,16.74,16.83,16.94,17.08,17.16,17.31,17.42,17.53,17.67,17.83,17.92,18.00,18.07,18.07,17.87,17.52,17.10,16.71,16.25,15.84,15.45,15.07,14.93,14.89,14.95,15.09,15.22,15.30,15.34,15.38,15.45,15.52,15.53,15.54,15.55,15.57,15.59,15.61,15.64,15.73,15.87,15.98,16.09,16.22,16.31,16.44,16.56,16.66,16.80,16.90,17.02,17.14,17.22,17.23,17.30,17.42,17.57,17.72,17.88,18.03,18.17,18.33,18.43,18.47,18.49,18.57,18.65,18.77,18.95,19.19,19.42,19.66,19.87,20.04,20.12,20.19,20.32,20.43,20.51,20.56,20.50,20.43,20.38,20.37,20.31,20.28,20.28,20.27,20.27,20.22,20.15,20.07,19.99,19.71,19.49,19.34,19.18
14.80,14.80,14.80,14.83,14.90,14.90,14.90,14.88,14.84,14.81,14.81,14.78,14.74,14.70,14.66,14.62,14.56,14.48,14.41,14.33,14.25,14.19,14.15,14.11,14.04,13.97,13.89,13.81,13.77,13.73,13.68,13.60,13.53,13.45,13.39,13.35,13.27,13.22,13.16,13.10,13.10,13.10,13.08,13.02,12.95,12.87,12.79,12.71,12.64,12.61,12.54,12.48,12.43,12.35,13.07,13.62,13.99,14.27,14.53,14.80,15.08,15.34,15.57,15.84,16.06,16.25,16.41,16.56,16.71,16.87,17.01,17.09,17.23,17.39,17.53,17.65,17.84,18.01,18.16,18.31,18.43,18.60,18.78,18.94,19.17,19.37,19.59,19.73,19.65,19.65,19.60,19.55,19.55,19.55,19.55,19.55,19.53,19.46,19.45,19.45,19.43,19.35,19.35,19.32,19.19,18.97,18.82,18.60,18.41,18.24,18.05,17.86,17.66,17.47,17.28,17.08,16.89,16.70,16.51,16.36,16.21,16.03,15.85,15.70,15.54,15.30,15.06,14.88,14.72,14.57,14.45,14.44,14.59,14.71,14.85,14.99,15.11,15.23,15.37,15.49,15.56,15.64,15.72,15.80,15.87,15.95,16.03,16.05,16.05,16.04,15.96,15.95,16.01,16.13,16.24,16.36,16.50,16.62,16.71,16.86,16.96,17.07,17.21,17.29,17.44,17.54,17.65,17.80,17.92,18.03,18.13,18.20,18.24,17.98,17.61,17.19,16.81,16.42,16.03,15.64,15.27,15.08,14.98,15.02,15.19,15.42,15.55,15.59,15.61,15.69,15.73,15.77,15.79,15.79,15.79,15.79,15.79,15.80,15.84,15.96,16.02,16.06,16.11,16.19,16.33,16.44,16.53,16.69,16.77,16.90,17.03,17.11,17.14,17.21,17.30,17.43,17.58,17.70,17.84,17.99,18.10,18.15,18.19,18.24,18.32,18.39,18.56,18.75,18.95,19.18,19.45,19.72,19.94,20.05,20.13,20.26,20.38,20.46,20.54,20.55,20.53,20.49,20.45,20.41,20.37,20.35,20.35,20.31,20.24,20.16,20.09,20.01,19.73,19.53,19.40,19.25
14.80,14.80,14.80,14.83,14.89,14.90,14.90,14.85,14.77,14.69,14.69,14.69,14.69,14.68,14.61,14.59,14.55,14.48,14.41,14.33,14.25,14.18,14.10,14.09,14.04,13.97,13.89,13.81,13.74,13.70,13.67,13.60,13.53,13.45,13.37,13.29,13.22,13.19,13.16,13.10,13.10,13.10,13.10,13.08,13.01,12.93,12.86,12.78,12.70,12.62,12.55,12.51,12.50,12.52,13.40,13.87,14.11,14.34,14.65,14.90,15.17,15.45,15.66,15.89,16.07,16.20,16.29,16.43,16.59,16.74,16.89,16.96,17.10,17.26,17.43,17.58,17.73,17.88,18.03,18.18,18.28,18.48,18.71,18.94,19.16,19.33,19.59,19.76,19.59,19.59,19.53,19.49,19.49,19.49,19.48,19.48,19.46,19.39,19.39,19.39,19.36,19.29,19.29,19.29,19.19,18.98,18.82,18.61,18.42,18.26,18.10,17.87,17.69,17.51,17.28,17.13,16.91,16.72,16.55,16.32,16.16,15.95,15.75,15.60,15.50,15.26,15.03,14.88,14.72,14.57,14.51,14.55,14.71,14.79,14.92,15.04,15.13,15.28,15.43,15.54,15.63,15.71,15.78,15.86,15.94,16.01,16.09,16.11,16.11,16.10,16.02,16.02,16.11,16.24,16.32,16.47,16.62,16.74,16.84,16.98,17.08,17.20,17.34,17.42,17.56,17.67,17.77,17.93,18.00,18.14,18.26,18.34,18.42,18.11,17.73,17.34,16.96,16.65,16.29,15.90,15.54,15.30,15.12,15.11,15.28,15.59,15.77,15.84,15.87,15.95,15.95,16.00,16.04,16.05,16.05,16.05,16.05,16.05,16.05,16.12,16.15,16.12,16.05,16.11,16.23,16.34,16.43,16.56,16.65,16.78,16.90,16.99,17.07,17.14,17.22,17.31,17.44,17.54,17.66,17.78,17.85,17.85,17.91,17.99,18.06,18.16,18.35,18.54,18.71,18.94,19.24,19.55,19.81,19.98,20.06,20.20,20.32,20.40,20.48,20.55,20.59,20.59,20.53,20.51,20.47,20.42,20.41,20.33,20.25,20.17,20.10,20.01,19.74,19.57,19.47,19.32
14.80,14.80,14.80,14.81,14.83,14.89,14.90,14.83,14.70,14.63,14.62,14.62,14.62,14.62,14.60,14.55,14.49,14.42,14.40,14.33,14.25,14.18,14.10,14.04,14.01,13.97,13.89,13.81,13.74,13.67,13.62,13.60,13.53,13.45,13.37,13.29,13.22,13.15,13.12,13.10,13.10,13.10,13.10,13.09,13.07,13.00,12.92,12.84,12.77,12.69,12.61,12.54,12.64,13.20,13.63,13.97,14.23,14.47,14.78,15.03,15.27,15.50,15.61,15.78,15.94,16.09,16.23,16.32,16.46,16.61,16.76,16.84,16.98,17.16,17.36,17.52,17.67,17.79,17.90,18.06,18.25,18.48,18.71,18.93,19.10,19.31,19.62,19.80,19.53,19.52,19.47,19.42,19.42,19.42,19.38,19.35,19.34,19.33,19.32,19.32,19.30,19.22,19.22,19.22,19.17,19.04,18.83,18.65,18.45,18.26,18.10,17.87,17.69,17.51,17.28,17.13,16.91,16.72,16.55,16.32,16.16,15.95,15.75,15.59,15.40,15.20,15.03,14.88,14.72,14.62,14.58,14.62,14.77,14.85,14.98,15.11,15.19,15.35,15.45,15.57,15.69,15.77,15.85,15.92,16.00,16.08,16.16,16.18,16.18,16.16,16.09,16.13,16.24,16.37,16.45,16.60,16.72,16.83,16.96,17.06,17.18,17.33,17.47,17.54,17.69,17.80,17.90,18.05,18.13,18.26,18.38,18.47,18.61,18.35,17.99,17.60,17.21,16.90,16.54,16.18,15.85,15.56,15.33,15.27,15.41,15.72,15.94,16.06,16.13,16.20,16.20,16.22,16.25,16.30,16.30,16.30,16.30,16.30,16.30,16.38,16.40,16.37,16.30,16.26,16.28,16.34,16.41,16.45,16.57,16.68,16.79,16.93,17.00,17.08,17.16,17.23,17.27,17.39,17.50,17.58,17.60,17.60,17.69,17.78,17.81,18.01,18.18,18.35,18.52,18.75,19.05,19.32,19.58,19.85,19.99,20.13,20.26,20.33,20.41,20.49,20.56,20.61,20.65,20.60,20.56,20.53,20.47,20.39,20.32,20.24,20.15,20.02,19.83,19.67,19.55,19.45
14.72,14.72,14.74,14.76,14.77,14.81,14.82,14.75,14.64,14.56,14.56,14.56,14.56,14.56,14.56,14.52,14.46,14.39,14.36,14.32,14.25,14.18,14.10,14.02,13.98,13.94,13.89,13.81,13.74,13.66,13.59,13.56,13.49,13.43,13.37,13.29,13.22,13.14,13.10,13.10,13.10,13.10,13.10,13.10,13.10,13.02,12.97,12.91,12.83,12.75,12.67,12.70,12.92,13.51,13.79,14.06,14.33,14.59,14.84,15.06,15.26,15.44,15.51,15.66,15.81,15.97,16.12,16.20,16.33,16.49,16.63,16.74,16.89,17.07,17.26,17.41,17.57,17.69,17.83,18.01,18.25,18.45,18.67,18.89,19.08,19.30,19.61,19.77,19.46,19.46,19.43,19.39,19.36,19.36,19.30,19.26,19.26,19.26,19.26,19.24,19.21,19.16,19.16,19.14,19.10,19.03,18.83,18.67,18.47,18.26,18.10,17.87,17.69,17.51,17.28,17.13,16.91,16.72,16.56,16.35,16.17,15.97,15.78,15.59,15.39,15.20,15.03,14.88,14.76,14.67,14.66,14.71,14.84,14.92,15.05,15.17,15.25,15.41,15.50,15.62,15.76,15.83,15.91,15.99,16.06,16.14,16.22,16.24,16.23,16.20,16.18,16.24,16.37,16.50,16.58,16.73,16.83,16.94,17.09,17.16,17.30,17.44,17.56,17.67,17.79,17.91,18.03,18.18,18.26,18.39,18.51,18.60,18.76,18.57,18.24,17.86,17.47,17.16,16.80,16.45,16.17,15.86,15.59,15.47,15.53,15.81,16.05,16.22,16.34,16.42,16.45,16.46,16.48,16.52,16.52,16.54,16.56,16.56,16.56,16.63,16.66,16.63,16.55,16.47,16.43,16.43,16.45,16.48,16.56,16.65,16.74,16.86,16.91,17.00,17.08,17.13,17.16,17.29,17.42,17.52,17.58,17.64,17.76,17.86,17.86,17.98,18.07,18.20,18.36,18.56,18.83,19.10,19.38,19.68,19.90,20.07,20.19,20.27,20.35,20.42,20.50,20.58,20.66,20.65,20.64,20.62,20.57,20.50,20.40,20.30,20.21,20.06,19.93,19.79,19.66,19.58
14.59,14.60,14.65,14.69,14.69,14.70,14.70,14.65,14.58,14.50,14.50,14.50,14.50,14.50,14.50,14.50,14.46,14.38,14.31,14.30,14.25,14.18,14.10,14.02,13.94,13.90,13.89,13.81,13.74,13.66,13.58,13.50,13.43,13.40,13.37,13.29,13.22,13.14,13.10,13.10,13.10,13.10,13.10,13.10,13.10,13.02,13.00,12.97,12.89,12.82,12.74,12.91,13.28,13.59,13.90,14.16,14.41,14.71,14.86,15.01,15.17,15.31,15.39,15.53,15.69,15.84,15.99,16.07,16.20,16.36,16.51,16.67,16.82,16.98,17.13,17.28,17.44,17.60,17.78,18.01,18.24,18.42,18.61,18.84,19.07,19.30,19.58,19.71,19.40,19.40,19.40,19.37,19.30,19.30,19.23,19.20,19.20,19.20,19.20,19.15,19.10,19.10,19.10,19.04,19.00,18.97,18.82,18.67,18.47,18.26,18.10,17.87,17.69,17.51,17.29,17.13,16.91,16.72,16.57,16.41,16.18,16.00,15.82,15.59,15.44,15.23,15.03,14.89,14.81,14.74,14.75,14.82,14.90,14.98,15.11,15.23,15.32,15.47,15.56,15.68,15.82,15.90,15.97,16.05,16.13,16.21,16.28,16.30,16.27,16.21,16.29,16.37,16.49,16.62,16.70,16.86,16.96,17.07,17.21,17.29,17.43,17.55,17.64,17.79,17.88,18.00,18.16,18.31,18.39,18.52,18.64,18.73,18.88,18.78,18.50,18.11,17.72,17.41,17.05,16.73,16.49,16.18,15.87,15.67,15.66,15.88,16.12,16.35,16.53,16.61,16.69,16.71,16.71,16.71,16.71,16.78,16.81,16.81,16.81,16.89,16.91,16.88,16.81,16.73,16.65,16.57,16.53,16.60,16.61,16.65,16.73,16.80,16.81,16.92,17.00,17.02,17.10,17.24,17.40,17.55,17.71,17.86,18.02,18.11,18.11,18.03,18.01,18.08,18.23,18.38,18.60,18.88,19.18,19.49,19.80,20.00,20.13,20.21,20.28,20.36,20.44,20.52,20.59,20.67,20.70,20.70,20.70,20.62,20.49,20.37,20.28,20.12,20.04,19.92,19.78,19.70
14.47,14.52,14.55,14.57,14.57,14.63,14.63,14.59,14.51,14.44,14.43,14.43,14.43,14.43,14.43,14.43,14.42,14.38,14.31,14.25,14.22,14.18,14.10,14.02,13.94,13.88,13.83,13.80,13.74,13.66,13.58,13.50,13.43,13.37,13.32,13.29,13.22,13.14,13.10,13.10,13.10,13.10,13.10,13.10,13.10,13.07,13.03,12.97,12.90,12.87,12.80,13.03,13.46,13.72,14.03,14.25,14.44,14.64,14.74,14.89,15.04,15.19,15.32,15.42,15.56,15.71,15.87,15.94,16.08,16.23,16.38,16.54,16.69,16.85,17.00,17.16,17.36,17.57,17.78,18.01,18.19,18.39,18.61,18.84,19.07,19.26,19.51,19.66,19.40,19.35,19.33,19.30,19.23,19.23,19.17,19.13,19.13,19.13,19.13,19.08,19.03,19.03,19.03,18.97,18.93,18.92,18.81,18.67,18.47,18.26,18.10,17.92,17.72,17.53,17.35,17.14,16.95,16.76,16.57,16.41,16.18,16.00,15.82,15.59,15.44,15.23,15.05,14.95,14.88,14.80,14.78,14.82,14.90,15.03,15.14,15.25,15.38,15.48,15.60,15.72,15.83,15.96,16.04,16.12,16.19,16.27,16.35,16.37,16.33,16.28,16.36,16.48,16.59,16.70,16.83,16.98,17.09,17.19,17.34,17.42,17.56,17.67,17.77,17.92,18.00,18.13,18.28,18.44,18.51,18.65,18.77,18.86,19.01,18.95,18.71,18.37,17.98,17.62,17.31,17.03,16.75,16.49,16.19,15.95,15.84,16.02,16.24,16.48,16.69,16.87,16.95,16.97,16.97,16.97,16.97,17.03,17.07,17.07,17.07,17.14,17.17,17.16,17.13,17.00,16.91,16.83,16.76,16.74,16.73,16.78,16.84,16.87,16.92,17.01,17.09,17.15,17.28,17.47,17.68,17.87,18.03,18.18,18.30,18.37,18.36,18.29,18.23,18.20,18.21,18.26,18.43,18.68,18.99,19.30,19.61,19.88,20.07,20.14,20.22,20.30,20.37,20.45,20.53,20.61,20.70,20.77,20.76,20.68,20.59,20.50,20.41,20.25,20.17,20.04,19.90,19.77
14.37,14.42,14.44,14.45,14.48,14.53,14.54,14.51,14.45,14.37,14.35,14.34,14.34,14.34,14.34,14.36,14.37,14.36,14.31,14.23,14.19,14.15,14.10,14.02,13.94,13.87,13.80,13.77,13.70,13.64,13.58,13.50,13.43,13.35,13.29,13.27,13.21,13.14,13.10,13.10,13.10,13.10,13.10,13.10,13.10,13.10,13.06,13.00,12.93,12.90,12.94,13.19,13.59,13.82,14.06,14.24,14.39,14.54,14.62,14.76,14.91,15.07,15.22,15.31,15.43,15.58,15.74,15.82,15.96,16.13,16.28,16.42,16.59,16.75,16.91,17.09,17.32,17.55,17.77,17.98,18.16,18.38,18.60,18.81,19.04,19.21,19.45,19.60,19.37,19.29,19.27,19.24,19.17,19.17,19.11,19.07,19.07,19.07,19.05,19.00,18.97,18.97,18.97,18.91,18.87,18.86,18.81,18.67,18.48,18.28,18.10,17.95,17.74,17.54,17.38,17.14,16.97,16.78,16.57,16.41,16.18,16.00,15.82,15.59,15.44,15.24,15.10,15.02,14.94,14.86,14.83,14.85,14.93,15.08,15.18,15.29,15.44,15.52,15.66,15.77,15.86,16.02,16.10,16.18,16.26,16.33,16.41,16.41,16.39,16.37,16.45,16.59,16.71,16.80,16.96,17.09,17.20,17.32,17.47,17.55,17.69,17.80,17.89,18.05,18.13,18.26,18.41,18.56,18.64,18.78,18.90,18.98,19.14,19.14,18.95,18.62,18.24,17.87,17.58,17.32,17.03,16.78,16.50,16.23,16.05,16.15,16.37,16.60,16.84,17.06,17.17,17.21,17.22,17.22,17.22,17.29,17.32,17.32,17.32,17.40,17.42,17.42,17.41,17.28,17.19,17.12,17.04,16.93,16.90,16.91,16.94,16.96,17.02,17.09,17.17,17.29,17.49,17.72,17.95,18.17,18.35,18.50,18.61,18.65,18.62,18.54,18.45,18.37,18.32,18.30,18.37,18.54,18.80,19.11,19.42,19.73,19.96,20.08,20.16,20.23,20.31,20.39,20.46,20.56,20.70,20.82,20.86,20.78,20.70,20.63,20.53,20.38,20.27,20.15,20.02,19.86
14.31,14.31,14.31,14.34,14.41,14.41,14.41,14.41,14.39,14.31,14.23,14.21,14.21,14.21,14.21,14.27,14.31,14.30,14.30,14.23,14.16,14.10,14.10,14.02,13.94,13.87,13.79,13.72,13.64,13.60,13.58,13.50,13.43,13.35,13.27,13.20,13.20,13.14,13.10,13.10,13.10,13.10,13.10,13.10,13.10,13.10,13.10,13.06,12.99,12.91,13.14,13.41,13.65,13.88,13.98,14.11,14.27,14.42,14.49,14.63,14.78,14.94,15.09,15.18,15.30,15.46,15.61,15.69,15.87,16.07,16.21,16.30,16.50,16.69,16.86,17.09,17.32,17.55,17.76,17.92,18.15,18.38,18.57,18.75,18.98,19.14,19.39,19.54,19.31,19.23,19.21,19.17,19.11,19.11,19.04,19.01,19.01,19.01,18.94,18.91,18.91,18.91,18.91,18.85,18.81,18.80,18.80,18.67,18.51,18.33,18.10,17.95,17.74,17.54,17.38,17.14,16.97,16.78,16.57,16.41,16.18,16.00,15.82,15.59,15.44,15.28,15.16,15.08,15.01,14.93,14.89,14.92,14.99,15.15,15.25,15.36,15.50,15.58,15.72,15.83,15.93,16.08,16.17,16.24,16.32,16.40,16.47,16.44,16.43,16.50,16.58,16.72,16.83,16.93,17.09,17.17,17.30,17.45,17.60,17.67,17.81,17.93,18.02,18.18,18.26,18.39,18.54,18.69,18.77,18.90,19.02,19.11,19.27,19.35,19.21,18.88,18.49,18.18,17.87,17.59,17.35,17.04,16.79,16.52,16.28,16.29,16.50,16.73,16.96,17.19,17.34,17.44,17.48,17.48,17.48,17.54,17.58,17.58,17.58,17.65,17.68,17.68,17.67,17.59,17.51,17.44,17.35,17.19,17.11,17.04,17.02,17.09,17.09,17.15,17.26,17.43,17.73,17.97,18.21,18.44,18.66,18.82,18.93,18.95,18.87,18.80,18.66,18.58,18.57,18.49,18.43,18.45,18.61,18.92,19.23,19.54,19.81,20.01,20.09,20.17,20.25,20.32,20.40,20.55,20.70,20.85,20.98,20.91,20.83,20.75,20.66,20.51,20.36,20.25,20.14,19.99
14.18,14.18,14.22,14.26,14.28,14.28,14.32,14.34,14.32,14.24,14.17,14.14,14.14,14.14,14.14,14.17,14.18,14.18,14.18,14.15,14.12,14.09,14.04,14.01,13.94,13.87,13.79,13.71,13.64,13.58,13.53,13.50,13.43,13.35,13.27,13.20,13.15,13.12,13.10,13.10,13.10,13.10,13.10,13.10,13.10,13.10,13.10,13.09,13.05,13.02,13.20,13.40,13.59,13.77,13.86,13.98,14.14,14.29,14.41,14.53,14.66,14.81,14.97,15.05,15.17,15.33,15.48,15.61,15.77,15.95,16.10,16.27,16.45,16.65,16.85,17.09,17.28,17.49,17.71,17.91,18.15,18.34,18.54,18.74,18.97,19.14,19.35,19.47,19.24,19.16,19.14,19.11,19.04,19.04,19.02,18.98,18.94,18.94,18.87,18.84,18.84,18.84,18.84,18.78,18.74,18.74,18.74,18.65,18.51,18.33,18.10,17.95,17.74,17.54,17.38,17.14,16.97,16.78,16.57,16.41,16.23,16.03,15.84,15.65,15.45,15.28,15.19,15.15,15.07,15.03,14.99,14.99,15.12,15.22,15.31,15.40,15.51,15.63,15.75,15.86,15.98,16.09,16.21,16.31,16.38,16.46,16.54,16.50,16.51,16.63,16.71,16.85,16.96,17.06,17.21,17.29,17.42,17.56,17.67,17.79,17.94,18.06,18.15,18.30,18.39,18.51,18.65,18.76,18.89,19.03,19.15,19.24,19.39,19.52,19.43,19.13,18.75,18.48,18.19,17.91,17.67,17.36,17.07,16.80,16.57,16.43,16.63,16.86,17.09,17.32,17.52,17.67,17.74,17.74,17.74,17.80,17.84,17.84,17.84,17.91,17.94,17.94,17.93,17.85,17.77,17.70,17.61,17.50,17.42,17.35,17.28,17.22,17.22,17.31,17.46,17.68,17.98,18.23,18.46,18.69,18.92,19.08,19.19,19.21,19.13,19.05,18.92,18.81,18.77,18.74,18.67,18.63,18.64,18.73,19.04,19.34,19.64,19.90,20.02,20.11,20.18,20.26,20.34,20.49,20.64,20.80,20.94,21.00,20.96,20.88,20.79,20.64,20.52,20.43,20.33,20.18
14.06,14.07,14.12,14.15,14.16,14.17,14.23,14.25,14.24,14.18,14.10,14.08,14.08,14.08,14.08,14.08,14.08,14.08,14.08,14.08,14.08,14.06,14.00,13.98,13.93,13.87,13.79,13.71,13.64,13.56,13.50,13.48,13.42,13.35,13.27,13.19,13.12,13.10,13.10,13.10,13.10,13.10,13.10,13.10,13.10,13.10,13.10,13.10,13.10,13.10,13.20,13.34,13.49,13.65,13.73,13.86,14.01,14.16,14.32,14.41,14.53,14.68,14.84,14.92,15.05,15.20,15.36,15.51,15.68,15.84,16.01,16.24,16.42,16.62,16.85,17.06,17.24,17.45,17.68,17.91,18.13,18.31,18.51,18.74,18.95,19.14,19.34,19.41,19.18,19.10,19.08,19.05,19.00,18.98,18.98,18.94,18.88,18.88,18.81,18.78,18.78,18.78,18.78,18.72,18.68,18.68,18.68,18.61,18.50,18.33,18.10,17.95,17.75,17.55,17.38,17.16,16.98,16.79,16.58,16.41,16.26,16.05,15.85,15.69,15.46,15.30,15.22,15.21,15.13,15.12,15.09,15.08,15.22,15.30,15.38,15.46,15.56,15.70,15.78,15.90,16.04,16.12,16.26,16.37,16.45,16.53,16.60,16.58,16.61,16.74,16.83,16.98,17.09,17.19,17.34,17.42,17.55,17.68,17.76,17.91,18.07,18.18,18.28,18.43,18.52,18.64,18.77,18.85,19.00,19.16,19.28,19.37,19.54,19.68,19.64,19.39,19.03,18.79,18.51,18.23,17.99,17.68,17.38,17.10,16.84,16.59,16.76,16.99,17.22,17.45,17.68,17.87,17.98,17.99,17.99,18.06,18.09,18.09,18.09,18.16,18.19,18.19,18.18,18.11,18.03,17.95,17.88,17.80,17.72,17.64,17.55,17.41,17.36,17.48,17.69,17.93,18.24,18.48,18.72,18.95,19.20,19.36,19.45,19.46,19.39,19.31,19.17,19.05,18.99,19.01,18.94,18.86,18.76,18.67,18.87,19.15,19.46,19.75,19.93,20.03,20.12,20.20,20.29,20.45,20.59,20.73,20.89,21.06,21.07,21.01,20.92,20.78,20.70,20.61,20.50,20.35
13.93,14.00,14.02,14.03,14.04,14.10,14.12,14.13,14.12,14.11,14.04,14.01,14.01,14.01,14.01,14.01,14.01,14.01,14.01,14.01,14.01,14.01,14.00,13.93,13.91,13.87,13.79,13.71,13.64,13.56,13.48,13.42,13.40,13.35,13.27,13.19,13.12,13.10,13.10,13.10,13.10,13.10,13.10,13.10,13.10,13.10,13.10,13.10,13.10,13.10,13.12,13.21,13.36,13.52,13.60,13.73,13.88,14.04,14.19,14.29,14.40,14.55,14.71,14.80,14.92,15.07,15.23,15.38,15.58,15.78,15.94,16.17,16.40,16.62,16.84,17.00,17.22,17.45,17.68,17.91,18.07,18.28,18.51,18.73,18.89,19.17,19.34,19.35,19.11,19.04,19.01,19.01,18.99,18.93,18.91,18.87,18.81,18.81,18.74,18.71,18.71,18.71,18.71,18.65,18.61,18.61,18.61,18.55,18.46,18.33,18.10,17.95,17.79,17.60,17.38,17.22,17.01,16.81,16.64,16.42,16.26,16.05,15.85,15.69,15.46,15.33,15.29,15.27,15.20,15.19,15.18,15.20,15.29,15.36,15.44,15.54,15.68,15.77,15.85,15.97,16.10,16.18,16.33,16.43,16.51,16.59,16.67,16.68,16.71,16.81,16.95,17.11,17.22,17.31,17.47,17.55,17.68,17.80,17.89,18.04,18.20,18.31,18.41,18.56,18.64,18.77,18.90,18.98,19.13,19.29,19.41,19.51,19.73,19.83,19.82,19.66,19.34,19.11,18.82,18.55,18.31,18.00,17.74,17.44,17.09,16.79,16.91,17.11,17.35,17.58,17.81,18.03,18.19,18.25,18.25,18.31,18.35,18.35,18.35,18.42,18.45,18.45,18.44,18.36,18.29,18.21,18.13,18.05,17.98,17.90,17.82,17.73,17.53,17.68,17.95,18.19,18.50,18.74,18.97,19.22,19.52,19.68,19.74,19.72,19.64,19.56,19.43,19.31,19.26,19.33,19.26,19.15,19.00,18.86,18.77,18.96,19.27,19.57,19.79,19.95,20.05,20.15,20.29,20.45,20.56,20.67,20.83,21.05,21.14,21.14,21.06,20.97,20.89,20.77,20.63,20.47
13.85,13.89,13.90,13.92,13.95,13.99,14.03,14.05,14.05,14.05,13.98,13.95,13.95,13.95,13.95,13.95,13.95,13.95,13.95,13.95,13.95,13.95,13.95,13.91,13.87,13.82,13.74,13.71,13.64,13.56,13.48,13.40,13.36,13.32,13.27,13.19,13.12,13.10,13.10,13.10,13.10,13.10,13.10,13.10,13.10,13.10,13.10,13.10,13.10,13.10,13.10,13.14,13.24,13.39,13.47,13.60,13.75,13.91,14.06,14.16,14.27,14.43,14.58,14.70,14.84,15.00,15.15,15.34,15.54,15.73,15.93,16.16,16.39,16.60,16.80,16.99,17.22,17.42,17.63,17.86,18.05,18.28,18.49,18.68,18.88,19.21,19.35,19.28,19.05,18.97,18.95,18.95,18.94,18.86,18.85,18.81,18.75,18.75,18.68,18.65,18.65,18.65,18.61,18.57,18.55,18.55,18.55,18.48,18.43,18.35,18.15,17.96,17.79,17.61,17.38,17.23,17.01,16.82,16.65,16.42,16.26,16.05,15.85,15.69,15.50,15.39,15.33,15.29,15.26,15.25,15.25,15.27,15.35,15.43,15.53,15.65,15.76,15.84,15.91,16.03,16.17,16.24,16.36,16.47,16.58,16.65,16.69,16.76,16.84,16.92,17.08,17.20,17.32,17.44,17.60,17.68,17.81,17.93,18.02,18.17,18.29,18.41,18.53,18.69,18.77,18.90,19.03,19.11,19.26,19.41,19.54,19.63,19.87,19.93,19.93,19.86,19.71,19.44,19.17,18.90,18.63,18.32,18.04,17.71,17.34,17.03,17.07,17.24,17.47,17.71,17.94,18.17,18.37,18.50,18.50,18.57,18.60,18.61,18.65,18.69,18.70,18.70,18.70,18.62,18.54,18.46,18.39,18.31,18.23,18.13,18.00,17.85,17.65,17.82,18.13,18.44,18.71,18.98,19.23,19.48,19.79,19.91,19.98,19.97,19.90,19.82,19.65,19.53,19.52,19.59,19.57,19.46,19.29,19.10,18.95,18.96,19.11,19.38,19.61,19.81,19.96,20.09,20.24,20.36,20.47,20.60,20.76,21.00,21.14,21.22,21.24,21.16,21.05,20.91,20.76,20.60
13.77,13.78,13.79,13.81,13.87,13.88,13.94,13.97,13.97,13.99,13.90,13.87,13.87,13.87,13.87,13.88,13.89,13.89,13.89,13.89,13.89,13.89,13.89,13.89,13.84,13.77,13.70,13.69,13.63,13.56,13.48,13.40,13.33,13.29,13.26,13.19,13.12,13.10,13.10,13.10,13.10,13.10,13.10,13.10,13.10,13.10,13.10,13.10,13.10,13.10,13.10,13.10,13.13,13.26,13.36,13.48,13.63,13.78,13.94,14.03,14.14,14.30,14.45,14.61,14.77,14.94,15.10,15.32,15.50,15.70,15.93,16.15,16.38,16.57,16.75,16.99,17.21,17.39,17.58,17.81,18.05,18.27,18.46,18.64,18.86,19.25,19.36,19.22,18.99,18.92,18.89,18.89,18.88,18.80,18.79,18.75,18.69,18.69,18.62,18.59,18.59,18.58,18.50,18.49,18.49,18.49,18.49,18.42,18.39,18.34,18.20,17.97,17.79,17.61,17.38,17.23,17.01,16.82,16.65,16.42,16.26,16.06,15.86,15.69,15.55,15.46,15.38,15.32,15.33,15.33,15.33,15.35,15.41,15.50,15.63,15.74,15.82,15.90,15.99,16.10,16.23,16.31,16.39,16.51,16.64,16.71,16.73,16.84,16.96,17.05,17.21,17.30,17.42,17.57,17.72,17.80,17.93,18.06,18.14,18.30,18.39,18.51,18.66,18.82,18.90,19.02,19.15,19.23,19.39,19.53,19.66,19.77,19.97,20.01,20.01,20.01,20.01,19.75,19.51,19.25,18.94,18.62,18.30,17.95,17.58,17.29,17.24,17.37,17.60,17.83,18.07,18.30,18.53,18.73,18.75,18.82,18.86,18.88,18.95,18.96,18.96,18.96,18.95,18.87,18.80,18.72,18.64,18.57,18.48,18.34,18.14,17.91,17.77,17.96,18.30,18.66,18.92,19.21,19.48,19.73,20.00,20.09,20.17,20.20,20.12,20.05,19.87,19.75,19.76,19.83,19.84,19.76,19.59,19.36,19.19,19.03,19.02,19.21,19.45,19.68,19.87,20.02,20.16,20.25,20.39,20.54,20.71,20.93,21.11,21.27,21.39,21.35,21.21,21.05,20.90,20.74
13.64,13.71,13.72,13.73,13.75,13.81,13.84,13.84,13.86,13.92,13.79,13.74,13.74,13.74,13.74,13.79,13.82,13.82,13.82,13.82,13.82,13.82,13.82,13.82,13.81,13.77,13.69,13.63,13.61,13.56,13.48,13.40,13.33,13.26,13.22,13.19,13.12,13.10,13.10,13.10,13.10,13.10,13.10,13.10,13.10,13.10,13.10,13.10,13.10,13.10,13.10,13.10,13.11,13.14,13.27,13.38,13.50,13.65,13.81,13.90,14.02,14.17,14.33,14.48,14.67,14.89,15.10,15.27,15.47,15.70,15.92,16.09,16.31,16.54,16.75,16.99,17.16,17.36,17.58,17.81,18.05,18.23,18.42,18.63,18.80,19.27,19.36,19.15,18.92,18.90,18.86,18.82,18.81,18.74,18.72,18.68,18.62,18.62,18.61,18.56,18.52,18.52,18.44,18.42,18.42,18.42,18.42,18.35,18.32,18.29,18.20,17.97,17.79,17.61,17.38,17.23,17.01,16.82,16.65,16.42,16.26,16.09,15.91,15.70,15.60,15.52,15.44,15.39,15.45,15.46,15.46,15.46,15.48,15.61,15.72,15.81,15.89,15.96,16.09,16.20,16.29,16.37,16.45,16.58,16.70,16.78,16.84,16.97,17.09,17.18,17.33,17.42,17.54,17.70,17.85,17.93,18.06,18.19,18.27,18.43,18.52,18.63,18.79,18.94,19.03,19.15,19.28,19.36,19.52,19.63,19.77,19.94,19.99,20.05,20.08,20.08,20.08,19.95,19.80,19.57,19.26,18.89,18.52,18.14,17.78,17.54,17.40,17.50,17.73,17.96,18.19,18.43,18.66,18.87,18.99,19.08,19.11,19.13,19.21,19.21,19.21,19.21,19.21,19.13,19.05,18.98,18.90,18.82,18.69,18.47,18.21,17.98,17.88,18.12,18.47,18.80,19.16,19.42,19.69,19.94,20.07,20.15,20.27,20.33,20.25,20.17,20.07,19.98,19.95,20.03,20.03,19.98,19.84,19.61,19.40,19.22,19.13,19.15,19.38,19.61,19.80,19.94,20.04,20.17,20.32,20.50,20.71,20.88,21.09,21.27,21.42,21.52,21.40,21.24,21.09,20.93
13.56,13.60,13.62,13.63,13.66,13.71,13.72,13.73,13.77,13.81,13.70,13.66,13.66,13.66,13.66,13.69,13.72,13.72,13.72,13.72,13.72,13.72,13.72,13.72,13.74,13.74,13.69,13.61,13.57,13.53,13.48,13.40,13.33,13.25,13.19,13.15,13.11,13.10,13.10,13.10,13.10,13.10,13.10,13.10,13.10,13.10,13.10,13.10,13.10,13.10,13.10,13.10,13.10,13.10,13.18,13.27,13.37,13.53,13.68,13.78,13.89,14.05,14.24,14.42,14.64,14.86,15.06,15.25,15.46,15.68,15.88,16.07,16.29,16.52,16.75,16.95,17.13,17.35,17.57,17.77,18.00,18.20,18.41,18.62,18.74,19.29,19.37,19.09,18.86,18.86,18.80,18.76,18.75,18.67,18.66,18.62,18.56,18.56,18.56,18.51,18.46,18.45,18.38,18.36,18.36,18.36,18.36,18.29,18.26,18.25,18.20,17.97,17.79,17.62,17.42,17.24,17.04,16.85,16.66,16.46,16.27,16.10,15.92,15.70,15.65,15.58,15.52,15.49,15.54,15.54,15.54,15.55,15.58,15.70,15.80,15.87,15.95,16.06,16.18,16.28,16.36,16.44,16.54,16.66,16.77,16.85,16.96,17.07,17.19,17.30,17.43,17.54,17.67,17.82,17.94,18.05,18.17,18.28,18.40,18.55,18.65,18.76,18.91,19.03,19.14,19.26,19.38,19.49,19.64,19.74,19.86,20.00,20.04,20.11,20.16,20.18,20.14,20.07,19.96,19.78,19.50,19.14,18.76,18.38,18.02,17.79,17.60,17.65,17.86,18.09,18.32,18.55,18.78,19.01,19.20,19.29,19.34,19.38,19.42,19.46,19.47,19.47,19.47,19.42,19.35,19.26,19.14,19.00,18.79,18.53,18.26,18.00,18.02,18.31,18.66,18.98,19.36,19.65,19.88,20.07,20.18,20.26,20.36,20.43,20.38,20.30,20.25,20.19,20.13,20.18,20.16,20.10,19.98,19.78,19.55,19.35,19.20,19.12,19.32,19.52,19.70,19.84,19.95,20.10,20.28,20.48,20.71,20.90,21.12,21.32,21.46,21.59,21.55,21.44,21.28,21.13
13.49,13.49,13.49,13.53,13.59,13.59,13.59,13.63,13.69,13.69,13.62,13.59,13.59,13.59,13.59,13.59,13.59,13.59,13.59,13.59,13.59,13.59,13.59,13.59,13.65,13.69,13.68,13.61,13.53,13.50,13.48,13.40,13.33,13.25,13.17,13.10,13.10,13.10,13.10,13.10,13.10,13.10,13.10,13.10,13.10,13.10,13.10,13.10,13.10,13.10,13.10,13.10,13.10,13.10,13.10,13.15,13.25,13.40,13.55,13.65,13.77,13.94,14.17,14.40,14.63,14.84,15.00,15.23,15.46,15.66,15.83,16.06,16.29,16.52,16.73,16.89,17.12,17.35,17.55,17.71,17.95,18.18,18.41,18.61,18.68,19.31,19.37,19.03,18.79,18.79,18.74,18.69,18.69,18.61,18.59,18.56,18.50,18.49,18.49,18.44,18.39,18.39,18.31,18.29,18.29,18.29,18.29,18.22,18.19,18.19,18.19,17.97,17.80,17.64,17.48,17.24,17.07,16.88,16.67,16.51,16.28,16.10,15.92,15.71,15.70,15.65,15.61,15.61,15.61,15.61,15.61,15.63,15.70,15.78,15.86,15.94,16.03,16.18,16.27,16.35,16.42,16.51,16.65,16.76,16.84,16.92,17.07,17.17,17.27,17.41,17.49,17.64,17.79,17.93,18.00,18.16,18.26,18.37,18.52,18.67,18.77,18.88,19.02,19.10,19.25,19.35,19.46,19.61,19.77,19.86,19.94,20.02,20.10,20.17,20.25,20.29,20.21,20.13,20.05,19.91,19.67,19.37,19.00,18.63,18.28,18.05,17.81,17.81,17.98,18.22,18.45,18.68,18.91,19.14,19.38,19.49,19.57,19.62,19.62,19.69,19.72,19.72,19.72,19.72,19.65,19.54,19.37,19.14,18.83,18.57,18.31,18.01,18.17,18.50,18.85,19.17,19.56,19.87,20.05,20.14,20.30,20.38,20.46,20.51,20.51,20.44,20.42,20.38,20.32,20.31,20.23,20.15,20.05,19.90,19.67,19.44,19.24,19.13,19.28,19.43,19.59,19.74,19.89,20.05,20.26,20.49,20.72,20.95,21.18,21.37,21.51,21.59,21.67,21.62,21.47,21.31
13.36,13.36,13.40,13.44,13.46,13.46,13.51,13.54,13.56,13.56,13.54,13.53,13.53,13.53,13.53,13.53,13.53,13.53,13.53,13.53,13.53,13.53,13.53,13.53,13.55,13.56,13.56,13.53,13.51,13.47,13.42,13.40,13.33,13.25,13.17,13.10,13.10,13.10,13.10,13.10,13.10,13.10,13.10,13.10,13.10,13.10,13.10,13.10,13.10,13.10,13.10,13.10,13.10,13.10,13.10,13.12,13.17,13.27,13.42,13.56,13.73,13.94,14.17,14.36,14.57,14.79,15.00,15.23,15.43,15.62,15.83,16.06,16.25,16.45,16.68,16.89,17.12,17.32,17.50,17.71,17.95,18.18,18.38,18.54,18.62,19.34,19.38,18.96,18.73,18.73,18.68,18.63,18.62,18.54,18.53,18.52,18.49,18.43,18.43,18.38,18.33,18.33,18.25,18.23,18.23,18.22,18.17,18.14,18.13,18.11,18.06,17.99,17.83,17.64,17.48,17.24,17.07,16.88,16.67,16.51,16.28,16.10,15.94,15.77,15.71,15.68,15.67,15.67,15.67,15.67,15.70,15.75,15.77,15.85,15.92,16.02,16.15,16.25,16.33,16.41,16.50,16.63,16.73,16.85,16.98,17.11,17.21,17.26,17.32,17.42,17.55,17.70,17.86,17.99,18.07,18.22,18.36,18.48,18.58,18.74,18.83,18.95,19.09,19.16,19.31,19.42,19.52,19.67,19.83,19.93,20.00,20.09,20.22,20.26,20.31,20.35,20.27,20.14,20.05,19.91,19.68,19.42,19.11,18.80,18.53,18.30,18.07,17.98,18.06,18.35,18.58,18.81,19.04,19.27,19.50,19.70,19.82,19.88,19.88,19.90,19.91,19.93,19.98,19.92,19.81,19.66,19.50,19.26,18.96,18.67,18.37,18.07,18.34,18.69,19.06,19.42,19.76,19.98,20.11,20.21,20.36,20.50,20.59,20.66,20.70,20.63,20.61,20.57,20.49,20.38,20.25,20.12,20.00,19.90,19.72,19.50,19.33,19.25,19.35,19.50,19.65,19.79,19.89,20.10,20.32,20.55,20.78,21.02,21.21,21.37,21.51,21.59,21.72,21.71,21.58,21.37
13.23,13.26,13.30,13.33,13.34,13.36,13.41,13.43,13.44,13.47,13.47,13.47,13.47,13.47,13.47,13.47,13.47,13.47,13.47,13.47,13.47,13.47,13.47,13.47,13.47,13.47,13.47,13.47,13.47,13.44,13.39,13.37,13.32,13.25,13.17,13.10,13.10,13.10,13.10,13.10,13.10,13.10,13.10,13.10,13.10,13.10,13.10,13.10,13.10,13.10,13.10,13.10,13.10,13.10,13.10,13.10,13.12,13.18,13.33,13.51,13.71,13.94,14.14,14.33,14.54,14.77,15.00,15.21,15.39,15.60,15.82,16.03,16.22,16.42,16.65,16.89,17.09,17.28,17.48,17.71,17.92,18.14,18.34,18.49,18.62,19.38,19.37,18.87,18.67,18.67,18.61,18.57,18.56,18.51,18.48,18.47,18.45,18.37,18.37,18.32,18.27,18.26,18.18,18.17,18.17,18.15,18.08,18.07,18.07,18.04,17.97,17.97,17.82,17.64,17.48,17.24,17.07,16.88,16.67,16.51,16.28,16.10,15.96,15.83,15.75,15.73,15.73,15.74,15.76,15.77,15.80,15.83,15.83,15.91,16.01,16.12,16.24,16.32,16.40,16.49,16.60,16.72,16.83,16.96,17.13,17.30,17.38,17.40,17.42,17.48,17.59,17.73,17.89,18.03,18.13,18.28,18.42,18.54,18.65,18.80,18.92,19.03,19.16,19.26,19.39,19.50,19.61,19.74,19.89,19.99,20.08,20.19,20.31,20.36,20.38,20.38,20.30,20.18,20.08,19.97,19.78,19.58,19.31,19.04,18.79,18.59,18.36,18.19,18.18,18.44,18.70,18.94,19.17,19.40,19.66,19.85,19.98,20.04,20.07,20.07,20.07,20.09,20.13,20.08,19.99,19.85,19.65,19.39,19.07,18.75,18.44,18.14,18.47,18.85,19.24,19.64,19.92,20.08,20.19,20.30,20.43,20.58,20.68,20.77,20.86,20.79,20.75,20.68,20.57,20.42,20.26,20.11,19.97,19.86,19.71,19.52,19.38,19.35,19.45,19.60,19.74,19.86,19.96,20.19,20.40,20.62,20.85,21.08,21.25,21.39,21.52,21.62,21.77,21.79,21.67,21.47
13.11,13.18,13.20,13.20,13.22,13.29,13.30,13.30,13.32,13.40,13.40,13.40,13.40,13.40,13.40,13.40,13.40,13.40,13.40,13.40,13.40,13.40,13.40,13.40,13.40,13.40,13.40,13.40,13.40,13.40,13.38,13.31,13.30,13.25,13.17,13.10,13.10,13.10,13.10,13.10,13.10,13.10,13.10,13.10,13.10,13.10,13.10,13.10,13.10,13.10,13.10,13.10,13.10,13.10,13.10,13.10,13.10,13.11,13.27,13.48,13.71,13.93,14.08,14.31,14.54,14.77,15.00,15.16,15.37,15.60,15.82,15.97,16.19,16.42,16.65,16.89,17.05,17.25,17.48,17.71,17.87,18.08,18.27,18.44,18.67,19.45,19.35,18.76,18.60,18.60,18.55,18.50,18.50,18.50,18.44,18.40,18.38,18.31,18.30,18.25,18.20,18.20,18.12,18.10,18.10,18.09,18.01,18.00,18.00,17.98,17.90,17.90,17.79,17.64,17.48,17.24,17.07,16.88,16.67,16.51,16.28,16.10,15.97,15.89,15.82,15.80,15.80,15.81,15.89,15.90,15.90,15.90,15.90,15.97,16.10,16.23,16.31,16.38,16.46,16.58,16.71,16.79,16.94,17.09,17.27,17.50,17.57,17.59,17.59,17.60,17.60,17.73,17.89,18.04,18.19,18.35,18.45,18.56,18.71,18.87,19.02,19.14,19.23,19.38,19.47,19.59,19.72,19.80,19.96,20.05,20.17,20.31,20.39,20.46,20.45,20.38,20.30,20.22,20.15,20.07,19.98,19.82,19.61,19.34,19.06,18.90,18.68,18.45,18.34,18.50,18.81,19.06,19.30,19.54,19.85,19.96,20.04,20.12,20.19,20.20,20.20,20.20,20.20,20.20,20.19,20.08,19.83,19.53,19.15,18.81,18.50,18.20,18.59,18.97,19.39,19.82,20.06,20.16,20.28,20.42,20.49,20.65,20.75,20.85,20.99,20.91,20.84,20.72,20.57,20.42,20.26,20.11,19.95,19.80,19.65,19.49,19.40,19.42,19.57,19.72,19.84,19.93,20.09,20.32,20.50,20.68,20.91,21.14,21.32,21.44,21.53,21.68,21.83,21.85,21.75,21.60
13.16,13.14,13.14,13.14,13.14,13.17,13.22,13.24,13.25,13.28,13.32,13.31,13.28,13.28,13.28,13.31,13.34,13.34,13.34,13.34,13.34,13.34,13.34,13.34,13.34,13.34,13.34,13.34,13.34,13.34,13.33,13.30,13.25,13.19,13.13,13.10,13.10,13.10,13.10,13.10,13.10,13.10,13.10,13.10,13.10,13.10,13.10,13.10,13.10,13.10,13.10,13.10,13.10,13.10,13.10,13.10,13.12,13.18,13.38,13.57,13.77,13.99,14.14,14.33,14.54,14.75,14.94,15.14,15.36,15.58,15.76,15.96,16.19,16.40,16.59,16.82,17.03,17.25,17.46,17.65,17.85,18.08,18.27,18.45,18.73,19.43,19.29,18.69,18.54,18.54,18.52,18.48,18.44,18.44,18.38,18.34,18.32,18.24,18.24,18.19,18.14,18.14,18.11,18.06,18.04,18.03,17.95,17.94,17.94,17.92,17.84,17.84,17.76,17.64,17.48,17.30,17.10,16.90,16.72,16.51,16.33,16.13,15.99,15.96,15.88,15.90,15.92,15.93,15.96,15.96,15.96,15.96,15.96,16.08,16.20,16.29,16.37,16.45,16.56,16.68,16.80,16.97,17.13,17.28,17.45,17.63,17.75,17.79,17.79,17.79,17.79,17.84,17.92,18.04,18.20,18.35,18.49,18.60,18.71,18.87,19.02,19.16,19.28,19.39,19.51,19.66,19.80,19.93,20.03,20.12,20.23,20.37,20.45,20.57,20.58,20.50,20.43,20.35,20.27,20.19,20.11,20.01,19.84,19.62,19.37,19.17,18.94,18.71,18.57,18.63,18.89,19.17,19.44,19.71,19.93,20.03,20.10,20.18,20.26,20.31,20.32,20.32,20.32,20.32,20.25,20.13,19.97,19.71,19.34,18.97,18.63,18.33,18.72,19.10,19.52,19.95,20.13,20.23,20.35,20.49,20.62,20.73,20.84,20.96,21.06,21.03,20.93,20.79,20.62,20.42,20.26,20.11,19.95,19.80,19.64,19.52,19.48,19.54,19.64,19.79,19.93,20.06,20.22,20.44,20.62,20.79,20.97,21.16,21.32,21.46,21.60,21.80,21.96,21.95,21.82,21.66
13.28,13.20,13.18,13.17,13.15,13.13,13.17,13.19,13.17,13.17,13.23,13.21,13.17,13.17,13.17,13.22,13.25,13.25,13.25,13.25,13.25,13.25,13.25,13.25,13.25,13.26,13.27,13.27,13.27,13.27,13.27,13.27,13.22,13.15,13.10,13.10,13.10,13.10,13.10,13.10,13.10,13.10,13.10,13.10,13.10,13.10,13.10,13.10,13.10,13.10,13.10,13.10,13.10,13.10,13.12,13.14,13.18,13.27,13.52,13.68,13.85,14.06,14.23,14.39,14.58,14.78,14.95,15.16,15.39,15.59,15.75,15.96,16.19,16.38,16.55,16.79,17.02,17.24,17.44,17.61,17.85,18.06,18.25,18.44,18.78,19.40,19.22,18.63,18.47,18.47,18.47,18.44,18.37,18.37,18.31,18.27,18.26,18.18,18.17,18.14,18.09,18.07,18.07,18.02,17.97,17.96,17.88,17.87,17.86,17.83,17.77,17.77,17.73,17.64,17.48,17.33,17.11,16.92,16.75,16.52,16.36,16.17,16.03,16.02,15.97,15.99,16.03,16.03,16.03,16.04,16.05,16.05,16.05,16.18,16.28,16.36,16.44,16.53,16.68,16.80,16.92,17.13,17.29,17.46,17.63,17.78,17.94,17.98,17.98,17.98,17.98,17.98,18.01,18.09,18.22,18.36,18.51,18.64,18.74,18.87,19.02,19.18,19.32,19.42,19.57,19.71,19.86,20.03,20.11,20.20,20.31,20.44,20.54,20.67,20.69,20.63,20.53,20.45,20.39,20.32,20.24,20.17,20.03,19.86,19.66,19.45,19.22,18.99,18.81,18.76,18.99,19.28,19.59,19.87,20.00,20.09,20.17,20.25,20.32,20.42,20.45,20.44,20.42,20.40,20.29,20.18,20.06,19.87,19.50,19.12,18.76,18.46,18.84,19.23,19.63,20.02,20.20,20.29,20.41,20.56,20.72,20.80,20.93,21.06,21.15,21.13,21.01,20.85,20.68,20.45,20.29,20.13,19.98,19.82,19.67,19.57,19.55,19.61,19.71,19.84,19.99,20.16,20.32,20.53,20.70,20.86,21.04,21.19,21.34,21.51,21.69,21.90,22.06,22.03,21.89,21.75
13.47,13.39,13.37,13.34,13.27,13.20,13.20,13.16,13.11,13.11,13.12,13.12,13.11,13.11,13.11,13.12,13.12,13.12,13.12,13.12,13.12,13.12,13.12,13.12,13.12,13.15,13.21,13.21,13.21,13.21,13.21,13.21,13.20,13.15,13.10,13.10,13.10,13.10,13.10,13.10,13.10,13.10,13.10,13.10,13.10,13.10,13.10,13.10,13.10,13.10,13.10,13.10,13.10,13.10,13.17,13.23,13.31,13.40,13.70,13.83,13.96,14.13,14.35,14.52,14.68,14.86,15.08,15.24,15.45,15.65,15.81,15.97,16.19,16.38,16.55,16.79,17.02,17.21,17.39,17.61,17.85,18.02,18.18,18.39,18.84,19.38,19.16,18.57,18.41,18.41,18.41,18.38,18.31,18.31,18.25,18.21,18.19,18.12,18.11,18.11,18.08,18.01,18.01,17.95,17.91,17.90,17.82,17.81,17.77,17.72,17.71,17.71,17.70,17.64,17.48,17.33,17.11,16.92,16.75,16.52,16.36,16.20,16.09,16.09,16.08,16.09,16.09,16.09,16.09,16.15,16.18,16.18,16.18,16.26,16.34,16.42,16.50,16.65,16.80,16.95,17.10,17.27,17.42,17.62,17.82,17.97,18.13,18.17,18.17,18.17,18.17,18.17,18.17,18.20,18.29,18.37,18.51,18.66,18.80,18.88,19.02,19.18,19.33,19.48,19.63,19.74,19.87,20.09,20.17,20.30,20.42,20.51,20.66,20.75,20.79,20.74,20.59,20.51,20.48,20.45,20.37,20.30,20.16,20.03,19.93,19.76,19.54,19.31,19.08,18.88,19.12,19.40,19.71,19.99,20.08,20.15,20.23,20.31,20.39,20.53,20.58,20.55,20.48,20.42,20.33,20.22,20.08,19.99,19.63,19.25,18.88,18.59,18.97,19.36,19.72,20.03,20.25,20.35,20.47,20.63,20.78,20.86,20.99,21.14,21.27,21.21,21.07,20.92,20.75,20.51,20.35,20.20,20.04,19.89,19.73,19.63,19.59,19.62,19.76,19.86,20.02,20.23,20.38,20.54,20.70,20.88,21.10,21.25,21.41,21.60,21.81,21.97,22.13,22.10,21.96,21.88
13.66,13.58,13.56,13.53,13.45,13.37,13.36,13.32,13.25,13.21,13.21,13.18,13.15,13.15,13.15,13.15,13.15,13.15,13.15,13.15,13.15,13.15,13.15,13.15,13.15,13.15,13.15,13.15,13.15,13.15,13.15,13.15,13.15,13.12,13.10,13.10,13.10,13.10,13.10,13.11,13.15,13.15,13.15,13.15,13.15,13.15,13.18,13.21,13.21,13.21,13.21,13.23,13.27,13.31,13.39,13.46,13.54,13.63,13.81,13.98,14.11,14.24,14.43,14.63,14.80,14.96,15.15,15.35,15.54,15.73,15.93,16.08,16.26,16.46,16.65,16.84,17.03,17.23,17.42,17.61,17.80,18.00,18.15,18.34,18.89,19.36,19.09,18.51,18.40,18.36,18.35,18.32,18.25,18.25,18.18,18.15,18.14,18.10,18.06,18.05,18.02,17.95,17.95,17.89,17.85,17.83,17.76,17.75,17.73,17.69,17.65,17.65,17.65,17.60,17.48,17.33,17.11,16.92,16.75,16.52,16.36,16.23,16.15,16.15,16.15,16.15,16.17,16.21,16.21,16.24,16.25,16.25,16.25,16.33,16.41,16.50,16.62,16.78,16.93,17.09,17.25,17.44,17.60,17.78,17.96,18.11,18.31,18.36,18.36,18.36,18.36,18.36,18.36,18.37,18.41,18.48,18.56,18.66,18.81,18.93,19.08,19.21,19.33,19.49,19.64,19.75,19.86,20.05,20.17,20.31,20.45,20.57,20.68,20.77,20.82,20.82,20.71,20.63,20.61,20.58,20.50,20.42,20.28,20.17,20.08,19.97,19.79,19.57,19.34,19.12,19.27,19.53,19.81,20.02,20.14,20.22,20.30,20.38,20.50,20.62,20.65,20.62,20.55,20.47,20.39,20.28,20.13,20.01,19.73,19.37,19.00,18.66,19.00,19.38,19.75,20.08,20.27,20.40,20.54,20.69,20.85,20.97,21.08,21.21,21.35,21.32,21.19,21.03,20.87,20.68,20.49,20.31,20.16,20.01,19.85,19.75,19.69,19.67,19.78,19.86,20.00,20.19,20.39,20.59,20.75,20.92,21.11,21.26,21.45,21.64,21.84,22.03,22.19,22.19,22.10,22.06
13.85,13.77,13.75,13.72,13.64,13.56,13.55,13.51,13.43,13.35,13.35,13.31,13.27,13.27,13.27,13.27,13.27,13.27,13.27,13.27,13.27,13.27,13.27,13.26,13.25,13.22,13.17,13.17,13.17,13.17,13.17,13.17,13.17,13.17,13.17,13.17,13.17,13.17,13.17,13.18,13.26,13.27,13.27,13.27,13.27,13.27,13.32,13.37,13.37,13.37,13.37,13.41,13.49,13.55,13.63,13.71,13.80,13.87,13.92,14.12,14.28,14.36,14.52,14.73,14.92,15.08,15.24,15.47,15.64,15.83,16.04,16.21,16.36,16.55,16.76,16.93,17.08,17.28,17.48,17.64,17.80,18.00,18.15,18.31,18.94,19.33,19.03,18.46,18.38,18.31,18.28,18.25,18.18,18.18,18.13,18.09,18.08,18.08,18.01,17.98,17.96,17.88,17.88,17.82,17.78,17.77,17.71,17.69,17.68,17.66,17.58,17.58,17.58,17.55,17.47,17.33,17.12,16.93,16.75,16.53,16.37,16.27,16.22,16.22,16.23,16.23,16.26,16.32,16.32,16.32,16.32,16.32,16.33,16.40,16.48,16.60,16.75,16.92,17.08,17.23,17.40,17.62,17.79,17.95,18.10,18.26,18.48,18.54,18.55,18.55,18.55,18.55,18.55,18.55,18.55,18.63,18.65,18.70,18.83,18.97,19.12,19.24,19.33,19.49,19.64,19.75,19.85,20.00,20.16,20.31,20.46,20.60,20.69,20.78,20.86,20.90,20.84,20.76,20.73,20.69,20.63,20.54,20.41,20.29,20.20,20.12,19.98,19.78,19.55,19.34,19.41,19.65,19.88,20.04,20.18,20.28,20.36,20.46,20.61,20.69,20.72,20.68,20.59,20.52,20.44,20.33,20.19,20.03,19.83,19.52,19.14,18.77,19.02,19.36,19.74,20.09,20.26,20.41,20.57,20.72,20.86,21.03,21.14,21.26,21.42,21.45,21.33,21.18,21.02,20.87,20.65,20.46,20.30,20.13,19.97,19.86,19.79,19.73,19.80,19.87,19.99,20.17,20.41,20.62,20.81,20.97,21.13,21.30,21.50,21.70,21.88,22.11,22.26,22.28,22.23,22.22
14.04,13.96,13.94,13.91,13.83,13.76,13.74,13.70,13.62,13.55,13.54,13.53,13.53,13.53,13.53,13.53,13.53,13.53,13.53,13.53,13.53,13.53,13.52,13.46,13.44,13.44,13.43,13.43,13.43,13.43,13.43,13.43,13.43,13.43,13.43,13.43,13.43,13.43,13.43,13.44,13.52,13.53,13.53,13.53,13.53,13.53,13.58,13.63,13.63,13.63,13.63,13.67,13.73,13.74,13.82,13.94,14.05,14.12,14.07,14.29,14.45,14.49,14.65,14.81,15.01,15.21,15.36,15.60,15.77,15.93,16.11,16.32,16.49,16.65,16.83,17.05,17.21,17.37,17.56,17.77,17.93,18.09,18.19,18.32,19.00,19.31,18.97,18.40,18.32,18.24,18.22,18.19,18.12,18.12,18.11,18.07,18.02,18.02,17.95,17.92,17.89,17.82,17.82,17.76,17.72,17.72,17.70,17.65,17.62,17.60,17.52,17.52,17.52,17.49,17.41,17.32,17.16,16.97,16.76,16.59,16.44,16.33,16.28,16.28,16.35,16.36,16.37,16.38,16.38,16.38,16.38,16.40,16.46,16.48,16.58,16.72,16.88,17.10,17.27,17.42,17.58,17.75,17.96,18.14,18.30,18.45,18.62,18.71,18.74,18.74,18.74,18.74,18.74,18.74,18.74,18.82,18.84,18.86,18.89,18.98,19.12,19.24,19.33,19.49,19.64,19.75,19.85,20.00,20.16,20.31,20.44,20.54,20.68,20.82,20.92,20.98,20.96,20.89,20.82,20.78,20.75,20.61,20.51,20.39,20.27,20.19,20.04,19.84,19.63,19.46,19.54,19.74,19.95,20.09,20.19,20.32,20.42,20.52,20.68,20.76,20.78,20.73,20.59,20.52,20.44,20.36,20.25,20.10,19.99,19.71,19.34,19.03,19.02,19.30,19.66,19.97,20.18,20.35,20.50,20.64,20.73,20.94,21.11,21.28,21.49,21.62,21.52,21.37,21.22,21.06,20.84,20.65,20.48,20.26,20.04,19.93,19.85,19.79,19.87,19.89,20.02,20.24,20.47,20.64,20.84,21.04,21.19,21.41,21.59,21.78,22.00,22.24,22.34,22.37,22.34,22.28
14.23,14.16,14.14,14.10,14.02,13.95,13.94,13.89,13.82,13.78,13.75,13.74,13.75,13.78,13.78,13.78,13.78,13.78,13.78,13.78,13.78,13.77,13.73,13.69,13.68,13.68,13.68,13.68,13.68,13.68,13.68,13.68,13.65,13.64,13.64,13.64,13.67,13.68,13.68,13.69,13.73,13.77,13.78,13.78,13.78,13.78,13.81,13.85,13.88,13.88,13.88,13.92,13.98,13.98,14.05,14.16,14.26,14.34,14.33,14.46,14.60,14.70,14.78,14.93,15.11,15.30,15.49,15.69,15.88,16.05,16.21,16.41,16.60,16.77,16.94,17.13,17.32,17.49,17.66,17.86,18.05,18.18,18.25,18.37,19.06,19.29,18.92,18.38,18.30,18.26,18.22,18.17,18.10,18.06,18.05,18.01,17.95,17.95,17.88,17.85,17.83,17.75,17.75,17.72,17.68,17.65,17.65,17.59,17.55,17.53,17.46,17.45,17.43,17.39,17.35,17.31,17.17,16.98,16.77,16.61,16.46,16.40,16.39,16.39,16.43,16.45,16.45,16.45,16.45,16.48,16.49,16.50,16.54,16.58,16.72,16.90,17.06,17.25,17.41,17.59,17.77,17.92,18.12,18.29,18.45,18.64,18.80,18.89,18.94,18.94,18.94,18.94,18.94,18.94,18.94,18.98,19.01,19.04,19.04,19.08,19.19,19.30,19.42,19.53,19.65,19.77,19.88,20.00,20.16,20.31,20.45,20.56,20.68,20.83,20.96,21.05,21.09,21.02,20.94,20.86,20.79,20.63,20.54,20.42,20.28,20.17,20.01,19.86,19.72,19.64,19.68,19.83,20.00,20.12,20.23,20.35,20.46,20.58,20.74,20.82,20.85,20.80,20.68,20.61,20.50,20.39,20.28,20.16,20.04,19.81,19.48,19.14,19.03,19.25,19.57,19.84,20.03,20.19,20.35,20.50,20.65,20.84,21.03,21.23,21.42,21.61,21.64,21.56,21.41,21.25,21.03,20.82,20.63,20.43,20.20,20.06,19.96,19.90,19.94,19.97,20.11,20.34,20.53,20.72,20.92,21.11,21.30,21.50,21.69,21.88,22.09,22.32,22.41,22.45,22.42,22.35
14.43,14.35,14.33,14.29,14.22,14.14,14.13,14.09,14.03,14.03,13.96,13.94,13.97,14.04,14.04,14.04,14.04,14.04,14.04,14.03,14.03,14.01,13.94,13.94,13.94,13.94,13.94,13.94,13.94,13.94,13.93,13.93,13.86,13.84,13.84,13.84,13.92,13.94,13.94,13.94,13.94,14.01,14.04,14.04,14.04,14.04,14.04,14.07,14.14,14.14,14.14,14.18,14.24,14.24,14.31,14.39,14.46,14.54,14.62,14.63,14.74,14.93,14.93,15.06,15.21,15.39,15.61,15.77,15.98,16.18,16.34,16.49,16.70,16.89,17.05,17.21,17.43,17.61,17.77,17.93,18.16,18.27,18.31,18.43,19.13,19.26,18.89,18.39,18.31,18.31,18.25,18.18,18.10,18.02,18.00,17.96,17.91,17.90,17.83,17.80,17.77,17.70,17.69,17.69,17.66,17.59,17.59,17.52,17.49,17.47,17.39,17.39,17.34,17.30,17.29,17.29,17.17,16.98,16.77,16.61,16.47,16.46,16.51,16.51,16.51,16.51,16.51,16.52,16.52,16.58,16.61,16.61,16.61,16.69,16.87,17.07,17.23,17.40,17.55,17.74,17.95,18.11,18.27,18.42,18.60,18.82,18.98,19.08,19.13,19.13,19.13,19.13,19.13,19.13,19.13,19.13,19.18,19.23,19.23,19.24,19.30,19.41,19.54,19.61,19.69,19.81,19.93,20.01,20.17,20.32,20.48,20.62,20.70,20.84,21.00,21.13,21.22,21.14,21.06,20.95,20.80,20.65,20.55,20.43,20.28,20.13,19.98,19.87,19.82,19.83,19.83,19.93,20.05,20.14,20.29,20.38,20.50,20.65,20.80,20.88,20.92,20.90,20.81,20.74,20.60,20.44,20.30,20.22,20.07,19.87,19.59,19.22,19.07,19.22,19.48,19.70,19.86,20.01,20.17,20.34,20.57,20.74,20.94,21.15,21.32,21.55,21.73,21.75,21.60,21.44,21.21,20.98,20.78,20.62,20.39,20.22,20.09,20.02,20.02,20.08,20.24,20.45,20.61,20.83,21.01,21.20,21.42,21.58,21.79,21.99,22.16,22.39,22.48,22.51,22.49,22.41
14.62,14.54,14.52,14.49,14.41,14.33,14.32,14.31,14.28,14.22,14.20,14.19,14.22,14.29,14.29,14.29,14.29,14.29,14.29,14.24,14.22,14.21,14.19,14.19,14.19,14.19,14.19,14.19,14.19,14.19,14.18,14.12,14.10,14.09,14.09,14.10,14.17,14.19,14.19,14.19,14.19,14.26,14.29,14.29,14.29,14.29,14.29,14.32,14.39,14.39,14.39,14.43,14.49,14.49,14.57,14.64,14.72,14.80,14.87,14.85,14.93,15.12,15.12,15.21,15.34,15.50,15.67,15.88,16.07,16.26,16.46,16.62,16.79,16.99,17.18,17.34,17.51,17.71,17.90,18.06,18.23,18.33,18.37,18.49,19.19,19.24,18.89,18.45,18.37,18.37,18.32,18.24,18.16,18.09,18.03,17.99,17.96,17.90,17.83,17.76,17.72,17.70,17.64,17.63,17.59,17.53,17.53,17.46,17.43,17.41,17.33,17.33,17.31,17.28,17.23,17.23,17.15,16.98,16.77,16.61,16.56,16.56,16.57,16.57,16.57,16.57,16.60,16.65,16.65,16.66,16.67,16.67,16.67,16.75,16.93,17.16,17.37,17.58,17.74,17.91,18.08,18.23,18.44,18.62,18.78,18.95,19.11,19.25,19.32,19.32,19.32,19.32,19.32,19.32,19.32,19.32,19.37,19.42,19.42,19.48,19.55,19.64,19.72,19.74,19.82,19.91,20.00,20.08,20.23,20.39,20.54,20.68,20.76,20.90,21.06,21.21,21.34,21.27,21.16,21.01,20.86,20.77,20.64,20.50,20.35,20.26,20.11,20.00,19.96,20.02,20.02,20.09,20.18,20.26,20.36,20.49,20.60,20.71,20.87,20.95,21.05,21.07,20.94,20.86,20.73,20.57,20.42,20.29,20.13,19.93,19.69,19.42,19.26,19.24,19.35,19.57,19.73,19.88,20.04,20.21,20.44,20.66,20.88,21.10,21.32,21.55,21.81,21.90,21.78,21.57,21.34,21.14,20.96,20.74,20.57,20.41,20.26,20.15,20.15,20.21,20.34,20.52,20.73,20.91,21.11,21.31,21.49,21.70,21.88,22.07,22.29,22.52,22.56,22.57,22.55,22.47
14.81,14.73,14.69,14.65,14.60,14.56,14.52,14.51,14.50,14.45,14.42,14.41,14.44,14.51,14.54,14.55,14.53,14.51,14.51,14.47,14.45,14.45,14.45,14.45,14.45,14.45,14.45,14.45,14.42,14.41,14.40,14.35,14.35,14.35,14.35,14.35,14.40,14.43,14.45,14.45,14.45,14.49,14.53,14.55,14.55,14.55,14.55,14.58,14.65,14.65,14.67,14.71,14.75,14.75,14.82,14.90,14.98,15.05,15.13,15.09,15.12,15.25,15.34,15.34,15.45,15.62,15.77,16.01,16.18,16.36,16.56,16.74,16.90,17.08,17.28,17.46,17.62,17.81,18.00,18.18,18.34,18.41,18.42,18.53,19.25,19.22,18.88,18.51,18.44,18.41,18.37,18.31,18.23,18.15,18.07,18.04,18.02,17.94,17.86,17.79,17.73,17.70,17.65,17.62,17.56,17.50,17.47,17.42,17.38,17.35,17.30,17.27,17.26,17.23,17.16,17.16,17.10,16.97,16.80,16.65,16.64,16.64,16.65,16.67,16.67,16.67,16.70,16.74,16.74,16.74,16.75,16.77,16.77,16.82,17.00,17.23,17.46,17.69,17.88,18.07,18.24,18.40,18.60,18.79,18.96,19.12,19.27,19.43,19.51,19.51,19.51,19.51,19.51,19.51,19.51,19.54,19.58,19.61,19.62,19.70,19.77,19.84,19.88,19.91,19.98,20.04,20.10,20.18,20.33,20.47,20.61,20.75,20.86,21.01,21.14,21.28,21.43,21.39,21.27,21.13,21.00,20.90,20.75,20.60,20.46,20.38,20.23,20.14,20.13,20.17,20.17,20.23,20.32,20.42,20.50,20.62,20.72,20.81,20.93,21.04,21.16,21.20,21.10,21.00,20.85,20.70,20.54,20.39,20.23,20.05,19.85,19.64,19.46,19.36,19.35,19.45,19.60,19.78,19.95,20.12,20.35,20.58,20.83,21.08,21.32,21.58,21.85,21.99,21.93,21.70,21.49,21.30,21.11,20.91,20.76,20.60,20.43,20.27,20.27,20.36,20.48,20.62,20.83,21.01,21.21,21.40,21.59,21.79,21.98,22.18,22.41,22.61,22.64,22.64,22.61,22.54
15.00,14.92,14.85,14.80,14.80,14.80,14.74,14.70,14.70,14.70,14.63,14.60,14.63,14.71,14.79,14.80,14.76,14.70,14.70,14.70,14.70,14.70,14.70,14.70,14.70,14.70,14.70,14.70,14.64,14.60,14.60,14.60,14.60,14.60,14.60,14.60,14.60,14.66,14.70,14.70,14.70,14.70,14.75,14.80,14.80,14.80,14.80,14.84,14.90,14.90,14.97,15.00,15.00,15.00,15.08,15.15,15.23,15.31,15.39,15.34,15.30,15.35,15.58,15.47,15.54,15.75,15.90,16.13,16.31,16.47,16.63,16.86,17.03,17.18,17.36,17.59,17.75,17.90,18.08,18.31,18.46,18.50,18.46,18.54,19.31,19.20,18.87,18.58,18.50,18.42,18.40,18.37,18.29,18.21,18.14,18.10,18.08,18.01,17.93,17.85,17.77,17.70,17.70,17.64,17.57,17.49,17.41,17.40,17.36,17.30,17.30,17.22,17.20,17.17,17.10,17.10,17.04,16.96,16.87,16.71,16.70,16.70,16.73,16.80,16.80,16.80,16.80,16.80,16.80,16.80,16.85,16.90,16.90,16.90,17.06,17.29,17.52,17.76,17.99,18.22,18.43,18.59,18.74,18.95,19.15,19.31,19.46,19.62,19.70,19.70,19.70,19.70,19.70,19.70,19.70,19.78,19.80,19.80,19.81,19.89,19.96,20.00,20.02,20.10,20.17,20.20,20.23,20.31,20.46,20.56,20.67,20.82,20.98,21.13,21.24,21.34,21.50,21.50,21.40,21.27,21.19,21.03,20.88,20.73,20.59,20.51,20.36,20.30,20.30,20.30,20.30,20.36,20.47,20.61,20.69,20.77,20.84,20.92,21.00,21.15,21.25,21.30,21.29,21.14,20.98,20.83,20.67,20.52,20.36,20.21,20.05,19.90,19.67,19.55,19.44,19.32,19.48,19.69,19.88,20.06,20.29,20.52,20.80,21.09,21.32,21.63,21.88,22.04,22.06,21.83,21.66,21.46,21.26,21.10,20.95,20.79,20.60,20.40,20.40,20.53,20.64,20.74,20.89,21.12,21.30,21.48,21.71,21.87,22.08,22.31,22.53,22.68,22.70,22.70,22.68,22.60
15.19,15.12,15.07,15.04,14.99,14.99,14.97,14.93,14.89,14.89,14.87,14.86,14.89,14.96,14.99,14.99,14.98,14.96,14.96,14.96,14.96,14.96,14.96,14.96,14.96,14.94,14.89,14.89,14.87,14.86,14.86,14.86,14.86,14.86,14.86,14.86,14.86,14.92,14.96,14.96,14.96,14.96,15.01,15.06,15.06,15.06,15.06,15.09,15.16,15.16,15.22,15.26,15.26,15.26,15.33,15.41,15.49,15.56,15.64,15.60,15.56,15.59,15.77,15.75,15.74,15.83,16.03,16.21,16.41,16.59,16.75,16.93,17.13,17.31,17.47,17.65,17.86,18.03,18.19,18.37,18.53,18.56,18.53,18.60,19.37,19.13,18.83,18.64,18.57,18.49,18.46,18.43,18.36,18.28,18.20,18.14,18.09,18.07,17.99,17.92,17.84,17.76,17.76,17.71,17.63,17.55,17.47,17.46,17.42,17.35,17.30,17.22,17.17,17.12,17.09,17.04,16.97,16.92,16.88,16.77,16.81,16.83,16.84,16.86,16.86,16.86,16.86,16.87,16.92,16.93,16.95,16.96,16.96,16.96,17.12,17.36,17.59,17.82,18.05,18.26,18.44,18.65,18.85,19.07,19.30,19.50,19.65,19.81,19.89,19.89,19.89,19.89,19.89,19.91,19.96,19.99,19.99,20.01,20.06,20.09,20.12,20.15,20.20,20.23,20.30,20.36,20.42,20.50,20.60,20.69,20.80,20.94,21.05,21.20,21.34,21.47,21.62,21.63,21.56,21.45,21.32,21.16,21.01,20.88,20.77,20.64,20.53,20.46,20.43,20.43,20.48,20.55,20.64,20.74,20.82,20.89,21.00,21.11,21.19,21.29,21.38,21.43,21.42,21.26,21.11,20.95,20.80,20.65,20.49,20.34,20.18,20.03,19.84,19.74,19.61,19.44,19.55,19.72,19.88,20.06,20.29,20.57,20.87,21.15,21.39,21.70,21.98,22.17,22.20,22.01,21.81,21.62,21.45,21.29,21.14,20.95,20.75,20.59,20.59,20.68,20.80,20.92,21.02,21.20,21.40,21.59,21.78,21.98,22.17,22.37,22.60,22.81,22.79,22.76,22.74,22.66
15.38,15.33,15.30,15.26,15.21,15.19,15.19,15.16,15.11,15.09,15.09,15.09,15.11,15.19,15.21,15.21,15.21,15.21,15.21,15.21,15.21,15.21,15.21,15.21,15.20,15.16,15.11,15.11,15.11,15.11,15.11,15.11,15.11,15.10,15.09,15.09,15.11,15.16,15.20,15.21,15.21,15.21,15.25,15.29,15.31,15.31,15.33,15.37,15.41,15.41,15.48,15.51,15.51,15.51,15.59,15.65,15.71,15.79,15.89,15.87,15.83,15.83,15.92,15.99,15.97,15.97,16.16,16.31,16.51,16.70,16.88,17.03,17.23,17.42,17.59,17.75,17.95,18.14,18.31,18.47,18.60,18.63,18.59,18.66,19.44,19.08,18.81,18.71,18.63,18.55,18.51,18.48,18.42,18.34,18.27,18.19,18.13,18.13,18.06,17.98,17.90,17.83,17.81,17.76,17.69,17.62,17.54,17.51,17.47,17.41,17.33,17.25,17.17,17.13,17.12,17.04,16.97,16.93,16.92,16.86,16.91,16.93,16.93,16.93,16.93,16.95,16.96,16.97,17.02,17.03,17.03,17.03,17.06,17.06,17.20,17.42,17.65,17.88,18.12,18.31,18.48,18.71,18.94,19.17,19.40,19.61,19.81,19.96,20.04,20.06,20.08,20.11,20.11,20.13,20.18,20.19,20.19,20.22,20.29,20.29,20.29,20.31,20.36,20.38,20.44,20.51,20.58,20.66,20.74,20.81,20.92,21.04,21.14,21.29,21.43,21.57,21.72,21.77,21.72,21.60,21.44,21.29,21.15,21.04,20.93,20.80,20.70,20.61,20.56,20.56,20.64,20.71,20.79,20.87,20.97,21.05,21.16,21.28,21.35,21.43,21.51,21.56,21.55,21.39,21.24,21.08,20.93,20.77,20.60,20.44,20.28,20.13,19.97,19.86,19.72,19.56,19.62,19.74,19.90,20.09,20.32,20.62,20.93,21.21,21.45,21.76,22.05,22.26,22.33,22.17,21.97,21.79,21.64,21.48,21.31,21.11,20.92,20.78,20.76,20.82,20.94,21.08,21.18,21.31,21.49,21.69,21.87,22.08,22.26,22.47,22.69,22.90,22.88,22.84,22.81,22.73
15.58,15.57,15.52,15.48,15.46,15.39,15.38,15.37,15.35,15.28,15.28,15.28,15.31,15.38,15.45,15.47,15.47,15.47,15.47,15.47,15.47,15.47,15.47,15.47,15.42,15.38,15.37,15.37,15.37,15.37,15.37,15.37,15.37,15.32,15.28,15.28,15.35,15.37,15.41,15.47,15.47,15.47,15.47,15.50,15.57,15.57,15.62,15.67,15.67,15.67,15.73,15.77,15.77,15.77,15.84,15.87,15.91,15.99,16.14,16.17,16.13,16.06,16.00,16.18,16.22,16.20,16.29,16.44,16.60,16.79,17.00,17.16,17.32,17.51,17.72,17.88,18.04,18.24,18.44,18.59,18.67,18.69,18.66,18.73,19.50,19.06,18.80,18.77,18.69,18.62,18.54,18.50,18.48,18.41,18.33,18.25,18.19,18.19,18.12,18.04,17.97,17.89,17.82,17.80,17.76,17.68,17.60,17.53,17.50,17.47,17.39,17.32,17.24,17.19,17.18,17.11,17.03,16.99,16.99,16.99,16.99,16.99,16.99,16.99,16.99,17.05,17.09,17.09,17.09,17.09,17.09,17.11,17.18,17.19,17.30,17.48,17.72,17.95,18.18,18.37,18.54,18.77,19.01,19.24,19.45,19.61,19.91,20.05,20.12,20.20,20.27,20.34,20.37,20.37,20.38,20.38,20.38,20.41,20.48,20.48,20.48,20.48,20.50,20.57,20.58,20.63,20.71,20.79,20.86,20.94,21.02,21.11,21.26,21.42,21.53,21.63,21.79,21.93,21.88,21.73,21.57,21.42,21.32,21.20,21.07,20.99,20.84,20.74,20.69,20.69,20.76,20.84,20.92,21.01,21.15,21.24,21.32,21.40,21.48,21.56,21.64,21.69,21.67,21.52,21.36,21.21,21.06,20.90,20.68,20.50,20.34,20.19,20.04,19.89,19.76,19.69,19.69,19.76,19.92,20.15,20.38,20.69,21.00,21.28,21.51,21.82,22.08,22.31,22.46,22.30,22.14,21.99,21.83,21.68,21.45,21.27,21.11,20.97,20.90,20.95,21.07,21.22,21.37,21.46,21.59,21.77,22.00,22.16,22.37,22.59,22.81,22.97,22.99,22.94,22.87,22.79
15.77,15.77,15.74,15.71,15.66,15.63,15.59,15.57,15.56,15.53,15.48,15.50,15.55,15.63,15.66,15.70,15.73,15.73,15.73,15.73,15.73,15.71,15.67,15.67,15.65,15.63,15.63,15.63,15.63,15.63,15.61,15.57,15.57,15.55,15.53,15.53,15.61,15.63,15.66,15.73,15.73,15.73,15.75,15.79,15.83,15.83,15.88,15.93,15.93,15.93,15.99,16.03,16.04,16.08,16.11,16.13,16.15,16.23,16.34,16.40,16.39,16.32,16.29,16.41,16.45,16.41,16.36,16.56,16.72,16.89,17.08,17.28,17.44,17.61,17.80,18.00,18.16,18.33,18.53,18.71,18.75,18.76,18.72,18.78,19.51,19.02,18.79,18.83,18.76,18.68,18.60,18.56,18.55,18.47,18.39,18.32,18.25,18.20,18.17,18.11,18.03,17.95,17.88,17.86,17.82,17.74,17.67,17.59,17.56,17.53,17.46,17.38,17.30,17.24,17.20,17.16,17.09,17.06,17.07,17.11,17.11,17.11,17.11,17.11,17.11,17.14,17.16,17.16,17.16,17.19,17.21,17.22,17.26,17.26,17.36,17.55,17.78,18.01,18.21,18.40,18.61,18.84,19.07,19.30,19.51,19.66,19.89,20.00,20.10,20.22,20.34,20.46,20.54,20.58,20.62,20.58,20.57,20.60,20.67,20.67,20.67,20.67,20.68,20.71,20.75,20.79,20.84,20.92,20.99,21.07,21.15,21.23,21.34,21.49,21.62,21.75,21.91,22.02,21.98,21.85,21.70,21.55,21.45,21.34,21.20,21.12,21.01,20.90,20.83,20.87,20.90,21.00,21.10,21.18,21.30,21.38,21.46,21.53,21.61,21.69,21.76,21.81,21.80,21.65,21.49,21.34,21.18,21.03,20.80,20.62,20.45,20.25,20.10,19.98,19.88,19.81,19.81,19.84,19.98,20.21,20.45,20.75,21.03,21.30,21.58,21.84,22.11,22.37,22.54,22.42,22.31,22.18,22.01,21.81,21.62,21.46,21.30,21.15,21.03,21.08,21.20,21.35,21.50,21.63,21.74,21.88,22.07,22.27,22.49,22.70,22.88,23.04,23.06,23.01,22.93,22.86
15.98,15.97,15.96,15.93,15.88,15.86,15.81,15.77,15.76,15.76,15.70,15.72,15.79,15.86,15.88,15.94,15.98,15.98,15.98,15.97,15.96,15.94,15.88,15.88,15.88,15.88,15.88,15.88,15.87,15.86,15.85,15.78,15.78,15.78,15.78,15.79,15.85,15.87,15.91,15.96,15.98,15.98,16.03,16.08,16.08,16.08,16.14,16.18,16.18,16.20,16.25,16.28,16.30,16.38,16.38,16.38,16.41,16.49,16.56,16.64,16.64,16.58,16.58,16.62,16.66,16.64,16.50,16.67,16.84,17.00,17.17,17.38,17.56,17.72,17.89,18.11,18.28,18.44,18.62,18.82,18.82,18.82,18.78,18.82,19.52,19.00,18.80,18.88,18.82,18.74,18.67,18.61,18.59,18.53,18.46,18.38,18.30,18.23,18.22,18.17,18.09,18.02,17.94,17.91,17.87,17.81,17.73,17.65,17.61,17.58,17.52,17.44,17.37,17.29,17.22,17.20,17.15,17.13,17.16,17.24,17.24,17.23,17.22,17.22,17.22,17.22,17.23,17.24,17.24,17.29,17.32,17.32,17.32,17.32,17.43,17.61,17.84,18.08,18.24,18.44,18.67,18.90,19.13,19.37,19.57,19.71,19.84,19.94,20.05,20.20,20.36,20.53,20.66,20.76,20.84,20.78,20.76,20.78,20.84,20.84,20.84,20.84,20.84,20.84,20.91,20.95,20.99,21.06,21.14,21.21,21.27,21.35,21.43,21.57,21.72,21.86,22.02,22.11,22.09,21.98,21.83,21.69,21.59,21.47,21.34,21.25,21.17,21.06,20.98,21.04,21.06,21.16,21.27,21.35,21.43,21.52,21.60,21.68,21.76,21.84,21.91,21.96,21.93,21.77,21.62,21.47,21.31,21.14,20.93,20.74,20.55,20.34,20.20,20.11,20.03,19.96,19.93,19.92,20.04,20.26,20.51,20.80,21.06,21.33,21.62,21.86,22.15,22.42,22.61,22.57,22.48,22.35,22.18,21.96,21.81,21.65,21.49,21.32,21.17,21.20,21.32,21.48,21.63,21.79,21.90,22.01,22.15,22.37,22.60,22.80,22.97,23.10,23.12,23.07,23.00,22.94
16.24,16.17,16.15,16.15,16.13,16.06,16.04,16.00,15.95,15.95,15.94,15.95,15.98,16.06,16.12,16.20,16.24,16.24,16.24,16.18,16.15,16.15,16.14,16.14,16.14,16.14,16.14,16.14,16.08,16.05,16.05,16.04,16.04,16.04,16.04,16.04,16.05,16.10,16.14,16.17,16.23,16.24,16.28,16.34,16.34,16.34,16.39,16.44,16.45,16.51,16.53,16.54,16.56,16.63,16.64,16.64,16.67,16.74,16.82,16.90,16.90,16.84,16.84,16.79,16.85,16.91,16.82,16.79,16.94,17.13,17.29,17.46,17.67,17.85,18.01,18.17,18.39,18.57,18.73,18.88,18.88,18.88,18.82,18.82,19.52,19.05,18.84,18.90,18.88,18.81,18.73,18.66,18.60,18.59,18.52,18.44,18.37,18.29,18.28,18.23,18.16,18.08,18.00,17.94,17.89,17.87,17.79,17.72,17.65,17.60,17.58,17.51,17.43,17.35,17.28,17.21,17.19,17.22,17.29,17.36,17.37,17.33,17.28,17.28,17.28,17.28,17.31,17.37,17.37,17.38,17.38,17.38,17.38,17.38,17.49,17.68,17.91,18.14,18.31,18.50,18.73,18.97,19.20,19.43,19.61,19.70,19.79,19.87,19.98,20.14,20.29,20.50,20.72,20.89,20.97,20.96,20.95,20.96,20.97,20.97,20.97,20.97,20.97,20.97,21.04,21.11,21.18,21.26,21.33,21.36,21.40,21.48,21.56,21.70,21.82,21.92,22.08,22.22,22.22,22.11,21.96,21.87,21.74,21.62,21.52,21.38,21.30,21.21,21.16,21.17,21.24,21.32,21.40,21.48,21.56,21.69,21.80,21.87,21.95,22.03,22.10,22.13,22.06,21.90,21.75,21.59,21.43,21.21,21.03,20.84,20.63,20.47,20.38,20.30,20.22,20.14,20.01,19.98,20.07,20.27,20.57,20.82,21.10,21.37,21.62,21.92,22.17,22.44,22.69,22.75,22.63,22.48,22.32,22.15,22.00,21.84,21.66,21.45,21.29,21.33,21.45,21.61,21.76,21.91,22.06,22.18,22.28,22.45,22.66,22.89,23.08,23.17,23.18,23.14,23.08,23.07
16.44,16.40,16.37,16.34,16.34,16.30,16.26,16.22,16.18,16.15,16.14,16.17,16.22,16.30,16.38,16.45,16.49,16.49,16.49,16.46,16.44,16.44,16.44,16.44,16.41,16.39,16.39,16.39,16.36,16.34,16.33,16.29,16.29,16.29,16.29,16.29,16.29,16.35,16.39,16.41,16.48,16.49,16.54,16.59,16.59,16.59,16.65,16.69,16.70,16.78,16.79,16.79,16.81,16.89,16.89,16.89,16.92,17.00,17.08,17.12,17.13,17.09,17.09,17.02,17.06,17.13,17.09,17.02,17.08,17.23,17.42,17.57,17.76,17.95,18.13,18.29,18.48,18.67,18.84,18.95,18.95,18.95,18.88,18.86,19.48,19.07,18.89,18.95,18.95,18.87,18.79,18.72,18.65,18.65,18.58,18.51,18.43,18.35,18.31,18.27,18.22,18.14,18.07,17.99,17.95,17.94,17.86,17.78,17.70,17.65,17.65,17.57,17.49,17.42,17.34,17.26,17.28,17.34,17.41,17.49,17.50,17.45,17.40,17.40,17.40,17.40,17.41,17.45,17.45,17.45,17.47,17.50,17.50,17.50,17.58,17.74,17.97,18.20,18.37,18.57,18.80,19.03,19.26,19.45,19.58,19.65,19.73,19.81,19.90,20.03,20.22,20.45,20.68,20.89,21.04,21.12,21.14,21.14,21.14,21.14,21.14,21.14,21.14,21.14,21.18,21.24,21.32,21.40,21.48,21.52,21.58,21.66,21.73,21.84,21.94,22.04,22.19,22.31,22.32,22.25,22.13,22.02,21.87,21.76,21.67,21.56,21.44,21.35,21.30,21.30,21.38,21.45,21.55,21.66,21.73,21.84,21.94,22.02,22.09,22.17,22.25,22.27,22.18,22.03,21.88,21.72,21.55,21.32,21.16,20.98,20.80,20.64,20.57,20.49,20.40,20.28,20.16,20.11,20.16,20.32,20.63,20.87,21.15,21.43,21.67,21.98,22.23,22.50,22.77,22.88,22.76,22.60,22.45,22.30,22.18,22.01,21.81,21.63,21.47,21.48,21.58,21.73,21.89,22.04,22.20,22.34,22.45,22.57,22.77,22.99,23.16,23.24,23.25,23.20,23.15,23.15
16.64,16.64,16.59,16.54,16.54,16.54,16.48,16.44,16.42,16.35,16.35,16.40,16.48,16.55,16.63,16.71,16.74,16.74,16.76,16.76,16.76,16.76,16.75,16.75,16.70,16.66,16.66,16.66,16.66,16.66,16.63,16.56,16.56,16.56,16.55,16.54,16.55,16.60,16.64,16.66,16.74,16.75,16.79,16.85,16.85,16.86,16.91,16.95,16.96,17.04,17.05,17.05,17.07,17.14,17.15,17.15,17.19,17.25,17.33,17.35,17.35,17.35,17.35,17.29,17.30,17.34,17.35,17.27,17.24,17.32,17.53,17.70,17.85,18.04,18.25,18.41,18.57,18.77,18.94,19.01,19.01,19.00,18.93,18.90,19.43,19.10,18.96,19.01,19.00,18.93,18.86,18.78,18.71,18.70,18.64,18.57,18.49,18.42,18.34,18.31,18.29,18.21,18.13,18.05,18.01,17.99,17.92,17.84,17.77,17.71,17.71,17.64,17.56,17.48,17.40,17.34,17.39,17.46,17.54,17.61,17.62,17.58,17.52,17.52,17.52,17.52,17.52,17.52,17.52,17.52,17.56,17.61,17.61,17.61,17.67,17.80,18.04,18.27,18.44,18.63,18.86,19.08,19.30,19.44,19.51,19.59,19.67,19.75,19.83,19.93,20.16,20.39,20.62,20.85,21.08,21.24,21.31,21.33,21.34,21.34,21.34,21.34,21.34,21.34,21.34,21.38,21.45,21.53,21.60,21.68,21.76,21.84,21.91,21.99,22.07,22.16,22.31,22.40,22.43,22.40,22.31,22.16,22.01,21.90,21.82,21.73,21.59,21.48,21.43,21.44,21.52,21.59,21.70,21.83,21.91,21.99,22.07,22.14,22.22,22.30,22.38,22.40,22.31,22.16,22.00,21.84,21.67,21.45,21.29,21.13,20.98,20.84,20.76,20.67,20.56,20.42,20.34,20.27,20.27,20.40,20.69,20.93,21.21,21.49,21.73,22.03,22.29,22.56,22.83,23.01,22.89,22.73,22.58,22.44,22.35,22.17,21.97,21.82,21.66,21.63,21.71,21.86,22.02,22.17,22.32,22.48,22.63,22.72,22.90,23.09,23.24,23.30,23.31,23.27,23.21,23.21
16.83,16.83,16.81,16.78,16.73,16.73,16.71,16.67,16.62,16.60,16.60,16.66,16.73,16.81,16.89,16.96,16.98,16.95,17.07,17.08,17.08,17.06,17.00,17.00,16.99,16.98,16.98,16.98,16.98,16.95,16.90,16.88,16.88,16.88,16.84,16.73,16.79,16.82,16.86,16.92,17.00,17.00,17.05,17.10,17.10,17.16,17.19,17.20,17.21,17.29,17.30,17.30,17.32,17.40,17.40,17.44,17.49,17.51,17.59,17.60,17.60,17.60,17.60,17.59,17.56,17.55,17.60,17.53,17.42,17.42,17.60,17.81,17.98,18.14,18.33,18.54,18.70,18.86,19.00,19.08,19.08,19.03,18.96,18.95,19.37,19.12,19.02,19.06,19.00,18.98,18.92,18.84,18.77,18.71,18.68,18.64,18.56,18.48,18.40,18.38,18.35,18.27,18.19,18.12,18.05,18.00,17.98,17.91,17.83,17.78,17.78,17.70,17.62,17.55,17.47,17.46,17.51,17.59,17.66,17.67,17.73,17.70,17.65,17.65,17.65,17.65,17.65,17.65,17.65,17.65,17.66,17.68,17.68,17.68,17.73,17.87,18.10,18.33,18.50,18.69,18.91,19.09,19.26,19.37,19.45,19.53,19.60,19.68,19.78,19.93,20.10,20.32,20.55,20.79,21.02,21.17,21.34,21.47,21.53,21.53,21.53,21.53,21.53,21.53,21.53,21.54,21.58,21.65,21.73,21.81,21.89,21.96,22.04,22.12,22.20,22.28,22.37,22.51,22.59,22.58,22.44,22.28,22.18,22.09,22.00,21.86,21.77,21.64,21.57,21.63,21.71,21.78,21.87,21.96,22.04,22.12,22.19,22.27,22.35,22.43,22.50,22.52,22.44,22.29,22.13,21.95,21.74,21.57,21.41,21.26,21.12,21.03,20.95,20.83,20.71,20.61,20.47,20.44,20.44,20.50,20.69,20.98,21.24,21.51,21.79,22.04,22.33,22.60,22.85,23.12,23.01,22.86,22.72,22.63,22.49,22.33,22.16,22.01,21.85,21.78,21.83,21.99,22.14,22.30,22.45,22.61,22.76,22.90,23.02,23.18,23.36,23.37,23.38,23.33,23.28,23.28
17.06,17.03,17.02,17.00,16.96,16.92,16.92,16.89,16.85,16.82,16.82,16.89,16.99,17.07,17.14,17.22,17.22,17.18,17.31,17.35,17.36,17.35,17.30,17.30,17.30,17.30,17.30,17.30,17.27,17.23,17.20,17.20,17.20,17.18,17.10,16.96,17.01,17.04,17.10,17.17,17.25,17.26,17.31,17.36,17.36,17.44,17.46,17.46,17.47,17.55,17.56,17.58,17.61,17.66,17.66,17.71,17.76,17.76,17.81,17.84,17.86,17.86,17.86,17.86,17.81,17.77,17.82,17.77,17.67,17.63,17.70,17.90,18.09,18.26,18.43,18.63,18.81,18.98,19.10,19.14,19.14,19.08,19.00,19.00,19.32,19.14,19.09,19.12,19.04,19.04,18.99,18.91,18.83,18.75,18.71,18.68,18.62,18.54,18.47,18.42,18.38,18.34,18.26,18.18,18.10,18.04,18.04,17.97,17.90,17.83,17.80,17.72,17.65,17.58,17.54,17.57,17.64,17.70,17.75,17.78,17.85,17.83,17.78,17.78,17.78,17.78,17.78,17.77,17.74,17.74,17.74,17.74,17.74,17.77,17.81,17.93,18.16,18.39,18.56,18.74,18.93,19.09,19.21,19.31,19.39,19.46,19.57,19.66,19.77,19.92,20.08,20.30,20.51,20.72,20.95,21.14,21.34,21.50,21.61,21.67,21.68,21.68,21.68,21.68,21.68,21.70,21.73,21.78,21.86,21.94,22.01,22.09,22.17,22.25,22.32,22.40,22.48,22.60,22.71,22.72,22.57,22.45,22.33,22.24,22.16,22.03,21.92,21.80,21.73,21.78,21.86,21.94,22.01,22.09,22.17,22.25,22.32,22.40,22.48,22.55,22.63,22.65,22.57,22.41,22.26,22.08,21.89,21.74,21.58,21.43,21.30,21.22,21.11,20.99,20.87,20.76,20.61,20.58,20.60,20.64,20.74,21.03,21.29,21.54,21.82,22.08,22.36,22.63,22.89,23.17,23.12,23.01,22.89,22.78,22.62,22.47,22.32,22.16,22.01,21.94,21.99,22.12,22.27,22.43,22.58,22.74,22.89,23.04,23.16,23.30,23.45,23.48,23.45,23.39,23.34,23.34
17.31,17.24,17.21,17.21,17.20,17.13,17.11,17.11,17.09,17.02,17.01,17.12,17.24,17.32,17.40,17.48,17.48,17.43,17.50,17.58,17.62,17.62,17.62,17.62,17.62,17.62,17.62,17.62,17.55,17.52,17.52,17.52,17.52,17.46,17.36,17.22,17.22,17.28,17.35,17.43,17.51,17.52,17.56,17.61,17.62,17.69,17.71,17.72,17.73,17.80,17.82,17.86,17.92,17.92,17.92,17.97,18.02,18.02,18.02,18.07,18.12,18.12,18.12,18.12,18.07,18.02,18.02,18.02,17.96,17.88,17.83,17.98,18.20,18.39,18.54,18.70,18.92,19.10,19.20,19.20,19.20,19.14,19.07,19.04,19.27,19.17,19.15,19.18,19.10,19.10,19.05,18.97,18.90,18.82,18.74,18.70,18.69,18.61,18.53,18.45,18.40,18.40,18.32,18.25,18.17,18.11,18.10,18.04,17.96,17.88,17.80,17.73,17.65,17.61,17.62,17.69,17.77,17.81,17.82,17.90,17.98,17.96,17.91,17.91,17.91,17.91,17.91,17.90,17.82,17.81,17.81,17.81,17.81,17.88,17.90,17.99,18.23,18.46,18.63,18.78,18.93,19.08,19.17,19.24,19.32,19.41,19.56,19.66,19.77,19.92,20.07,20.30,20.49,20.66,20.89,21.12,21.30,21.46,21.61,21.77,21.80,21.81,21.81,21.81,21.81,21.86,21.91,21.91,21.99,22.07,22.15,22.22,22.30,22.38,22.45,22.53,22.61,22.68,22.81,22.85,22.70,22.62,22.49,22.37,22.29,22.21,22.07,21.96,21.91,21.91,21.99,22.06,22.14,22.22,22.30,22.37,22.45,22.53,22.60,22.68,22.76,22.78,22.70,22.54,22.39,22.23,22.08,21.92,21.77,21.61,21.48,21.41,21.25,21.15,21.04,20.89,20.74,20.71,20.75,20.81,20.81,21.10,21.36,21.59,21.83,22.13,22.38,22.65,22.95,23.18,23.21,23.16,23.06,22.91,22.75,22.60,22.44,22.29,22.14,22.11,22.15,22.24,22.40,22.55,22.71,22.86,23.02,23.17,23.32,23.44,23.52,23.60,23.54,23.46,23.40,23.40
17.50,17.48,17.43,17.40,17.40,17.37,17.33,17.30,17.30,17.27,17.22,17.34,17.50,17.58,17.65,17.73,17.76,17.73,17.71,17.82,17.90,17.94,17.94,17.94,17.94,17.92,17.87,17.87,17.85,17.84,17.84,17.84,17.79,17.69,17.57,17.47,17.47,17.53,17.61,17.69,17.76,17.77,17.79,17.82,17.87,17.90,17.94,17.97,17.98,18.06,18.07,18.11,18.17,18.17,18.17,18.22,18.27,18.27,18.27,18.33,18.37,18.37,18.37,18.37,18.33,18.27,18.27,18.27,18.22,18.12,18.02,18.12,18.28,18.48,18.67,18.83,19.00,19.17,19.27,19.27,19.27,19.21,19.13,19.09,19.22,19.19,19.21,19.25,19.17,19.12,19.08,19.04,18.96,18.88,18.80,18.77,18.75,18.67,18.60,18.52,18.47,18.46,18.39,18.31,18.26,18.23,18.17,18.10,18.02,17.95,17.87,17.79,17.71,17.69,17.74,17.76,17.83,17.89,17.95,18.03,18.11,18.09,18.04,18.04,18.04,18.04,18.04,18.02,17.95,17.94,17.94,17.94,17.94,17.96,17.97,18.06,18.29,18.52,18.65,18.78,18.92,19.02,19.10,19.18,19.28,19.40,19.51,19.63,19.75,19.86,20.01,20.23,20.45,20.66,20.89,21.07,21.27,21.46,21.61,21.77,21.88,21.96,22.00,22.00,22.00,22.02,22.05,22.11,22.18,22.26,22.34,22.41,22.49,22.57,22.65,22.72,22.80,22.83,22.94,22.98,22.83,22.75,22.65,22.54,22.42,22.34,22.24,22.12,22.04,22.04,22.11,22.19,22.27,22.35,22.42,22.50,22.58,22.66,22.73,22.81,22.89,22.91,22.82,22.67,22.51,22.36,22.21,22.05,21.90,21.74,21.61,21.53,21.43,21.31,21.17,21.02,20.92,20.90,20.92,20.94,20.94,21.18,21.42,21.65,21.89,22.20,22.45,22.72,23.01,23.24,23.36,23.33,23.19,23.03,22.88,22.73,22.57,22.42,22.32,22.26,22.28,22.37,22.53,22.68,22.84,22.99,23.15,23.30,23.41,23.53,23.64,23.66,23.60,23.52,23.47,23.47
17.70,17.70,17.66,17.62,17.60,17.60,17.55,17.51,17.50,17.50,17.44,17.57,17.73,17.83,17.91,17.99,18.03,18.01,17.91,18.03,18.16,18.23,18.26,18.26,18.24,18.20,18.16,18.16,18.16,18.16,18.15,18.13,18.05,17.92,17.80,17.73,17.73,17.79,17.86,17.94,18.02,18.03,18.03,18.05,18.13,18.13,18.18,18.23,18.24,18.31,18.33,18.37,18.43,18.43,18.43,18.48,18.53,18.53,18.53,18.59,18.63,18.63,18.63,18.63,18.60,18.55,18.53,18.50,18.46,18.37,18.26,18.26,18.39,18.57,18.77,18.95,19.11,19.25,19.33,19.33,19.33,19.25,19.18,19.14,19.19,19.22,19.28,19.31,19.23,19.15,19.13,19.10,19.02,18.95,18.87,18.82,18.79,18.74,18.66,18.58,18.53,18.53,18.45,18.37,18.32,18.29,18.21,18.15,18.09,18.01,17.93,17.86,17.79,17.78,17.83,17.86,17.93,18.00,18.08,18.16,18.21,18.20,18.16,18.16,18.16,18.16,18.16,18.15,18.07,18.06,18.06,18.06,18.06,18.06,18.06,18.14,18.35,18.53,18.63,18.75,18.88,18.96,19.04,19.13,19.24,19.37,19.47,19.60,19.71,19.82,19.98,20.20,20.43,20.66,20.86,21.04,21.24,21.44,21.61,21.77,21.92,22.05,22.14,22.19,22.20,22.20,22.21,22.27,22.34,22.42,22.50,22.57,22.65,22.73,22.81,22.88,22.96,22.99,23.07,23.09,22.99,22.88,22.80,22.70,22.57,22.47,22.39,22.27,22.17,22.20,22.27,22.35,22.43,22.51,22.58,22.64,22.71,22.78,22.86,22.94,23.01,23.03,22.95,22.80,22.64,22.49,22.34,22.21,22.06,21.90,21.76,21.66,21.58,21.45,21.31,21.18,21.08,21.06,21.06,21.07,21.09,21.25,21.47,21.72,21.95,22.26,22.51,22.77,23.05,23.30,23.49,23.47,23.32,23.16,23.01,22.87,22.73,22.58,22.48,22.40,22.40,22.50,22.66,22.81,22.96,23.12,23.27,23.40,23.51,23.62,23.73,23.73,23.66,23.60,23.56,23.53
17.89,17.89,17.88,17.85,17.79,17.79,17.78,17.74,17.69,17.69,17.68,17.79,17.94,18.09,18.17,18.24,18.28,18.25,18.10,18.23,18.38,18.51,18.58,18.58,18.52,18.48,18.48,18.48,18.48,18.48,18.46,18.39,18.31,18.18,18.05,17.98,17.98,18.04,18.12,18.20,18.27,18.28,18.28,18.31,18.38,18.38,18.44,18.48,18.49,18.57,18.58,18.62,18.68,18.68,18.68,18.73,18.78,18.78,18.78,18.84,18.88,18.88,18.88,18.88,18.88,18.86,18.78,18.71,18.68,18.65,18.56,18.42,18.52,18.68,18.85,19.08,19.24,19.34,19.40,19.40,19.40,19.28,19.20,19.20,19.20,19.26,19.34,19.37,19.30,19.22,19.20,19.16,19.09,19.01,18.93,18.86,18.80,18.80,18.72,18.65,18.60,18.59,18.51,18.44,18.36,18.29,18.21,18.20,18.15,18.07,18.00,17.92,17.89,17.89,17.90,17.98,18.05,18.13,18.21,18.29,18.29,18.29,18.29,18.29,18.29,18.29,18.29,18.28,18.20,18.19,18.19,18.19,18.19,18.19,18.19,18.25,18.40,18.49,18.57,18.68,18.82,18.90,18.98,19.10,19.23,19.31,19.46,19.56,19.67,19.82,19.98,20.20,20.43,20.64,20.80,21.03,21.21,21.39,21.61,21.77,21.92,22.08,22.23,22.37,22.39,22.39,22.39,22.39,22.47,22.55,22.63,22.70,22.78,22.86,22.93,23.01,23.09,23.16,23.19,23.19,23.17,23.02,22.93,22.85,22.76,22.61,22.52,22.40,22.31,22.39,22.47,22.54,22.62,22.70,22.77,22.79,22.83,22.91,22.99,23.07,23.14,23.16,23.08,22.92,22.77,22.62,22.48,22.39,22.25,22.09,21.94,21.79,21.71,21.58,21.46,21.37,21.22,21.19,21.19,21.21,21.28,21.30,21.50,21.78,22.02,22.33,22.58,22.81,23.06,23.36,23.60,23.60,23.44,23.29,23.14,23.03,22.92,22.77,22.62,22.53,22.53,22.63,22.78,22.94,23.09,23.25,23.40,23.48,23.61,23.73,23.80,23.80,23.73,23.69,23.67,23.60
18.14,18.09,18.08,18.06,18.03,17.99,17.98,17.96,17.93,17.88,17.88,17.98,18.15,18.34,18.42,18.50,18.54,18.52,18.41,18.45,18.57,18.70,18.78,18.83,18.82,18.80,18.80,18.80,18.80,18.77,18.72,18.64,18.52,18.41,18.29,18.18,18.23,18.30,18.35,18.39,18.47,18.52,18.54,18.56,18.64,18.64,18.69,18.74,18.74,18.77,18.82,18.88,18.94,18.94,18.98,19.02,19.04,19.04,19.09,19.12,19.14,19.14,19.14,19.14,19.14,19.11,19.04,18.96,18.94,18.91,18.82,18.72,18.71,18.80,18.96,19.15,19.35,19.44,19.46,19.46,19.46,19.34,19.24,19.20,19.20,19.31,19.40,19.44,19.36,19.28,19.23,19.19,19.15,19.07,19.00,18.92,18.86,18.86,18.79,18.71,18.66,18.66,18.58,18.50,18.42,18.35,18.27,18.22,18.16,18.08,18.00,17.97,17.96,17.98,18.03,18.10,18.18,18.24,18.28,18.35,18.40,18.42,18.42,18.42,18.42,18.42,18.42,18.41,18.33,18.32,18.32,18.32,18.32,18.32,18.29,18.30,18.41,18.48,18.56,18.66,18.76,18.83,18.95,19.10,19.23,19.31,19.46,19.56,19.67,19.82,19.98,20.16,20.37,20.59,20.80,20.98,21.18,21.37,21.56,21.76,21.92,22.08,22.23,22.39,22.48,22.52,22.53,22.58,22.61,22.68,22.75,22.83,22.91,22.98,23.06,23.14,23.22,23.25,23.29,23.32,23.31,23.15,23.06,22.98,22.89,22.73,22.65,22.55,22.49,22.52,22.60,22.68,22.75,22.83,22.91,22.96,23.02,23.10,23.18,23.25,23.33,23.33,23.21,23.10,22.96,22.80,22.65,22.53,22.38,22.23,22.09,21.98,21.85,21.74,21.63,21.50,21.40,21.38,21.38,21.39,21.42,21.42,21.59,21.84,22.08,22.34,22.62,22.87,23.11,23.37,23.65,23.69,23.59,23.48,23.32,23.19,23.05,22.90,22.75,22.65,22.66,22.76,22.91,23.07,23.22,23.36,23.47,23.59,23.74,23.83,23.86,23.86,23.79,23.76,23.74,23.66
18.37,18.31,18.28,18.27,18.26,18.20,18.18,18.17,18.15,18.10,18.09,18.20,18.37,18.58,18.67,18.75,18.79,18.78,18.70,18.68,18.76,18.90,19.00,19.07,19.11,19.12,19.11,19.10,19.09,19.05,18.97,18.90,18.75,18.64,18.54,18.40,18.46,18.53,18.58,18.61,18.69,18.76,18.79,18.81,18.87,18.89,18.95,18.99,18.99,18.99,19.04,19.11,19.17,19.19,19.25,19.28,19.29,19.30,19.38,19.39,19.39,19.39,19.39,19.39,19.39,19.37,19.29,19.23,19.20,19.16,19.08,19.01,18.91,18.94,19.08,19.24,19.45,19.52,19.52,19.52,19.50,19.40,19.29,19.22,19.22,19.36,19.47,19.50,19.42,19.35,19.27,19.22,19.21,19.14,19.06,18.98,18.92,18.92,18.85,18.77,18.72,18.70,18.64,18.56,18.49,18.41,18.33,18.26,18.18,18.10,18.02,18.02,18.04,18.08,18.15,18.23,18.29,18.33,18.36,18.44,18.52,18.55,18.55,18.55,18.55,18.55,18.55,18.53,18.46,18.45,18.45,18.45,18.45,18.43,18.38,18.38,18.45,18.53,18.59,18.66,18.74,18.82,18.95,19.10,19.23,19.31,19.46,19.56,19.67,19.82,19.98,20.13,20.33,20.56,20.77,20.94,21.15,21.34,21.52,21.73,21.91,22.08,22.23,22.39,22.54,22.62,22.67,22.75,22.77,22.83,22.90,22.96,23.04,23.11,23.19,23.26,23.32,23.34,23.40,23.45,23.44,23.30,23.19,23.11,23.02,22.88,22.78,22.70,22.65,22.65,22.73,22.80,22.88,22.96,23.03,23.11,23.19,23.27,23.34,23.42,23.50,23.49,23.34,23.26,23.13,22.97,22.82,22.66,22.51,22.36,22.24,22.14,22.01,21.90,21.78,21.64,21.56,21.55,21.55,21.55,21.57,21.57,21.69,21.89,22.14,22.37,22.65,22.92,23.17,23.40,23.68,23.79,23.74,23.65,23.49,23.34,23.18,23.03,22.89,22.79,22.79,22.88,23.04,23.19,23.34,23.46,23.56,23.71,23.87,23.94,23.92,23.92,23.86,23.82,23.80,23.72
18.56,18.55,18.50,18.46,18.46,18.45,18.39,18.36,18.36,18.35,18.35,18.45,18.61,18.77,18.92,19.01,19.05,19.03,18.96,18.89,18.96,19.11,19.25,19.33,19.40,19.44,19.43,19.36,19.35,19.31,19.23,19.15,19.00,18.90,18.79,18.65,18.66,18.72,18.79,18.86,18.94,19.02,19.05,19.05,19.06,19.13,19.20,19.25,19.25,19.25,19.26,19.30,19.38,19.45,19.46,19.51,19.55,19.55,19.63,19.65,19.65,19.65,19.65,19.65,19.65,19.63,19.55,19.54,19.49,19.42,19.34,19.26,19.13,19.11,19.21,19.37,19.53,19.59,19.59,19.58,19.52,19.43,19.35,19.29,19.29,19.42,19.53,19.56,19.49,19.41,19.33,19.29,19.28,19.20,19.12,19.05,18.99,18.99,18.92,18.84,18.76,18.70,18.69,18.63,18.55,18.47,18.40,18.32,18.24,18.17,18.09,18.09,18.13,18.21,18.28,18.36,18.38,18.42,18.49,18.57,18.65,18.67,18.67,18.67,18.67,18.67,18.67,18.66,18.58,18.57,18.57,18.57,18.57,18.51,18.48,18.51,18.58,18.66,18.68,18.73,18.80,18.88,18.97,19.10,19.23,19.31,19.46,19.56,19.67,19.82,19.98,20.13,20.33,20.54,20.71,20.93,21.11,21.30,21.52,21.68,21.89,22.08,22.23,22.39,22.54,22.68,22.80,22.88,22.94,23.02,23.07,23.09,23.16,23.24,23.32,23.38,23.39,23.45,23.53,23.57,23.57,23.48,23.35,23.24,23.16,23.07,22.93,22.83,22.77,22.78,22.85,22.93,23.01,23.09,23.16,23.24,23.32,23.39,23.47,23.55,23.63,23.62,23.47,23.39,23.25,23.10,22.94,22.79,22.64,22.52,22.42,22.27,22.19,22.06,21.91,21.76,21.69,21.67,21.67,21.69,21.76,21.76,21.78,21.91,22.20,22.44,22.67,22.94,23.23,23.46,23.70,23.87,23.92,23.77,23.62,23.46,23.31,23.16,23.08,22.94,22.92,23.01,23.17,23.32,23.43,23.54,23.68,23.84,23.99,24.04,23.99,23.99,23.92,23.89,23.86,23.79
18.75,18.75,18.73,18.69,18.65,18.65,18.62,18.60,18.59,18.56,18.55,18.66,18.83,19.02,19.17,19.27,19.30,19.29,19.21,19.14,19.17,19.30,19.46,19.53,19.64,19.70,19.70,19.66,19.62,19.56,19.49,19.41,19.26,19.13,19.01,18.90,18.90,18.97,19.04,19.12,19.20,19.27,19.30,19.30,19.31,19.38,19.46,19.50,19.51,19.55,19.56,19.58,19.61,19.65,19.69,19.76,19.83,19.91,19.99,20.04,20.06,20.06,20.06,20.06,20.04,19.98,19.91,19.87,19.77,19.67,19.60,19.52,19.41,19.33,19.34,19.49,19.65,19.68,19.65,19.65,19.57,19.49,19.41,19.35,19.35,19.49,19.60,19.63,19.55,19.47,19.40,19.34,19.30,19.26,19.19,19.13,19.09,19.05,18.98,18.90,18.82,18.75,18.71,18.64,18.58,18.54,18.46,18.38,18.31,18.23,18.15,18.19,18.26,18.33,18.41,18.44,18.48,18.54,18.62,18.70,18.74,18.78,18.80,18.80,18.80,18.80,18.80,18.79,18.71,18.70,18.70,18.70,18.70,18.63,18.60,18.63,18.71,18.74,18.78,18.84,18.91,18.95,19.02,19.15,19.28,19.36,19.51,19.64,19.75,19.87,20.03,20.18,20.36,20.54,20.70,20.89,21.08,21.27,21.47,21.66,21.85,22.05,22.23,22.39,22.54,22.70,22.84,22.95,23.07,23.13,23.17,23.21,23.29,23.37,23.42,23.46,23.50,23.58,23.63,23.67,23.70,23.62,23.48,23.36,23.29,23.21,23.10,23.01,22.94,22.90,22.98,23.09,23.19,23.26,23.34,23.42,23.50,23.57,23.65,23.73,23.78,23.75,23.60,23.52,23.38,23.23,23.07,22.92,22.80,22.68,22.57,22.45,22.34,22.19,22.05,21.94,21.87,21.85,21.85,21.87,21.95,21.95,21.95,22.04,22.27,22.50,22.73,22.98,23.25,23.52,23.76,23.97,24.06,23.90,23.75,23.62,23.49,23.34,23.22,23.07,23.04,23.14,23.29,23.41,23.53,23.66,23.81,23.97,24.09,24.13,24.10,24.06,23.98,23.95,23.93,23.85
18.95,18.95,18.95,18.92,18.86,18.85,18.85,18.85,18.83,18.76,18.75,18.86,19.04,19.26,19.41,19.52,19.56,19.55,19.47,19.39,19.40,19.49,19.65,19.75,19.90,20.03,20.06,20.04,19.95,19.84,19.74,19.65,19.51,19.36,19.23,19.16,19.16,19.22,19.30,19.38,19.45,19.53,19.56,19.56,19.56,19.63,19.72,19.78,19.80,19.90,19.93,19.94,19.94,19.95,20.04,20.12,20.24,20.39,20.45,20.53,20.57,20.58,20.58,20.57,20.52,20.44,20.35,20.27,20.14,20.01,19.92,19.82,19.71,19.58,19.49,19.61,19.76,19.77,19.72,19.71,19.63,19.55,19.47,19.42,19.42,19.54,19.65,19.68,19.62,19.54,19.46,19.38,19.32,19.32,19.25,19.22,19.20,19.12,19.04,18.97,18.89,18.81,18.73,18.66,18.61,18.59,18.51,18.43,18.36,18.30,18.23,18.31,18.38,18.45,18.52,18.53,18.59,18.67,18.74,18.81,18.83,18.88,18.93,18.93,18.93,18.93,18.93,18.92,18.84,18.83,18.83,18.83,18.82,18.74,18.72,18.76,18.82,18.83,18.89,18.96,19.02,19.03,19.09,19.21,19.34,19.42,19.58,19.73,19.85,19.94,20.11,20.26,20.41,20.56,20.71,20.87,21.06,21.26,21.42,21.64,21.82,22.01,22.22,22.37,22.53,22.68,22.84,23.00,23.16,23.22,23.26,23.34,23.42,23.49,23.52,23.55,23.63,23.69,23.72,23.76,23.82,23.75,23.62,23.50,23.41,23.34,23.26,23.18,23.11,23.03,23.11,23.24,23.36,23.44,23.52,23.60,23.67,23.75,23.83,23.90,23.93,23.87,23.72,23.65,23.51,23.35,23.20,23.06,22.97,22.84,22.72,22.63,22.47,22.33,22.21,22.12,22.06,22.06,22.06,22.08,22.14,22.16,22.16,22.20,22.32,22.56,22.79,23.03,23.27,23.57,23.82,24.05,24.17,24.03,23.89,23.78,23.67,23.51,23.36,23.21,23.18,23.26,23.41,23.50,23.63,23.79,23.94,24.09,24.18,24.22,24.20,24.12,24.06,24.02,23.99,23.92
19.14,19.14,19.14,19.13,19.11,19.05,19.04,19.04,19.03,19.02,18.96,19.08,19.28,19.45,19.60,19.75,19.82,19.80,19.72,19.65,19.63,19.69,19.84,20.04,20.30,20.56,20.75,20.63,20.44,20.21,19.98,19.84,19.75,19.61,19.49,19.42,19.42,19.48,19.55,19.63,19.71,19.79,19.82,19.82,19.82,19.83,19.98,20.12,20.20,20.40,20.48,20.51,20.53,20.59,20.72,20.86,21.00,21.15,21.17,21.23,21.30,21.35,21.35,21.29,21.22,21.13,20.99,20.91,20.78,20.63,20.49,20.29,20.04,19.83,19.71,19.68,19.82,19.83,19.78,19.77,19.70,19.57,19.49,19.48,19.48,19.56,19.65,19.70,19.68,19.60,19.52,19.45,19.38,19.38,19.32,19.28,19.26,19.18,19.11,19.03,18.95,18.88,18.80,18.72,18.65,18.59,18.51,18.43,18.39,18.37,18.36,18.43,18.47,18.51,18.59,18.65,18.72,18.80,18.86,18.88,18.94,19.01,19.06,19.06,19.06,19.06,19.06,19.05,18.97,18.96,18.96,18.94,18.88,18.80,18.82,18.86,18.89,18.95,19.02,19.07,19.09,19.15,19.17,19.28,19.40,19.48,19.64,19.79,19.91,20.01,20.23,20.39,20.51,20.62,20.78,20.93,21.10,21.26,21.42,21.59,21.79,21.99,22.15,22.31,22.46,22.62,22.79,23.00,23.16,23.29,23.39,23.47,23.55,23.57,23.61,23.68,23.76,23.77,23.82,23.89,23.95,23.87,23.78,23.67,23.54,23.47,23.39,23.31,23.23,23.16,23.24,23.37,23.49,23.57,23.65,23.72,23.80,23.88,23.96,24.03,24.06,24.00,23.85,23.77,23.64,23.48,23.34,23.25,23.11,23.00,22.89,22.76,22.60,22.49,22.38,22.26,22.24,22.29,22.32,22.32,22.34,22.40,22.42,22.38,22.32,22.61,22.86,23.09,23.33,23.57,23.86,24.12,24.25,24.16,24.06,23.94,23.79,23.64,23.48,23.38,23.35,23.38,23.47,23.61,23.76,23.91,24.07,24.22,24.27,24.28,24.27,24.19,24.16,24.12,24.06,23.98
19.33,19.33,19.33,19.33,19.32,19.28,19.27,19.25,19.23,19.23,19.19,19.30,19.49,19.65,19.94,20.30,20.49,20.42,20.25,20.10,20.04,20.12,20.38,20.64,20.96,21.23,21.35,21.10,20.86,20.61,20.36,20.21,20.06,19.91,19.80,19.76,19.76,19.82,19.90,19.98,20.09,20.20,20.26,20.29,20.29,20.32,20.47,20.63,20.77,21.07,21.18,21.23,21.27,21.31,21.46,21.64,21.80,21.92,21.92,21.98,22.04,22.07,22.07,22.00,21.91,21.79,21.67,21.59,21.46,21.29,21.10,20.87,20.60,20.36,20.15,20.01,19.99,19.91,19.84,19.84,19.76,19.62,19.53,19.51,19.54,19.61,19.69,19.73,19.70,19.66,19.59,19.52,19.48,19.45,19.38,19.33,19.28,19.21,19.13,19.07,19.02,18.94,18.86,18.78,18.71,18.63,18.55,18.48,18.44,18.45,18.49,18.53,18.57,18.62,18.69,18.77,18.85,18.91,18.95,18.98,19.06,19.13,19.19,19.19,19.19,19.19,19.19,19.17,19.10,19.09,19.07,19.02,18.94,18.90,18.94,18.99,18.99,19.07,19.12,19.16,19.20,19.28,19.29,19.36,19.48,19.59,19.71,19.86,19.99,20.12,20.31,20.48,20.62,20.76,20.88,21.04,21.17,21.29,21.41,21.57,21.76,21.95,22.13,22.29,22.44,22.60,22.78,23.00,23.16,23.31,23.45,23.55,23.63,23.67,23.73,23.80,23.84,23.88,23.94,24.02,24.08,24.00,23.92,23.81,23.67,23.59,23.52,23.44,23.36,23.29,23.36,23.50,23.62,23.70,23.77,23.85,23.93,24.01,24.08,24.16,24.19,24.13,23.98,23.90,23.76,23.63,23.51,23.40,23.28,23.16,23.05,22.93,22.77,22.65,22.52,22.39,22.39,22.48,22.55,22.57,22.57,22.61,22.65,22.62,22.49,22.70,22.95,23.18,23.39,23.62,23.89,24.16,24.34,24.33,24.22,24.08,23.94,23.81,23.66,23.54,23.49,23.50,23.58,23.73,23.89,24.04,24.19,24.31,24.34,24.34,24.33,24.25,24.24,24.20,24.12,24.04
19.51,19.52,19.52,19.52,19.53,19.52,19.52,19.48,19.43,19.43,19.43,19.54,19.70,19.91,20.39,21.04,21.36,21.24,20.93,20.70,20.61,20.72,21.09,21.41,21.77,21.97,21.90,21.50,21.25,21.01,20.80,20.65,20.42,20.25,20.16,20.16,20.16,20.22,20.30,20.39,20.55,20.70,20.81,20.86,20.86,20.95,21.08,21.24,21.43,21.81,21.95,22.03,22.08,22.09,22.23,22.43,22.61,22.68,22.68,22.74,22.78,22.78,22.78,22.70,22.58,22.45,22.37,22.29,22.16,21.97,21.75,21.51,21.28,21.01,20.72,20.48,20.26,20.08,19.97,19.94,19.85,19.72,19.60,19.55,19.61,19.68,19.75,19.79,19.71,19.71,19.66,19.61,19.60,19.52,19.44,19.37,19.29,19.21,19.13,19.10,19.07,19.00,18.92,18.85,18.77,18.69,18.62,18.54,18.51,18.53,18.61,18.61,18.67,18.74,18.82,18.89,18.97,19.01,19.03,19.11,19.19,19.26,19.31,19.31,19.31,19.31,19.31,19.30,19.22,19.21,19.16,19.09,19.01,19.01,19.07,19.12,19.13,19.20,19.22,19.26,19.33,19.40,19.41,19.46,19.56,19.70,19.79,19.93,20.08,20.24,20.39,20.55,20.74,20.93,21.01,21.16,21.27,21.35,21.43,21.58,21.74,21.92,22.13,22.29,22.44,22.60,22.78,23.00,23.16,23.31,23.47,23.62,23.70,23.77,23.85,23.91,23.91,23.99,24.07,24.14,24.20,24.13,24.05,23.94,23.81,23.73,23.65,23.57,23.50,23.42,23.50,23.63,23.75,23.83,23.91,23.99,24.06,24.14,24.22,24.29,24.31,24.26,24.11,24.03,23.90,23.78,23.68,23.54,23.45,23.32,23.20,23.11,22.96,22.81,22.65,22.52,22.52,22.65,22.76,22.82,22.82,22.83,22.87,22.86,22.72,22.79,23.04,23.28,23.46,23.69,23.92,24.19,24.43,24.51,24.36,24.21,24.09,23.99,23.84,23.69,23.62,23.63,23.72,23.86,24.01,24.17,24.31,24.39,24.41,24.41,24.39,24.32,24.31,24.26,24.19,24.11
19.64,19.70,19.71,19.74,19.78,19.72,19.71,19.70,19.68,19.68,19.74,19.86,20.11,20.56,21.24,21.94,22.25,22.14,21.89,21.70,21.60,21.65,21.93,22.29,22.59,22.63,22.34,21.90,21.63,21.40,21.19,21.03,20.86,20.77,20.74,20.74,20.74,20.80,20.87,20.97,21.12,21.28,21.38,21.44,21.44,21.57,21.72,21.92,22.19,22.52,22.73,22.83,22.86,22.92,23.01,23.20,23.36,23.38,23.38,23.44,23.48,23.48,23.48,23.36,23.25,23.14,23.01,22.93,22.80,22.63,22.44,22.16,21.92,21.67,21.41,21.12,20.94,20.78,20.58,20.32,20.19,20.04,19.92,19.84,19.75,19.76,19.82,19.86,19.84,19.79,19.75,19.72,19.66,19.58,19.51,19.43,19.35,19.28,19.20,19.14,19.07,19.00,18.98,18.91,18.84,18.76,18.68,18.60,18.60,18.65,18.67,18.72,18.80,18.87,18.94,18.97,19.03,19.10,19.16,19.24,19.31,19.36,19.39,19.44,19.44,19.44,19.44,19.43,19.35,19.29,19.23,19.15,19.07,19.12,19.19,19.26,19.31,19.34,19.39,19.42,19.45,19.47,19.47,19.52,19.60,19.70,19.84,20.03,20.21,20.37,20.52,20.67,20.84,21.01,21.14,21.29,21.39,21.49,21.62,21.72,21.86,22.00,22.13,22.29,22.44,22.63,22.83,23.00,23.16,23.31,23.49,23.68,23.76,23.84,23.91,23.99,24.04,24.12,24.19,24.25,24.27,24.25,24.18,24.09,24.00,23.92,23.84,23.77,23.69,23.61,23.69,23.79,23.88,23.96,24.09,24.18,24.25,24.33,24.41,24.43,24.44,24.38,24.24,24.16,24.06,23.95,23.82,23.72,23.59,23.48,23.37,23.24,23.08,22.97,22.85,22.71,22.71,22.84,22.95,23.01,23.01,23.06,23.10,23.06,22.91,22.82,23.04,23.33,23.58,23.82,24.00,24.22,24.46,24.64,24.49,24.37,24.26,24.12,23.97,23.86,23.78,23.77,23.91,24.01,24.14,24.28,24.38,24.45,24.47,24.47,24.46,24.38,24.37,24.33,24.26,24.24
