20.00,20.08,20.16,20.22,20.26,20.38,20.53,20.64,20.74,20.89,21.05,21.18,21.28,21.36,21.51,21.61,21.70,21.82,21.94,22.02,22.12,22.23,22.35,22.43,22.53,22.64,22.76,22.88,22.99,23.09,23.19,23.34,23.42,23.53,23.63,23.71,23.87,23.96,24.07,24.21,24.29,24.44,24.55,24.65,24.80,24.96,25.19,25.44,25.68,25.91,26.14,26.37,26.60,26.84,27.07,27.30,27.50,27.66,27.89,28.07,28.20,28.34,28.57,28.74,28.94,29.17,29.40,29.63,29.81,30.03,30.34,30.69,31.04,31.36,31.67,31.98,32.33,32.70,33.04,33.32,33.58,33.91,34.25,34.55,34.86,35.10,35.29,35.46,35.65,35.88,36.00,36.01,35.93,35.85,35.78,35.66,35.53,35.49,35.42,35.34,35.25,35.13,35.05,35.01,34.95,34.88,34.85,34.84,34.91,35.05,35.24,35.47,35.67,35.91,36.21,36.44,36.70,36.87,36.96,37.12,37.27,37.33,37.33,37.33,37.37,37.44,37.55,37.71,37.83,37.95,38.07,38.18,38.26,38.37,38.51,38.72,39.02,39.25,39.52,39.78,40.05,40.32,40.63,40.94,41.25,41.56,41.84,42.08,42.28,42.44,42.63,42.79,42.97,43.15,43.31,43.46,43.69,43.98,44.29,44.64,45.01,45.38,45.73,46.12,46.51,46.89,47.28,47.67,48.13,48.65,49.18,49.72,50.43,51.47,52.60,53.78,55.02,55.77,56.35,56.70,56.79,56.71,56.54,56.53,56.75,57.12,57.78,58.57,59.58,61.00,64.25,67.46,70.46,73.20,75.94,78.65,81.16,83.33,85.08,85.21,84.59,83.89,83.66,83.42,83.87,85.00,86.88,89.66,93.37,97.47,101.81,106.23,110.00,113.05,114.95,115.51,114.89,113.85,112.97,112.49,112.60,116.70,120.70,124.79,129.38,135.21,139.71,143.18,145.68,147.07,148.23,149.55,151.32,153.80,157.21,156.52,153.52,150.03,149.50,150.30,149.82,147.48,143.53,139.43,135.71,133.11,132.11,130.88,130.58,130.47,130.06,128.76,126.12,123.25,120.68,118.94
20.01,20.09,20.17,20.24,20.32,20.40,20.53,20.65,20.75,20.89,21.05,21.20,21.33,21.41,21.57,21.67,21.78,21.92,22.00,22.08,22.20,22.34,22.41,22.50,22.63,22.75,22.84,22.99,23.08,23.16,23.26,23.42,23.50,23.57,23.65,23.73,23.89,23.98,24.09,24.23,24.30,24.45,24.56,24.66,24.80,24.96,25.23,25.50,25.74,25.97,26.20,26.44,26.67,26.90,27.13,27.36,27.57,27.73,27.96,28.13,28.25,28.35,28.57,28.74,28.94,29.17,29.40,29.63,29.81,30.03,30.35,30.73,31.06,31.36,31.68,31.99,32.37,32.76,33.10,33.34,33.64,33.95,34.26,34.56,34.87,35.11,35.30,35.48,35.70,35.93,36.11,36.19,36.12,36.05,35.97,35.86,35.74,35.74,35.68,35.60,35.52,35.45,35.37,35.30,35.22,35.14,35.07,35.07,35.11,35.23,35.46,35.76,36.02,36.29,36.58,36.82,37.12,37.31,37.41,37.57,37.72,37.77,37.77,37.77,37.77,37.83,37.91,37.98,38.05,38.06,38.05,38.07,38.14,38.28,38.47,38.72,39.02,39.25,39.54,39.85,40.16,40.46,40.76,41.01,41.24,41.46,41.63,41.83,42.03,42.20,42.42,42.59,42.74,42.90,43.08,43.24,43.51,43.85,44.22,44.54,44.90,45.28,45.67,46.09,46.51,46.93,47.34,47.73,48.19,48.61,49.04,49.48,49.93,50.63,51.56,52.68,53.85,54.47,55.04,55.47,55.71,55.75,55.70,55.91,56.41,57.03,57.79,58.62,59.74,61.45,64.69,67.93,70.96,73.74,76.55,79.11,81.40,83.16,83.90,82.09,80.34,78.94,78.07,77.98,79.34,81.50,84.26,87.75,91.78,95.98,100.31,104.78,108.06,110.58,112.12,112.58,111.99,111.02,110.15,109.99,111.56,117.05,121.66,125.73,129.93,135.19,139.69,143.43,146.53,149.44,152.56,154.92,156.90,159.23,161.55,160.02,156.73,153.68,154.26,154.76,153.73,151.04,147.27,144.00,140.44,137.54,136.07,134.01,133.10,132.38,131.21,128.76,124.92,121.44,118.77,117.09
20.08,20.15,20.23,20.31,20.39,20.46,20.56,20.67,20.80,20.90,21.05,21.20,21.33,21.41,21.57,21.71,21.82,21.93,22.06,22.14,22.27,22.40,22.48,22.61,22.72,22.83,22.96,23.06,23.19,23.29,23.39,23.54,23.62,23.70,23.78,23.86,24.02,24.11,24.20,24.29,24.37,24.51,24.62,24.70,24.80,25.01,25.25,25.52,25.80,26.04,26.27,26.50,26.73,26.96,27.19,27.43,27.63,27.79,28.02,28.19,28.31,28.41,28.58,28.74,28.94,29.17,29.40,29.63,29.81,30.03,30.35,30.73,31.06,31.36,31.69,32.05,32.44,32.82,33.18,33.46,33.72,34.01,34.32,34.63,34.94,35.13,35.32,35.53,35.70,35.93,36.15,36.29,36.32,36.24,36.16,36.07,36.00,36.00,35.98,35.89,35.79,35.77,35.69,35.62,35.54,35.47,35.45,35.45,35.49,35.61,35.85,36.10,36.38,36.65,36.90,37.19,37.50,37.72,37.86,38.01,38.17,38.19,38.15,38.15,38.21,38.28,38.33,38.36,38.44,38.40,38.37,38.38,38.40,38.44,38.53,38.72,39.02,39.25,39.50,39.78,40.09,40.40,40.60,40.82,41.03,41.21,41.42,41.60,41.80,42.00,42.18,42.33,42.49,42.69,43.02,43.18,43.47,43.83,44.16,44.53,44.86,45.22,45.64,46.20,46.81,47.43,47.99,48.43,48.84,49.03,49.23,49.53,49.94,50.46,51.09,51.81,52.58,53.15,53.69,54.18,54.58,54.87,55.26,55.76,56.35,56.97,57.73,58.62,59.90,61.90,65.14,68.30,71.25,73.96,76.53,78.88,80.89,82.11,81.77,79.11,76.62,74.59,73.24,73.55,75.61,78.73,82.51,86.55,91.03,95.43,99.67,103.74,106.33,108.59,109.88,109.98,109.60,108.82,108.68,109.56,111.72,117.48,122.30,126.55,130.86,135.67,139.92,143.70,147.18,150.83,155.13,158.46,160.74,162.23,164.11,163.47,161.16,158.44,159.27,159.16,157.41,154.26,150.59,146.90,143.12,139.93,137.87,135.90,133.53,131.03,128.23,124.16,121.26,119.13,117.46,115.88
20.10,20.18,20.26,20.33,20.41,20.49,20.57,20.69,20.83,20.93,21.06,21.20,21.34,21.45,21.57,21.72,21.85,21.96,22.09,22.20,22.33,22.46,22.54,22.70,22.79,22.91,23.05,23.13,23.27,23.38,23.48,23.63,23.71,23.81,23.91,23.99,24.14,24.24,24.31,24.39,24.47,24.62,24.72,24.80,24.88,25.08,25.30,25.56,25.83,26.09,26.33,26.56,26.80,27.03,27.26,27.49,27.69,27.85,28.09,28.23,28.35,28.47,28.62,28.75,28.94,29.17,29.40,29.63,29.81,30.03,30.35,30.73,31.06,31.36,31.69,32.08,32.46,32.85,33.22,33.55,33.78,34.07,34.38,34.69,34.97,35.16,35.36,35.55,35.74,35.94,36.16,36.34,36.44,36.45,36.39,36.33,36.29,36.29,36.27,36.18,36.09,36.09,36.01,35.94,35.87,35.84,35.87,35.87,35.92,36.04,36.27,36.50,36.77,37.03,37.27,37.57,37.86,38.10,38.31,38.46,38.59,38.60,38.57,38.57,38.62,38.69,38.73,38.74,38.79,38.73,38.69,38.69,38.69,38.66,38.69,38.79,38.98,39.22,39.45,39.70,39.98,40.26,40.43,40.63,40.84,40.99,41.19,41.38,41.57,41.78,42.03,42.27,42.53,42.83,43.18,43.32,43.54,43.82,44.13,44.49,44.83,45.27,45.83,46.51,47.21,47.90,48.55,49.10,49.45,49.53,49.60,49.84,50.32,50.86,51.40,51.96,52.55,53.06,53.59,54.11,54.59,54.95,55.37,55.81,56.29,56.90,57.69,58.60,59.83,61.65,64.89,68.24,71.23,73.67,75.93,77.94,79.72,80.54,78.99,75.41,73.04,71.55,70.59,70.90,72.83,76.39,81.16,85.80,90.53,94.95,98.96,102.52,104.84,107.03,108.17,107.94,107.58,107.07,107.62,109.46,112.42,117.99,122.72,126.96,131.22,135.76,139.92,143.72,147.28,151.01,155.83,159.83,162.81,164.92,166.59,167.05,165.96,163.72,163.72,162.59,160.36,157.22,153.56,149.48,145.46,141.77,138.65,135.97,132.76,129.14,125.20,121.18,119.05,117.53,116.19,114.70
20.10,20.18,20.26,20.34,20.41,20.49,20.57,20.69,20.84,20.99,21.08,21.20,21.36,21.51,21.59,21.72,21.88,22.02,22.09,22.24,22.39,22.52,22.61,22.76,22.86,22.97,23.11,23.19,23.33,23.44,23.54,23.70,23.78,23.90,24.03,24.12,24.27,24.36,24.44,24.52,24.60,24.75,24.85,24.93,25.01,25.16,25.37,25.60,25.84,26.15,26.39,26.63,26.86,27.09,27.32,27.55,27.76,27.92,28.15,28.26,28.38,28.53,28.69,28.77,28.94,29.17,29.40,29.63,29.81,30.03,30.35,30.73,31.06,31.37,31.69,32.08,32.47,32.85,33.24,33.62,33.85,34.14,34.45,34.74,34.97,35.20,35.39,35.57,35.80,35.96,36.16,36.36,36.52,36.67,36.64,36.61,36.61,36.61,36.54,36.46,36.41,36.41,36.33,36.26,36.22,36.23,36.31,36.32,36.36,36.48,36.71,36.95,37.18,37.41,37.65,37.96,38.20,38.48,38.75,38.90,38.99,39.02,39.02,39.02,39.02,39.07,39.12,39.12,39.11,39.04,39.01,39.01,39.01,38.93,38.91,38.91,38.93,39.16,39.38,39.61,39.84,40.07,40.24,40.44,40.64,40.80,40.95,41.17,41.38,41.58,41.96,42.35,42.78,43.20,43.51,43.59,43.66,43.83,44.13,44.44,44.81,45.39,46.16,46.93,47.64,48.34,49.04,49.73,50.05,50.08,50.11,50.34,50.95,51.64,52.24,52.78,53.32,53.79,54.30,54.85,55.37,55.68,55.87,56.02,56.26,56.86,57.67,58.55,59.59,60.93,64.13,67.81,70.91,72.99,74.91,76.49,78.04,78.50,75.75,71.36,69.67,69.45,69.39,69.48,70.75,74.41,80.11,85.36,90.19,94.51,98.21,101.22,103.53,105.76,106.80,106.27,105.80,105.65,106.86,109.56,113.43,118.53,122.99,127.09,131.20,135.60,139.75,143.54,146.99,150.38,155.28,159.75,163.68,167.33,169.03,170.71,170.99,169.38,167.82,165.41,162.83,160.00,156.30,151.85,147.56,143.27,138.82,134.95,131.30,127.00,122.28,119.33,117.83,116.43,115.01,113.65
20.17,20.25,20.32,20.40,20.48,20.55,20.63,20.72,20.84,20.99,21.12,21.24,21.36,21.51,21.64,21.75,21.88,22.03,22.15,22.26,22.39,22.54,22.67,22.82,22.92,23.03,23.18,23.25,23.40,23.51,23.61,23.76,23.84,23.97,24.11,24.24,24.34,24.47,24.57,24.65,24.73,24.92,25.05,25.12,25.20,25.36,25.53,25.71,25.90,26.16,26.39,26.65,26.92,27.15,27.39,27.62,27.82,27.98,28.21,28.33,28.44,28.59,28.75,28.84,28.97,29.17,29.40,29.63,29.81,30.03,30.35,30.73,31.06,31.39,31.76,32.14,32.53,32.92,33.30,33.68,33.97,34.23,34.51,34.81,35.04,35.23,35.42,35.62,35.80,36.01,36.19,36.38,36.58,36.74,36.83,36.87,36.87,36.87,36.79,36.75,36.73,36.73,36.65,36.65,36.67,36.67,36.70,36.70,36.74,36.87,37.10,37.33,37.56,37.79,38.03,38.28,38.56,38.86,39.13,39.29,39.37,39.43,39.47,39.47,39.47,39.49,39.50,39.48,39.38,39.30,39.27,39.27,39.27,39.19,39.17,39.15,39.11,39.24,39.33,39.46,39.65,39.88,40.09,40.28,40.45,40.61,40.81,41.23,41.66,42.02,42.35,42.73,43.13,43.52,43.83,43.91,43.95,44.05,44.27,44.63,44.97,45.42,46.05,46.92,47.73,48.56,49.39,50.18,50.80,51.06,51.22,51.48,52.05,52.68,53.24,53.74,54.28,54.75,55.26,55.82,56.40,56.76,56.95,57.06,57.13,57.28,57.60,58.14,58.90,59.89,62.10,65.33,68.54,71.10,72.78,73.78,74.33,73.99,71.82,70.03,69.19,68.96,68.96,69.29,70.27,73.87,79.85,85.10,89.85,94.04,97.68,100.83,103.05,104.54,105.03,104.54,104.08,105.04,106.89,109.64,113.55,118.33,122.80,127.01,131.06,135.26,139.14,142.67,145.93,149.12,153.70,158.43,163.15,167.80,171.27,174.27,175.98,175.70,172.02,168.42,165.23,162.21,158.65,154.08,149.51,144.92,140.27,136.21,132.02,127.29,122.36,119.17,117.59,116.41,115.47,114.80
20.20,20.28,20.36,20.43,20.51,20.59,20.67,20.74,20.84,20.99,21.15,21.25,21.36,21.51,21.67,21.78,21.89,22.03,22.18,22.29,22.42,22.58,22.73,22.86,22.97,23.09,23.21,23.31,23.44,23.55,23.67,23.82,23.93,24.05,24.19,24.34,24.41,24.55,24.67,24.75,24.85,25.11,25.27,25.34,25.39,25.55,25.70,25.86,26.02,26.20,26.42,26.68,26.96,27.22,27.45,27.68,27.89,28.05,28.28,28.39,28.50,28.66,28.81,28.90,29.02,29.19,29.40,29.63,29.81,30.03,30.35,30.73,31.07,31.44,31.82,32.21,32.59,32.98,33.37,33.75,34.08,34.34,34.59,34.87,35.08,35.26,35.45,35.65,35.83,36.04,36.23,36.42,36.62,36.77,36.91,36.98,37.02,37.09,37.09,37.08,37.08,37.08,37.03,37.05,37.08,37.09,37.11,37.11,37.16,37.28,37.51,37.74,37.97,38.21,38.44,38.67,38.95,39.23,39.49,39.67,39.78,39.85,39.89,39.91,39.91,39.95,39.95,39.88,39.71,39.60,39.55,39.55,39.52,39.45,39.42,39.41,39.39,39.42,39.42,39.48,39.60,39.76,39.94,40.12,40.34,40.63,40.98,41.55,42.09,42.49,42.77,43.12,43.50,43.85,44.12,44.20,44.24,44.31,44.48,44.82,45.12,45.47,45.98,46.86,47.69,48.52,49.37,50.24,50.99,51.53,51.99,52.46,53.09,53.69,54.22,54.70,55.24,55.73,56.25,56.81,57.39,57.80,58.03,58.11,58.06,57.94,58.04,58.42,58.97,59.57,60.73,63.20,66.17,68.97,70.61,71.36,71.44,70.84,69.48,69.05,68.68,68.53,68.74,69.22,70.13,73.86,80.17,85.37,89.83,93.86,97.49,100.69,102.67,103.36,103.27,102.85,102.85,104.59,106.81,109.49,113.17,117.63,122.06,126.38,130.52,134.52,138.25,141.67,144.83,147.95,152.14,156.91,162.15,167.77,172.90,176.98,179.70,180.49,176.88,172.16,167.96,164.38,160.69,156.05,151.40,146.69,141.88,137.57,132.96,127.94,122.90,119.43,118.01,117.14,116.58,116.35
20.20,20.28,20.36,20.43,20.51,20.59,20.67,20.74,20.84,20.99,21.15,21.25,21.36,21.51,21.67,21.82,21.93,22.03,22.18,22.34,22.49,22.64,22.80,22.88,23.01,23.13,23.22,23.37,23.46,23.58,23.73,23.89,24.04,24.14,24.25,24.40,24.48,24.61,24.73,24.82,24.97,25.33,25.52,25.58,25.58,25.74,25.89,26.05,26.19,26.28,26.49,26.72,26.97,27.28,27.51,27.75,27.95,28.11,28.34,28.45,28.57,28.72,28.88,28.96,29.09,29.24,29.40,29.63,29.81,30.03,30.35,30.73,31.12,31.50,31.89,32.27,32.66,33.04,33.43,33.82,34.20,34.47,34.70,34.92,35.08,35.30,35.49,35.67,35.89,36.05,36.26,36.46,36.62,36.77,36.87,36.94,37.05,37.27,37.42,37.47,37.47,37.47,37.46,37.46,37.47,37.48,37.55,37.56,37.61,37.73,37.96,38.19,38.42,38.65,38.89,39.12,39.35,39.59,39.82,40.05,40.21,40.26,40.29,40.36,40.36,40.47,40.48,40.32,40.10,39.94,39.87,39.85,39.78,39.70,39.68,39.70,39.76,39.69,39.68,39.68,39.69,39.70,39.78,39.96,40.31,40.90,41.50,42.16,42.69,42.99,43.23,43.53,43.88,44.21,44.37,44.45,44.53,44.63,44.79,45.03,45.27,45.55,45.96,46.74,47.52,48.21,48.94,49.85,50.55,51.45,52.37,53.25,54.09,54.67,55.17,55.66,56.20,56.74,57.27,57.82,58.36,58.81,59.09,59.17,59.07,58.84,59.02,59.44,59.87,60.06,60.08,61.45,63.78,66.57,68.40,69.27,69.45,69.18,68.86,68.48,68.14,68.16,68.74,69.28,70.35,74.42,81.11,86.21,90.17,94.02,97.67,100.81,102.39,102.23,101.52,101.19,102.18,104.33,106.63,109.10,112.24,116.39,120.72,125.14,129.55,133.35,137.08,140.52,143.69,146.85,150.61,155.15,160.64,167.21,173.87,178.78,182.04,183.61,182.47,176.70,171.06,166.51,162.38,157.76,153.22,148.57,143.65,139.04,134.14,128.98,123.93,120.17,119.15,118.68,118.42,118.33
20.26,20.34,20.41,20.49,20.57,20.65,20.72,20.80,20.89,21.00,21.15,21.28,21.40,21.51,21.67,21.82,21.94,22.03,22.18,22.34,22.49,22.65,22.80,22.92,23.07,23.19,23.28,23.43,23.52,23.64,23.79,23.90,24.05,24.18,24.30,24.41,24.53,24.68,24.80,24.90,25.15,25.48,25.69,25.79,25.83,25.94,26.09,26.24,26.39,26.51,26.65,26.82,27.02,27.29,27.56,27.81,28.01,28.17,28.41,28.52,28.63,28.78,28.89,29.01,29.15,29.29,29.40,29.63,29.81,30.05,30.40,30.74,31.12,31.51,31.89,32.28,32.66,33.05,33.44,33.83,34.26,34.54,34.77,34.99,35.14,35.36,35.55,35.73,35.96,36.11,36.23,36.31,36.38,36.49,36.61,36.73,36.87,37.05,37.25,37.41,37.55,37.68,37.77,37.86,37.91,37.91,37.95,37.95,37.99,38.12,38.35,38.58,38.81,39.04,39.27,39.46,39.64,39.88,40.14,40.37,40.58,40.68,40.75,40.87,40.96,41.07,41.12,41.06,40.83,40.71,40.71,40.74,40.62,40.54,40.58,40.65,40.66,40.49,40.49,40.49,40.45,40.40,40.43,40.56,40.87,41.45,42.07,42.74,43.24,43.50,43.73,43.99,44.28,44.53,44.69,44.72,44.85,45.11,45.53,45.90,46.12,46.33,46.57,46.89,47.17,47.63,48.30,49.18,49.92,50.66,51.44,52.26,53.02,53.79,54.51,55.28,56.27,57.17,57.92,58.56,59.14,59.65,59.87,59.93,59.89,59.84,60.04,60.41,60.75,60.86,60.83,61.36,62.58,64.45,66.44,67.60,68.20,68.34,68.11,67.77,67.75,68.09,68.75,69.43,71.64,76.21,82.61,88.11,91.26,94.46,97.59,100.06,101.11,100.60,99.66,99.31,101.43,103.67,105.92,108.32,111.23,115.17,119.38,123.64,127.77,131.51,135.37,139.28,143.12,146.55,150.46,154.98,160.27,166.51,172.81,178.00,181.56,183.30,183.77,179.83,174.58,169.11,164.09,159.17,154.55,149.95,145.14,140.28,135.19,130.21,125.79,123.09,122.35,122.02,121.80,121.59
20.30,20.38,20.46,20.53,20.61,20.69,20.77,20.84,20.92,21.02,21.15,21.30,21.44,21.53,21.67,21.82,21.95,22.05,22.21,22.36,22.52,22.67,22.83,22.98,23.13,23.26,23.34,23.50,23.59,23.70,23.82,23.92,24.05,24.20,24.33,24.41,24.57,24.72,24.85,24.98,25.29,25.60,25.84,25.99,26.07,26.14,26.28,26.43,26.59,26.74,26.83,26.95,27.12,27.33,27.61,27.86,28.08,28.24,28.47,28.58,28.70,28.84,28.91,29.06,29.21,29.35,29.42,29.64,29.81,30.06,30.44,30.77,31.14,31.53,31.91,32.30,32.69,33.07,33.46,33.85,34.29,34.60,34.85,35.07,35.23,35.42,35.60,35.78,35.98,36.08,36.11,36.11,36.12,36.20,36.34,36.49,36.65,36.82,37.05,37.29,37.53,37.74,37.91,38.07,38.17,38.21,38.24,38.29,38.37,38.49,38.71,38.91,39.12,39.33,39.54,39.67,39.83,40.06,40.36,40.60,40.85,41.02,41.15,41.34,41.53,41.66,41.77,41.81,41.62,41.57,41.63,41.71,41.62,41.55,41.65,41.78,41.80,41.63,41.73,41.79,41.74,41.66,41.58,41.61,41.80,42.15,42.69,43.33,43.80,44.01,44.25,44.51,44.79,45.06,45.23,45.37,45.57,45.94,46.50,46.86,47.08,47.24,47.33,47.31,47.26,47.48,47.96,48.59,49.26,49.83,50.44,51.14,51.78,52.67,53.62,54.69,56.03,57.22,58.17,58.96,59.67,60.25,60.51,60.61,60.65,60.76,61.02,61.36,61.63,61.69,61.69,61.70,62.08,63.03,64.69,65.91,66.85,67.39,67.34,67.20,67.50,68.09,68.80,69.56,72.87,77.96,84.02,89.55,92.14,94.62,96.93,98.50,98.96,98.12,97.34,97.70,100.54,102.80,105.07,107.59,110.54,114.31,118.32,122.30,126.04,129.63,133.77,138.31,142.86,146.48,150.46,154.85,159.74,165.22,170.95,176.08,179.87,182.05,183.60,181.66,177.42,171.78,166.05,160.64,155.82,151.32,146.80,141.52,136.40,131.90,128.41,126.60,126.10,125.91,125.73,125.34
20.30,20.38,20.46,20.53,20.61,20.69,20.77,20.84,20.94,21.08,21.17,21.30,21.45,21.59,21.68,21.82,21.97,22.12,22.27,22.43,22.58,22.73,22.89,23.04,23.20,23.32,23.41,23.56,23.65,23.73,23.84,23.98,24.07,24.20,24.33,24.41,24.57,24.72,24.87,25.04,25.35,25.66,25.96,26.18,26.26,26.34,26.47,26.62,26.78,26.93,27.02,27.14,27.30,27.46,27.64,27.90,28.14,28.30,28.53,28.65,28.76,28.90,28.98,29.12,29.28,29.41,29.49,29.65,29.81,30.06,30.45,30.82,31.21,31.59,31.98,32.36,32.75,33.14,33.52,33.91,34.31,34.68,34.98,35.20,35.35,35.46,35.63,35.81,35.91,35.87,35.86,35.86,35.86,35.94,36.08,36.24,36.41,36.63,36.86,37.13,37.38,37.55,37.77,37.94,38.09,38.22,38.36,38.55,38.71,38.86,39.03,39.13,39.27,39.44,39.60,39.68,39.83,40.06,40.37,40.66,40.96,41.21,41.44,41.73,42.02,42.25,42.43,42.53,42.43,42.53,42.63,42.72,42.84,42.76,42.94,43.16,43.29,43.32,43.66,43.89,43.91,43.84,43.52,43.37,43.28,43.10,43.39,43.93,44.35,44.53,44.76,45.10,45.54,45.97,46.19,46.71,47.04,47.37,47.82,47.88,48.12,48.28,48.28,48.21,48.20,48.20,48.20,48.19,48.57,49.06,49.59,50.09,50.59,51.45,52.60,53.95,55.39,56.62,57.72,58.75,59.74,60.42,60.94,61.21,61.30,61.51,61.93,62.29,62.51,62.52,62.52,62.57,62.67,62.86,63.28,64.11,65.15,66.11,66.55,66.91,67.47,68.17,68.93,69.63,73.83,79.39,85.15,89.95,92.51,94.20,95.22,95.62,95.38,94.14,94.20,96.60,99.39,101.60,104.07,107.01,110.45,114.11,117.80,121.34,124.54,127.79,132.51,137.88,143.11,146.67,150.47,154.52,158.70,162.85,167.94,172.46,176.40,179.65,181.45,181.31,178.93,174.47,168.49,162.28,157.10,152.79,148.87,142.85,137.93,134.44,132.31,130.84,130.51,130.50,130.39,129.74
20.35,20.43,20.51,20.58,20.66,20.74,20.82,20.89,20.98,21.10,21.21,21.33,21.46,21.61,21.73,21.84,21.98,22.13,22.28,22.44,22.59,22.76,22.95,23.11,23.26,23.38,23.47,23.58,23.70,23.79,23.89,24.04,24.12,24.25,24.38,24.46,24.62,24.74,24.89,25.11,25.42,25.73,26.04,26.30,26.45,26.53,26.66,26.82,26.97,27.12,27.25,27.36,27.49,27.64,27.80,28.00,28.21,28.36,28.56,28.69,28.82,28.96,29.04,29.19,29.34,29.47,29.55,29.71,29.83,30.08,30.50,30.88,31.27,31.66,32.04,32.43,32.81,33.20,33.59,33.97,34.36,34.75,35.04,35.22,35.34,35.45,35.57,35.66,35.70,35.66,35.62,35.60,35.61,35.69,35.83,36.02,36.25,36.48,36.72,36.97,37.22,37.41,37.60,37.80,37.97,38.13,38.28,38.47,38.66,38.85,39.05,39.16,39.31,39.46,39.61,39.69,39.83,40.06,40.36,40.63,40.94,41.20,41.45,41.76,42.07,42.35,42.61,42.81,42.89,43.14,43.36,43.57,43.80,43.88,44.09,44.33,44.52,44.71,45.00,45.19,45.24,45.21,44.99,44.83,44.68,44.45,44.45,44.68,44.92,45.09,45.32,45.72,46.29,46.92,47.34,47.99,48.49,48.87,49.15,49.15,49.28,49.31,49.24,49.16,49.12,49.05,48.95,48.80,48.88,49.13,49.42,49.69,50.00,50.81,51.95,53.33,54.80,56.05,57.23,58.39,59.51,60.29,60.85,61.29,61.68,62.06,62.56,63.03,63.35,63.35,63.35,63.38,63.42,63.47,63.58,63.99,64.71,65.57,66.22,66.81,67.49,68.22,68.95,69.65,74.00,79.50,84.93,89.49,91.61,92.63,92.87,92.64,92.09,91.58,92.50,95.31,98.05,100.57,103.48,106.82,110.34,113.96,117.62,121.09,124.22,127.39,132.20,137.61,142.71,145.99,148.93,152.24,155.82,159.38,163.31,167.58,171.79,175.52,177.76,179.14,178.71,176.01,170.64,164.43,158.95,154.34,150.43,145.34,141.22,138.60,137.33,136.06,135.29,134.57,133.45,131.40
20.40,20.48,20.56,20.63,20.71,20.79,20.87,20.94,21.02,21.10,21.25,21.35,21.46,21.61,21.77,21.87,21.99,22.14,22.30,22.45,22.61,22.78,23.00,23.16,23.31,23.44,23.52,23.60,23.74,23.86,23.95,24.11,24.19,24.31,24.43,24.53,24.68,24.77,24.93,25.17,25.47,25.78,26.09,26.37,26.62,26.73,26.86,27.01,27.16,27.32,27.47,27.58,27.68,27.82,27.96,28.12,28.27,28.41,28.58,28.72,28.87,29.02,29.10,29.24,29.39,29.52,29.60,29.76,29.85,30.08,30.50,30.89,31.28,31.66,32.05,32.45,32.84,33.22,33.61,34.00,34.39,34.78,35.05,35.19,35.26,35.39,35.45,35.46,35.46,35.45,35.40,35.35,35.35,35.44,35.59,35.83,36.11,36.34,36.57,36.81,37.04,37.27,37.43,37.64,37.83,38.00,38.15,38.32,38.52,38.75,38.98,39.14,39.29,39.45,39.60,39.68,39.83,40.05,40.34,40.57,40.86,41.13,41.39,41.70,42.01,42.32,42.62,42.91,43.14,43.50,43.83,44.15,44.47,44.71,44.94,45.15,45.37,45.65,45.83,45.98,46.10,46.17,46.19,46.09,45.93,45.76,45.53,45.47,45.53,45.69,45.90,46.33,47.02,47.82,48.47,49.16,49.80,50.24,50.43,50.45,50.47,50.43,50.32,50.24,50.19,50.12,50.03,49.86,49.68,49.65,49.70,49.78,49.91,50.56,51.56,52.83,54.27,55.47,56.69,57.93,59.13,60.00,60.57,61.14,61.78,62.34,62.92,63.52,63.98,64.09,64.15,64.18,64.21,64.28,64.36,64.44,64.79,65.38,66.07,66.77,67.51,68.24,68.92,69.60,73.69,78.80,83.83,88.20,89.98,90.59,90.46,89.93,89.36,89.78,91.40,94.14,96.84,99.65,102.98,106.68,110.22,113.90,117.61,121.13,124.26,127.41,132.04,137.14,141.88,144.81,146.79,149.35,152.44,155.64,158.55,162.46,166.68,170.63,173.57,176.13,177.44,176.69,172.66,166.92,161.28,156.38,152.60,148.74,145.54,143.58,142.69,141.41,139.92,138.19,135.80,132.19
20.40,20.48,20.56,20.63,20.71,20.79,20.87,20.94,21.02,21.10,21.25,21.35,21.46,21.61,21.77,21.91,22.05,22.21,22.36,22.52,22.67,22.83,23.00,23.16,23.31,23.46,23.59,23.67,23.81,23.92,24.02,24.17,24.25,24.34,24.45,24.59,24.74,24.84,24.99,25.23,25.47,25.78,26.09,26.39,26.68,26.94,27.08,27.20,27.35,27.51,27.66,27.78,27.86,27.95,28.05,28.18,28.31,28.41,28.63,28.75,28.87,29.03,29.16,29.26,29.39,29.52,29.60,29.76,29.85,30.02,30.31,30.70,31.09,31.47,31.87,32.32,32.71,33.09,33.48,33.87,34.32,34.72,34.97,35.06,35.13,35.17,35.22,35.27,35.27,35.21,35.18,35.14,35.10,35.24,35.44,35.67,35.92,36.15,36.38,36.61,36.85,37.08,37.29,37.47,37.67,37.87,38.02,38.23,38.46,38.69,38.92,39.07,39.23,39.38,39.54,39.67,39.83,40.03,40.27,40.51,40.75,41.03,41.33,41.64,41.94,42.25,42.54,42.78,43.01,43.33,43.64,43.97,44.34,44.63,44.84,44.99,45.10,45.23,45.43,45.73,46.10,46.46,46.92,46.96,46.74,46.53,46.30,46.24,46.28,46.37,46.49,46.95,47.66,48.50,49.29,49.99,50.59,51.09,51.46,51.58,51.70,51.80,51.86,51.78,51.81,51.82,51.74,51.52,51.24,51.01,50.92,50.98,50.95,51.16,51.70,52.60,53.89,54.90,56.05,57.29,58.50,59.47,60.14,60.69,61.22,61.82,62.58,63.27,63.88,64.48,64.84,64.98,65.02,65.05,65.12,65.25,65.45,65.74,66.09,66.77,67.47,68.16,68.79,69.36,72.39,76.50,80.92,84.80,86.93,88.05,88.41,88.27,88.30,89.20,91.02,93.63,96.27,98.99,102.39,106.31,110.14,114.07,117.94,121.46,124.45,127.49,131.41,135.84,140.14,142.68,144.04,146.20,149.06,152.06,154.87,157.70,160.91,164.74,169.11,171.91,174.14,175.46,174.54,170.09,164.73,160.09,157.37,154.26,151.80,149.83,148.16,146.34,143.65,140.69,137.18,132.64
20.40,20.48,20.56,20.65,20.75,20.83,20.91,20.98,21.06,21.14,21.26,21.37,21.49,21.61,21.77,21.92,22.08,22.23,22.38,22.57,22.74,22.89,23.04,23.20,23.35,23.51,23.66,23.77,23.89,23.98,24.07,24.19,24.30,24.39,24.50,24.65,24.77,24.89,25.05,25.29,25.56,25.83,26.13,26.44,26.74,26.99,27.09,27.17,27.29,27.45,27.58,27.67,27.75,27.83,27.94,28.05,28.18,28.33,28.56,28.73,28.87,29.02,29.14,29.26,29.39,29.52,29.60,29.76,29.85,29.98,30.20,30.52,30.89,31.30,31.72,32.15,32.54,32.92,33.31,33.70,34.16,34.50,34.70,34.80,34.88,34.92,34.98,35.03,35.03,34.96,34.91,34.87,34.85,35.04,35.26,35.50,35.73,35.96,36.19,36.42,36.65,36.89,37.12,37.32,37.51,37.71,37.89,38.12,38.35,38.58,38.81,39.00,39.17,39.32,39.47,39.63,39.78,39.99,40.24,40.44,40.67,40.95,41.25,41.53,41.84,42.15,42.42,42.65,42.89,43.16,43.45,43.78,44.17,44.45,44.62,44.73,44.84,44.88,45.05,45.35,45.79,46.35,46.99,47.29,47.34,47.29,47.06,47.00,47.04,47.11,47.15,47.51,48.15,48.97,49.79,50.52,51.16,51.74,52.25,52.60,52.85,53.10,53.34,53.42,53.47,53.49,53.45,53.31,53.06,52.77,52.59,52.56,52.45,52.39,52.53,52.92,53.61,54.53,55.53,56.61,57.74,58.74,59.47,60.07,60.66,61.34,62.18,62.94,63.68,64.45,65.01,65.40,65.68,65.86,65.93,66.08,66.23,66.40,66.59,67.12,67.76,68.42,69.06,69.89,72.36,75.65,79.21,82.31,84.23,85.52,86.36,86.92,87.70,88.87,90.73,93.35,96.17,99.00,102.44,106.37,110.25,114.13,117.98,121.38,124.01,126.44,129.45,132.61,135.65,138.27,140.23,142.64,145.45,148.35,151.46,154.12,156.97,160.46,164.81,167.79,170.36,172.69,174.60,172.27,168.44,164.71,162.35,159.85,157.38,155.00,152.68,150.18,146.68,142.95,138.78,133.72
20.41,20.49,20.56,20.67,20.81,20.89,20.97,21.04,21.12,21.20,21.27,21.40,21.53,21.62,21.77,21.93,22.08,22.24,22.39,22.61,22.79,22.95,23.10,23.26,23.41,23.57,23.72,23.88,23.97,24.05,24.13,24.20,24.35,24.46,24.56,24.71,24.79,24.93,25.12,25.37,25.67,25.91,26.19,26.50,26.80,26.94,26.98,27.01,27.10,27.25,27.34,27.42,27.50,27.58,27.72,27.83,27.97,28.20,28.44,28.67,28.86,29.00,29.09,29.24,29.39,29.52,29.60,29.76,29.85,29.96,30.13,30.36,30.71,31.13,31.57,31.96,32.35,32.73,33.12,33.51,33.96,34.18,34.34,34.48,34.56,34.64,34.72,34.77,34.77,34.70,34.63,34.59,34.63,34.85,35.09,35.32,35.55,35.78,36.01,36.24,36.47,36.70,36.93,37.16,37.36,37.53,37.76,37.99,38.22,38.45,38.69,38.92,39.10,39.26,39.41,39.57,39.72,39.96,40.23,40.39,40.62,40.89,41.17,41.41,41.72,42.02,42.29,42.53,42.76,42.99,43.26,43.59,43.97,44.20,44.32,44.43,44.57,44.59,44.72,44.95,45.34,46.03,46.71,47.31,47.75,47.99,47.80,47.76,47.80,47.86,47.86,48.05,48.57,49.34,50.10,50.88,51.60,52.27,52.89,53.52,53.90,54.28,54.70,55.00,55.03,55.04,55.04,55.04,54.89,54.64,54.41,54.26,54.11,53.90,53.71,53.58,53.49,54.33,55.13,55.99,56.98,57.97,58.72,59.41,60.13,60.90,61.75,62.58,63.38,64.15,64.85,65.55,66.15,66.59,66.73,66.89,67.05,67.20,67.36,67.66,68.22,68.92,69.67,70.96,73.15,75.74,78.38,80.59,82.07,83.37,84.62,85.92,87.44,88.79,90.68,93.42,96.50,99.49,102.94,106.75,110.51,114.14,117.79,120.92,123.09,124.68,126.75,128.48,129.99,132.83,135.82,138.77,141.67,144.56,148.12,151.14,154.04,157.14,160.72,163.76,166.30,169.02,173.34,173.61,171.98,169.53,167.23,165.27,162.44,159.47,156.57,153.31,149.18,144.92,140.34,134.99
20.47,20.55,20.63,20.71,20.81,20.89,20.97,21.04,21.12,21.20,21.27,21.40,21.55,21.68,21.84,21.99,22.15,22.30,22.45,22.63,22.79,22.95,23.10,23.26,23.41,23.57,23.72,23.88,24.01,24.11,24.19,24.27,24.42,24.52,24.63,24.78,24.85,25.03,25.25,25.49,25.74,25.98,26.26,26.53,26.73,26.72,26.72,26.75,26.84,27.00,27.09,27.16,27.25,27.38,27.49,27.64,27.84,28.08,28.31,28.54,28.73,28.89,29.08,29.24,29.36,29.47,29.60,29.76,29.85,29.96,30.13,30.36,30.59,30.94,31.38,31.77,32.15,32.54,32.95,33.38,33.62,33.80,33.95,34.10,34.17,34.30,34.40,34.45,34.45,34.43,34.40,34.46,34.62,34.80,35.06,35.29,35.48,35.72,35.90,36.11,36.34,36.57,36.80,37.04,37.23,37.40,37.63,37.86,38.09,38.33,38.56,38.79,39.01,39.19,39.35,39.50,39.70,39.93,40.18,40.38,40.62,40.86,41.11,41.34,41.65,41.92,42.17,42.40,42.63,42.81,43.07,43.38,43.72,43.90,44.00,44.11,44.27,44.43,44.63,44.89,45.26,45.84,46.43,46.99,47.50,47.94,48.25,48.45,48.55,48.57,48.57,48.63,49.00,49.64,50.36,51.13,51.85,52.56,53.28,54.01,54.49,54.82,55.06,55.26,55.38,55.45,55.49,55.49,55.44,55.36,55.29,55.22,55.07,54.94,54.80,54.64,54.45,54.72,55.29,56.08,56.97,57.76,58.39,59.05,59.81,60.58,61.52,62.11,62.61,63.38,64.13,64.88,65.60,66.31,67.25,67.57,67.75,67.91,68.06,68.36,68.89,69.93,71.64,73.52,75.57,77.76,79.97,81.84,83.42,84.72,85.84,86.94,88.21,89.89,92.40,95.77,98.70,101.38,104.50,108.01,111.42,114.14,116.62,118.80,120.57,121.87,123.61,125.39,127.12,128.98,131.07,133.95,137.28,140.47,144.13,147.99,151.63,154.83,157.82,159.97,161.90,164.34,168.61,171.68,172.44,171.59,170.01,168.65,165.92,162.67,159.15,154.96,149.92,145.21,140.48,134.99
20.50,20.61,20.69,20.77,20.84,20.92,21.00,21.08,21.15,21.23,21.31,21.42,21.56,21.71,21.87,22.02,22.18,22.34,22.52,22.67,22.83,22.98,23.14,23.29,23.45,23.60,23.75,23.91,24.06,24.18,24.25,24.33,24.48,24.58,24.69,24.84,24.92,25.11,25.35,25.58,25.81,26.06,26.32,26.52,26.60,26.52,26.48,26.51,26.62,26.74,26.83,26.92,27.03,27.16,27.29,27.48,27.72,27.95,28.18,28.41,28.61,28.77,29.01,29.19,29.33,29.45,29.60,29.73,29.84,29.96,30.13,30.36,30.53,30.80,31.19,31.58,31.96,32.35,32.74,33.11,33.26,33.42,33.57,33.71,33.79,33.93,34.04,34.11,34.17,34.17,34.20,34.33,34.56,34.76,35.05,35.28,35.45,35.68,35.84,36.05,36.27,36.48,36.71,36.96,37.18,37.37,37.57,37.76,37.97,38.20,38.43,38.66,38.89,39.10,39.28,39.44,39.68,39.92,40.15,40.38,40.62,40.85,41.07,41.28,41.59,41.82,42.04,42.27,42.50,42.67,42.89,43.18,43.46,43.67,43.82,43.97,44.16,44.39,44.62,44.90,45.29,45.86,46.42,46.97,47.51,48.05,48.54,48.86,49.04,49.11,49.19,49.27,49.64,50.22,50.79,51.53,52.22,52.84,53.40,54.09,54.68,55.03,55.16,55.29,55.44,55.55,55.63,55.74,55.81,55.91,55.98,55.98,55.83,55.74,55.62,55.46,55.28,55.35,55.77,56.42,57.16,57.88,58.42,59.00,59.68,60.40,61.12,61.49,61.83,62.58,63.38,64.23,65.19,66.29,67.66,68.09,68.33,68.55,68.73,69.06,70.07,71.80,74.18,76.35,78.10,79.80,81.53,83.17,84.80,86.09,87.14,88.13,89.42,91.64,94.70,98.25,100.83,103.25,105.72,108.29,110.94,112.82,114.47,116.06,117.70,118.94,120.60,122.46,124.38,126.13,127.86,130.37,133.50,136.85,140.42,144.57,148.74,152.42,154.78,156.34,157.82,159.86,163.38,168.08,171.03,172.09,171.51,170.56,168.26,165.04,161.03,156.13,150.42,145.31,140.40,134.76
20.50,20.66,20.75,20.83,20.91,20.99,21.06,21.14,21.22,21.29,21.37,21.45,21.56,21.71,21.87,22.02,22.18,22.35,22.58,22.74,22.89,23.05,23.20,23.35,23.51,23.66,23.82,23.97,24.13,24.24,24.32,24.39,24.55,24.65,24.75,24.90,24.98,25.18,25.41,25.64,25.87,26.17,26.39,26.48,26.41,26.33,26.25,26.27,26.42,26.50,26.57,26.69,26.83,26.91,27.13,27.36,27.59,27.82,28.05,28.28,28.48,28.65,28.88,29.11,29.29,29.45,29.60,29.68,29.81,29.96,30.13,30.36,30.53,30.73,31.00,31.38,31.77,32.16,32.49,32.72,32.88,33.03,33.19,33.33,33.41,33.55,33.66,33.76,33.91,33.91,34.02,34.20,34.44,34.74,35.05,35.28,35.45,35.68,35.84,36.05,36.25,36.41,36.65,36.93,37.21,37.42,37.58,37.67,37.84,38.07,38.30,38.53,38.77,39.00,39.22,39.37,39.65,39.92,40.15,40.38,40.62,40.85,41.05,41.22,41.53,41.72,41.91,42.14,42.37,42.54,42.74,42.97,43.21,43.51,43.76,43.99,44.22,44.45,44.68,44.99,45.43,46.04,46.66,47.23,47.77,48.30,48.69,49.02,49.29,49.52,49.75,49.97,50.46,51.05,51.37,52.06,52.70,53.12,53.25,53.80,54.52,54.94,55.02,55.10,55.25,55.36,55.51,55.80,56.03,56.31,56.51,56.56,56.40,56.31,56.19,56.06,55.98,56.19,56.53,56.98,57.55,58.32,58.79,59.22,59.72,60.34,60.56,60.72,61.05,61.75,62.60,63.61,64.91,66.50,67.96,68.45,68.79,69.14,69.37,69.75,71.69,74.46,77.25,79.41,80.75,81.85,83.04,84.59,86.21,87.50,88.53,89.47,91.01,93.97,97.51,100.87,102.90,105.11,106.63,107.69,109.20,110.33,111.43,112.77,114.52,115.90,117.71,119.67,121.76,124.21,126.05,127.90,130.25,133.65,136.98,140.92,145.40,149.91,151.63,152.83,154.05,155.57,157.70,162.98,167.94,171.21,171.84,171.14,169.58,166.66,162.28,156.89,150.68,145.23,140.10,134.31
20.69,20.79,20.88,20.96,21.03,21.11,21.19,21.27,21.34,21.42,21.54,21.64,21.71,21.77,21.83,22.00,22.20,22.40,22.58,22.74,22.89,23.05,23.20,23.36,23.51,23.67,23.82,23.98,24.13,24.27,24.39,24.52,24.63,24.71,24.80,24.91,25.08,25.27,25.50,25.77,26.00,26.21,26.31,26.29,26.21,26.14,26.06,26.06,26.16,26.24,26.36,26.47,26.60,26.77,27.00,27.23,27.46,27.69,27.92,28.16,28.35,28.52,28.75,28.98,29.17,29.34,29.54,29.66,29.81,29.96,30.12,30.31,30.51,30.70,30.91,31.20,31.58,31.90,32.16,32.34,32.49,32.65,32.80,32.94,33.02,33.17,33.30,33.45,33.65,33.80,33.95,34.13,34.38,34.74,35.05,35.28,35.45,35.68,35.84,36.05,36.30,36.60,36.93,37.17,37.37,37.56,37.76,37.89,38.05,38.24,38.42,38.61,38.79,38.97,39.16,39.36,39.69,39.98,40.21,40.44,40.72,41.00,41.25,41.46,41.77,42.00,42.21,42.44,42.68,42.88,43.07,43.28,43.56,43.83,44.03,44.22,44.41,44.64,44.87,45.21,45.69,46.35,46.93,47.48,48.01,48.50,48.79,49.09,49.37,49.60,49.83,50.14,50.49,50.79,50.90,51.40,51.76,52.11,52.61,53.58,54.13,54.15,53.81,53.69,53.96,54.38,54.89,55.38,55.61,55.90,56.21,56.50,56.68,56.80,56.82,56.77,56.74,57.01,57.36,57.79,58.27,58.66,58.90,59.11,59.35,59.64,59.72,59.92,60.33,60.99,62.27,63.65,65.15,66.76,68.27,68.77,69.12,69.53,70.00,71.98,74.62,77.29,79.47,80.92,82.30,83.53,84.68,86.13,87.69,89.03,90.27,91.69,93.75,96.38,98.91,100.94,102.34,103.28,103.91,104.59,106.06,107.25,108.52,109.92,111.48,113.34,115.74,118.19,120.47,122.52,124.28,125.80,127.53,130.08,132.73,135.83,139.58,143.70,145.68,147.43,149.38,151.79,154.97,159.39,164.29,168.45,170.72,170.50,169.12,166.41,162.33,156.92,150.23,144.55,139.40,133.56
20.85,20.93,21.01,21.08,21.16,21.24,21.32,21.39,21.48,21.57,21.71,21.82,21.88,21.90,21.88,22.00,22.17,22.36,22.53,22.71,22.87,23.03,23.20,23.38,23.54,23.69,23.85,24.00,24.16,24.31,24.46,24.62,24.70,24.78,24.86,24.97,25.18,25.36,25.59,25.86,26.03,26.15,26.15,26.07,26.00,25.92,25.86,25.85,25.91,25.99,26.13,26.26,26.41,26.64,26.87,27.10,27.33,27.56,27.80,28.03,28.22,28.39,28.62,28.85,29.04,29.22,29.45,29.62,29.78,29.95,30.12,30.27,30.49,30.68,30.85,31.09,31.43,31.70,31.91,32.08,32.24,32.41,32.58,32.75,32.86,33.03,33.20,33.39,33.63,33.80,33.97,34.15,34.37,34.73,35.05,35.28,35.46,35.71,35.92,36.18,36.49,36.87,37.20,37.39,37.55,37.71,37.92,38.10,38.28,38.45,38.60,38.75,38.90,39.04,39.20,39.43,39.79,40.12,40.38,40.63,40.94,41.25,41.54,41.79,42.08,42.34,42.59,42.84,43.05,43.28,43.47,43.66,43.95,44.16,44.33,44.49,44.65,44.88,45.13,45.49,45.99,46.65,47.20,47.73,48.22,48.63,48.80,49.01,49.21,49.40,49.62,50.06,50.34,50.41,50.37,50.61,50.81,51.27,52.22,53.49,53.64,53.21,52.57,52.20,52.37,53.01,53.86,54.60,55.05,55.47,55.90,56.36,56.76,57.02,57.15,57.17,57.17,57.42,57.73,58.09,58.43,58.57,58.69,58.78,58.86,58.94,59.02,59.28,59.73,60.34,62.04,63.74,65.41,67.04,68.59,69.10,69.55,70.25,71.40,74.45,77.29,79.61,81.24,82.26,83.65,85.00,86.25,87.64,89.09,90.51,91.98,93.56,95.47,97.41,99.02,100.09,100.88,100.99,101.09,101.57,102.94,104.41,105.97,107.62,109.40,111.62,114.35,116.96,119.09,120.46,121.86,123.05,124.34,126.21,128.38,130.90,133.96,137.42,139.76,142.02,144.56,147.63,151.63,155.71,160.64,165.34,168.65,169.46,168.43,165.89,161.94,156.36,149.51,143.72,138.53,132.74
20.98,21.06,21.14,21.21,21.29,21.37,21.44,21.52,21.62,21.76,21.85,21.98,22.09,22.15,22.08,22.03,22.06,22.18,22.40,22.62,22.80,22.98,23.20,23.43,23.60,23.76,23.91,24.06,24.22,24.37,24.53,24.68,24.76,24.84,24.94,25.09,25.25,25.46,25.69,25.89,25.92,25.94,25.90,25.82,25.74,25.66,25.64,25.64,25.65,25.73,25.87,26.06,26.28,26.51,26.74,26.97,27.20,27.44,27.67,27.90,28.09,28.26,28.50,28.73,28.91,29.09,29.32,29.55,29.72,29.90,30.12,30.27,30.49,30.68,30.85,31.09,31.33,31.57,31.80,32.02,32.17,32.38,32.60,32.83,33.04,33.26,33.49,33.71,33.95,33.97,34.14,34.31,34.43,34.74,35.05,35.28,35.47,35.77,36.13,36.49,36.87,37.25,37.42,37.59,37.74,37.90,38.06,38.27,38.50,38.70,38.86,39.01,39.12,39.23,39.39,39.62,39.98,40.36,40.71,41.01,41.32,41.63,41.94,42.24,42.48,42.76,43.06,43.34,43.50,43.73,43.91,44.09,44.33,44.50,44.65,44.81,44.97,45.20,45.49,45.87,46.36,46.91,47.46,47.95,48.38,48.69,48.71,48.69,48.72,48.82,48.98,49.63,49.96,49.94,49.80,49.70,49.96,50.78,52.23,53.60,53.02,52.10,51.34,50.63,50.41,51.09,52.24,53.34,54.33,55.08,55.65,56.11,56.56,56.83,57.01,57.11,57.11,57.21,57.41,57.61,57.72,57.81,58.00,58.14,58.22,58.30,58.56,58.90,59.32,59.83,61.93,63.88,65.69,67.36,68.91,69.47,70.15,71.49,73.97,77.17,79.51,81.17,82.39,83.46,84.75,86.19,87.72,89.12,90.33,91.93,93.61,94.89,95.56,96.37,97.23,97.97,98.22,98.20,98.33,98.83,99.95,101.97,103.96,106.16,108.77,111.14,113.79,116.03,117.50,117.82,118.45,119.28,120.40,121.93,123.89,126.29,128.80,131.28,134.06,136.73,139.55,142.86,147.20,151.81,157.03,161.83,165.25,167.88,167.50,165.08,160.97,154.94,148.44,142.71,137.44,131.84
21.11,21.19,21.26,21.34,21.42,21.49,21.57,21.65,21.75,21.90,22.02,22.14,22.25,22.36,22.37,22.31,22.24,22.22,22.29,22.47,22.66,22.87,23.10,23.29,23.48,23.68,23.87,24.07,24.23,24.38,24.54,24.69,24.81,24.93,25.05,25.17,25.36,25.52,25.65,25.74,25.74,25.70,25.67,25.62,25.54,25.42,25.39,25.39,25.40,25.52,25.70,25.92,26.15,26.38,26.61,26.85,27.08,27.31,27.54,27.77,27.97,28.14,28.37,28.60,28.81,29.02,29.25,29.48,29.69,29.90,30.12,30.27,30.56,30.85,31.13,31.40,31.64,31.84,32.05,32.28,32.47,32.67,32.88,33.11,33.34,33.57,33.78,33.98,34.21,34.25,34.34,34.45,34.59,34.81,35.11,35.42,35.75,36.10,36.48,36.87,37.21,37.47,37.62,37.78,37.93,38.09,38.24,38.46,38.69,38.90,39.06,39.21,39.34,39.48,39.64,39.91,40.31,40.70,41.05,41.44,41.72,42.02,42.32,42.63,42.90,43.17,43.48,43.80,44.00,44.19,44.36,44.53,44.72,44.87,45.03,45.20,45.39,45.58,45.87,46.23,46.68,47.22,47.61,47.84,47.97,48.11,48.07,47.91,47.82,47.89,48.17,48.62,48.83,48.84,48.85,49.26,49.93,51.02,52.47,53.04,52.17,51.15,50.40,49.92,49.93,50.76,52.07,53.35,54.47,55.13,55.57,55.96,56.38,56.53,56.55,56.51,56.51,56.51,56.66,56.85,56.97,57.09,57.26,57.46,57.66,57.86,58.16,58.52,58.93,59.41,60.71,62.74,65.10,67.44,69.19,70.28,71.76,73.88,76.58,79.05,80.81,82.15,83.39,84.55,85.80,87.20,88.67,89.81,90.78,91.80,92.78,93.56,93.86,94.35,94.94,95.48,95.55,95.53,95.86,96.76,98.46,100.92,103.44,106.07,108.82,111.09,113.09,114.57,115.40,115.47,115.71,116.19,117.03,118.34,120.44,122.91,125.40,127.72,130.29,132.86,135.61,138.65,142.14,146.44,151.52,156.76,161.45,164.63,166.10,164.29,159.23,153.25,147.29,141.85,136.82,131.96
21.24,21.31,21.39,21.47,21.55,21.62,21.70,21.78,21.89,22.05,22.19,22.29,22.41,22.56,22.64,22.60,22.50,22.37,22.28,22.37,22.53,22.72,22.95,23.12,23.33,23.56,23.78,24.01,24.19,24.36,24.52,24.69,24.86,25.01,25.12,25.20,25.42,25.50,25.53,25.53,25.53,25.47,25.44,25.41,25.33,25.19,25.15,25.15,25.17,25.34,25.56,25.79,26.02,26.25,26.49,26.72,26.95,27.20,27.42,27.64,27.85,28.02,28.26,28.49,28.73,28.97,29.20,29.43,29.66,29.92,30.19,30.39,30.75,31.14,31.50,31.79,32.01,32.19,32.39,32.62,32.83,33.01,33.21,33.44,33.68,33.91,34.09,34.25,34.47,34.55,34.58,34.64,34.79,34.96,35.26,35.66,36.09,36.48,36.86,37.23,37.51,37.66,37.81,37.97,38.12,38.28,38.43,38.64,38.87,39.08,39.25,39.42,39.58,39.74,39.94,40.26,40.70,41.08,41.42,41.85,42.13,42.42,42.72,43.02,43.33,43.59,43.89,44.24,44.47,44.64,44.79,44.95,45.10,45.27,45.43,45.61,45.82,45.97,46.24,46.58,46.96,47.40,47.57,47.53,47.42,47.39,47.31,47.06,46.86,46.86,47.22,47.53,47.75,47.95,48.25,49.13,50.18,51.42,52.67,52.31,51.28,50.28,49.62,49.51,49.88,50.91,52.30,53.67,54.75,55.26,55.56,55.85,56.18,56.20,56.05,55.87,55.81,55.71,55.81,56.01,56.19,56.39,56.58,56.83,57.14,57.45,57.77,58.14,58.56,59.01,59.52,61.33,64.08,67.26,69.55,71.37,73.65,76.31,78.85,80.55,81.84,83.02,84.30,85.45,86.50,87.65,88.87,89.81,90.60,91.05,91.32,91.63,91.76,92.11,92.53,92.86,92.86,92.97,93.66,95.12,97.50,100.28,103.16,106.06,108.82,110.81,112.10,112.85,113.16,113.16,113.16,113.35,113.88,114.91,117.13,119.83,122.52,124.92,127.25,129.66,132.21,134.89,137.60,141.37,146.03,151.38,157.07,160.86,164.39,163.65,158.17,152.40,146.88,141.73,137.05,132.92
21.36,21.44,21.52,21.60,21.67,21.75,21.83,21.94,22.08,22.24,22.33,22.46,22.60,22.75,22.83,22.83,22.78,22.68,22.54,22.49,22.47,22.53,22.76,22.98,23.21,23.41,23.59,23.82,24.04,24.26,24.47,24.69,24.91,25.04,25.11,25.13,25.30,25.30,25.28,25.28,25.28,25.26,25.22,25.15,25.07,24.98,24.96,24.96,24.98,25.20,25.43,25.66,25.89,26.13,26.36,26.59,26.84,27.13,27.30,27.52,27.74,27.96,28.19,28.42,28.69,28.97,29.20,29.43,29.66,30.00,30.47,30.81,31.24,31.65,31.99,32.18,32.35,32.55,32.77,33.00,33.17,33.37,33.60,33.83,34.06,34.29,34.44,34.55,34.72,34.80,34.87,34.94,35.05,35.27,35.66,36.08,36.48,36.86,37.25,37.51,37.70,37.85,38.01,38.16,38.31,38.47,38.62,38.79,39.00,39.22,39.44,39.66,39.83,40.04,40.33,40.70,41.14,41.53,41.84,42.18,42.54,42.86,43.15,43.40,43.71,44.01,44.32,44.62,44.86,45.02,45.18,45.33,45.48,45.70,45.87,46.03,46.20,46.36,46.58,46.87,47.13,47.17,47.04,46.89,46.75,46.62,46.55,46.30,45.99,45.76,46.02,46.53,47.19,47.97,48.81,49.61,50.73,51.87,52.60,51.51,50.40,49.54,49.14,49.47,50.24,51.45,52.86,54.17,54.96,55.39,55.64,55.82,55.96,55.82,55.60,55.37,55.12,54.91,54.92,55.09,55.37,55.72,56.06,56.39,56.69,57.00,57.37,57.79,58.22,58.62,59.04,59.92,62.35,66.49,70.11,72.97,75.72,78.26,80.15,81.45,82.68,83.88,85.04,85.90,86.27,86.68,87.34,88.33,89.13,89.43,89.45,89.52,89.55,89.80,90.04,90.11,90.11,90.64,92.00,94.23,97.16,100.01,102.71,105.47,108.33,109.67,110.40,110.73,110.80,110.80,110.80,110.84,111.03,111.52,113.70,116.88,120.11,122.82,125.20,127.45,129.70,132.08,134.79,137.90,141.58,146.03,151.35,156.56,162.13,163.38,159.39,153.95,148.48,143.56,139.29,135.60
21.45,21.56,21.65,21.72,21.80,21.88,21.99,22.12,22.27,22.39,22.50,22.62,22.75,22.90,23.01,23.06,23.04,22.96,22.84,22.72,22.63,22.61,22.70,22.83,23.03,23.25,23.44,23.67,23.90,24.14,24.37,24.60,24.80,24.92,24.96,24.97,25.06,25.07,25.06,25.06,25.02,25.02,24.99,24.95,24.91,24.83,24.83,24.87,24.93,25.12,25.35,25.58,25.83,26.13,26.40,26.69,26.99,27.29,27.48,27.68,27.87,28.07,28.27,28.50,28.73,28.96,29.16,29.42,29.66,30.13,30.87,31.33,31.76,32.11,32.36,32.52,32.70,32.90,33.11,33.34,33.53,33.75,33.96,34.17,34.40,34.63,34.77,34.87,35.02,35.14,35.22,35.32,35.45,35.71,36.11,36.50,36.86,37.25,37.53,37.73,37.89,38.04,38.20,38.35,38.51,38.66,38.82,38.97,39.17,39.39,39.59,39.85,40.14,40.45,40.80,41.19,41.61,41.99,42.32,42.60,42.94,43.27,43.56,43.83,44.10,44.38,44.63,44.87,45.10,45.27,45.40,45.52,45.64,45.84,46.01,46.17,46.36,46.51,46.70,46.83,46.85,46.71,46.51,46.32,46.13,45.94,45.80,45.56,45.26,45.05,45.42,46.33,47.35,48.38,49.38,50.26,51.36,52.11,52.00,50.72,49.68,49.08,49.03,49.67,50.51,51.68,53.03,54.32,54.98,55.31,55.44,55.49,55.53,55.25,54.86,54.41,53.92,53.79,53.77,54.01,54.57,55.27,55.75,56.17,56.58,56.95,57.37,57.82,58.26,58.64,59.07,59.56,61.95,66.70,70.96,74.19,77.10,79.51,80.86,82.00,83.03,83.88,84.45,84.70,84.76,84.76,84.92,85.71,86.17,86.21,86.06,86.06,86.20,86.66,87.12,87.45,88.15,89.29,91.20,93.86,97.05,99.93,102.53,105.03,107.41,107.80,107.94,107.85,107.67,107.91,108.15,108.27,108.49,109.12,111.11,114.18,117.50,120.51,123.08,125.28,127.46,129.84,132.64,135.47,138.62,142.60,147.83,153.85,160.01,163.07,161.83,156.85,151.61,146.77,142.30,138.02
21.52,21.67,21.77,21.85,21.93,22.01,22.15,22.30,22.44,22.52,22.67,22.77,22.88,23.04,23.19,23.28,23.30,23.23,23.14,23.00,22.90,22.82,22.74,22.73,22.87,23.08,23.30,23.54,23.77,24.00,24.23,24.45,24.61,24.72,24.76,24.76,24.76,24.82,24.86,24.85,24.78,24.77,24.77,24.77,24.77,24.71,24.75,24.83,24.92,25.11,25.34,25.59,25.86,26.24,26.56,26.92,27.28,27.59,27.81,27.98,28.14,28.29,28.45,28.67,28.85,29.00,29.16,29.44,29.70,30.28,31.30,31.87,32.28,32.54,32.69,32.84,33.07,33.25,33.44,33.67,33.89,34.12,34.32,34.49,34.72,34.94,35.08,35.18,35.34,35.51,35.61,35.72,35.91,36.22,36.57,36.89,37.19,37.57,37.75,37.92,38.08,38.23,38.39,38.54,38.70,38.85,39.01,39.16,39.36,39.56,39.73,40.05,40.47,40.91,41.30,41.70,42.09,42.46,42.79,43.01,43.29,43.57,43.86,44.15,44.38,44.61,44.82,45.00,45.23,45.39,45.50,45.58,45.65,45.81,45.98,46.16,46.39,46.54,46.69,46.63,46.39,46.16,45.99,45.78,45.54,45.30,45.07,44.84,44.64,44.59,45.15,46.51,47.82,48.96,49.96,50.95,51.91,52.13,51.18,49.97,49.05,48.74,49.10,49.95,50.75,51.79,53.01,54.24,54.83,55.03,55.03,54.93,54.90,54.49,53.90,53.21,52.52,52.49,52.53,52.96,53.99,55.02,55.60,56.10,56.62,57.08,57.55,58.02,58.47,58.86,59.31,59.81,62.36,67.46,71.88,75.16,78.06,80.33,81.23,82.23,83.00,83.37,83.26,82.88,82.74,82.46,82.16,82.65,82.72,82.50,82.25,82.25,82.61,83.45,84.36,85.22,86.79,88.53,90.86,93.79,97.11,99.97,102.47,104.59,106.15,105.59,105.16,104.66,104.23,104.72,105.32,105.71,106.19,107.28,109.06,111.78,114.93,118.12,120.88,123.12,125.36,127.86,130.82,133.57,136.46,140.21,145.48,152.04,158.18,162.73,164.35,160.01,155.13,150.27,145.37,140.23
21.65,21.75,21.87,21.98,22.06,22.20,22.30,22.43,22.58,22.71,22.81,22.94,23.08,23.23,23.32,23.45,23.54,23.54,23.40,23.30,23.22,23.12,22.99,22.93,22.92,22.98,23.11,23.34,23.58,23.81,24.03,24.20,24.36,24.46,24.51,24.51,24.51,24.57,24.61,24.60,24.58,24.58,24.58,24.58,24.58,24.62,24.72,24.83,24.95,25.33,25.68,26.02,26.36,26.69,27.06,27.40,27.74,28.09,28.27,28.43,28.58,28.74,28.89,29.12,29.27,29.38,29.54,29.68,29.92,30.54,31.58,32.35,32.71,32.92,33.07,33.23,33.40,33.60,33.82,34.05,34.22,34.44,34.66,34.87,35.04,35.17,35.30,35.45,35.66,35.87,35.99,36.15,36.42,36.73,36.92,37.07,37.24,37.51,37.78,38.04,38.27,38.43,38.58,38.74,38.89,39.04,39.20,39.35,39.52,39.71,39.92,40.34,40.79,41.26,41.76,42.20,42.60,42.90,43.09,43.21,43.30,43.42,43.56,43.70,43.93,44.16,44.44,44.75,44.98,45.09,45.18,45.26,45.33,45.54,45.75,45.97,46.20,46.35,46.41,46.29,46.00,45.71,45.50,45.24,44.95,44.66,44.43,44.24,44.27,44.61,45.32,46.82,48.32,49.58,50.53,51.43,51.72,51.37,50.43,49.42,48.49,48.43,49.23,50.14,51.03,51.99,52.92,53.66,54.05,54.17,54.05,53.75,53.46,52.93,52.35,51.76,51.12,50.99,51.33,52.53,54.66,55.35,55.86,56.33,56.81,57.28,57.79,58.31,58.79,59.17,59.58,61.11,64.34,69.05,72.54,75.55,78.24,80.28,80.98,81.45,81.81,81.95,81.80,81.47,80.91,80.26,79.73,79.88,79.99,79.91,79.76,79.77,80.41,81.87,83.61,85.31,87.08,88.81,91.22,94.29,97.56,100.28,102.44,103.74,103.97,103.20,102.35,101.49,100.85,101.05,102.06,103.29,104.70,106.32,108.15,110.46,113.06,115.80,118.41,120.87,123.39,126.11,129.21,132.26,135.34,139.20,144.55,151.60,157.82,162.30,164.12,161.37,157.11,152.07,146.78,141.89
21.81,21.89,22.00,22.12,22.23,22.35,22.46,22.60,22.74,22.87,22.98,23.11,23.26,23.38,23.49,23.61,23.73,23.79,23.69,23.59,23.50,23.41,23.28,23.18,23.09,23.06,23.09,23.21,23.40,23.60,23.79,23.95,24.10,24.20,24.25,24.25,24.28,24.33,24.37,24.39,24.39,24.41,24.44,24.48,24.54,24.61,24.75,24.89,25.07,25.53,25.98,26.42,26.84,27.18,27.53,27.88,28.22,28.57,28.75,28.91,29.07,29.22,29.34,29.54,29.70,29.86,30.07,30.23,30.50,31.09,32.02,32.44,32.68,32.88,33.06,33.24,33.43,33.68,33.96,34.21,34.42,34.63,34.85,35.06,35.22,35.35,35.50,35.66,35.84,36.04,36.15,36.28,36.48,36.70,36.76,36.78,36.83,37.01,37.31,37.64,37.93,38.15,38.44,38.70,38.94,39.17,39.38,39.55,39.72,39.92,40.18,40.61,41.09,41.59,42.08,42.43,42.65,42.76,42.81,42.85,42.88,42.93,42.97,43.03,43.26,43.52,43.81,44.12,44.32,44.44,44.53,44.67,44.97,45.26,45.51,45.74,45.97,46.15,46.14,45.97,45.68,45.34,45.00,44.62,44.25,43.92,43.83,43.92,44.24,44.84,45.87,47.40,48.85,50.06,50.93,51.47,51.30,50.66,49.78,48.86,48.11,48.27,49.26,50.18,51.03,51.79,52.40,52.82,53.04,52.97,52.70,52.28,51.87,51.40,50.97,50.56,50.15,50.12,51.42,53.35,55.13,55.61,56.08,56.54,57.01,57.50,58.01,58.54,59.05,59.51,60.55,62.71,65.90,69.68,72.14,74.51,76.65,78.28,78.92,78.87,78.98,79.08,78.94,78.23,77.77,77.30,76.94,77.33,77.59,77.71,77.88,78.35,79.52,81.39,83.51,85.58,87.52,89.30,91.71,94.72,97.94,100.21,101.71,102.30,101.88,100.74,99.43,98.40,97.95,98.48,99.92,101.62,103.43,105.25,107.08,108.98,111.10,113.53,116.08,118.72,121.51,124.49,127.72,131.16,134.65,138.81,144.28,151.74,157.89,162.11,163.82,161.79,157.92,152.88,147.49,142.82
22.00,22.08,22.16,22.27,22.41,22.49,22.63,22.79,22.92,23.00,23.15,23.30,23.43,23.51,23.67,23.76,23.88,24.00,24.00,23.86,23.76,23.68,23.60,23.45,23.35,23.27,23.19,23.12,23.23,23.38,23.54,23.69,23.84,23.95,24.00,24.00,24.08,24.10,24.14,24.20,24.20,24.27,24.35,24.45,24.60,24.68,24.81,25.00,25.26,25.73,26.25,26.79,27.30,27.68,28.00,28.36,28.72,29.02,29.25,29.42,29.58,29.72,29.80,29.94,30.15,30.40,30.71,31.01,31.32,31.85,32.55,32.25,32.32,32.51,32.74,32.98,33.21,33.54,33.90,34.21,34.52,34.71,34.90,35.12,35.28,35.50,35.69,35.82,35.90,36.05,36.15,36.20,36.20,36.28,36.23,36.15,36.11,36.19,36.48,36.84,37.20,37.52,38.06,38.49,38.87,39.25,39.56,39.73,39.94,40.19,40.50,40.89,41.38,41.89,42.31,42.47,42.37,42.21,42.09,42.09,42.16,42.19,42.19,42.20,42.43,42.72,42.99,43.21,43.37,43.52,43.63,43.88,44.58,44.97,45.26,45.49,45.72,45.95,45.87,45.68,45.41,45.03,44.50,43.95,43.47,43.10,43.26,43.82,44.48,45.24,46.70,48.17,49.42,50.41,51.18,51.20,50.72,50.00,49.21,48.28,47.85,48.20,49.19,50.11,50.83,51.28,51.56,51.79,51.86,51.54,51.08,50.62,50.16,49.90,49.71,49.58,49.50,49.75,52.47,55.05,55.44,55.82,56.27,56.73,57.21,57.75,58.22,58.73,59.28,59.86,62.02,64.52,67.14,69.59,70.97,72.41,73.74,74.83,75.52,74.95,74.95,75.15,75.05,73.67,73.67,73.80,73.89,74.97,75.43,75.83,76.49,77.73,79.59,81.72,83.89,85.98,88.07,89.96,92.28,95.09,98.23,99.85,100.47,100.40,99.85,98.22,96.42,95.36,95.43,96.75,98.61,100.50,102.33,104.10,105.88,107.38,109.10,111.30,113.86,116.67,119.74,123.00,126.33,130.23,134.27,138.87,144.51,152.31,158.27,162.09,163.44,161.51,157.87,152.96,147.67,143.19
22.20,22.27,22.35,22.46,22.61,22.68,22.78,22.91,23.06,23.19,23.29,23.43,23.58,23.70,23.81,23.93,24.05,24.15,24.25,24.16,24.08,23.98,23.86,23.75,23.67,23.59,23.51,23.38,23.36,23.39,23.45,23.50,23.61,23.73,23.82,23.88,23.95,24.05,24.14,24.22,24.32,24.40,24.51,24.63,24.73,24.81,24.98,25.21,25.52,26.04,26.53,27.05,27.57,28.00,28.41,28.81,29.18,29.53,29.71,29.87,30.00,30.11,30.24,30.57,30.91,31.14,31.15,31.21,31.31,31.54,31.85,31.54,31.53,31.66,31.85,32.08,32.36,32.74,33.15,33.51,33.82,34.08,34.42,34.83,35.13,35.33,35.44,35.50,35.58,35.63,35.74,35.79,35.75,35.78,35.68,35.55,35.46,35.49,35.68,36.01,36.47,37.07,37.51,37.91,38.30,38.69,39.15,39.61,40.02,40.40,40.75,41.19,41.63,41.98,42.16,42.01,41.82,41.61,41.43,41.33,41.40,41.42,41.41,41.37,41.65,41.88,42.08,42.25,42.41,42.56,42.70,42.99,43.68,44.47,44.97,45.30,45.52,45.71,45.62,45.42,45.13,44.59,43.96,43.32,42.91,42.99,43.55,44.20,45.04,46.13,47.60,48.98,49.99,50.65,51.12,50.84,50.24,49.45,48.56,47.59,47.46,47.94,48.78,49.61,50.09,50.39,50.54,50.57,50.50,50.25,49.95,49.71,49.54,49.41,49.32,49.34,49.56,52.11,54.14,55.37,55.76,56.14,56.55,56.96,57.40,57.94,58.46,58.99,59.64,60.56,62.57,64.81,67.12,69.12,69.47,69.96,70.35,70.60,70.74,70.44,70.64,71.04,71.28,70.74,70.96,71.45,72.10,73.18,74.35,75.51,76.72,78.12,79.92,82.04,84.23,86.37,88.51,90.66,92.92,95.08,96.65,97.67,97.98,97.69,96.88,94.86,93.16,92.80,93.94,95.85,97.87,99.74,101.48,103.21,105.09,106.72,108.29,110.08,113.08,116.42,119.82,123.23,126.70,130.52,134.63,139.53,145.74,153.79,159.19,161.97,162.26,160.53,156.96,152.36,147.33,142.55
22.28,22.42,22.53,22.65,22.80,22.87,22.95,23.06,23.19,23.32,23.42,23.56,23.72,23.87,23.96,24.09,24.21,24.31,24.44,24.43,24.37,24.28,24.17,24.09,24.00,23.90,23.79,23.64,23.53,23.50,23.52,23.54,23.62,23.73,23.84,23.92,24.00,24.12,24.22,24.32,24.47,24.55,24.67,24.79,24.92,25.04,25.24,25.49,25.81,26.33,26.80,27.29,27.80,28.26,28.75,29.20,29.59,29.90,30.05,30.20,30.34,30.47,30.63,30.90,31.11,31.17,30.97,30.89,30.89,30.95,31.02,30.80,30.76,30.83,30.98,31.21,31.56,31.99,32.41,32.78,33.11,33.39,33.81,34.39,34.79,35.04,35.15,35.21,35.29,35.26,35.33,35.36,35.27,35.25,35.12,34.96,34.84,34.84,35.01,35.36,35.89,36.57,37.02,37.49,37.96,38.46,39.04,39.63,40.13,40.55,40.98,41.44,41.76,41.91,41.87,41.56,41.29,41.04,40.80,40.63,40.64,40.66,40.64,40.60,40.84,41.00,41.14,41.30,41.45,41.60,41.76,42.08,42.84,43.84,44.52,44.99,45.33,45.46,45.38,45.18,44.84,44.15,43.40,42.73,42.49,42.99,43.80,44.60,45.60,46.90,48.33,49.54,50.34,50.74,50.90,50.43,49.69,48.77,47.80,46.99,47.09,47.65,48.39,49.03,49.29,49.48,49.58,49.52,49.41,49.23,49.07,48.97,49.00,49.05,49.15,49.60,50.96,53.92,55.23,55.69,56.08,56.46,56.85,57.23,57.64,58.14,58.70,59.29,60.11,61.40,63.31,65.39,67.11,68.08,67.74,67.65,67.48,67.24,67.10,67.01,67.52,68.27,68.88,68.87,69.29,70.01,70.98,72.15,73.73,75.32,76.87,78.38,80.16,82.21,84.32,86.38,88.47,90.66,92.65,94.15,94.72,95.38,95.42,94.89,93.86,91.96,90.68,90.92,92.70,95.01,97.29,99.43,101.41,103.29,105.31,107.00,108.56,110.35,113.62,117.12,120.54,123.88,127.34,131.15,135.34,140.54,147.33,155.45,160.03,161.65,160.90,158.84,155.44,151.22,146.44,141.48
22.21,22.51,22.69,22.85,22.99,23.07,23.14,23.22,23.31,23.39,23.54,23.69,23.84,24.00,24.15,24.24,24.36,24.49,24.58,24.64,24.62,24.57,24.55,24.48,24.35,24.20,24.05,23.89,23.75,23.72,23.79,23.86,23.94,24.02,24.10,24.18,24.25,24.33,24.41,24.51,24.66,24.75,24.83,24.95,25.17,25.39,25.62,25.86,26.12,26.59,27.06,27.52,27.99,28.45,28.99,29.52,29.92,30.09,30.24,30.40,30.58,30.79,30.95,30.87,30.63,30.31,30.01,29.93,29.96,30.01,30.02,29.99,29.99,30.03,30.15,30.38,30.82,31.28,31.69,32.01,32.39,32.61,33.05,33.75,34.21,34.59,34.83,34.95,35.03,34.96,34.95,34.89,34.75,34.68,34.54,34.39,34.27,34.27,34.48,34.94,35.51,36.00,36.60,37.25,37.93,38.60,39.28,39.85,40.26,40.64,41.17,41.64,41.75,41.64,41.42,41.11,40.81,40.50,40.22,39.99,39.91,39.89,39.89,39.89,39.98,40.07,40.18,40.34,40.49,40.65,40.80,41.16,42.07,43.08,43.86,44.53,45.13,45.21,45.16,44.97,44.55,43.72,42.81,42.22,42.24,43.12,44.03,45.00,46.16,47.53,48.85,49.80,50.41,50.65,50.46,49.93,49.04,47.95,46.88,46.52,46.75,47.33,48.01,48.35,48.40,48.55,48.70,48.70,48.69,48.56,48.47,48.47,48.54,48.85,49.25,50.49,54.02,55.04,55.62,56.01,56.40,56.78,57.17,57.55,57.94,58.34,58.93,59.63,60.69,62.42,64.28,66.31,67.13,66.32,65.73,65.52,65.25,64.95,64.86,64.92,65.87,67.16,68.19,68.33,68.89,69.69,70.70,72.07,73.67,75.28,76.90,78.51,80.29,82.19,84.08,85.91,87.86,89.82,91.27,92.10,92.36,92.97,92.80,91.99,90.78,89.62,89.16,89.88,91.77,94.22,96.92,99.68,102.30,104.57,106.79,108.43,110.15,112.47,115.78,119.01,122.05,125.05,128.31,132.21,136.49,141.98,149.36,157.34,160.74,161.10,159.32,156.26,153.20,149.40,144.90,139.88
22.21,22.52,22.78,22.98,23.13,23.25,23.33,23.44,23.55,23.62,23.69,23.79,23.91,24.07,24.22,24.39,24.55,24.68,24.76,24.84,24.85,24.83,24.83,24.79,24.67,24.50,24.30,24.10,24.01,24.00,24.05,24.12,24.20,24.28,24.35,24.43,24.51,24.59,24.66,24.75,24.86,24.98,25.10,25.25,25.49,25.76,26.00,26.24,26.49,26.91,27.37,27.83,28.30,28.76,29.25,29.67,29.96,30.11,30.26,30.39,30.47,30.54,30.65,30.45,30.20,29.96,29.79,29.71,29.71,29.73,29.73,29.73,29.73,29.77,29.85,29.96,30.23,30.61,30.99,31.30,31.60,31.85,32.30,32.92,33.21,33.50,33.74,33.92,34.04,34.01,34.09,34.14,34.07,33.94,33.83,33.72,33.70,33.96,34.39,34.95,35.56,36.16,36.78,37.45,38.15,38.84,39.49,40.00,40.39,40.75,41.25,41.54,41.49,41.25,40.98,40.71,40.38,40.00,39.63,39.36,39.30,39.29,39.28,39.24,39.27,39.34,39.43,39.55,39.70,39.82,39.98,40.25,40.69,41.22,41.74,42.36,43.10,43.44,43.79,43.81,43.40,42.59,41.95,41.86,42.35,43.36,44.29,45.24,46.37,47.71,49.03,49.87,50.29,50.30,49.85,49.05,48.06,47.07,46.29,46.24,46.47,46.92,47.42,47.55,47.61,47.68,47.80,47.93,48.15,48.28,48.40,48.54,48.75,49.07,50.55,52.86,54.94,55.51,55.94,56.33,56.71,57.10,57.49,57.87,58.26,58.65,59.08,59.73,60.88,62.83,64.81,65.79,65.64,64.57,63.82,63.47,63.08,62.70,62.63,63.28,64.49,65.91,67.19,67.82,68.57,69.41,70.40,71.83,73.35,74.89,76.42,77.96,79.30,80.97,82.67,84.23,85.86,87.59,88.95,89.80,90.16,90.44,90.15,89.46,88.59,87.99,88.55,90.08,92.39,95.12,97.94,100.78,103.55,106.13,108.33,110.73,113.34,116.16,119.00,121.60,124.27,127.08,130.02,134.03,138.63,144.29,151.34,158.25,160.57,159.49,156.09,152.31,149.79,146.98,143.39,138.68
22.21,22.52,22.83,23.07,23.24,23.41,23.52,23.65,23.78,23.86,23.88,23.92,24.01,24.15,24.29,24.49,24.68,24.84,24.93,25.01,25.04,25.04,25.04,25.02,24.92,24.75,24.53,24.30,24.27,24.28,24.30,24.38,24.46,24.53,24.61,24.69,24.76,24.84,24.93,25.02,25.09,25.24,25.39,25.57,25.81,26.11,26.38,26.62,26.87,27.24,27.69,28.15,28.61,29.08,29.48,29.75,29.93,30.07,30.22,30.29,30.29,30.25,30.29,30.05,29.86,29.74,29.66,29.58,29.55,29.54,29.54,29.54,29.55,29.59,29.64,29.66,29.80,30.07,30.37,30.63,30.81,31.07,31.47,31.94,32.09,32.32,32.56,32.78,32.95,33.00,33.18,33.33,33.34,33.20,33.11,33.13,33.34,33.87,34.48,35.10,35.74,36.41,37.03,37.71,38.40,39.08,39.68,40.14,40.51,40.86,41.28,41.37,41.19,40.89,40.59,40.33,39.93,39.47,39.03,38.74,38.70,38.70,38.68,38.62,38.58,38.63,38.71,38.80,38.96,39.06,39.23,39.43,39.53,39.67,39.95,40.44,41.14,41.58,42.14,42.32,42.04,41.52,41.35,41.75,42.56,43.58,44.52,45.46,46.55,47.81,49.03,49.73,49.93,49.65,48.97,48.02,47.03,46.24,45.83,45.99,46.19,46.54,46.93,47.01,47.15,47.25,47.40,47.70,48.05,48.36,48.61,48.81,49.10,50.01,52.25,54.80,55.48,55.88,56.26,56.64,57.02,57.42,57.81,58.19,58.58,58.95,59.28,59.92,61.17,63.24,65.01,64.94,63.99,62.85,62.02,61.59,61.19,60.88,60.90,61.99,63.37,64.87,66.33,67.34,68.22,69.07,70.03,71.42,72.83,74.23,75.61,76.94,77.96,79.41,80.89,82.22,83.57,85.05,86.34,87.28,87.74,87.82,87.53,87.11,86.85,87.09,88.54,90.70,93.33,96.27,99.15,102.02,104.85,107.65,110.14,113.31,116.61,119.63,122.03,124.19,126.62,129.33,132.05,136.11,141.06,146.81,153.18,158.70,159.81,157.34,152.51,148.36,146.20,144.19,141.51,137.40
22.21,22.52,22.83,23.10,23.32,23.54,23.69,23.84,23.97,24.05,24.12,24.15,24.19,24.28,24.37,24.52,24.71,24.91,25.05,25.14,25.17,25.17,25.17,25.10,25.02,24.90,24.72,24.49,24.51,24.54,24.56,24.63,24.71,24.79,24.87,24.94,25.02,25.10,25.21,25.34,25.41,25.56,25.71,25.89,26.12,26.43,26.73,27.00,27.25,27.57,28.01,28.47,28.93,29.40,29.61,29.75,29.85,29.94,30.10,30.09,30.06,30.04,29.98,29.82,29.69,29.61,29.53,29.45,29.39,29.35,29.35,29.35,29.40,29.44,29.46,29.53,29.68,29.81,29.93,30.04,30.08,30.22,30.46,30.73,30.88,31.10,31.37,31.65,31.87,32.06,32.28,32.47,32.58,32.49,32.41,32.74,33.45,34.17,34.80,35.42,36.04,36.67,37.29,37.96,38.66,39.33,39.88,40.24,40.60,40.94,41.21,41.11,40.91,40.64,40.32,39.96,39.42,38.87,38.40,38.16,38.08,38.06,38.05,38.04,37.91,37.93,38.01,38.10,38.25,38.40,38.59,38.81,39.02,39.11,39.27,39.52,39.83,39.98,40.20,40.36,40.48,40.75,41.38,42.10,42.88,43.71,44.70,45.69,46.74,47.83,48.75,49.20,49.06,48.45,47.57,46.76,45.98,45.53,45.58,45.73,45.90,46.24,46.73,47.06,47.39,47.72,48.10,48.59,48.84,49.09,49.24,49.31,49.55,52.35,54.45,55.43,55.81,56.20,56.58,56.94,57.28,57.73,58.13,58.51,58.89,59.21,59.58,60.39,61.80,63.86,64.64,63.80,62.42,61.20,60.41,60.08,59.91,59.93,60.24,61.31,62.74,64.34,65.89,66.89,67.77,68.62,69.53,70.67,71.93,73.13,74.21,75.16,76.23,77.47,78.70,79.84,81.03,82.20,83.36,84.34,84.80,85.07,84.97,85.05,85.80,87.53,89.53,91.88,94.55,97.48,100.41,103.29,106.15,109.00,112.53,116.24,119.57,122.22,124.37,126.58,129.05,131.77,134.54,138.51,143.85,149.59,154.72,158.42,158.05,154.34,148.66,144.81,142.55,140.77,138.79,135.87
22.26,22.53,22.83,23.12,23.38,23.61,23.81,23.98,24.13,24.24,24.32,24.37,24.42,24.50,24.54,24.64,24.79,24.97,25.09,25.20,25.27,25.30,25.29,25.18,25.09,25.00,24.88,24.76,24.77,24.81,24.85,24.89,24.97,25.04,25.14,25.25,25.32,25.40,25.50,25.61,25.73,25.88,26.03,26.22,26.49,26.76,27.06,27.35,27.62,27.90,28.30,28.74,29.17,29.48,29.61,29.70,29.77,29.81,29.89,29.90,29.89,29.84,29.76,29.65,29.56,29.47,29.35,29.28,29.20,29.16,29.16,29.16,29.22,29.26,29.28,29.40,29.51,29.63,29.72,29.76,29.79,29.89,30.01,30.12,30.20,30.35,30.51,30.68,30.88,31.18,31.44,31.62,31.74,31.85,32.17,32.79,33.63,34.44,35.07,35.71,36.35,36.97,37.59,38.24,38.90,39.53,40.03,40.33,40.63,40.89,41.01,40.82,40.62,40.35,39.95,39.42,38.79,38.23,37.81,37.54,37.48,37.47,37.47,37.46,37.30,37.27,37.30,37.39,37.55,37.77,38.00,38.23,38.46,38.58,38.72,38.91,39.13,39.24,39.48,39.76,40.13,40.74,41.54,42.31,43.05,43.83,44.72,45.61,46.46,47.17,47.50,47.81,47.56,46.83,46.01,45.64,45.33,45.21,45.37,45.52,45.71,46.13,46.77,47.34,47.88,48.37,48.87,49.44,49.74,50.13,50.64,51.28,51.96,54.02,55.34,55.83,56.18,56.53,56.90,57.26,57.58,58.00,58.40,58.78,59.16,59.51,60.13,61.06,62.31,63.80,63.37,62.15,60.91,60.06,59.55,59.49,59.69,60.10,60.75,61.78,62.98,64.26,65.48,66.41,67.25,68.08,68.95,69.92,70.73,71.58,72.46,73.32,74.44,75.56,76.71,77.90,79.02,79.92,80.80,81.63,82.24,82.92,83.71,84.79,86.32,88.36,90.65,93.15,95.85,98.75,101.65,104.52,107.45,110.54,114.40,118.15,121.44,124.09,126.40,128.87,131.52,134.30,137.08,141.00,146.00,150.97,154.79,156.92,155.33,151.34,146.13,141.78,138.87,136.92,135.23,132.94
22.31,22.55,22.83,23.13,23.43,23.68,23.91,24.10,24.25,24.42,24.51,24.59,24.67,24.74,24.74,24.79,24.90,25.03,25.10,25.25,25.36,25.41,25.41,25.26,25.17,25.10,25.04,25.04,25.04,25.09,25.14,25.15,25.23,25.31,25.41,25.55,25.64,25.72,25.80,25.89,26.04,26.20,26.35,26.56,26.86,27.10,27.38,27.69,27.99,28.23,28.59,28.99,29.33,29.47,29.55,29.62,29.66,29.66,29.66,29.72,29.72,29.65,29.57,29.49,29.42,29.32,29.18,29.10,29.01,28.97,28.98,28.98,29.03,29.07,29.11,29.26,29.35,29.47,29.57,29.58,29.66,29.73,29.77,29.78,29.78,29.84,29.88,29.93,30.08,30.41,30.66,30.83,30.97,31.34,32.13,33.00,33.85,34.69,35.31,35.96,36.63,37.24,37.86,38.48,39.10,39.70,40.14,40.39,40.62,40.77,40.76,40.53,40.34,40.04,39.52,38.82,38.13,37.59,37.22,36.90,36.88,36.88,36.89,36.87,36.72,36.61,36.60,36.69,36.87,37.15,37.42,37.65,37.89,38.05,38.23,38.44,38.68,38.87,39.22,39.64,40.16,40.88,41.65,42.37,43.10,43.87,44.62,45.35,45.95,46.29,46.08,46.27,45.98,45.30,44.67,44.73,44.86,45.01,45.18,45.34,45.57,46.08,46.85,47.61,48.32,48.94,49.54,50.19,50.67,51.28,52.22,53.48,54.55,55.27,55.78,56.17,56.56,56.87,57.23,57.59,57.90,58.28,58.67,59.05,59.43,59.85,60.74,61.72,62.63,63.30,61.87,60.55,59.63,59.20,59.02,59.28,59.84,60.64,61.60,62.61,63.55,64.41,65.18,65.96,66.74,67.55,68.40,69.23,69.57,70.06,70.75,71.55,72.64,73.71,74.86,76.11,77.20,77.93,78.62,79.36,80.20,81.40,83.14,85.18,87.26,89.30,91.74,94.37,97.10,99.94,102.80,105.67,108.69,112.08,116.04,119.65,122.83,125.60,128.20,131.07,133.98,136.85,139.67,143.46,147.83,151.78,154.36,154.96,152.37,148.37,143.76,138.71,135.16,133.00,131.50,129.59
22.31,22.60,22.86,23.13,23.44,23.73,23.97,24.16,24.33,24.54,24.68,24.82,24.91,24.93,24.93,24.94,25.00,25.09,25.17,25.32,25.42,25.48,25.47,25.38,25.30,25.24,25.23,25.23,25.28,25.31,25.34,25.40,25.53,25.63,25.72,25.81,25.95,26.04,26.12,26.21,26.36,26.52,26.67,26.87,27.18,27.41,27.70,28.01,28.32,28.61,28.93,29.17,29.31,29.35,29.42,29.46,29.47,29.47,29.47,29.49,29.49,29.46,29.38,29.30,29.23,29.14,29.05,28.97,28.85,28.80,28.85,28.85,28.86,28.90,28.97,29.07,29.20,29.31,29.39,29.45,29.53,29.56,29.60,29.65,29.65,29.72,29.78,29.85,29.95,30.04,30.15,30.32,30.62,31.35,32.32,33.28,34.16,34.95,35.47,36.06,36.69,37.31,37.93,38.54,39.19,39.81,40.16,40.35,40.52,40.63,40.57,40.34,40.08,39.64,38.94,38.25,37.55,37.02,36.63,36.27,36.24,36.28,36.30,36.23,36.08,35.94,35.90,36.01,36.28,36.53,36.81,37.08,37.31,37.52,37.82,38.16,38.51,38.90,39.29,39.68,40.10,40.58,41.33,42.05,42.78,43.54,44.20,44.72,45.12,45.35,45.29,45.25,45.03,44.69,44.40,44.47,44.60,44.78,44.99,45.20,45.48,46.01,46.77,47.49,48.24,48.97,49.73,50.59,51.56,52.49,53.50,54.56,55.19,55.68,56.13,56.56,56.94,57.26,57.62,57.97,58.28,58.61,58.99,59.34,59.72,60.28,61.28,62.02,62.28,61.90,60.67,59.83,59.24,58.85,58.91,59.38,60.17,61.19,62.29,63.36,64.25,64.90,65.28,65.66,66.39,67.23,68.06,68.79,68.99,69.25,69.64,70.14,70.88,72.03,73.26,74.39,75.47,76.41,77.48,78.68,79.86,81.74,83.75,85.82,87.91,90.10,92.61,95.27,97.98,100.72,103.62,106.53,109.68,113.36,117.47,120.77,123.68,126.53,129.43,132.96,136.32,139.39,142.41,145.74,149.16,152.09,153.87,152.74,149.75,145.49,140.34,134.75,131.31,129.43,128.21,126.39
22.31,22.62,22.89,23.16,23.44,23.75,24.02,24.24,24.43,24.63,24.79,24.94,25.05,25.08,25.08,25.08,25.12,25.20,25.27,25.39,25.49,25.55,25.58,25.50,25.45,25.42,25.42,25.42,25.48,25.54,25.58,25.66,25.81,25.91,25.99,26.07,26.23,26.34,26.44,26.53,26.68,26.84,26.99,27.19,27.50,27.77,28.04,28.33,28.62,28.81,28.99,29.12,29.18,29.18,29.22,29.26,29.28,29.28,29.28,29.28,29.28,29.27,29.19,29.11,29.03,28.96,28.88,28.80,28.69,28.64,28.68,28.68,28.71,28.76,28.84,28.92,29.07,29.17,29.24,29.28,29.36,29.40,29.46,29.53,29.56,29.60,29.67,29.74,29.82,29.85,29.91,30.09,30.46,31.37,32.43,33.44,34.36,35.13,35.64,36.18,36.75,37.37,37.99,38.61,39.22,39.78,40.12,40.29,40.41,40.46,40.38,40.18,39.71,39.03,38.21,37.51,36.87,36.33,35.91,35.62,35.63,35.67,35.68,35.63,35.48,35.37,35.36,35.47,35.81,36.09,36.41,36.76,37.05,37.35,37.71,38.10,38.53,38.99,39.39,39.76,40.11,40.43,41.03,41.71,42.45,43.18,43.70,44.10,44.40,44.61,44.67,44.57,44.41,44.23,44.14,44.22,44.35,44.53,44.76,45.03,45.35,45.91,46.67,47.40,48.17,48.94,49.86,51.10,52.38,53.48,54.43,55.20,55.64,56.06,56.48,56.91,57.33,57.64,58.00,58.36,58.67,58.98,59.30,59.60,59.95,60.60,61.36,61.74,61.59,60.82,59.84,59.29,58.86,58.51,58.85,59.42,60.29,61.41,62.63,63.87,64.71,65.19,65.40,65.63,66.15,66.87,67.68,68.32,68.45,68.69,69.06,69.45,69.97,70.99,72.22,73.49,74.75,75.85,77.08,78.43,79.78,81.90,84.06,86.19,88.32,90.56,93.07,95.71,98.38,101.05,104.01,107.05,110.43,114.55,118.60,121.66,124.35,127.10,130.02,134.12,137.97,141.25,144.13,147.10,149.72,151.62,152.38,150.24,146.70,142.35,137.48,132.24,128.47,126.41,125.16,123.32
22.31,22.62,22.93,23.20,23.45,23.76,24.06,24.33,24.54,24.70,24.86,25.01,25.13,25.20,25.20,25.21,25.25,25.32,25.40,25.48,25.55,25.63,25.71,25.63,25.61,25.61,25.61,25.61,25.68,25.76,25.83,25.91,26.06,26.17,26.25,26.33,26.49,26.64,26.75,26.85,27.00,27.16,27.31,27.51,27.82,28.13,28.38,28.63,28.89,28.89,28.89,28.93,28.98,28.99,28.99,29.04,29.09,29.09,29.09,29.09,29.09,29.07,29.00,28.92,28.84,28.77,28.69,28.61,28.54,28.50,28.50,28.51,28.57,28.65,28.73,28.80,28.95,29.05,29.10,29.10,29.18,29.26,29.33,29.41,29.48,29.49,29.54,29.62,29.70,29.77,29.85,30.02,30.40,31.41,32.48,33.53,34.48,35.25,35.81,36.30,36.82,37.44,38.04,38.65,39.19,39.64,40.02,40.22,40.29,40.26,40.17,39.99,39.24,38.27,37.36,36.67,36.11,35.59,35.15,35.00,35.06,35.09,35.09,35.08,34.93,34.90,34.94,35.07,35.45,35.77,36.17,36.61,37.00,37.38,37.77,38.19,38.65,39.11,39.51,39.86,40.15,40.39,40.75,41.37,42.11,42.78,43.16,43.49,43.77,43.99,44.14,44.10,43.98,43.88,43.88,43.96,44.10,44.28,44.52,44.82,45.18,45.76,46.53,47.31,48.09,48.86,49.95,51.67,53.16,54.34,55.13,55.58,55.97,56.42,56.84,57.24,57.71,58.02,58.38,58.74,59.04,59.34,59.58,59.81,60.13,60.81,61.14,61.11,60.70,59.94,59.25,58.83,58.46,58.18,58.81,59.42,60.30,61.45,62.78,64.23,65.03,65.39,65.55,65.77,66.00,66.51,67.28,67.82,67.96,68.33,68.83,69.23,69.63,70.41,71.60,73.12,74.66,75.88,77.12,78.45,79.84,81.97,84.18,86.39,88.57,90.81,93.29,95.87,98.50,101.15,104.19,107.38,111.05,115.68,119.53,122.40,124.90,127.47,130.27,134.86,139.18,142.66,145.23,147.77,149.60,150.48,150.15,147.46,143.35,139.04,134.94,130.58,126.27,123.72,122.20,120.22
22.37,22.63,22.93,23.22,23.51,23.82,24.09,24.36,24.62,24.83,24.98,25.10,25.20,25.27,25.27,25.31,25.37,25.45,25.53,25.61,25.68,25.76,25.83,25.76,25.77,25.80,25.80,25.80,25.87,25.97,26.08,26.10,26.30,26.42,26.52,26.65,26.81,26.92,27.03,27.17,27.32,27.48,27.63,27.83,28.14,28.40,28.52,28.61,28.70,28.70,28.70,28.71,28.74,28.79,28.80,28.81,28.85,28.90,28.90,28.90,28.90,28.89,28.87,28.75,28.65,28.57,28.50,28.42,28.42,28.48,28.57,28.63,28.70,28.78,28.85,28.93,28.98,29.02,29.05,29.10,29.13,29.19,29.27,29.34,29.36,29.41,29.48,29.55,29.63,29.71,29.79,29.89,30.15,31.26,32.39,33.51,34.55,35.32,35.87,36.40,36.93,37.49,37.90,38.35,38.81,39.25,39.58,39.94,40.10,40.00,39.66,39.09,38.25,37.27,36.28,35.64,35.33,35.10,34.92,34.87,34.89,34.90,34.90,34.89,34.84,34.87,34.96,35.13,35.52,35.88,36.27,36.67,37.06,37.45,37.83,38.25,38.71,39.18,39.58,39.93,40.22,40.45,40.68,41.15,41.72,42.20,42.54,42.89,43.19,43.40,43.51,43.55,43.53,43.52,43.63,43.75,43.94,44.15,44.38,44.59,44.81,45.31,46.11,46.98,47.77,48.64,49.97,52.13,53.96,55.01,55.62,56.03,56.42,56.78,57.18,57.62,58.03,58.39,58.77,59.08,59.28,59.44,59.53,59.68,59.95,60.38,60.47,60.28,59.85,59.24,58.60,58.08,57.84,58.02,58.90,59.47,60.41,61.75,63.22,64.58,65.45,65.88,65.98,66.11,66.24,66.51,66.96,67.44,67.89,68.43,69.00,69.55,70.20,71.12,72.22,73.43,74.87,76.12,77.30,78.50,79.84,82.01,84.24,86.48,88.70,91.05,93.51,96.02,98.63,101.62,104.79,108.05,111.75,116.38,120.08,122.91,125.37,127.89,130.99,135.79,140.02,143.34,146.36,146.25,146.24,146.19,145.69,143.20,139.32,135.52,132.19,128.52,124.64,121.35,118.53,115.81
22.41,22.66,22.94,23.23,23.54,23.85,24.12,24.39,24.66,24.89,25.05,25.17,25.26,25.33,25.36,25.42,25.50,25.57,25.63,25.70,25.78,25.86,25.93,25.90,25.95,26.00,26.00,26.00,26.04,26.16,26.30,26.33,26.53,26.66,26.78,26.94,27.09,27.21,27.33,27.49,27.64,27.80,27.94,28.09,28.30,28.46,28.49,28.47,28.47,28.47,28.47,28.47,28.49,28.57,28.60,28.60,28.62,28.67,28.67,28.69,28.70,28.70,28.70,28.59,28.48,28.38,28.30,28.33,28.40,28.53,28.67,28.75,28.85,28.94,29.01,29.06,29.06,29.08,29.11,29.17,29.19,29.24,29.30,29.36,29.36,29.41,29.48,29.55,29.60,29.68,29.75,29.83,30.03,31.16,32.30,33.42,34.46,35.28,35.80,36.30,36.80,37.26,37.57,37.92,38.29,38.66,38.92,39.21,39.23,38.98,38.51,37.75,36.95,36.16,35.44,35.02,34.87,34.81,34.76,34.74,34.74,34.74,34.74,34.74,34.76,34.84,34.98,35.19,35.58,35.97,36.35,36.74,37.12,37.54,37.93,38.34,38.78,39.24,39.64,39.98,40.25,40.48,40.66,41.05,41.51,41.85,42.11,42.39,42.65,42.87,42.99,43.14,43.26,43.37,43.53,43.71,43.92,44.14,44.35,44.50,44.67,45.23,46.16,47.16,47.98,48.87,50.33,52.80,54.64,55.58,56.15,56.63,57.00,57.33,57.71,58.07,58.29,58.53,58.80,59.03,59.15,59.20,59.25,59.37,59.54,59.68,59.60,59.32,58.89,58.35,57.78,57.34,57.42,58.16,59.17,59.92,61.06,62.54,63.98,65.09,65.75,66.04,66.05,66.12,66.20,66.37,66.67,67.16,67.78,68.44,69.10,69.74,70.57,71.50,72.53,73.64,74.95,76.35,77.58,78.74,80.15,82.68,85.17,87.68,90.31,93.00,95.30,97.50,99.89,102.98,106.14,109.36,112.92,117.21,120.66,123.47,126.01,128.63,131.97,136.71,140.71,143.65,146.08,144.35,142.59,141.14,139.95,137.53,134.26,131.12,128.42,125.61,122.09,118.38,114.77,111.56
22.41,22.71,22.97,23.23,23.54,23.85,24.16,24.43,24.66,24.89,25.05,25.20,25.32,25.40,25.48,25.55,25.63,25.69,25.70,25.77,25.84,25.92,26.00,26.07,26.14,26.19,26.19,26.19,26.19,26.32,26.51,26.58,26.73,26.89,27.04,27.19,27.35,27.50,27.65,27.81,27.96,28.12,28.23,28.29,28.30,28.31,28.26,28.22,28.22,28.22,28.22,28.22,28.24,28.31,28.39,28.41,28.41,28.42,28.42,28.47,28.51,28.51,28.51,28.44,28.32,28.19,28.11,28.33,28.50,28.66,28.80,28.88,29.02,29.13,29.19,29.19,29.19,29.24,29.29,29.30,29.37,29.39,29.43,29.49,29.49,29.49,29.54,29.60,29.60,29.68,29.75,29.83,30.02,31.11,32.19,33.24,34.23,35.15,35.58,36.02,36.43,36.75,37.06,37.37,37.65,37.88,38.04,38.01,37.69,37.19,36.72,35.96,35.33,34.95,34.84,34.81,34.75,34.71,34.69,34.61,34.61,34.61,34.61,34.61,34.69,34.82,35.00,35.26,35.64,36.03,36.42,36.80,37.19,37.65,38.06,38.44,38.84,39.30,39.71,40.02,40.25,40.48,40.71,41.09,41.48,41.71,41.88,41.98,42.14,42.37,42.59,42.88,43.18,43.44,43.59,43.82,44.05,44.25,44.41,44.56,44.78,45.50,46.70,47.85,48.73,49.58,51.03,53.68,55.18,56.02,56.70,57.39,57.71,58.08,58.42,58.62,58.49,58.43,58.47,58.56,58.63,58.64,58.76,58.87,58.90,58.69,58.53,58.24,57.80,57.26,56.79,56.59,57.19,58.61,59.61,60.79,62.25,63.83,65.08,65.75,65.94,65.85,65.73,65.80,65.88,66.07,66.42,66.96,67.63,68.37,69.11,69.81,70.73,71.55,72.53,73.75,74.91,76.57,77.96,79.17,80.78,83.98,86.96,90.01,93.42,96.71,98.67,100.33,102.29,105.23,108.25,111.32,114.57,118.16,121.27,124.09,126.81,129.67,133.21,137.62,141.25,143.57,144.38,142.04,138.64,135.31,132.92,130.45,128.15,125.85,123.62,121.85,118.62,114.82,110.93,107.47
22.41,22.72,23.00,23.29,23.60,23.86,24.16,24.45,24.72,24.95,25.06,25.20,25.35,25.47,25.54,25.62,25.70,25.76,25.76,25.83,25.91,25.98,26.06,26.14,26.25,26.34,26.38,26.38,26.38,26.48,26.66,26.83,26.99,27.14,27.30,27.44,27.51,27.57,27.65,27.75,27.81,27.92,27.98,28.02,28.06,28.06,28.04,28.00,27.96,27.96,27.96,27.99,28.03,28.06,28.13,28.19,28.22,28.22,28.22,28.25,28.26,28.26,28.26,28.23,28.16,28.11,28.22,28.41,28.60,28.78,28.93,29.01,29.15,29.26,29.33,29.38,29.38,29.43,29.48,29.48,29.51,29.55,29.59,29.61,29.57,29.56,29.60,29.66,29.66,29.69,29.79,29.93,30.19,31.18,32.17,33.12,33.99,34.73,35.19,35.58,35.91,36.17,36.39,36.64,36.87,37.00,36.83,36.54,36.15,35.76,35.53,35.22,34.94,34.75,34.68,34.68,34.62,34.58,34.56,34.49,34.48,34.51,34.56,34.61,34.73,34.84,35.05,35.38,35.77,36.15,36.54,36.93,37.31,37.73,38.13,38.51,38.91,39.37,39.77,40.08,40.31,40.54,40.94,41.39,41.82,42.18,42.34,42.47,42.64,42.87,43.10,43.32,43.59,43.85,43.96,44.14,44.29,44.42,44.53,44.69,45.16,46.15,47.57,49.01,50.25,51.49,52.96,54.80,55.81,56.53,57.20,57.89,58.38,58.24,57.99,57.73,57.44,57.66,57.86,57.99,58.07,58.11,58.03,57.91,57.78,57.55,57.34,57.06,56.67,56.18,55.81,56.29,57.63,59.56,60.75,62.13,63.55,64.84,65.70,65.67,65.50,65.36,65.34,65.38,65.55,65.79,66.11,66.65,67.29,67.98,68.70,69.39,70.04,70.62,71.43,72.70,74.51,76.79,78.46,80.05,83.14,87.38,91.24,94.74,97.92,100.32,102.17,103.84,105.72,108.61,111.81,114.80,117.56,120.19,122.87,125.46,128.14,131.06,134.66,138.37,141.12,142.75,143.54,141.74,138.95,135.45,131.50,128.29,125.39,122.32,119.13,116.83,113.48,110.23,107.01,103.44
22.43,22.74,23.04,23.33,23.64,23.89,24.19,24.48,24.76,24.99,25.09,25.21,25.36,25.51,25.60,25.68,25.75,25.80,25.82,25.89,25.97,26.05,26.15,26.23,26.35,26.46,26.53,26.54,26.56,26.65,26.82,27.02,27.14,27.25,27.37,27.48,27.50,27.49,27.51,27.56,27.58,27.65,27.68,27.71,27.78,27.80,27.81,27.78,27.73,27.71,27.71,27.75,27.81,27.83,27.89,27.96,28.01,28.03,28.03,28.03,28.03,28.03,28.03,28.05,28.05,28.11,28.32,28.50,28.70,28.90,29.06,29.13,29.27,29.39,29.47,29.54,29.56,29.61,29.65,29.65,29.67,29.72,29.74,29.71,29.65,29.65,29.68,29.72,29.72,29.72,29.82,29.99,30.28,31.17,32.07,32.93,33.69,34.27,34.73,35.10,35.38,35.57,35.71,35.86,36.00,36.05,35.73,35.37,35.03,34.78,34.71,34.72,34.69,34.62,34.55,34.55,34.49,34.45,34.44,34.38,34.39,34.46,34.55,34.63,34.77,34.89,35.12,35.51,35.90,36.28,36.67,37.05,37.44,37.81,38.19,38.58,38.97,39.43,39.82,40.13,40.39,40.69,41.20,41.70,42.17,42.63,42.85,43.01,43.20,43.45,43.68,43.83,44.04,44.26,44.34,44.47,44.56,44.62,44.69,44.96,45.70,46.89,48.40,49.93,51.54,53.11,54.53,55.69,56.36,56.97,57.46,57.85,58.25,57.78,57.19,56.69,56.38,56.87,57.21,57.39,57.47,57.53,57.30,57.02,56.77,56.52,56.25,55.92,55.57,55.25,55.52,56.79,58.65,60.68,61.97,63.38,64.64,65.55,65.88,65.49,65.26,65.17,65.19,65.14,65.28,65.50,65.81,66.33,66.92,67.57,68.24,68.90,69.38,69.79,70.47,71.73,74.14,76.87,79.02,81.29,85.64,90.59,95.08,98.80,101.59,103.47,105.29,107.23,109.52,112.67,115.81,118.54,120.80,122.63,124.88,127.23,129.80,132.68,136.05,139.06,141.11,142.22,142.76,141.52,139.38,136.04,131.36,127.65,124.33,120.83,117.12,113.93,110.11,106.69,103.49,100.02
22.50,22.80,23.06,23.33,23.64,23.94,24.25,24.52,24.76,24.99,25.14,25.25,25.36,25.51,25.66,25.75,25.79,25.81,25.88,25.96,26.03,26.13,26.28,26.35,26.44,26.52,26.60,26.66,26.73,26.85,26.99,27.08,27.11,27.13,27.14,27.17,27.24,27.20,27.17,27.19,27.26,27.33,27.36,27.39,27.46,27.53,27.55,27.55,27.53,27.46,27.45,27.49,27.57,27.63,27.65,27.70,27.77,27.84,27.84,27.84,27.84,27.84,27.84,27.90,28.04,28.22,28.39,28.61,28.79,28.98,29.18,29.26,29.40,29.52,29.59,29.67,29.74,29.77,29.77,29.78,29.85,29.87,29.84,29.79,29.78,29.77,29.78,29.79,29.79,29.79,29.85,29.97,30.20,30.99,31.84,32.62,33.29,33.77,34.17,34.55,34.83,34.93,35.02,35.01,35.00,34.99,34.88,34.75,34.63,34.53,34.45,34.52,34.53,34.49,34.43,34.43,34.36,34.33,34.32,34.31,34.38,34.49,34.61,34.69,34.78,34.96,35.25,35.64,36.02,36.41,36.80,37.18,37.57,37.89,38.25,38.64,39.03,39.50,39.84,40.15,40.50,41.00,41.47,41.98,42.49,42.95,43.38,43.55,43.73,44.02,44.25,44.36,44.50,44.65,44.72,44.81,44.84,44.85,44.91,45.47,46.47,47.73,49.12,50.40,52.35,54.07,55.36,56.13,56.76,57.28,57.35,56.93,56.74,56.35,55.93,55.59,55.48,56.12,56.54,56.75,56.83,56.84,56.59,56.29,55.99,55.69,55.33,54.87,54.53,54.58,56.43,58.64,60.59,62.01,63.26,64.41,65.34,65.79,65.33,65.25,65.42,65.57,65.43,65.23,65.11,65.21,65.54,66.01,66.56,67.15,67.76,68.32,68.85,69.28,69.88,71.03,73.87,76.72,79.64,83.13,88.17,93.24,97.86,101.44,103.65,105.84,107.76,110.34,113.82,117.76,120.37,122.53,124.29,125.63,127.48,129.58,131.98,134.63,137.32,139.67,141.40,142.28,141.98,141.20,139.51,136.69,132.70,129.00,125.75,122.65,119.31,114.78,109.98,105.07,100.68,97.66
22.56,22.87,23.12,23.39,23.69,23.96,24.26,24.55,24.80,24.99,25.15,25.28,25.39,25.51,25.67,25.73,25.77,25.82,25.89,25.97,26.05,26.14,26.25,26.33,26.40,26.50,26.61,26.69,26.73,26.79,26.86,26.89,26.86,26.84,26.84,26.85,26.93,26.88,26.84,26.86,26.93,26.98,27.02,27.07,27.14,27.22,27.27,27.29,27.29,27.25,27.21,27.24,27.31,27.39,27.39,27.44,27.52,27.60,27.64,27.65,27.66,27.71,27.79,27.90,28.09,28.31,28.50,28.70,28.89,29.08,29.27,29.43,29.55,29.66,29.78,29.90,29.98,30.03,30.07,30.11,30.11,30.08,30.02,29.95,29.91,29.90,29.88,29.85,29.85,29.85,29.93,30.05,30.22,30.83,31.58,32.24,32.79,33.26,33.65,34.04,34.32,34.39,34.51,34.51,34.47,34.44,34.44,34.44,34.40,34.32,34.25,34.32,34.35,34.33,34.30,34.30,34.23,34.22,34.26,34.30,34.41,34.52,34.64,34.75,34.83,35.05,35.38,35.76,36.15,36.50,36.87,37.26,37.64,37.99,38.37,38.75,39.14,39.57,39.93,40.32,40.76,41.27,41.77,42.27,42.77,43.27,43.74,44.03,44.30,44.59,44.78,44.98,45.18,45.35,45.47,45.62,45.70,45.75,45.88,46.46,47.43,48.53,49.71,51.14,53.36,54.86,55.77,56.42,57.04,57.20,56.93,56.37,55.90,55.30,54.83,54.62,54.78,55.50,55.92,56.10,56.13,56.13,55.92,55.63,55.29,54.82,54.36,54.02,54.25,55.59,58.19,60.35,62.03,63.28,64.36,65.13,65.49,65.48,65.26,65.44,65.74,65.94,65.89,65.66,65.49,65.54,65.85,66.31,66.77,67.26,67.76,68.26,68.76,69.18,69.80,71.01,74.06,77.12,80.64,84.87,90.05,95.64,99.94,103.08,105.40,107.72,110.36,113.77,117.79,121.29,123.88,125.98,127.66,128.94,130.96,133.16,135.41,137.50,138.94,140.42,141.39,141.63,141.01,139.98,137.84,134.85,131.42,128.55,125.76,122.96,119.81,115.10,109.87,104.27,99.26,96.17
22.62,22.93,23.18,23.45,23.75,23.99,24.28,24.59,24.85,24.99,25.15,25.30,25.42,25.50,25.64,25.68,25.72,25.80,25.88,25.94,26.02,26.09,26.17,26.25,26.33,26.43,26.56,26.64,26.65,26.65,26.65,26.65,26.57,26.54,26.54,26.54,26.61,26.56,26.52,26.54,26.62,26.62,26.67,26.75,26.82,26.90,26.98,27.02,27.02,27.04,26.98,26.99,27.06,27.13,27.15,27.20,27.27,27.35,27.46,27.50,27.55,27.64,27.80,27.95,28.15,28.38,28.60,28.77,28.98,29.18,29.36,29.58,29.69,29.84,30.03,30.20,30.28,30.36,30.43,30.50,30.43,30.35,30.27,30.19,30.12,30.11,30.06,30.00,29.98,29.99,30.09,30.21,30.32,30.74,31.30,31.82,32.28,32.75,33.14,33.52,33.79,33.89,34.04,34.10,34.08,34.04,34.11,34.19,34.19,34.12,34.05,34.12,34.15,34.15,34.15,34.15,34.12,34.14,34.22,34.29,34.44,34.55,34.65,34.80,34.88,35.14,35.49,35.88,36.26,36.59,36.95,37.34,37.72,38.11,38.50,38.88,39.27,39.64,40.05,40.52,41.03,41.51,42.04,42.54,43.03,43.56,44.04,44.46,44.82,45.11,45.30,45.58,45.82,46.01,46.17,46.43,46.60,46.77,47.02,47.54,48.36,49.20,50.23,52.20,54.35,55.50,56.06,56.68,57.15,56.95,56.45,55.88,55.24,54.38,53.81,53.67,54.06,54.79,55.20,55.36,55.38,55.35,55.13,54.83,54.45,53.86,53.54,53.57,54.56,57.20,60.02,61.92,63.29,64.40,65.22,65.57,65.45,65.16,65.34,65.71,66.04,66.27,66.36,66.20,66.05,66.08,66.34,66.79,67.19,67.56,67.96,68.41,68.89,69.37,70.10,71.43,74.41,77.60,81.63,86.52,91.93,97.82,101.70,104.42,106.97,109.54,112.95,116.98,121.15,124.11,126.85,129.12,130.96,132.49,134.64,136.72,138.55,139.94,140.30,140.99,141.21,140.71,139.40,137.74,135.11,132.07,129.28,127.26,125.00,122.48,119.39,114.85,109.34,103.47,98.29,95.09
22.69,23.00,23.25,23.51,23.82,24.11,24.37,24.65,24.90,25.00,25.15,25.30,25.41,25.43,25.52,25.59,25.66,25.74,25.81,25.84,25.89,25.97,26.04,26.12,26.20,26.28,26.37,26.45,26.46,26.46,26.46,26.46,26.33,26.28,26.28,26.28,26.30,26.24,26.20,26.22,26.30,26.30,26.35,26.43,26.50,26.58,26.66,26.70,26.71,26.77,26.77,26.77,26.80,26.88,26.94,26.97,27.01,27.10,27.36,27.52,27.62,27.71,27.86,28.02,28.22,28.43,28.60,28.82,29.04,29.27,29.48,29.65,29.79,30.07,30.43,30.64,30.73,30.80,30.88,30.95,30.87,30.80,30.72,30.64,30.56,30.55,30.51,30.42,30.30,30.36,30.44,30.53,30.62,30.84,31.00,31.31,31.77,32.24,32.63,32.97,33.23,33.37,33.53,33.66,33.72,33.72,33.79,33.87,33.89,33.88,33.86,33.88,33.93,33.96,33.96,33.96,34.05,34.14,34.22,34.29,34.44,34.55,34.65,34.80,34.88,35.18,35.56,35.94,36.33,36.70,37.08,37.47,37.85,38.24,38.62,39.01,39.39,39.72,40.19,40.68,41.17,41.70,42.24,42.73,43.22,43.76,44.28,44.75,45.13,45.45,45.79,46.05,46.18,46.28,46.49,46.84,47.22,47.65,48.17,48.58,49.03,49.50,50.60,54.06,55.16,55.79,56.32,56.91,56.80,56.47,55.98,55.36,54.62,53.57,52.88,52.71,53.10,53.74,54.15,54.38,54.47,54.29,53.92,53.50,53.07,52.63,53.27,54.27,56.12,59.42,61.45,63.13,64.36,65.10,65.48,65.35,65.22,65.25,65.53,65.85,66.16,66.46,66.71,66.84,66.75,66.76,66.97,67.37,67.76,68.11,68.46,68.86,69.39,70.17,71.25,72.73,74.92,77.94,82.30,87.92,94.32,99.50,103.01,105.64,108.24,111.55,115.43,119.29,122.83,125.89,128.94,131.68,134.16,136.51,138.32,139.28,139.85,140.31,140.57,140.92,140.77,139.46,135.87,132.97,130.41,128.22,126.42,124.64,122.94,120.63,117.42,113.27,107.50,102.07,97.64,94.64
22.75,23.06,23.31,23.58,23.88,24.16,24.42,24.71,24.96,25.04,25.16,25.28,25.36,25.36,25.40,25.47,25.55,25.63,25.71,25.74,25.78,25.84,25.92,25.99,26.07,26.15,26.22,26.26,26.27,26.27,26.26,26.23,26.11,26.05,26.01,25.98,25.98,25.95,25.91,25.89,25.94,25.97,26.03,26.11,26.18,26.26,26.32,26.35,26.39,26.47,26.51,26.53,26.55,26.62,26.76,26.90,27.04,27.19,27.47,27.67,27.79,27.85,27.97,28.09,28.26,28.46,28.64,28.88,29.11,29.33,29.52,29.71,29.98,30.36,30.79,31.09,31.21,31.30,31.35,31.36,31.31,31.24,31.17,31.09,31.01,31.00,30.96,30.87,30.75,30.79,30.86,30.95,31.07,31.25,31.23,31.31,31.51,31.74,32.12,32.45,32.71,32.86,33.05,33.24,33.36,33.40,33.47,33.55,33.58,33.60,33.67,33.74,33.81,33.87,33.91,33.97,34.08,34.17,34.22,34.34,34.46,34.55,34.65,34.81,34.95,35.25,35.62,36.01,36.39,36.78,37.16,37.55,37.94,38.32,38.71,39.10,39.48,39.82,40.32,40.82,41.30,41.84,42.38,42.88,43.35,43.86,44.33,44.75,45.08,45.32,45.58,45.72,45.76,45.77,45.91,46.22,46.68,47.40,48.38,49.00,49.40,50.50,52.49,55.00,55.61,56.06,56.48,56.77,56.40,55.99,55.45,54.74,53.83,52.71,51.96,51.69,51.84,52.29,52.55,52.76,52.97,52.78,52.45,52.38,52.62,52.87,53.90,55.58,57.91,60.83,62.64,64.04,64.97,65.42,65.39,65.23,65.24,65.44,65.72,66.03,66.34,66.63,66.91,67.17,67.27,67.38,67.60,67.95,68.31,68.63,68.96,69.31,69.95,71.07,72.52,74.18,76.05,78.53,82.74,88.79,96.35,100.70,103.82,106.35,108.93,112.85,117.10,120.92,124.17,127.32,130.40,133.45,136.32,138.80,139.83,140.24,140.39,140.55,140.68,140.78,140.44,138.73,133.94,129.44,126.06,123.69,122.09,120.63,118.91,116.59,113.53,109.68,104.45,100.13,96.83,94.19
22.81,23.12,23.38,23.64,23.93,24.17,24.46,24.77,25.02,25.10,25.17,25.24,25.29,25.29,25.29,25.35,25.43,25.50,25.58,25.66,25.69,25.71,25.79,25.86,25.93,26.01,26.08,26.08,26.08,26.08,26.06,25.98,25.90,25.83,25.75,25.67,25.67,25.67,25.63,25.56,25.56,25.63,25.71,25.79,25.86,25.94,25.96,26.00,26.07,26.16,26.24,26.29,26.33,26.42,26.65,26.93,27.21,27.44,27.68,27.90,28.02,28.04,28.11,28.19,28.31,28.48,28.71,28.93,29.16,29.37,29.53,29.76,30.17,30.62,31.08,31.48,31.68,31.80,31.82,31.75,31.74,31.69,31.61,31.54,31.47,31.45,31.40,31.33,31.26,31.25,31.31,31.43,31.60,31.83,31.74,31.59,31.45,31.37,31.69,32.01,32.24,32.40,32.62,32.84,33.01,33.09,33.18,33.26,33.30,33.36,33.51,33.67,33.77,33.85,33.94,34.09,34.18,34.22,34.25,34.40,34.47,34.55,34.65,34.81,35.05,35.34,35.68,36.07,36.46,36.84,37.23,37.61,38.00,38.39,38.78,39.16,39.55,39.94,40.45,40.95,41.43,41.96,42.50,42.99,43.46,43.90,44.29,44.63,44.89,45.05,45.12,45.14,45.10,45.04,45.05,45.25,45.69,46.62,48.09,49.08,49.74,51.86,54.87,55.48,55.88,56.29,56.55,56.44,55.98,55.42,54.76,53.96,52.89,51.78,51.05,50.70,50.55,50.75,50.82,50.96,51.29,51.20,51.10,51.61,52.76,53.89,55.13,57.27,59.79,61.92,63.69,64.76,65.33,65.51,65.16,65.18,65.39,65.67,65.91,66.22,66.52,66.80,67.04,67.34,67.64,67.92,68.17,68.49,68.79,69.10,69.41,69.73,70.54,71.98,73.73,75.54,77.31,79.15,83.02,89.36,98.01,101.58,104.34,106.78,109.33,113.77,118.35,122.27,125.45,128.68,131.63,134.83,137.88,140.09,140.24,140.38,140.53,140.66,140.66,140.59,140.08,138.13,132.78,126.75,122.16,119.01,117.08,115.87,113.94,111.57,108.77,105.19,100.99,98.01,95.90,93.68
22.88,23.19,23.44,23.68,23.94,24.23,24.49,24.77,25.02,25.10,25.12,25.14,25.18,25.23,25.23,25.29,25.34,25.37,25.45,25.53,25.56,25.58,25.66,25.68,25.74,25.82,25.89,25.89,25.89,25.89,25.87,25.79,25.71,25.64,25.54,25.42,25.42,25.37,25.31,25.24,25.24,25.26,25.35,25.45,25.47,25.55,25.61,25.68,25.76,25.89,26.03,26.21,26.42,26.60,26.89,27.15,27.42,27.70,27.93,28.12,28.24,28.29,28.31,28.38,28.47,28.59,28.77,28.95,29.16,29.39,29.59,29.77,30.05,30.43,30.93,31.54,32.03,32.25,32.27,32.19,32.14,32.11,32.06,31.99,31.97,31.92,31.85,31.79,31.77,31.71,31.83,32.02,32.24,32.47,32.38,32.23,32.08,31.95,31.99,32.07,32.16,32.26,32.39,32.55,32.73,32.91,33.04,33.17,33.32,33.49,33.64,33.79,33.90,34.00,34.12,34.22,34.30,34.37,34.42,34.47,34.49,34.55,34.65,34.81,35.10,35.40,35.75,36.13,36.52,36.91,37.29,37.68,38.06,38.50,38.87,39.22,39.61,40.06,40.58,41.08,41.55,42.03,42.52,43.02,43.47,43.77,44.22,44.64,45.04,45.37,45.44,45.46,45.44,45.44,45.50,45.51,45.45,45.90,47.25,48.78,50.93,53.29,55.29,55.74,56.14,56.37,56.34,55.99,55.58,54.16,52.92,52.31,51.34,50.63,50.26,50.13,50.03,50.10,50.12,50.18,50.38,50.88,51.80,52.87,54.06,55.58,57.66,59.66,61.58,63.50,64.53,65.11,65.31,65.23,65.12,65.30,65.55,65.82,66.10,66.41,66.68,66.93,67.16,67.42,67.67,67.94,68.25,68.67,68.94,69.23,69.54,69.86,71.07,72.52,74.05,75.59,77.26,79.08,83.04,89.48,98.07,101.64,104.40,106.86,109.48,114.32,119.41,123.95,127.66,130.74,133.50,136.21,138.55,140.03,140.07,140.16,140.23,140.27,140.27,140.21,139.17,136.59,131.79,126.12,120.65,115.85,112.12,110.47,109.13,107.22,104.51,101.37,98.79,96.63,94.68,92.66
22.94,23.25,23.50,23.74,23.98,24.29,24.51,24.74,24.95,25.03,25.06,25.07,25.08,25.13,25.13,25.19,25.23,25.25,25.32,25.40,25.43,25.45,25.53,25.53,25.59,25.66,25.73,25.70,25.70,25.70,25.68,25.60,25.52,25.44,25.34,25.20,25.22,25.19,25.15,25.13,25.13,25.13,25.18,25.22,25.20,25.30,25.39,25.47,25.59,25.77,26.00,26.30,26.62,26.83,27.11,27.37,27.64,27.92,28.15,28.32,28.44,28.51,28.54,28.58,28.65,28.73,28.84,28.96,29.16,29.38,29.58,29.74,29.93,30.29,30.83,31.52,32.17,32.57,32.72,32.64,32.59,32.56,32.52,32.48,32.45,32.40,32.33,32.27,32.24,32.19,32.38,32.64,32.88,33.11,33.02,32.87,32.71,32.53,32.44,32.40,32.40,32.45,32.53,32.64,32.80,33.00,33.16,33.31,33.49,33.68,33.80,33.93,34.04,34.16,34.28,34.36,34.43,34.51,34.57,34.57,34.57,34.60,34.69,34.85,35.16,35.47,35.81,36.20,36.58,36.97,37.36,37.74,38.13,38.56,38.93,39.30,39.72,40.18,40.68,41.18,41.67,42.13,42.57,43.06,43.50,43.82,44.29,44.73,45.19,45.64,45.85,45.88,45.86,45.87,45.94,45.87,45.56,45.78,47.07,49.23,52.19,54.44,55.59,55.97,56.36,56.39,56.11,55.63,54.73,52.73,51.26,50.91,50.31,49.96,49.81,49.78,49.73,49.76,49.80,50.01,50.53,51.73,53.01,54.45,56.06,57.84,59.95,61.71,63.18,64.53,65.03,65.26,65.24,65.07,65.13,65.37,65.63,65.87,66.15,66.44,66.68,66.92,67.15,67.38,67.61,67.89,68.25,68.72,69.05,69.36,69.72,70.24,71.65,73.11,74.53,75.91,77.43,79.07,82.80,88.90,96.91,101.06,104.10,106.76,109.79,115.16,120.50,125.32,129.32,132.09,133.57,134.87,135.97,136.61,136.69,136.86,137.25,137.84,138.22,138.51,137.38,134.61,130.51,125.26,119.53,113.95,109.18,106.76,105.30,103.50,101.01,98.50,96.71,94.97,93.18,91.36
23.01,23.32,23.57,23.80,24.04,24.35,24.53,24.69,24.82,24.90,24.98,25.00,25.00,25.00,25.00,25.06,25.10,25.12,25.19,25.27,25.30,25.33,25.40,25.40,25.46,25.54,25.59,25.52,25.50,25.50,25.48,25.41,25.33,25.25,25.15,25.01,25.09,25.10,25.14,25.20,25.20,25.20,25.15,25.08,25.00,25.16,25.26,25.37,25.53,25.76,26.12,26.55,26.93,27.09,27.32,27.60,27.88,28.11,28.34,28.52,28.63,28.71,28.79,28.80,28.84,28.90,28.90,28.98,29.16,29.36,29.52,29.67,29.83,30.19,30.77,31.46,32.16,32.80,33.17,33.09,33.09,33.03,32.99,32.98,32.90,32.89,32.85,32.77,32.69,32.69,32.96,33.28,33.52,33.75,33.66,33.51,33.34,33.11,33.02,32.94,32.89,32.90,32.97,33.05,33.17,33.32,33.47,33.63,33.78,33.92,34.00,34.07,34.20,34.33,34.41,34.48,34.56,34.64,34.70,34.70,34.70,34.70,34.75,34.91,35.22,35.53,35.87,36.26,36.65,37.03,37.42,37.81,38.19,38.58,38.97,39.38,39.84,40.31,40.77,41.27,41.80,42.26,42.65,43.09,43.55,44.01,44.48,44.88,45.34,45.87,46.33,46.39,46.35,46.31,46.39,46.32,45.98,46.14,47.46,50.30,53.52,55.38,55.78,56.16,56.55,56.37,55.85,55.35,53.51,51.15,49.73,49.72,49.71,49.70,49.66,49.60,49.60,49.68,49.80,50.33,51.55,53.55,54.64,56.29,58.64,60.57,62.02,63.47,64.62,65.09,65.25,65.24,65.13,65.02,65.18,65.40,65.63,65.86,66.09,66.32,66.56,66.79,67.02,67.25,67.48,67.79,68.19,68.65,69.12,69.48,69.96,70.81,72.28,73.75,75.15,76.46,77.78,79.10,82.35,87.75,94.72,99.96,103.49,106.50,110.22,116.23,121.60,126.44,130.51,132.84,132.16,131.30,130.70,130.41,130.64,131.03,132.03,133.71,134.78,135.72,134.86,132.26,129.00,124.21,118.74,113.11,107.90,104.44,102.29,100.29,98.14,96.43,94.73,93.07,91.45,89.82
23.07,23.38,23.63,23.84,24.02,24.19,24.34,24.50,24.63,24.71,24.74,24.75,24.77,24.82,24.92,24.96,25.00,25.04,25.07,25.14,25.17,25.20,25.27,25.27,25.33,25.39,25.41,25.38,25.33,25.31,25.29,25.21,25.14,25.09,25.11,25.20,25.32,25.39,25.43,25.45,25.45,25.45,25.40,25.27,25.00,25.11,25.19,25.34,25.60,25.93,26.35,26.77,27.15,27.40,27.59,27.82,28.09,28.37,28.60,28.73,28.83,28.90,28.98,28.99,29.03,29.09,29.09,29.17,29.25,29.36,29.52,29.73,29.85,30.26,30.96,31.71,32.41,33.11,33.58,33.60,33.55,33.52,33.48,33.43,33.41,33.36,33.29,33.20,33.08,33.13,33.48,33.88,34.15,34.33,34.28,34.12,33.91,33.68,33.59,33.52,33.45,33.40,33.43,33.46,33.55,33.70,33.86,33.97,34.10,34.22,34.25,34.28,34.36,34.46,34.54,34.66,34.75,34.80,34.83,34.83,34.78,34.76,34.82,34.98,35.29,35.59,35.92,36.26,36.65,37.08,37.48,37.87,38.26,38.69,39.09,39.51,39.97,40.43,40.90,41.38,41.86,42.33,42.81,43.28,43.74,44.21,44.67,45.04,45.47,46.00,46.52,46.76,46.82,46.81,46.84,46.81,46.95,47.59,49.11,52.79,54.68,55.58,55.97,56.36,56.48,56.15,55.38,54.19,51.61,50.12,49.51,49.51,49.51,49.51,49.50,49.50,49.60,49.72,50.06,51.18,53.43,55.87,57.52,59.01,60.51,61.81,63.10,64.18,64.90,65.16,65.17,65.12,65.05,65.01,65.12,65.33,65.56,65.80,66.03,66.26,66.49,66.72,66.96,67.19,67.42,67.73,68.13,68.59,69.05,69.45,69.95,70.76,72.08,73.44,74.78,76.10,77.46,78.79,81.63,86.26,92.39,98.91,103.24,106.63,110.51,116.20,121.34,125.94,129.54,130.60,129.27,127.72,126.45,125.71,125.70,126.17,127.25,128.91,130.43,131.90,131.92,130.20,126.90,122.76,117.91,112.55,107.03,102.97,100.33,98.19,96.20,94.45,92.75,90.92,88.94,86.78
23.13,23.38,23.60,23.79,23.93,24.01,24.15,24.29,24.41,24.49,24.49,24.51,24.56,24.66,24.81,24.85,24.88,24.95,24.95,25.03,25.07,25.09,25.15,25.15,25.19,25.22,25.22,25.22,25.17,25.15,25.14,25.13,25.11,25.15,25.26,25.45,25.60,25.71,25.76,25.76,25.74,25.72,25.60,25.39,25.13,25.09,25.17,25.39,25.73,26.14,26.58,27.00,27.39,27.72,27.86,28.06,28.31,28.60,28.83,28.94,29.02,29.09,29.17,29.18,29.23,29.28,29.28,29.36,29.39,29.46,29.61,29.84,30.08,30.59,31.33,32.02,32.72,33.46,34.00,34.09,34.05,34.03,33.98,33.91,33.89,33.82,33.73,33.63,33.51,33.57,33.95,34.42,34.79,34.99,34.92,34.74,34.49,34.26,34.15,34.05,33.96,33.89,33.89,33.89,33.95,34.09,34.24,34.31,34.41,34.51,34.51,34.49,34.52,34.58,34.68,34.89,35.08,35.20,35.25,35.27,35.15,34.98,34.95,35.23,35.56,35.89,36.17,36.41,36.69,37.13,37.56,37.96,38.35,38.81,39.22,39.64,40.10,40.59,41.05,41.52,41.98,42.44,42.98,43.47,43.93,44.40,44.84,45.18,45.60,46.14,46.68,47.07,47.27,47.31,47.31,47.33,47.83,49.12,51.40,54.48,55.33,55.71,56.16,56.52,56.33,55.83,54.67,52.46,50.15,49.40,49.29,49.30,49.34,49.38,49.41,49.46,49.60,49.75,50.27,51.83,54.78,57.63,59.50,60.77,61.70,62.67,63.88,64.66,65.04,65.17,65.09,65.03,65.01,65.04,65.11,65.29,65.49,65.71,65.94,66.17,66.40,66.63,66.86,67.10,67.34,67.66,68.06,68.53,68.99,69.39,69.85,70.51,71.74,73.00,74.27,75.53,76.90,78.28,80.66,84.50,90.18,97.56,102.59,106.37,110.30,115.60,120.40,124.60,127.65,127.86,126.14,124.13,122.33,121.13,120.97,121.54,122.73,124.40,126.14,127.82,128.38,127.36,124.45,120.95,116.75,111.79,106.19,101.58,98.66,96.44,94.45,92.62,90.77,88.72,86.42,83.85
23.19,23.29,23.44,23.60,23.74,23.82,23.96,24.07,24.16,24.23,24.24,24.28,24.38,24.53,24.69,24.72,24.76,24.82,24.82,24.95,25.01,25.01,25.02,25.02,25.02,25.03,25.03,25.03,25.02,25.02,25.05,25.18,25.32,25.50,25.67,25.76,25.92,26.07,26.14,26.13,26.06,25.99,25.71,25.42,25.45,25.11,25.22,25.54,25.93,26.39,26.79,27.22,27.66,28.03,28.13,28.31,28.55,28.79,29.02,29.13,29.21,29.29,29.36,29.37,29.42,29.47,29.47,29.55,29.62,29.70,29.80,30.03,30.60,31.27,31.92,32.42,33.10,33.84,34.40,34.54,34.60,34.56,34.49,34.41,34.34,34.27,34.15,34.04,34.03,34.03,34.37,34.88,35.44,35.73,35.61,35.35,35.06,34.83,34.68,34.53,34.41,34.33,34.33,34.33,34.37,34.47,34.62,34.65,34.70,34.76,34.76,34.69,34.68,34.71,34.82,35.18,35.60,35.92,36.09,36.16,35.90,35.40,35.18,35.74,36.12,36.50,36.72,36.75,36.79,37.19,37.65,38.09,38.47,38.94,39.35,39.76,40.23,40.77,41.24,41.71,42.17,42.64,43.17,43.66,44.13,44.59,44.98,45.31,45.72,46.26,46.81,47.33,47.67,47.83,47.83,47.89,48.58,50.76,54.55,55.01,55.29,55.74,56.34,56.65,56.10,55.39,53.65,49.95,49.32,49.09,49.04,49.06,49.20,49.34,49.44,49.51,49.60,49.75,50.40,52.18,55.39,58.58,60.21,61.18,61.98,63.04,64.26,64.87,65.03,65.11,65.03,65.00,65.03,65.10,65.18,65.27,65.40,65.58,65.81,66.04,66.27,66.50,66.74,66.97,67.25,67.60,68.00,68.46,68.93,69.30,69.63,69.99,71.23,72.42,73.56,74.70,76.02,77.51,79.34,82.35,88.13,95.80,101.38,105.57,109.37,114.23,118.55,122.13,124.54,124.50,122.71,120.50,118.34,116.65,116.50,117.20,118.55,120.30,121.94,123.40,124.00,123.44,121.52,118.63,115.12,110.75,105.39,100.29,97.37,95.13,92.96,90.97,88.80,86.47,83.92,81.10
23.04,23.12,23.25,23.40,23.55,23.62,23.77,23.88,23.95,23.98,24.02,24.09,24.23,24.45,24.57,24.62,24.66,24.70,24.74,24.92,25.03,25.05,25.05,25.01,25.03,25.05,25.07,25.15,25.31,25.41,25.48,25.63,25.74,25.91,26.07,26.19,26.30,26.45,26.45,26.28,26.12,25.96,25.61,25.39,25.71,25.16,25.34,25.78,26.17,26.59,27.02,27.45,27.87,28.30,28.47,28.62,28.80,29.03,29.27,29.38,29.44,29.48,29.56,29.56,29.61,29.66,29.66,29.74,29.91,30.13,30.39,30.79,31.40,32.06,32.67,33.18,33.79,34.36,34.77,34.88,34.95,34.91,34.86,34.81,34.74,34.66,34.56,34.48,34.48,34.69,34.84,35.07,35.42,35.69,35.79,35.72,35.52,35.25,35.08,34.96,34.88,34.89,34.85,34.84,34.91,35.09,35.33,35.39,35.45,35.49,35.40,35.28,35.22,35.22,35.35,35.91,36.45,36.90,37.21,37.33,37.32,36.96,36.72,37.13,37.47,37.56,37.51,37.38,37.25,37.31,37.61,38.06,38.49,38.96,39.42,39.92,40.47,40.97,41.44,41.90,42.37,42.88,43.38,43.85,44.30,44.72,45.11,45.44,45.85,46.39,46.93,47.47,47.94,48.24,48.28,48.48,50.58,53.20,55.06,55.14,55.27,55.61,56.05,56.15,55.60,53.74,51.27,49.22,49.12,49.11,49.15,49.23,49.35,49.50,49.61,49.68,49.76,49.83,50.14,51.39,54.03,57.02,58.80,60.09,61.23,62.48,63.83,64.66,65.01,65.04,64.92,64.95,65.03,65.11,65.19,65.27,65.36,65.50,65.74,65.97,66.20,66.43,66.66,66.90,67.19,67.55,67.98,68.40,68.82,69.18,69.47,69.75,70.43,71.37,72.53,73.88,75.32,76.85,78.46,81.00,86.12,93.15,99.28,104.26,108.18,112.72,116.42,119.45,121.49,121.24,119.24,116.79,114.42,112.61,112.37,113.08,114.36,115.94,117.65,119.06,119.74,119.54,118.44,116.15,113.16,108.80,102.74,98.91,96.30,94.06,91.83,89.61,87.37,85.04,82.57,79.88
22.85,22.92,23.06,23.21,23.36,23.45,23.58,23.68,23.73,23.73,23.81,23.92,24.10,24.39,24.45,24.52,24.56,24.58,24.67,24.90,25.06,25.12,25.12,25.05,25.08,25.12,25.14,25.31,25.61,25.84,25.98,26.12,26.22,26.34,26.49,26.63,26.65,26.70,26.57,26.27,26.05,25.83,25.49,25.36,25.87,25.21,25.45,25.98,26.41,26.82,27.25,27.67,28.08,28.53,28.80,28.94,29.07,29.29,29.51,29.60,29.64,29.67,29.73,29.78,29.86,29.96,30.00,30.11,30.37,30.72,31.12,31.67,32.27,32.88,33.47,33.99,34.45,34.83,35.08,35.16,35.24,35.21,35.17,35.14,35.06,35.00,34.93,34.87,34.87,35.22,35.23,35.22,35.38,35.60,35.85,35.99,35.92,35.61,35.46,35.37,35.38,35.52,35.47,35.48,35.62,35.90,36.21,36.36,36.44,36.44,36.33,36.20,36.10,36.05,36.13,36.73,37.34,37.89,38.31,38.52,38.76,38.62,38.43,38.58,38.76,38.57,38.30,38.06,37.82,37.56,37.66,38.05,38.51,38.99,39.49,40.05,40.67,41.18,41.65,42.11,42.59,43.11,43.58,44.05,44.50,44.87,45.23,45.55,45.96,46.50,47.06,47.60,48.15,48.60,48.74,49.18,52.30,55.03,55.11,55.18,55.26,55.47,55.70,55.58,54.46,51.82,49.30,48.92,49.12,49.23,49.34,49.47,49.54,49.67,49.96,50.34,50.69,50.81,50.85,51.49,53.28,55.83,57.62,59.09,60.45,61.84,63.33,64.36,64.84,64.75,64.57,64.71,64.93,65.10,65.20,65.28,65.36,65.47,65.67,65.89,66.12,66.35,66.58,66.81,67.12,67.51,67.95,68.33,68.70,69.02,69.30,69.53,69.76,70.40,71.46,72.89,74.42,76.04,77.73,80.10,84.39,90.55,96.93,102.55,106.75,111.06,114.25,116.79,118.49,117.97,115.73,113.12,110.67,108.80,108.47,109.12,110.26,111.59,113.34,114.80,115.60,115.70,115.24,113.52,110.81,106.44,100.23,97.62,95.31,93.09,90.82,88.25,86.00,83.74,81.43,79.07
