14.74,14.76,14.79,14.83,14.90,14.90,14.90,14.90,14.92,15.00,15.07,15.15,15.23,15.31,15.38,15.46,15.54,15.63,15.77,15.85,15.93,16.01,16.09,16.16,16.24,16.29,16.31,16.37,16.39,16.44,16.52,16.58,16.60,16.64,16.69,16.70,16.77,16.79,16.84,16.91,16.98,17.00,17.04,17.09,17.10,17.17,17.19,17.23,17.30,17.37,17.39,17.44,17.49,17.50,17.56,17.59,17.62,17.69,17.77,17.79,17.83,17.89,17.90,17.96,17.99,18.02,18.09,18.16,18.19,18.20,18.21,18.29,18.30,18.31,18.33,18.40,18.41,18.46,18.50,18.51,18.51,18.57,18.61,18.63,18.69,18.71,18.75,18.80,18.81,18.88,18.91,18.91,18.92,19.00,19.01,19.06,19.11,19.11,19.18,19.21,19.24,19.30,19.31,19.36,19.41,19.41,19.41,19.48,19.51,19.54,19.61,19.61,19.66,19.70,19.70,19.70,19.70,19.70,19.70,19.71,19.79,19.86,19.93,20.02,20.10,20.17,20.22,20.24,20.31,20.38,20.46,20.52,20.53,20.59,20.62,20.66,20.72,20.73,20.78,20.85,20.93,20.99,21.07,21.15,21.23,21.30,21.38,21.51,21.62,21.70,21.77,21.85,21.93,22.01,22.08,22.16,22.24,22.32,22.39,22.47,22.56,22.64,22.72,22.79,22.87,22.95,23.03,23.10,23.18,23.26,23.36,23.50,23.57,23.65,23.73,23.81,23.88,23.96,24.04,24.13,24.21,24.28,24.36,24.44,24.53,24.67,24.76,24.83,24.94,25.11,25.34,25.57,25.77,25.95,26.18,26.41,26.64,26.86,27.09,27.32,27.57,27.76,27.85,27.93,28.00,28.04,28.06,28.15,28.23,28.30,28.37,28.45,28.52,28.54,28.51,28.43,28.36,28.28,28.20,28.14,28.13,28.12,28.21,28.38,28.62,28.84,29.01,29.16,29.31,29.47,29.62,29.78,30.34,31.84,32.59,33.15,33.69,34.31,34.93,35.26,35.16,34.77,34.54,34.36,34.60,35.23,36.14,37.00,37.90,38.67,39.27,39.90,40.52,41.11,41.70,42.30
14.80,14.80,14.83,14.87,14.90,14.90,14.90,14.92,14.97,15.05,15.12,15.20,15.28,15.36,15.43,15.51,15.59,15.67,15.79,15.87,15.95,16.02,16.10,16.18,16.26,16.32,16.35,16.39,16.43,16.47,16.52,16.60,16.64,16.68,16.71,16.75,16.79,16.83,16.87,16.91,16.99,17.03,17.07,17.11,17.15,17.19,17.23,17.27,17.31,17.39,17.43,17.47,17.51,17.55,17.59,17.62,17.66,17.71,17.78,17.83,17.87,17.91,17.94,17.98,18.02,18.06,18.10,18.18,18.20,18.22,18.25,18.29,18.30,18.32,18.36,18.40,18.40,18.45,18.50,18.50,18.54,18.58,18.60,18.61,18.69,18.70,18.72,18.76,18.80,18.84,18.88,18.90,18.90,18.94,18.98,19.02,19.06,19.10,19.14,19.15,19.18,19.25,19.25,19.31,19.35,19.36,19.40,19.43,19.47,19.51,19.55,19.59,19.63,19.65,19.65,19.69,19.70,19.72,19.74,19.70,19.77,19.85,19.91,19.95,19.99,20.06,20.12,20.16,20.24,20.32,20.37,20.41,20.45,20.53,20.58,20.63,20.70,20.74,20.81,20.89,20.97,21.04,21.12,21.20,21.27,21.35,21.43,21.54,21.63,21.71,21.79,21.87,21.94,22.02,22.10,22.18,22.25,22.33,22.41,22.48,22.59,22.69,22.77,22.84,22.92,23.00,23.07,23.15,23.23,23.31,23.40,23.51,23.59,23.67,23.74,23.82,23.90,24.01,24.10,24.18,24.26,24.33,24.41,24.49,24.57,24.69,24.77,24.85,24.94,25.06,25.29,25.52,25.72,25.88,26.11,26.35,26.58,26.81,27.04,27.27,27.43,27.53,27.61,27.69,27.76,27.82,27.87,27.94,28.02,28.10,28.16,28.20,28.28,28.33,28.32,28.24,28.16,28.09,28.01,27.95,27.95,28.06,28.20,28.38,28.62,28.85,29.02,29.19,29.38,29.53,29.69,30.18,31.32,33.39,34.43,34.67,34.89,35.51,36.09,36.19,35.94,35.53,35.30,35.11,35.09,35.41,36.15,36.96,37.75,38.39,38.91,39.49,40.10,40.65,41.18,41.76
14.80,14.81,14.86,14.90,14.90,14.90,14.90,14.94,15.02,15.10,15.17,15.25,15.33,15.41,15.48,15.56,15.64,15.72,15.80,15.88,15.96,16.04,16.11,16.19,16.27,16.34,16.40,16.41,16.47,16.51,16.53,16.60,16.67,16.71,16.74,16.80,16.81,16.87,16.90,16.93,16.99,17.07,17.11,17.13,17.20,17.21,17.26,17.30,17.32,17.39,17.46,17.51,17.53,17.60,17.61,17.66,17.70,17.72,17.78,17.86,17.90,17.93,17.99,18.01,18.05,18.10,18.11,18.18,18.21,18.24,18.30,18.30,18.31,18.35,18.40,18.40,18.40,18.45,18.50,18.50,18.58,18.60,18.60,18.62,18.69,18.70,18.71,18.73,18.80,18.81,18.86,18.90,18.90,18.91,18.97,19.00,19.02,19.09,19.10,19.11,19.14,19.20,19.20,19.26,19.30,19.31,19.38,19.40,19.44,19.49,19.50,19.57,19.59,19.60,19.61,19.67,19.70,19.74,19.79,19.72,19.78,19.85,19.90,19.90,19.90,19.95,20.02,20.10,20.18,20.25,20.29,20.32,20.40,20.48,20.55,20.63,20.71,20.78,20.86,20.94,21.02,21.09,21.17,21.25,21.33,21.40,21.48,21.56,21.64,21.72,21.80,21.88,21.96,22.03,22.11,22.19,22.27,22.34,22.42,22.50,22.63,22.74,22.82,22.89,22.97,23.05,23.13,23.20,23.28,23.36,23.45,23.52,23.60,23.68,23.76,23.83,23.91,24.05,24.15,24.23,24.31,24.38,24.46,24.54,24.62,24.69,24.77,24.85,24.92,24.99,25.21,25.44,25.65,25.82,26.04,26.27,26.50,26.73,26.96,27.18,27.25,27.29,27.37,27.44,27.52,27.60,27.68,27.75,27.82,27.89,27.95,27.96,28.04,28.12,28.13,28.05,27.97,27.90,27.82,27.77,27.79,28.01,28.20,28.38,28.62,28.85,29.03,29.22,29.43,29.60,29.75,30.77,32.63,35.10,36.38,36.34,36.21,36.70,37.21,37.08,36.71,36.30,36.07,35.91,35.71,35.70,36.11,36.84,37.47,38.00,38.48,39.03,39.63,40.16,40.65,41.18
14.80,14.86,14.89,14.90,14.90,14.90,14.90,14.94,15.02,15.10,15.17,15.25,15.33,15.41,15.48,15.56,15.64,15.73,15.86,15.95,16.02,16.10,16.18,16.26,16.33,16.38,16.41,16.47,16.49,16.53,16.58,16.60,16.67,16.74,16.78,16.80,16.86,16.89,16.93,16.98,17.00,17.07,17.14,17.18,17.20,17.26,17.29,17.33,17.38,17.40,17.46,17.53,17.58,17.60,17.66,17.69,17.72,17.78,17.80,17.86,17.93,17.98,18.00,18.05,18.09,18.12,18.18,18.19,18.24,18.28,18.30,18.30,18.35,18.39,18.40,18.40,18.40,18.45,18.50,18.50,18.58,18.60,18.63,18.68,18.70,18.70,18.73,18.78,18.80,18.86,18.89,18.90,18.91,18.97,18.99,19.00,19.02,19.09,19.10,19.14,19.18,19.20,19.20,19.26,19.30,19.30,19.32,19.37,19.41,19.44,19.50,19.52,19.56,19.60,19.60,19.62,19.67,19.74,19.80,19.78,19.79,19.85,19.90,19.90,19.90,19.91,19.96,20.04,20.11,20.19,20.26,20.32,20.40,20.48,20.55,20.63,20.71,20.78,20.86,20.94,21.02,21.09,21.17,21.25,21.33,21.40,21.48,21.56,21.66,21.79,21.87,21.94,22.02,22.10,22.18,22.25,22.33,22.41,22.48,22.56,22.65,22.74,22.82,22.89,22.97,23.05,23.13,23.20,23.28,23.40,23.51,23.59,23.67,23.74,23.82,23.90,23.97,24.07,24.15,24.23,24.31,24.38,24.46,24.54,24.62,24.69,24.77,24.85,24.91,24.93,25.10,25.31,25.54,25.75,25.92,26.14,26.37,26.61,26.84,26.95,27.03,27.10,27.17,27.25,27.33,27.41,27.48,27.56,27.58,27.64,27.71,27.77,27.85,27.92,27.94,27.86,27.78,27.70,27.63,27.60,27.72,27.94,28.16,28.38,28.62,28.85,29.07,29.26,29.44,29.65,29.81,31.66,34.50,37.02,38.10,38.18,37.92,37.83,38.19,37.92,37.48,37.07,36.84,36.68,36.47,36.20,35.90,36.44,36.94,37.43,37.91,38.51,39.08,39.62,40.13,40.61
14.80,14.88,14.90,14.90,14.90,14.90,14.93,14.98,15.06,15.14,15.22,15.29,15.37,15.45,15.52,15.60,15.68,15.77,15.89,15.97,16.05,16.12,16.20,16.28,16.36,16.41,16.45,16.49,16.53,16.57,16.61,16.64,16.68,16.75,16.81,16.84,16.89,16.92,16.96,17.01,17.04,17.08,17.15,17.21,17.24,17.29,17.32,17.36,17.40,17.44,17.48,17.54,17.61,17.64,17.68,17.72,17.76,17.80,17.83,17.88,17.94,18.01,18.04,18.08,18.12,18.15,18.20,18.23,18.27,18.30,18.30,18.34,18.38,18.40,18.40,18.40,18.43,18.47,18.50,18.50,18.58,18.60,18.64,18.70,18.70,18.73,18.77,18.80,18.80,18.88,18.90,18.91,18.95,18.99,19.00,19.02,19.05,19.10,19.10,19.15,19.20,19.20,19.23,19.28,19.30,19.31,19.34,19.38,19.40,19.42,19.50,19.50,19.55,19.60,19.60,19.60,19.66,19.74,19.80,19.80,19.80,19.85,19.90,19.90,19.90,19.90,19.94,20.01,20.09,20.17,20.24,20.32,20.40,20.48,20.55,20.63,20.71,20.82,20.90,20.98,21.06,21.13,21.21,21.29,21.37,21.44,21.52,21.60,21.70,21.81,21.89,21.97,22.04,22.12,22.20,22.28,22.35,22.43,22.51,22.58,22.66,22.75,22.86,22.93,23.01,23.09,23.17,23.24,23.32,23.43,23.53,23.61,23.69,23.77,23.84,23.92,24.00,24.07,24.15,24.23,24.31,24.38,24.46,24.54,24.62,24.69,24.77,24.85,24.90,24.90,24.99,25.19,25.42,25.64,25.79,26.01,26.26,26.50,26.67,26.75,26.83,26.91,26.98,27.06,27.14,27.21,27.29,27.33,27.36,27.42,27.50,27.58,27.66,27.71,27.72,27.67,27.59,27.51,27.47,27.51,27.69,27.92,28.15,28.38,28.62,28.85,29.08,29.29,29.48,29.72,30.25,32.82,36.35,38.98,39.82,39.99,39.73,39.29,39.16,38.72,38.24,37.84,37.64,37.40,37.10,36.69,36.17,36.26,36.49,36.87,37.38,37.96,38.51,39.03,39.54,40.03
14.81,14.88,14.90,14.90,14.90,14.90,14.97,15.05,15.12,15.20,15.27,15.35,15.43,15.51,15.58,15.66,15.74,15.82,15.90,15.97,16.05,16.13,16.21,16.28,16.36,16.44,16.50,16.50,16.57,16.60,16.62,16.70,16.70,16.76,16.83,16.90,16.90,16.96,17.00,17.02,17.09,17.10,17.15,17.23,17.30,17.30,17.36,17.40,17.41,17.49,17.50,17.55,17.62,17.70,17.70,17.75,17.80,17.81,17.88,17.90,17.94,18.01,18.09,18.10,18.15,18.20,18.21,18.28,18.30,18.30,18.31,18.39,18.40,18.40,18.40,18.40,18.47,18.50,18.50,18.51,18.58,18.60,18.64,18.70,18.70,18.77,18.80,18.80,18.80,18.88,18.90,18.93,19.00,19.00,19.00,19.04,19.10,19.10,19.10,19.15,19.20,19.20,19.28,19.30,19.30,19.32,19.39,19.40,19.40,19.43,19.50,19.50,19.55,19.60,19.60,19.60,19.66,19.74,19.80,19.80,19.80,19.85,19.90,19.90,19.90,19.90,19.94,20.01,20.09,20.17,20.25,20.33,20.40,20.48,20.56,20.64,20.72,20.87,20.96,21.04,21.12,21.19,21.27,21.35,21.43,21.50,21.58,21.66,21.74,21.82,21.89,21.97,22.05,22.13,22.20,22.28,22.36,22.43,22.51,22.59,22.67,22.78,22.92,22.99,23.07,23.15,23.23,23.30,23.38,23.46,23.54,23.62,23.69,23.77,23.85,23.92,24.00,24.07,24.15,24.23,24.31,24.39,24.47,24.54,24.62,24.69,24.77,24.84,24.89,24.90,24.87,25.05,25.29,25.51,25.67,25.89,26.16,26.40,26.48,26.56,26.64,26.71,26.79,26.87,26.95,27.03,27.09,27.09,27.16,27.23,27.31,27.38,27.46,27.48,27.49,27.47,27.40,27.32,27.34,27.46,27.69,27.92,28.15,28.38,28.62,28.85,29.08,29.31,29.54,29.77,30.86,34.06,38.07,40.82,41.49,41.77,41.59,40.97,40.19,39.58,39.04,38.62,38.45,38.08,37.64,37.18,36.72,36.25,36.12,36.34,36.85,37.39,37.93,38.43,38.92,39.46
14.87,14.89,14.90,14.90,14.91,14.96,15.03,15.08,15.12,15.20,15.27,15.35,15.43,15.51,15.58,15.66,15.74,15.83,15.96,16.04,16.12,16.19,16.27,16.35,16.42,16.48,16.51,16.56,16.59,16.63,16.67,16.70,16.75,16.82,16.88,16.90,16.96,16.99,17.03,17.07,17.10,17.15,17.22,17.28,17.30,17.35,17.39,17.42,17.47,17.50,17.54,17.61,17.67,17.70,17.75,17.78,17.82,17.87,17.89,17.94,17.98,18.01,18.09,18.15,18.18,18.22,18.27,18.29,18.30,18.32,18.37,18.40,18.40,18.40,18.41,18.47,18.49,18.50,18.52,18.57,18.59,18.60,18.64,18.70,18.70,18.77,18.80,18.82,18.87,18.89,18.90,18.93,19.00,19.00,19.04,19.08,19.10,19.10,19.15,19.18,19.20,19.20,19.28,19.30,19.32,19.37,19.40,19.40,19.43,19.48,19.50,19.50,19.55,19.60,19.61,19.66,19.69,19.74,19.80,19.80,19.80,19.82,19.85,19.90,19.90,19.90,19.94,20.02,20.15,20.24,20.31,20.39,20.47,20.54,20.62,20.70,20.78,20.88,20.96,21.04,21.12,21.19,21.27,21.35,21.43,21.50,21.58,21.66,21.76,21.88,21.96,22.04,22.11,22.19,22.27,22.34,22.42,22.50,22.58,22.65,22.73,22.82,22.92,22.99,23.07,23.15,23.23,23.30,23.38,23.50,23.60,23.68,23.76,23.83,23.88,23.92,24.00,24.07,24.15,24.23,24.31,24.44,24.53,24.61,24.67,24.70,24.77,24.78,24.80,24.89,24.46,24.75,25.14,25.33,25.59,25.87,26.08,26.21,26.29,26.37,26.44,26.52,26.60,26.73,26.82,26.87,26.90,26.96,26.98,27.04,27.10,27.13,27.20,27.26,27.29,27.28,27.21,27.17,27.26,27.46,27.69,27.92,28.15,28.38,28.62,28.85,29.08,29.31,29.54,29.77,31.26,34.55,38.41,41.02,42.38,43.24,43.50,43.13,42.25,41.21,40.18,39.35,39.04,38.65,38.22,37.75,37.29,36.83,36.39,36.17,36.28,36.82,37.31,37.82,38.34,38.88
14.90,14.90,14.90,14.91,14.94,14.99,15.07,15.11,15.15,15.23,15.31,15.38,15.46,15.54,15.62,15.69,15.77,15.86,15.99,16.07,16.15,16.22,16.30,16.38,16.46,16.51,16.54,16.59,16.62,16.66,16.71,16.73,16.78,16.85,16.91,16.94,16.99,17.02,17.06,17.10,17.13,17.18,17.25,17.31,17.33,17.39,17.42,17.45,17.50,17.53,17.58,17.64,17.71,17.73,17.78,17.82,17.85,17.90,17.93,17.97,18.01,18.05,18.12,18.18,18.22,18.25,18.30,18.30,18.30,18.33,18.40,18.40,18.42,18.43,18.45,18.50,18.50,18.52,18.55,18.60,18.60,18.60,18.64,18.70,18.70,18.77,18.80,18.82,18.90,18.90,18.92,18.95,19.00,19.00,19.06,19.10,19.11,19.13,19.18,19.20,19.21,19.24,19.29,19.30,19.34,19.40,19.40,19.42,19.46,19.50,19.50,19.53,19.57,19.60,19.61,19.69,19.70,19.74,19.81,19.83,19.81,19.82,19.85,19.90,19.90,19.92,19.97,20.05,20.18,20.27,20.34,20.42,20.50,20.58,20.65,20.73,20.81,20.88,20.98,21.07,21.15,21.23,21.30,21.38,21.46,21.54,21.61,21.69,21.79,21.91,21.99,22.07,22.14,22.22,22.30,22.38,22.45,22.53,22.61,22.68,22.76,22.85,22.95,23.03,23.10,23.18,23.26,23.34,23.41,23.53,23.63,23.71,23.79,23.87,23.91,23.95,24.03,24.08,24.15,24.22,24.28,24.41,24.48,24.54,24.60,24.60,24.67,24.61,24.59,24.85,24.03,24.46,25.05,25.24,25.52,25.79,25.93,25.99,26.07,26.14,26.24,26.34,26.44,26.57,26.66,26.71,26.74,26.80,26.80,26.85,26.90,26.90,26.98,27.06,27.10,27.09,27.01,27.07,27.23,27.46,27.69,27.92,28.15,28.38,28.62,28.85,29.08,29.31,29.54,29.77,31.48,34.70,38.38,41.05,42.82,44.09,44.69,44.58,43.90,43.01,41.91,40.76,39.97,39.32,38.81,38.35,37.86,37.38,36.81,36.33,36.06,36.25,36.70,37.22,37.76,38.31
14.90,14.90,14.90,14.93,15.00,15.00,15.07,15.14,15.22,15.29,15.37,15.45,15.53,15.60,15.68,15.76,15.83,15.91,15.99,16.07,16.15,16.22,16.30,16.38,16.46,16.53,16.60,16.60,16.66,16.70,16.72,16.79,16.80,16.85,16.93,17.00,17.00,17.06,17.10,17.11,17.19,17.20,17.25,17.32,17.40,17.40,17.45,17.50,17.51,17.58,17.60,17.64,17.72,17.79,17.80,17.85,17.90,17.90,17.98,18.00,18.04,18.11,18.19,18.20,18.24,18.30,18.30,18.30,18.30,18.33,18.40,18.40,18.46,18.50,18.50,18.50,18.50,18.55,18.60,18.60,18.60,18.60,18.64,18.70,18.70,18.77,18.80,18.82,18.90,18.90,18.95,19.00,19.00,19.00,19.06,19.10,19.12,19.19,19.20,19.20,19.23,19.30,19.30,19.30,19.34,19.40,19.40,19.47,19.50,19.50,19.50,19.57,19.60,19.60,19.61,19.69,19.70,19.74,19.82,19.89,19.83,19.85,19.90,19.90,19.90,19.96,20.03,20.11,20.19,20.27,20.34,20.42,20.50,20.58,20.65,20.73,20.81,20.88,21.02,21.14,21.21,21.29,21.37,21.45,21.52,21.60,21.68,21.75,21.83,21.91,21.99,22.07,22.14,22.22,22.30,22.38,22.45,22.53,22.61,22.68,22.76,22.88,23.01,23.09,23.17,23.24,23.32,23.40,23.48,23.56,23.63,23.71,23.79,23.87,23.94,24.02,24.09,24.10,24.15,24.20,24.21,24.29,24.31,24.35,24.41,24.41,24.48,24.33,24.29,24.78,23.56,24.17,25.00,25.23,25.47,25.64,25.71,25.73,25.81,25.89,26.01,26.17,26.31,26.39,26.47,26.55,26.61,26.61,26.61,26.66,26.71,26.71,26.79,26.87,26.91,26.90,26.82,27.00,27.23,27.46,27.69,27.92,28.15,28.38,28.62,28.85,29.08,29.31,29.54,29.77,31.52,34.52,38.01,40.92,42.85,44.33,45.17,45.34,45.16,44.97,44.18,42.81,41.22,40.07,39.42,38.98,38.44,37.90,37.36,36.78,36.20,35.69,36.11,36.65,37.19,37.73
14.90,14.90,14.90,14.93,15.01,15.05,15.13,15.20,15.27,15.30,15.37,15.45,15.53,15.61,15.68,15.76,15.84,15.92,16.05,16.13,16.21,16.28,16.36,16.44,16.48,16.53,16.61,16.65,16.69,16.73,16.77,16.80,16.84,16.88,16.93,17.00,17.05,17.08,17.12,17.17,17.20,17.24,17.28,17.32,17.40,17.45,17.48,17.52,17.56,17.59,17.64,17.68,17.72,17.80,17.84,17.88,17.92,17.96,17.99,18.04,18.08,18.11,18.19,18.24,18.28,18.30,18.30,18.30,18.33,18.37,18.40,18.40,18.46,18.50,18.50,18.50,18.54,18.58,18.60,18.60,18.65,18.66,18.67,18.70,18.70,18.77,18.80,18.82,18.90,18.90,18.95,19.00,19.00,19.00,19.06,19.10,19.12,19.19,19.20,19.23,19.27,19.30,19.30,19.34,19.37,19.40,19.40,19.47,19.50,19.51,19.56,19.59,19.60,19.62,19.66,19.69,19.74,19.78,19.82,19.89,19.87,19.88,19.90,19.90,19.90,19.96,20.04,20.11,20.19,20.27,20.37,20.48,20.56,20.64,20.71,20.79,20.87,20.95,21.05,21.14,21.22,21.29,21.37,21.45,21.53,21.60,21.68,21.76,21.83,21.92,22.04,22.13,22.20,22.28,22.36,22.44,22.51,22.59,22.67,22.75,22.82,22.91,23.02,23.09,23.17,23.25,23.33,23.40,23.48,23.56,23.61,23.65,23.73,23.77,23.82,23.89,23.92,23.96,24.00,24.02,24.02,24.10,24.12,24.16,24.22,24.22,24.25,24.04,24.04,24.77,23.49,24.10,24.90,25.05,25.28,25.41,25.48,25.54,25.61,25.74,25.85,25.98,26.12,26.20,26.28,26.36,26.42,26.42,26.46,26.50,26.52,26.52,26.60,26.64,26.68,26.73,26.79,26.99,27.23,27.46,27.69,27.92,28.15,28.37,28.56,28.79,29.02,29.25,29.48,29.71,31.17,33.86,37.20,40.31,42.15,43.81,44.95,45.42,45.60,45.54,45.11,44.35,43.43,41.98,40.72,39.73,39.01,38.47,37.93,37.35,36.76,36.26,36.06,36.23,36.65,37.09
14.90,14.90,14.91,14.96,15.04,15.11,15.17,15.24,15.30,15.32,15.40,15.48,15.55,15.63,15.71,15.79,15.86,15.95,16.09,16.17,16.25,16.32,16.40,16.48,16.51,16.55,16.61,16.69,16.72,16.76,16.80,16.82,16.88,16.91,16.95,17.01,17.08,17.11,17.15,17.20,17.22,17.28,17.31,17.34,17.40,17.48,17.51,17.55,17.60,17.62,17.67,17.71,17.74,17.80,17.87,17.91,17.95,18.00,18.02,18.07,18.11,18.14,18.22,18.28,18.30,18.31,18.32,18.32,18.37,18.40,18.40,18.42,18.47,18.51,18.52,18.52,18.58,18.60,18.61,18.63,18.69,18.70,18.70,18.70,18.72,18.78,18.80,18.82,18.90,18.90,18.95,19.00,19.00,19.00,19.06,19.10,19.12,19.19,19.20,19.25,19.30,19.30,19.32,19.37,19.40,19.40,19.42,19.48,19.50,19.52,19.60,19.60,19.61,19.65,19.70,19.70,19.76,19.80,19.82,19.89,19.90,19.90,19.90,19.90,19.92,19.98,20.06,20.14,20.21,20.29,20.40,20.52,20.60,20.68,20.75,20.84,20.93,21.01,21.09,21.16,21.24,21.32,21.40,21.47,21.55,21.63,21.70,21.78,21.86,21.95,22.08,22.17,22.24,22.32,22.40,22.48,22.55,22.63,22.71,22.78,22.86,22.94,23.01,23.07,23.15,23.21,23.28,23.35,23.41,23.48,23.53,23.54,23.61,23.63,23.67,23.73,23.73,23.80,23.83,23.83,23.86,23.91,23.93,23.96,24.03,24.03,23.97,23.72,23.69,24.39,23.69,24.23,24.83,24.92,25.10,25.18,25.25,25.35,25.45,25.58,25.69,25.80,25.93,26.03,26.11,26.18,26.23,26.25,26.30,26.33,26.33,26.35,26.41,26.44,26.48,26.57,26.75,26.97,27.19,27.41,27.64,27.87,28.10,28.31,28.49,28.70,28.93,29.16,29.40,29.65,30.78,33.17,36.32,39.40,41.31,43.14,44.55,45.37,45.76,45.89,45.79,45.49,45.05,43.72,42.20,40.79,39.75,39.08,38.49,37.91,37.33,36.83,36.21,36.02,36.19,36.48
14.90,14.90,14.95,15.02,15.10,15.18,15.20,15.24,15.32,15.39,15.46,15.54,15.62,15.69,15.77,15.85,15.93,16.01,16.09,16.17,16.25,16.32,16.40,16.48,16.55,16.59,16.61,16.69,16.76,16.79,16.82,16.89,16.90,16.95,16.99,17.01,17.08,17.15,17.19,17.21,17.28,17.30,17.34,17.39,17.40,17.48,17.55,17.59,17.61,17.68,17.70,17.74,17.79,17.80,17.87,17.94,17.99,18.00,18.07,18.10,18.13,18.20,18.28,18.30,18.30,18.32,18.39,18.39,18.39,18.40,18.41,18.48,18.50,18.54,18.59,18.59,18.60,18.60,18.62,18.69,18.70,18.70,18.70,18.71,18.78,18.80,18.80,18.82,18.90,18.90,18.95,19.00,19.00,19.00,19.06,19.10,19.12,19.19,19.20,19.25,19.30,19.30,19.37,19.40,19.40,19.41,19.48,19.50,19.50,19.52,19.60,19.60,19.65,19.69,19.70,19.70,19.76,19.80,19.82,19.89,19.90,19.90,19.90,19.90,19.97,20.05,20.12,20.20,20.28,20.36,20.44,20.52,20.60,20.68,20.75,20.86,21.00,21.07,21.15,21.23,21.31,21.38,21.46,21.54,21.61,21.69,21.77,21.85,21.92,22.00,22.09,22.17,22.24,22.32,22.40,22.48,22.55,22.63,22.71,22.78,22.86,22.94,23.00,23.01,23.08,23.12,23.15,23.22,23.23,23.29,23.33,23.35,23.42,23.43,23.48,23.53,23.53,23.61,23.63,23.66,23.72,23.73,23.73,23.77,23.83,23.83,23.65,23.33,23.15,23.40,24.28,24.68,24.83,24.90,24.93,24.94,25.03,25.17,25.32,25.41,25.53,25.65,25.75,25.89,25.98,26.03,26.05,26.12,26.13,26.13,26.16,26.22,26.23,26.28,26.36,26.45,26.68,26.91,27.10,27.28,27.51,27.74,27.98,28.20,28.42,28.59,28.80,29.03,29.28,29.58,30.36,32.48,35.37,38.06,40.31,42.28,43.93,45.18,45.57,46.02,46.19,46.01,45.62,45.09,43.89,42.32,40.75,39.73,39.03,38.45,37.89,37.29,36.61,36.11,35.86,35.90
14.90,14.94,14.98,15.03,15.11,15.19,15.23,15.30,15.37,15.45,15.49,15.55,15.63,15.71,15.78,15.86,15.94,16.02,16.14,16.22,16.30,16.38,16.45,16.53,16.58,16.62,16.66,16.74,16.78,16.82,16.86,16.90,16.94,16.98,17.01,17.06,17.09,17.16,17.22,17.26,17.30,17.34,17.37,17.41,17.45,17.49,17.56,17.62,17.66,17.69,17.73,17.77,17.81,17.85,17.89,17.95,18.01,18.05,18.09,18.13,18.17,18.21,18.29,18.34,18.35,18.36,18.40,18.40,18.40,18.42,18.46,18.49,18.50,18.54,18.60,18.60,18.60,18.60,18.63,18.70,18.70,18.73,18.75,18.76,18.80,18.80,18.82,18.86,18.90,18.90,18.95,19.00,19.00,19.00,19.06,19.10,19.12,19.19,19.20,19.25,19.30,19.30,19.38,19.40,19.42,19.46,19.50,19.50,19.52,19.56,19.60,19.60,19.65,19.70,19.70,19.74,19.78,19.82,19.86,19.90,19.90,19.90,19.91,19.96,20.03,20.11,20.19,20.26,20.34,20.42,20.50,20.59,20.70,20.78,20.86,20.95,21.06,21.14,21.21,21.29,21.37,21.45,21.52,21.60,21.68,21.76,21.83,21.91,21.99,22.06,22.14,22.22,22.30,22.37,22.45,22.53,22.58,22.63,22.70,22.74,22.78,22.81,22.84,22.84,22.91,22.94,22.97,23.04,23.04,23.10,23.14,23.15,23.23,23.24,23.29,23.34,23.34,23.42,23.44,23.47,23.54,23.54,23.57,23.61,23.64,23.64,23.32,23.15,23.15,23.33,24.41,24.73,24.78,24.85,24.85,24.88,24.94,25.02,25.14,25.26,25.37,25.49,25.60,25.72,25.80,25.84,25.86,25.93,25.94,25.97,26.01,26.04,26.08,26.15,26.23,26.33,26.56,26.79,27.00,27.21,27.44,27.63,27.85,28.08,28.31,28.50,28.73,28.96,29.21,29.51,30.02,31.70,34.17,36.72,39.12,41.15,42.94,44.47,45.30,45.89,46.27,46.44,46.34,45.96,45.11,43.86,42.33,40.92,39.81,39.00,38.40,37.74,37.09,36.57,36.21,36.01
14.92,15.00,15.02,15.05,15.13,15.20,15.28,15.35,15.42,15.50,15.51,15.57,15.65,15.72,15.80,15.88,15.95,16.04,16.19,16.27,16.35,16.42,16.50,16.58,16.61,16.64,16.71,16.79,16.81,16.85,16.90,16.92,16.98,17.01,17.04,17.10,17.11,17.18,17.25,17.30,17.32,17.37,17.41,17.44,17.50,17.51,17.57,17.64,17.70,17.71,17.77,17.81,17.83,17.90,17.91,17.97,18.04,18.10,18.11,18.17,18.21,18.23,18.31,18.37,18.40,18.40,18.40,18.40,18.41,18.44,18.50,18.50,18.51,18.55,18.60,18.62,18.62,18.62,18.64,18.70,18.71,18.77,18.80,18.80,18.80,18.81,18.85,18.90,18.90,18.90,18.95,19.00,19.00,19.00,19.06,19.10,19.12,19.19,19.20,19.25,19.30,19.30,19.38,19.40,19.44,19.50,19.50,19.50,19.54,19.60,19.60,19.61,19.66,19.70,19.71,19.79,19.80,19.84,19.90,19.90,19.91,19.92,19.95,20.02,20.10,20.17,20.25,20.33,20.42,20.50,20.58,20.67,20.81,20.89,20.97,21.05,21.12,21.20,21.28,21.36,21.43,21.51,21.59,21.66,21.74,21.82,21.88,21.96,22.03,22.11,22.19,22.27,22.34,22.42,22.48,22.56,22.59,22.63,22.70,22.70,22.70,22.70,22.70,22.70,22.76,22.79,22.82,22.88,22.88,22.93,22.97,22.98,23.04,23.05,23.09,23.15,23.15,23.23,23.25,23.28,23.35,23.35,23.41,23.45,23.45,23.42,23.09,23.08,23.29,23.47,24.33,24.64,24.73,24.78,24.78,24.85,24.88,24.90,24.98,25.11,25.20,25.31,25.46,25.53,25.61,25.66,25.68,25.74,25.76,25.81,25.87,25.88,25.96,26.03,26.11,26.21,26.43,26.66,26.89,27.12,27.36,27.53,27.74,27.96,28.18,28.42,28.65,28.88,29.14,29.44,29.72,30.85,32.76,35.13,37.63,39.79,41.73,43.49,44.83,45.59,46.15,46.59,46.79,46.62,46.15,45.29,43.94,42.32,40.80,39.65,38.89,38.20,37.60,37.11,36.69,36.27
14.98,15.06,15.08,15.11,15.19,15.27,15.35,15.39,15.42,15.50,15.56,15.63,15.71,15.79,15.86,15.94,16.02,16.10,16.19,16.27,16.35,16.42,16.50,16.58,16.64,16.69,16.71,16.79,16.85,16.89,16.92,16.98,16.99,17.04,17.09,17.10,17.17,17.24,17.29,17.31,17.37,17.39,17.44,17.49,17.50,17.56,17.64,17.69,17.71,17.77,17.79,17.83,17.88,17.90,17.96,18.03,18.09,18.10,18.17,18.19,18.23,18.29,18.37,18.39,18.40,18.40,18.40,18.40,18.44,18.49,18.50,18.50,18.55,18.59,18.61,18.68,18.68,18.68,18.69,18.70,18.77,18.79,18.80,18.80,18.80,18.85,18.89,18.90,18.90,18.90,18.95,19.00,19.00,19.00,19.06,19.10,19.12,19.19,19.20,19.25,19.30,19.30,19.38,19.40,19.44,19.50,19.50,19.50,19.54,19.60,19.60,19.66,19.69,19.70,19.71,19.79,19.80,19.84,19.90,19.90,19.96,20.02,20.07,20.08,20.16,20.24,20.32,20.40,20.54,20.63,20.70,20.79,20.88,20.96,21.03,21.11,21.19,21.27,21.34,21.42,21.50,21.57,21.65,21.73,21.81,21.88,21.90,21.96,22.03,22.11,22.19,22.27,22.34,22.40,22.42,22.49,22.56,22.63,22.70,22.70,22.70,22.70,22.70,22.70,22.71,22.76,22.80,22.82,22.82,22.83,22.84,22.84,22.86,22.86,22.90,22.96,22.96,23.03,23.06,23.09,23.16,23.16,23.22,23.26,23.23,23.11,23.13,23.24,23.43,23.65,23.97,24.42,24.71,24.72,24.72,24.78,24.82,24.84,24.92,24.95,25.01,25.12,25.26,25.34,25.42,25.49,25.54,25.56,25.61,25.69,25.76,25.82,25.90,25.93,26.00,26.14,26.31,26.53,26.77,27.00,27.23,27.45,27.67,27.88,28.06,28.29,28.52,28.78,29.07,29.31,29.50,29.89,30.85,32.83,35.42,37.90,40.13,42.07,43.80,44.96,45.63,45.99,46.40,46.93,46.95,46.40,45.30,43.98,42.22,40.58,39.34,38.64,38.18,37.67,37.09,36.52
15.05,15.12,15.14,15.16,15.21,15.29,15.37,15.42,15.46,15.54,15.62,15.67,15.73,15.81,15.88,15.96,16.04,16.12,16.23,16.31,16.39,16.47,16.55,16.62,16.68,16.71,16.75,16.79,16.86,16.92,16.96,17.00,17.03,17.07,17.11,17.15,17.19,17.26,17.32,17.35,17.40,17.43,17.47,17.51,17.54,17.59,17.66,17.71,17.75,17.79,17.83,17.87,17.91,17.94,17.99,18.05,18.11,18.15,18.19,18.23,18.26,18.31,18.39,18.40,18.40,18.40,18.40,18.40,18.45,18.50,18.50,18.54,18.58,18.60,18.62,18.70,18.70,18.70,18.70,18.70,18.78,18.80,18.82,18.84,18.84,18.88,18.90,18.91,18.94,18.94,18.97,19.00,19.00,19.04,19.08,19.10,19.12,19.19,19.20,19.25,19.30,19.30,19.38,19.40,19.44,19.50,19.50,19.50,19.54,19.60,19.60,19.68,19.70,19.71,19.75,19.79,19.83,19.87,19.90,19.90,20.00,20.09,20.14,20.15,20.22,20.33,20.42,20.51,20.63,20.71,20.79,20.87,20.94,21.02,21.10,21.16,21.21,21.28,21.36,21.44,21.52,21.59,21.64,21.70,21.78,21.86,21.89,21.96,22.03,22.11,22.19,22.24,22.30,22.36,22.40,22.48,22.55,22.63,22.70,22.70,22.70,22.70,22.70,22.70,22.73,22.77,22.80,22.80,22.80,22.80,22.80,22.80,22.80,22.80,22.84,22.90,22.90,22.94,22.96,22.97,23.01,23.01,23.05,23.08,23.11,23.09,23.26,23.43,23.61,23.84,23.99,24.38,24.66,24.66,24.69,24.74,24.77,24.81,24.85,24.89,24.93,24.99,25.08,25.19,25.27,25.33,25.37,25.41,25.48,25.56,25.64,25.71,25.79,25.84,25.91,26.03,26.19,26.41,26.64,26.87,27.10,27.33,27.56,27.78,27.97,28.17,28.42,28.67,28.90,29.06,29.22,29.37,29.83,31.01,33.12,35.57,37.99,40.14,42.09,43.47,44.33,44.90,45.64,46.41,46.96,47.07,46.56,45.33,43.71,41.90,40.17,39.17,38.62,38.06,37.46,36.91
15.11,15.18,15.20,15.21,15.22,15.30,15.37,15.45,15.53,15.60,15.67,15.70,15.74,15.81,15.89,15.97,16.05,16.14,16.29,16.37,16.45,16.52,16.60,16.68,16.70,16.74,16.80,16.81,16.87,16.94,17.00,17.01,17.08,17.10,17.13,17.20,17.21,17.26,17.34,17.40,17.41,17.47,17.50,17.53,17.60,17.61,17.66,17.73,17.80,17.81,17.87,17.90,17.93,18.00,18.01,18.06,18.13,18.20,18.21,18.26,18.30,18.32,18.39,18.40,18.40,18.40,18.41,18.41,18.46,18.50,18.52,18.59,18.60,18.60,18.63,18.70,18.70,18.70,18.71,18.71,18.78,18.80,18.84,18.90,18.90,18.90,18.90,18.93,19.00,19.00,19.00,19.00,19.02,19.09,19.10,19.10,19.12,19.19,19.20,19.25,19.30,19.30,19.38,19.40,19.44,19.50,19.50,19.51,19.55,19.60,19.60,19.68,19.70,19.73,19.80,19.80,19.86,19.90,19.90,19.91,20.05,20.15,20.21,20.22,20.30,20.43,20.54,20.61,20.69,20.77,20.84,20.92,21.00,21.07,21.14,21.19,21.21,21.28,21.36,21.44,21.51,21.59,21.60,21.65,21.73,21.80,21.88,21.96,22.03,22.10,22.18,22.20,22.24,22.32,22.40,22.48,22.55,22.63,22.69,22.70,22.70,22.70,22.70,22.71,22.77,22.80,22.80,22.80,22.80,22.80,22.80,22.80,22.80,22.81,22.85,22.90,22.90,22.90,22.90,22.90,22.90,22.90,22.91,22.95,23.05,23.21,23.43,23.61,23.80,24.02,24.18,24.43,24.59,24.61,24.68,24.69,24.73,24.79,24.79,24.87,24.89,24.89,24.91,25.05,25.14,25.18,25.20,25.28,25.35,25.43,25.51,25.58,25.66,25.74,25.82,25.90,26.06,26.28,26.51,26.74,26.97,27.20,27.44,27.67,27.89,28.05,28.31,28.53,28.67,28.75,28.90,29.05,29.26,29.56,30.94,33.13,35.62,38.02,40.17,41.69,42.78,43.66,44.73,45.52,46.56,47.43,47.66,46.50,45.17,43.37,41.24,39.73,39.00,38.37,37.79,37.29
15.17,15.19,15.24,15.27,15.28,15.36,15.44,15.51,15.58,15.60,15.67,15.74,15.80,15.88,15.96,16.03,16.11,16.19,16.29,16.37,16.45,16.52,16.60,16.68,16.74,16.78,16.81,16.86,16.89,16.94,17.01,17.07,17.09,17.14,17.18,17.20,17.26,17.29,17.34,17.41,17.47,17.49,17.53,17.58,17.60,17.66,17.69,17.73,17.81,17.86,17.89,17.93,17.98,18.00,18.05,18.12,18.18,18.20,18.26,18.29,18.33,18.38,18.40,18.40,18.40,18.42,18.47,18.47,18.49,18.52,18.57,18.60,18.60,18.63,18.68,18.70,18.70,18.74,18.77,18.77,18.79,18.80,18.84,18.90,18.90,18.90,18.93,18.98,19.00,19.00,19.00,19.02,19.07,19.10,19.10,19.10,19.12,19.19,19.20,19.25,19.30,19.30,19.38,19.40,19.44,19.50,19.50,19.55,19.58,19.60,19.60,19.68,19.70,19.73,19.80,19.80,19.86,19.90,19.91,19.97,20.06,20.18,20.29,20.35,20.43,20.52,20.58,20.61,20.69,20.77,20.84,20.92,21.00,21.02,21.08,21.15,21.21,21.28,21.36,21.41,21.44,21.52,21.58,21.65,21.73,21.80,21.88,21.96,22.01,22.04,22.12,22.18,22.24,22.32,22.40,22.48,22.55,22.61,22.63,22.69,22.70,22.70,22.71,22.77,22.79,22.80,22.80,22.80,22.80,22.80,22.80,22.80,22.80,22.85,22.88,22.90,22.90,22.90,22.90,22.90,22.90,22.90,22.94,23.04,23.19,23.40,23.58,23.77,23.97,24.15,24.36,24.48,24.55,24.60,24.62,24.63,24.67,24.73,24.73,24.80,24.83,24.85,24.90,24.95,24.97,25.01,25.07,25.15,25.23,25.30,25.38,25.46,25.53,25.61,25.69,25.78,25.93,26.15,26.38,26.61,26.84,27.08,27.31,27.54,27.77,27.92,28.07,28.21,28.35,28.43,28.58,28.76,28.97,29.17,29.86,31.25,33.40,36.16,38.81,40.46,41.75,42.87,43.84,44.67,45.79,46.99,47.95,47.39,46.23,44.64,42.68,40.28,39.36,38.66,37.97,37.23
15.24,15.24,15.29,15.34,15.35,15.42,15.48,15.54,15.61,15.64,15.71,15.79,15.85,15.91,15.98,16.06,16.15,16.25,16.33,16.41,16.48,16.56,16.64,16.71,16.77,16.81,16.84,16.89,16.92,16.96,17.02,17.10,17.13,17.17,17.21,17.24,17.29,17.32,17.36,17.41,17.49,17.52,17.57,17.61,17.64,17.69,17.72,17.76,17.81,17.89,17.92,17.96,18.01,18.03,18.08,18.15,18.21,18.24,18.29,18.32,18.36,18.40,18.40,18.42,18.44,18.45,18.50,18.50,18.50,18.53,18.60,18.60,18.62,18.66,18.70,18.70,18.73,18.77,18.80,18.80,18.80,18.82,18.86,18.90,18.90,18.92,18.97,19.00,19.00,19.03,19.04,19.06,19.10,19.10,19.12,19.14,19.15,19.20,19.20,19.25,19.30,19.30,19.38,19.40,19.44,19.50,19.50,19.57,19.60,19.60,19.60,19.68,19.70,19.73,19.80,19.80,19.86,19.90,19.92,19.99,20.07,20.18,20.29,20.37,20.44,20.52,20.58,20.61,20.69,20.74,20.81,20.89,20.96,20.99,21.05,21.12,21.17,21.25,21.33,21.38,21.42,21.49,21.57,21.65,21.73,21.80,21.88,21.94,21.98,22.01,22.09,22.17,22.24,22.32,22.40,22.48,22.53,22.57,22.61,22.68,22.70,22.71,22.75,22.80,22.80,22.80,22.80,22.80,22.80,22.80,22.80,22.80,22.83,22.88,22.90,22.90,22.90,22.90,22.90,22.90,22.90,22.93,23.04,23.18,23.35,23.55,23.74,23.93,24.12,24.28,24.42,24.46,24.50,24.56,24.56,24.59,24.63,24.67,24.70,24.75,24.78,24.82,24.86,24.86,24.89,24.92,24.98,25.06,25.13,25.21,25.29,25.37,25.44,25.50,25.57,25.68,25.81,26.02,26.25,26.49,26.72,26.95,27.18,27.38,27.53,27.68,27.78,27.88,28.00,28.11,28.26,28.46,28.70,28.97,29.41,30.59,32.81,36.00,38.77,40.28,41.51,42.63,43.39,44.15,45.24,46.55,47.89,48.06,47.09,45.66,43.88,41.13,39.76,38.80,37.98,37.16
15.30,15.30,15.36,15.40,15.41,15.49,15.50,15.54,15.62,15.70,15.77,15.85,15.90,15.91,15.98,16.06,16.18,16.32,16.39,16.47,16.55,16.62,16.70,16.78,16.80,16.83,16.90,16.90,16.96,17.00,17.02,17.10,17.17,17.20,17.23,17.30,17.30,17.36,17.40,17.41,17.49,17.57,17.60,17.62,17.70,17.70,17.76,17.80,17.81,17.89,17.96,18.00,18.02,18.10,18.10,18.15,18.23,18.30,18.30,18.36,18.40,18.40,18.40,18.47,18.50,18.50,18.50,18.50,18.50,18.53,18.60,18.60,18.66,18.70,18.70,18.70,18.77,18.80,18.80,18.80,18.80,18.86,18.90,18.90,18.90,18.97,19.00,19.00,19.00,19.08,19.10,19.10,19.10,19.10,19.16,19.20,19.20,19.20,19.20,19.25,19.30,19.30,19.38,19.40,19.44,19.50,19.50,19.57,19.60,19.60,19.60,19.68,19.70,19.73,19.80,19.80,19.86,19.90,19.92,19.99,20.07,20.15,20.23,20.30,20.38,20.46,20.54,20.61,20.69,20.70,20.74,20.82,20.90,20.98,21.05,21.10,21.11,21.18,21.26,21.34,21.42,21.49,21.57,21.65,21.73,21.80,21.88,21.90,21.93,22.01,22.09,22.17,22.24,22.32,22.40,22.48,22.50,22.53,22.61,22.68,22.70,22.74,22.80,22.80,22.80,22.80,22.80,22.80,22.80,22.80,22.80,22.81,22.89,22.90,22.90,22.90,22.90,22.90,22.90,22.90,22.91,22.98,23.18,23.38,23.53,23.69,23.91,24.09,24.25,24.40,24.40,24.40,24.43,24.50,24.50,24.57,24.60,24.62,24.70,24.70,24.75,24.80,24.80,24.80,24.86,24.90,24.91,24.99,25.07,25.15,25.22,25.30,25.38,25.40,25.47,25.61,25.69,25.89,26.13,26.36,26.59,26.82,27.05,27.20,27.21,27.36,27.46,27.54,27.63,27.78,27.94,28.14,28.44,28.90,29.45,30.87,33.49,37.13,39.75,40.91,41.88,42.81,43.28,43.89,44.86,46.13,47.56,48.57,47.79,46.48,44.92,42.21,40.19,38.81,37.87,37.10
15.36,15.36,15.38,15.42,15.47,15.50,15.54,15.61,15.68,15.76,15.79,15.85,15.92,15.97,16.05,16.12,16.22,16.32,16.39,16.47,16.55,16.62,16.70,16.78,16.84,16.88,16.91,16.96,16.99,17.03,17.08,17.16,17.19,17.23,17.27,17.30,17.35,17.39,17.42,17.48,17.56,17.59,17.63,17.67,17.70,17.75,17.78,17.82,17.87,17.95,17.99,18.03,18.07,18.10,18.15,18.21,18.27,18.30,18.35,18.39,18.42,18.46,18.46,18.49,18.50,18.50,18.50,18.50,18.54,18.58,18.61,18.66,18.69,18.70,18.71,18.76,18.79,18.80,18.82,18.86,18.86,18.89,18.90,18.91,18.96,18.99,19.00,19.01,19.06,19.09,19.10,19.10,19.11,19.16,19.19,19.20,19.20,19.20,19.25,19.28,19.30,19.30,19.38,19.40,19.44,19.50,19.50,19.57,19.60,19.60,19.60,19.68,19.70,19.73,19.80,19.80,19.86,19.90,19.91,19.93,20.05,20.15,20.23,20.30,20.38,20.46,20.51,20.55,20.63,20.68,20.74,20.82,20.90,20.93,20.99,21.06,21.11,21.18,21.26,21.34,21.42,21.49,21.57,21.65,21.71,21.74,21.82,21.87,21.93,22.01,22.09,22.17,22.24,22.32,22.40,22.43,22.47,22.53,22.61,22.68,22.70,22.74,22.80,22.80,22.80,22.80,22.80,22.80,22.80,22.80,22.82,22.87,22.90,22.90,22.90,22.90,22.90,22.90,22.90,22.92,22.98,23.16,23.34,23.53,23.72,23.88,24.06,24.16,24.23,24.34,24.34,24.37,24.41,24.44,24.49,24.52,24.54,24.56,24.63,24.64,24.69,24.74,24.74,24.79,24.82,24.84,24.85,24.93,24.96,25.02,25.10,25.17,25.25,25.31,25.38,25.49,25.62,25.79,26.00,26.23,26.46,26.69,26.79,26.83,26.89,26.99,27.11,27.22,27.31,27.46,27.71,28.06,28.52,29.03,29.52,31.18,33.81,37.08,39.80,41.38,42.72,43.85,44.36,44.65,45.37,46.44,47.70,48.85,48.26,47.05,45.62,43.60,40.88,39.13,38.15,37.23
15.40,15.42,15.43,15.46,15.53,15.53,15.59,15.66,15.72,15.80,15.82,15.88,15.96,16.03,16.09,16.16,16.25,16.34,16.42,16.50,16.57,16.65,16.73,16.81,16.87,16.91,16.94,16.99,17.02,17.06,17.12,17.20,17.22,17.26,17.31,17.33,17.39,17.42,17.45,17.51,17.59,17.62,17.66,17.71,17.73,17.78,17.82,17.85,17.91,17.99,18.02,18.06,18.11,18.13,18.18,18.25,18.31,18.33,18.39,18.42,18.45,18.50,18.50,18.50,18.50,18.50,18.50,18.52,18.57,18.60,18.61,18.69,18.70,18.71,18.74,18.80,18.80,18.81,18.85,18.90,18.90,18.90,18.90,18.91,18.99,19.00,19.01,19.04,19.10,19.10,19.12,19.13,19.13,19.19,19.20,19.21,19.23,19.23,19.28,19.30,19.31,19.33,19.39,19.40,19.44,19.50,19.50,19.57,19.60,19.60,19.60,19.68,19.70,19.73,19.80,19.80,19.86,19.90,19.90,19.90,20.02,20.12,20.20,20.28,20.35,20.43,20.48,20.51,20.59,20.65,20.72,20.79,20.87,20.89,20.95,21.03,21.11,21.18,21.26,21.34,21.42,21.49,21.55,21.62,21.68,21.70,21.78,21.86,21.93,22.01,22.09,22.17,22.23,22.29,22.37,22.39,22.45,22.53,22.61,22.66,22.69,22.74,22.80,22.80,22.80,22.80,22.80,22.80,22.80,22.82,22.85,22.90,22.90,22.90,22.90,22.90,22.90,22.90,22.91,22.97,23.10,23.31,23.50,23.69,23.88,24.02,24.13,24.19,24.22,24.27,24.29,24.34,24.37,24.38,24.46,24.47,24.48,24.51,24.57,24.59,24.64,24.67,24.68,24.76,24.77,24.78,24.81,24.87,24.87,24.92,24.99,25.05,25.12,25.20,25.28,25.36,25.52,25.67,25.87,26.10,26.31,26.48,26.48,26.46,26.54,26.64,26.76,26.88,26.99,27.17,27.52,28.00,28.53,29.05,29.53,31.14,33.61,36.62,39.34,41.31,43.06,44.55,45.35,45.61,46.23,47.13,48.16,49.22,48.81,47.73,46.36,44.82,41.88,39.79,38.52,37.49
15.40,15.47,15.49,15.53,15.59,15.59,15.66,15.70,15.72,15.80,15.87,15.94,16.02,16.09,16.10,16.16,16.27,16.41,16.48,16.56,16.64,16.72,16.79,16.87,16.90,16.93,16.99,17.00,17.06,17.10,17.12,17.20,17.27,17.30,17.33,17.39,17.40,17.46,17.49,17.51,17.59,17.66,17.70,17.72,17.79,17.80,17.85,17.89,17.91,17.99,18.06,18.10,18.12,18.19,18.20,18.25,18.33,18.39,18.40,18.45,18.49,18.50,18.50,18.50,18.50,18.50,18.50,18.57,18.60,18.60,18.61,18.69,18.70,18.74,18.79,18.80,18.80,18.85,18.89,18.90,18.90,18.90,18.90,18.91,18.99,19.00,19.04,19.09,19.10,19.10,19.15,19.19,19.19,19.20,19.20,19.24,19.29,19.29,19.30,19.30,19.32,19.39,19.40,19.40,19.44,19.50,19.50,19.57,19.60,19.60,19.60,19.68,19.70,19.73,19.80,19.80,19.86,19.90,19.90,19.90,19.98,20.06,20.13,20.21,20.29,20.37,20.44,20.51,20.59,20.61,20.65,20.73,20.81,20.88,20.95,21.03,21.11,21.18,21.26,21.34,21.42,21.49,21.51,21.56,21.63,21.70,21.78,21.86,21.93,22.01,22.09,22.17,22.20,22.23,22.31,22.38,22.45,22.53,22.60,22.61,22.66,22.74,22.80,22.80,22.80,22.80,22.80,22.80,22.80,22.85,22.89,22.90,22.90,22.90,22.90,22.90,22.90,22.90,22.95,23.07,23.29,23.45,23.66,23.86,24.00,24.08,24.10,24.15,24.20,24.21,24.28,24.30,24.31,24.32,24.40,24.41,24.45,24.50,24.51,24.58,24.60,24.61,24.61,24.69,24.71,24.74,24.80,24.81,24.81,24.85,24.91,24.92,24.99,25.07,25.15,25.24,25.39,25.55,25.74,25.96,26.12,26.14,26.10,26.08,26.16,26.31,26.41,26.52,26.68,26.91,27.40,27.93,28.45,28.92,29.46,30.65,32.74,35.64,38.21,40.52,42.78,44.82,46.21,46.83,47.54,48.30,49.03,49.70,49.46,48.54,47.16,45.82,43.30,40.89,39.02,37.94
15.46,15.54,15.56,15.59,15.66,15.66,15.68,15.72,15.78,15.85,15.89,15.95,16.03,16.10,16.15,16.22,16.31,16.42,16.49,16.57,16.65,16.72,16.80,16.88,16.93,16.97,17.01,17.05,17.08,17.12,17.16,17.20,17.27,17.33,17.37,17.40,17.45,17.48,17.52,17.56,17.60,17.67,17.73,17.77,17.80,17.84,17.88,17.92,17.97,18.04,18.08,18.12,18.16,18.20,18.24,18.28,18.33,18.40,18.45,18.48,18.50,18.50,18.50,18.50,18.53,18.56,18.56,18.59,18.60,18.62,18.66,18.69,18.74,18.77,18.80,18.80,18.84,18.88,18.90,18.90,18.95,18.96,18.96,18.96,19.00,19.00,19.05,19.10,19.10,19.14,19.18,19.20,19.20,19.20,19.24,19.27,19.30,19.30,19.30,19.33,19.37,19.40,19.40,19.40,19.44,19.50,19.50,19.57,19.60,19.60,19.60,19.68,19.70,19.73,19.80,19.80,19.86,19.90,19.90,19.90,19.93,20.02,20.13,20.20,20.28,20.36,20.42,20.46,20.53,20.58,20.64,20.72,20.80,20.88,20.95,21.03,21.11,21.18,21.26,21.32,21.36,21.44,21.48,21.55,21.63,21.70,21.78,21.86,21.93,22.01,22.09,22.13,22.17,22.22,22.30,22.38,22.45,22.51,22.55,22.59,22.66,22.74,22.80,22.80,22.80,22.80,22.80,22.80,22.84,22.88,22.90,22.90,22.90,22.90,22.90,22.90,22.90,22.98,23.09,23.26,23.48,23.64,23.78,23.91,24.01,24.04,24.08,24.12,24.14,24.15,24.22,24.24,24.26,24.30,24.34,24.38,24.42,24.44,24.44,24.52,24.54,24.56,24.60,24.64,24.68,24.72,24.74,24.74,24.78,24.82,24.86,24.90,24.93,24.97,25.04,25.16,25.27,25.45,25.60,25.69,25.76,25.77,25.74,25.75,25.83,25.94,26.02,26.14,26.32,26.59,27.10,27.64,28.17,28.68,29.27,30.12,31.80,34.45,36.96,39.20,41.53,43.87,45.90,47.21,48.38,49.40,50.25,50.78,50.45,49.52,48.17,46.65,44.68,42.20,39.84,38.50
15.52,15.60,15.62,15.65,15.70,15.72,15.72,15.76,15.84,15.90,15.91,15.97,16.05,16.13,16.20,16.27,16.35,16.43,16.51,16.59,16.67,16.74,16.82,16.88,16.96,17.01,17.03,17.09,17.11,17.15,17.20,17.22,17.28,17.35,17.41,17.42,17.49,17.51,17.55,17.60,17.62,17.68,17.75,17.80,17.82,17.88,17.91,17.95,18.01,18.09,18.11,18.15,18.20,18.22,18.28,18.31,18.35,18.42,18.49,18.50,18.50,18.50,18.52,18.52,18.56,18.60,18.60,18.60,18.61,18.65,18.70,18.70,18.76,18.80,18.80,18.82,18.88,18.90,18.91,18.92,18.99,19.00,19.00,19.00,19.00,19.01,19.06,19.10,19.10,19.18,19.20,19.21,19.22,19.22,19.27,19.30,19.30,19.32,19.32,19.36,19.40,19.40,19.42,19.42,19.45,19.50,19.50,19.57,19.60,19.60,19.60,19.68,19.70,19.73,19.80,19.80,19.85,19.89,19.90,19.90,19.90,20.00,20.12,20.18,20.26,20.34,20.39,20.41,20.49,20.57,20.64,20.72,20.80,20.88,20.95,21.03,21.11,21.17,21.24,21.29,21.32,21.39,21.47,21.55,21.63,21.70,21.78,21.86,21.93,22.01,22.07,22.09,22.14,22.22,22.30,22.38,22.44,22.49,22.51,22.58,22.66,22.73,22.78,22.80,22.80,22.80,22.80,22.82,22.88,22.90,22.90,22.90,22.90,22.90,22.90,22.91,22.94,23.09,23.25,23.44,23.65,23.77,23.86,23.93,23.98,24.00,24.06,24.08,24.09,24.10,24.16,24.19,24.23,24.28,24.28,24.35,24.38,24.38,24.40,24.46,24.49,24.52,24.58,24.58,24.64,24.68,24.68,24.68,24.75,24.78,24.80,24.88,24.88,24.88,24.94,25.07,25.13,25.30,25.38,25.38,25.38,25.38,25.38,25.41,25.49,25.56,25.65,25.78,25.96,26.29,26.80,27.34,27.88,28.41,29.01,29.63,30.97,33.31,35.73,37.90,40.23,42.76,45.33,47.32,48.98,50.31,51.34,51.95,51.47,50.42,49.05,47.35,45.86,43.59,41.06,39.18
15.59,15.66,15.68,15.69,15.71,15.77,15.78,15.83,15.89,15.90,15.96,16.04,16.11,16.19,16.27,16.29,16.37,16.50,16.58,16.65,16.73,16.81,16.88,16.90,16.96,17.03,17.09,17.10,17.15,17.19,17.22,17.28,17.30,17.35,17.42,17.48,17.50,17.55,17.59,17.61,17.68,17.69,17.75,17.82,17.88,17.90,17.95,17.99,18.01,18.09,18.15,18.19,18.22,18.28,18.30,18.34,18.41,18.48,18.50,18.50,18.50,18.51,18.58,18.58,18.59,18.60,18.60,18.60,18.65,18.69,18.70,18.70,18.76,18.80,18.82,18.88,18.90,18.90,18.92,18.98,19.00,19.00,19.00,19.00,19.00,19.06,19.09,19.10,19.10,19.18,19.20,19.23,19.28,19.28,19.29,19.30,19.31,19.38,19.38,19.39,19.40,19.40,19.47,19.48,19.49,19.50,19.50,19.57,19.60,19.60,19.60,19.68,19.70,19.73,19.80,19.80,19.81,19.85,19.90,19.90,19.90,20.00,20.10,20.12,20.20,20.27,20.35,20.41,20.49,20.57,20.64,20.72,20.80,20.88,20.95,21.03,21.10,21.11,21.18,21.25,21.32,21.39,21.47,21.55,21.63,21.70,21.78,21.86,21.93,22.00,22.01,22.07,22.14,22.22,22.30,22.38,22.41,22.44,22.51,22.58,22.66,22.71,22.73,22.79,22.80,22.80,22.82,22.88,22.90,22.90,22.90,22.90,22.90,22.90,22.90,22.93,23.06,23.22,23.42,23.61,23.77,23.79,23.86,23.91,23.93,23.99,24.01,24.02,24.04,24.10,24.11,24.16,24.21,24.22,24.22,24.28,24.32,24.33,24.40,24.41,24.46,24.50,24.52,24.52,24.58,24.62,24.62,24.62,24.69,24.72,24.74,24.82,24.82,24.82,24.85,24.93,24.95,24.98,25.00,25.00,25.00,25.00,25.00,25.03,25.10,25.18,25.31,25.46,25.65,26.02,26.55,27.09,27.61,28.09,28.64,29.29,30.45,32.33,34.61,36.83,39.16,41.68,44.54,47.11,49.20,50.81,52.01,53.12,52.44,51.10,49.56,47.87,46.59,45.10,43.04,40.07
15.65,15.69,15.73,15.75,15.76,15.84,15.85,15.89,15.95,15.95,16.02,16.07,16.13,16.21,16.28,16.33,16.41,16.52,16.59,16.67,16.75,16.82,16.90,16.94,16.98,17.03,17.10,17.14,17.18,17.22,17.26,17.30,17.34,17.37,17.43,17.50,17.54,17.58,17.62,17.66,17.70,17.73,17.79,17.86,17.90,17.94,17.98,18.02,18.05,18.09,18.16,18.22,18.26,18.30,18.33,18.37,18.43,18.50,18.50,18.50,18.52,18.56,18.60,18.60,18.60,18.60,18.60,18.64,18.68,18.70,18.70,18.74,18.78,18.82,18.86,18.90,18.90,18.92,18.96,19.00,19.00,19.03,19.05,19.05,19.05,19.08,19.10,19.11,19.15,19.19,19.20,19.23,19.30,19.30,19.30,19.32,19.36,19.40,19.40,19.40,19.41,19.45,19.49,19.50,19.50,19.51,19.54,19.58,19.60,19.61,19.65,19.69,19.70,19.73,19.80,19.80,19.80,19.84,19.90,19.90,19.90,19.97,20.06,20.10,20.18,20.26,20.34,20.41,20.49,20.57,20.64,20.72,20.80,20.88,20.93,20.98,21.06,21.09,21.16,21.24,21.32,21.39,21.47,21.55,21.63,21.70,21.78,21.86,21.92,21.96,21.99,22.07,22.14,22.21,22.25,22.33,22.38,22.43,22.51,22.58,22.63,22.67,22.72,22.79,22.80,22.82,22.86,22.90,22.90,22.90,22.90,22.90,22.90,22.90,22.94,23.04,23.19,23.38,23.55,23.68,23.76,23.79,23.83,23.85,23.87,23.95,23.95,23.97,24.01,24.05,24.05,24.11,24.15,24.16,24.19,24.23,24.27,24.31,24.35,24.35,24.40,24.45,24.45,24.45,24.51,24.55,24.55,24.55,24.62,24.65,24.68,24.75,24.75,24.75,24.79,24.85,24.85,24.85,24.87,24.90,24.90,24.86,24.85,24.87,24.91,24.99,25.07,25.17,25.33,25.72,26.21,26.69,27.19,27.77,28.31,28.93,29.86,31.28,33.59,35.88,38.20,40.68,43.58,46.58,49.05,50.85,51.96,52.75,52.35,51.32,49.98,48.54,47.35,46.12,44.46,41.92
15.71,15.71,15.77,15.81,15.82,15.89,15.91,15.95,16.00,16.01,16.08,16.11,16.14,16.22,16.30,16.37,16.44,16.53,16.60,16.68,16.76,16.84,16.91,16.98,17.01,17.04,17.12,17.19,17.21,17.25,17.30,17.31,17.38,17.41,17.44,17.52,17.58,17.61,17.64,17.70,17.71,17.77,17.85,17.90,17.91,17.98,18.01,18.04,18.10,18.11,18.18,18.25,18.30,18.31,18.38,18.41,18.44,18.50,18.51,18.51,18.54,18.60,18.60,18.60,18.60,18.60,18.60,18.68,18.70,18.70,18.72,18.79,18.80,18.84,18.90,18.90,18.91,18.96,19.00,19.00,19.01,19.06,19.10,19.10,19.10,19.10,19.10,19.12,19.20,19.20,19.21,19.24,19.30,19.31,19.31,19.35,19.40,19.40,19.41,19.41,19.44,19.50,19.50,19.51,19.51,19.52,19.59,19.60,19.61,19.63,19.70,19.70,19.70,19.73,19.80,19.80,19.81,19.85,19.90,19.90,19.90,19.95,20.03,20.10,20.18,20.26,20.34,20.41,20.49,20.57,20.64,20.72,20.80,20.87,20.89,20.93,21.01,21.08,21.16,21.24,21.32,21.39,21.47,21.55,21.63,21.70,21.78,21.85,21.89,21.91,21.99,22.07,22.14,22.19,22.20,22.28,22.35,22.43,22.51,22.57,22.60,22.64,22.72,22.79,22.80,22.85,22.90,22.90,22.90,22.90,22.90,22.90,22.90,22.92,23.01,23.17,23.32,23.52,23.64,23.69,23.69,23.77,23.79,23.79,23.81,23.88,23.89,23.94,23.99,23.99,24.00,24.05,24.09,24.11,24.18,24.19,24.23,24.29,24.29,24.30,24.35,24.39,24.39,24.40,24.45,24.49,24.49,24.49,24.56,24.59,24.61,24.69,24.69,24.69,24.72,24.79,24.79,24.80,24.84,24.89,24.89,24.82,24.80,24.80,24.79,24.87,24.89,24.93,25.05,25.39,25.83,26.25,26.74,27.41,27.96,28.57,29.29,30.32,32.61,34.93,37.24,39.66,42.42,45.67,48.52,50.56,51.56,51.85,51.81,51.25,50.22,49.14,48.03,46.93,45.67,44.03
15.78,15.78,15.83,15.88,15.88,15.90,15.95,15.99,16.02,16.07,16.09,16.14,16.20,16.28,16.36,16.39,16.47,16.59,16.67,16.75,16.82,16.90,16.98,16.99,17.04,17.11,17.18,17.20,17.25,17.29,17.31,17.37,17.39,17.44,17.50,17.58,17.60,17.65,17.68,17.71,17.77,17.79,17.85,17.92,17.98,17.99,18.04,18.08,18.11,18.17,18.24,18.29,18.31,18.37,18.39,18.44,18.48,18.50,18.56,18.58,18.58,18.60,18.60,18.60,18.60,18.60,18.60,18.68,18.70,18.72,18.78,18.80,18.80,18.84,18.90,18.90,18.95,18.99,19.00,19.00,19.06,19.09,19.10,19.10,19.10,19.10,19.10,19.12,19.20,19.20,19.24,19.28,19.31,19.36,19.38,19.39,19.40,19.40,19.45,19.48,19.48,19.50,19.50,19.54,19.58,19.58,19.60,19.60,19.63,19.68,19.70,19.70,19.70,19.73,19.80,19.80,19.85,19.89,19.90,19.90,19.90,19.95,20.03,20.10,20.18,20.26,20.34,20.41,20.49,20.57,20.64,20.72,20.80,20.82,20.86,20.93,21.01,21.08,21.16,21.24,21.32,21.39,21.47,21.55,21.63,21.70,21.78,21.81,21.85,21.91,21.99,22.07,22.11,22.14,22.20,22.28,22.35,22.43,22.50,22.52,22.57,22.64,22.72,22.79,22.80,22.85,22.90,22.90,22.90,22.90,22.90,22.90,22.90,23.00,23.17,23.35,23.45,23.51,23.58,23.62,23.63,23.71,23.72,23.75,23.80,23.82,23.82,23.87,23.92,23.93,23.98,24.01,24.05,24.10,24.12,24.12,24.17,24.22,24.22,24.28,24.31,24.32,24.33,24.39,24.41,24.42,24.42,24.42,24.49,24.52,24.55,24.62,24.62,24.62,24.66,24.72,24.72,24.77,24.81,24.82,24.82,24.81,24.80,24.78,24.73,24.81,24.82,24.86,24.94,25.04,25.36,25.80,26.32,26.90,27.50,28.20,28.95,29.87,31.62,33.84,36.13,38.38,40.59,43.63,46.89,49.48,50.65,50.85,50.86,50.52,49.85,49.16,48.36,47.55,46.73,45.89
15.84,15.84,15.87,15.91,15.94,15.94,16.00,16.04,16.06,16.14,16.14,16.19,16.26,16.31,16.38,16.42,16.50,16.62,16.69,16.77,16.85,16.92,17.00,17.03,17.07,17.13,17.20,17.23,17.28,17.32,17.35,17.40,17.43,17.47,17.53,17.60,17.63,17.68,17.71,17.75,17.80,17.83,17.87,17.92,18.00,18.03,18.07,18.11,18.15,18.19,18.26,18.32,18.35,18.40,18.43,18.47,18.51,18.54,18.59,18.60,18.60,18.60,18.60,18.60,18.62,18.64,18.64,18.69,18.72,18.76,18.80,18.80,18.83,18.86,18.90,18.90,18.97,19.00,19.01,19.04,19.09,19.10,19.10,19.11,19.14,19.14,19.14,19.15,19.20,19.23,19.27,19.30,19.31,19.39,19.40,19.40,19.41,19.44,19.48,19.50,19.51,19.54,19.54,19.57,19.60,19.61,19.64,19.64,19.67,19.70,19.70,19.73,19.74,19.76,19.80,19.83,19.88,19.90,19.90,19.90,19.93,19.97,20.03,20.10,20.18,20.26,20.34,20.41,20.49,20.57,20.63,20.68,20.76,20.79,20.85,20.93,21.01,21.08,21.16,21.24,21.32,21.39,21.47,21.55,21.63,21.70,21.75,21.78,21.83,21.91,21.99,22.04,22.08,22.12,22.20,22.28,22.35,22.42,22.46,22.49,22.56,22.64,22.71,22.76,22.79,22.85,22.90,22.90,22.90,22.90,22.90,22.91,22.97,23.11,23.27,23.41,23.46,23.49,23.53,23.57,23.60,23.65,23.68,23.72,23.76,23.76,23.79,23.83,23.87,23.90,23.95,23.96,23.99,24.06,24.06,24.09,24.13,24.16,24.16,24.23,24.26,24.26,24.27,24.34,24.36,24.36,24.37,24.40,24.44,24.46,24.48,24.56,24.56,24.56,24.59,24.66,24.66,24.73,24.76,24.76,24.76,24.76,24.76,24.74,24.70,24.75,24.78,24.82,24.87,24.90,25.07,25.39,25.86,26.43,27.11,27.83,28.59,29.42,30.66,32.72,34.87,36.92,38.87,41.42,44.37,46.88,48.20,48.69,49.18,49.28,48.98,48.84,48.75,48.54,48.19,47.74
15.90,15.90,15.90,15.94,16.00,16.00,16.07,16.10,16.12,16.20,16.20,16.25,16.30,16.31,16.39,16.46,16.54,16.62,16.70,16.77,16.85,16.93,17.00,17.08,17.10,17.14,17.21,17.29,17.30,17.34,17.40,17.40,17.47,17.50,17.53,17.61,17.68,17.70,17.74,17.80,17.80,17.87,17.90,17.93,18.00,18.08,18.10,18.13,18.20,18.20,18.27,18.34,18.40,18.40,18.47,18.50,18.53,18.60,18.60,18.60,18.60,18.60,18.60,18.60,18.65,18.70,18.70,18.70,18.75,18.80,18.80,18.80,18.87,18.90,18.90,18.90,18.97,19.00,19.03,19.10,19.10,19.10,19.10,19.12,19.19,19.20,19.20,19.20,19.20,19.28,19.30,19.30,19.31,19.39,19.40,19.40,19.42,19.50,19.50,19.50,19.53,19.60,19.60,19.60,19.60,19.62,19.69,19.70,19.70,19.70,19.70,19.78,19.80,19.80,19.81,19.89,19.90,19.90,19.90,19.90,19.97,20.00,20.03,20.10,20.18,20.26,20.34,20.41,20.49,20.56,20.60,20.62,20.70,20.78,20.85,20.93,21.01,21.08,21.16,21.24,21.32,21.39,21.47,21.55,21.62,21.70,21.70,21.76,21.83,21.91,21.99,22.00,22.04,22.12,22.20,22.27,22.35,22.40,22.41,22.48,22.56,22.64,22.70,22.70,22.77,22.85,22.90,22.90,22.90,22.90,22.90,22.93,23.08,23.23,23.34,23.40,23.40,23.47,23.50,23.53,23.60,23.60,23.66,23.70,23.70,23.70,23.77,23.80,23.82,23.90,23.90,23.90,23.93,24.00,24.00,24.06,24.10,24.10,24.10,24.17,24.20,24.20,24.20,24.28,24.30,24.30,24.31,24.39,24.40,24.40,24.42,24.50,24.50,24.50,24.53,24.60,24.60,24.66,24.69,24.70,24.70,24.70,24.70,24.70,24.70,24.70,24.76,24.80,24.81,24.89,24.90,25.03,25.37,25.98,26.75,27.47,28.20,28.97,29.75,31.58,33.53,35.38,37.24,39.15,41.34,43.37,44.78,45.81,47.03,47.72,47.83,48.33,49.16,49.70,49.84,49.54
15.97,15.97,15.97,16.00,16.07,16.07,16.13,16.17,16.17,16.20,16.25,16.28,16.32,16.37,16.45,16.53,16.61,16.68,16.76,16.84,16.91,16.99,17.07,17.09,17.14,17.18,17.21,17.29,17.34,17.38,17.41,17.47,17.49,17.53,17.58,17.61,17.68,17.74,17.78,17.81,17.86,17.89,17.93,17.99,18.07,18.09,18.14,18.18,18.21,18.26,18.33,18.38,18.41,18.46,18.49,18.53,18.58,18.60,18.60,18.60,18.60,18.61,18.66,18.67,18.68,18.70,18.70,18.70,18.75,18.80,18.81,18.86,18.89,18.90,18.91,18.96,18.99,19.03,19.08,19.10,19.10,19.14,19.17,19.17,19.20,19.20,19.20,19.20,19.20,19.28,19.30,19.32,19.37,19.40,19.40,19.43,19.47,19.50,19.50,19.53,19.58,19.60,19.60,19.60,19.62,19.67,19.70,19.70,19.70,19.71,19.77,19.79,19.80,19.82,19.87,19.90,19.90,19.90,19.91,19.96,19.99,20.00,20.03,20.10,20.18,20.26,20.34,20.40,20.43,20.50,20.56,20.62,20.70,20.78,20.85,20.93,21.01,21.08,21.16,21.24,21.32,21.39,21.47,21.52,21.56,21.63,21.69,21.76,21.83,21.90,21.93,21.98,22.04,22.12,22.20,22.22,22.29,22.35,22.41,22.48,22.56,22.61,22.64,22.70,22.77,22.85,22.90,22.90,22.90,22.90,22.95,23.05,23.15,23.25,23.31,23.35,23.40,23.42,23.47,23.51,23.53,23.53,23.59,23.63,23.64,23.70,23.72,23.73,23.76,23.83,23.83,23.87,23.91,23.93,23.93,24.00,24.03,24.03,24.03,24.11,24.13,24.13,24.14,24.22,24.23,24.23,24.25,24.32,24.33,24.33,24.36,24.43,24.43,24.43,24.47,24.53,24.53,24.55,24.59,24.63,24.63,24.63,24.63,24.63,24.63,24.63,24.69,24.73,24.75,24.82,24.88,24.95,25.12,25.53,26.26,26.99,27.75,28.53,29.30,30.60,32.27,34.17,36.02,37.60,39.13,40.42,41.36,42.94,44.81,46.17,46.93,48.07,49.27,50.04,50.36,50.31
16.00,16.02,16.03,16.06,16.13,16.13,16.18,16.21,16.23,16.23,16.31,16.33,16.36,16.44,16.49,16.56,16.64,16.72,16.79,16.87,16.95,17.02,17.10,17.12,17.17,17.21,17.24,17.29,17.36,17.41,17.44,17.50,17.52,17.57,17.61,17.64,17.69,17.76,17.81,17.84,17.89,17.92,17.96,18.02,18.10,18.12,18.17,18.21,18.24,18.29,18.36,18.41,18.44,18.50,18.52,18.57,18.60,18.60,18.60,18.62,18.63,18.64,18.69,18.70,18.70,18.70,18.70,18.72,18.77,18.80,18.81,18.89,18.90,18.91,18.94,19.00,19.00,19.05,19.10,19.10,19.13,19.17,19.20,19.20,19.20,19.22,19.23,19.23,19.23,19.28,19.30,19.33,19.40,19.40,19.42,19.46,19.50,19.50,19.52,19.57,19.60,19.60,19.63,19.63,19.66,19.70,19.70,19.72,19.73,19.75,19.80,19.80,19.82,19.85,19.90,19.90,19.92,19.93,19.94,20.00,20.00,20.00,20.03,20.10,20.18,20.24,20.30,20.37,20.40,20.47,20.54,20.62,20.70,20.78,20.85,20.93,21.01,21.08,21.16,21.24,21.32,21.39,21.45,21.48,21.53,21.60,21.68,21.76,21.82,21.87,21.90,21.97,22.04,22.11,22.17,22.19,22.25,22.33,22.41,22.48,22.54,22.58,22.62,22.69,22.77,22.83,22.88,22.90,22.90,22.94,23.01,23.11,23.19,23.25,23.28,23.31,23.37,23.37,23.42,23.47,23.47,23.49,23.54,23.58,23.61,23.66,23.67,23.68,23.72,23.77,23.79,23.84,23.87,23.87,23.90,23.94,23.97,23.97,24.00,24.05,24.07,24.07,24.07,24.15,24.17,24.17,24.18,24.26,24.27,24.27,24.29,24.37,24.37,24.37,24.40,24.47,24.47,24.47,24.51,24.57,24.57,24.57,24.57,24.57,24.57,24.59,24.64,24.68,24.71,24.76,24.84,24.88,24.96,25.18,25.78,26.50,27.28,28.08,28.85,29.80,31.19,32.94,34.72,36.17,37.30,38.19,39.01,40.65,42.84,44.79,46.28,47.74,49.21,50.20,50.70,50.82
16.00,16.08,16.10,16.13,16.20,16.20,16.20,16.24,16.30,16.30,16.37,16.40,16.42,16.50,16.50,16.56,16.64,16.72,16.79,16.87,16.95,17.02,17.10,17.17,17.20,17.23,17.30,17.30,17.36,17.44,17.50,17.50,17.57,17.60,17.63,17.70,17.70,17.76,17.84,17.90,17.90,17.97,18.00,18.02,18.10,18.17,18.20,18.23,18.30,18.30,18.36,18.44,18.50,18.50,18.57,18.60,18.60,18.60,18.60,18.66,18.70,18.70,18.70,18.70,18.70,18.70,18.70,18.77,18.80,18.80,18.81,18.89,18.90,18.94,19.00,19.00,19.00,19.05,19.10,19.10,19.18,19.20,19.20,19.20,19.20,19.26,19.30,19.30,19.30,19.30,19.30,19.33,19.40,19.40,19.46,19.50,19.50,19.50,19.57,19.60,19.60,19.60,19.68,19.70,19.70,19.70,19.70,19.76,19.80,19.80,19.80,19.80,19.85,19.90,19.90,19.90,19.96,20.00,20.00,20.00,20.00,20.00,20.03,20.10,20.18,20.20,20.24,20.32,20.39,20.47,20.54,20.62,20.70,20.78,20.85,20.93,21.01,21.08,21.16,21.24,21.32,21.39,21.40,21.45,21.53,21.60,21.68,21.76,21.80,21.82,21.89,21.97,22.04,22.10,22.10,22.18,22.25,22.33,22.41,22.48,22.50,22.54,22.62,22.69,22.77,22.80,22.83,22.90,22.90,23.01,23.09,23.11,23.19,23.20,23.25,23.30,23.30,23.30,23.36,23.40,23.41,23.48,23.50,23.54,23.60,23.60,23.60,23.65,23.70,23.71,23.78,23.80,23.80,23.82,23.89,23.90,23.90,23.92,24.00,24.00,24.00,24.00,24.01,24.09,24.10,24.10,24.12,24.20,24.20,24.20,24.23,24.30,24.30,24.30,24.34,24.40,24.40,24.40,24.45,24.50,24.50,24.50,24.50,24.50,24.51,24.58,24.60,24.64,24.70,24.70,24.77,24.85,24.90,24.92,25.32,25.99,26.79,27.63,28.40,29.19,30.27,31.68,33.32,34.86,35.86,36.70,37.77,38.96,41.13,43.60,45.89,47.36,48.95,50.15,50.86,51.08
16.06,16.14,16.16,16.17,16.21,16.25,16.26,16.30,16.36,16.36,16.43,16.46,16.47,16.50,16.55,16.62,16.70,16.77,16.85,16.93,17.01,17.08,17.16,17.19,17.23,17.27,17.31,17.35,17.42,17.48,17.51,17.56,17.59,17.63,17.67,17.70,17.75,17.82,17.87,17.91,17.95,17.99,18.03,18.08,18.16,18.19,18.23,18.27,18.31,18.35,18.42,18.48,18.51,18.56,18.59,18.60,18.62,18.66,18.66,18.68,18.70,18.70,18.70,18.70,18.70,18.71,18.76,18.79,18.80,18.82,18.86,18.89,18.94,18.98,19.00,19.00,19.04,19.08,19.12,19.16,19.19,19.20,19.22,19.26,19.26,19.29,19.30,19.30,19.30,19.30,19.33,19.37,19.40,19.40,19.46,19.50,19.51,19.56,19.59,19.60,19.62,19.66,19.69,19.70,19.70,19.71,19.75,19.79,19.80,19.80,19.80,19.85,19.88,19.90,19.90,19.95,19.98,20.00,20.00,20.00,20.00,20.03,20.07,20.10,20.13,20.18,20.24,20.31,20.39,20.47,20.54,20.62,20.70,20.78,20.85,20.93,21.01,21.08,21.16,21.24,21.31,21.34,21.38,21.45,21.53,21.60,21.68,21.72,21.76,21.81,21.89,21.97,22.02,22.05,22.10,22.18,22.25,22.33,22.40,22.43,22.48,22.54,22.62,22.69,22.73,22.77,22.83,22.90,22.90,22.98,23.06,23.10,23.14,23.14,23.18,23.24,23.24,23.29,23.32,23.36,23.40,23.43,23.44,23.48,23.54,23.54,23.58,23.62,23.64,23.64,23.72,23.74,23.74,23.75,23.83,23.84,23.84,23.86,23.94,23.94,23.94,23.96,24.00,24.03,24.04,24.04,24.06,24.13,24.14,24.14,24.16,24.24,24.24,24.24,24.27,24.34,24.34,24.34,24.38,24.44,24.44,24.44,24.44,24.44,24.45,24.52,24.58,24.62,24.65,24.70,24.77,24.82,24.85,24.90,25.06,25.62,26.36,27.13,27.95,28.73,29.59,30.66,32.10,33.47,34.48,35.35,36.33,37.76,39.82,42.34,44.99,46.87,48.56,49.93,50.81,51.04
16.10,16.18,16.21,16.22,16.23,16.31,16.32,16.37,16.42,16.42,16.48,16.51,16.52,16.53,16.61,16.67,16.74,16.82,16.89,16.97,17.05,17.12,17.20,17.22,17.27,17.31,17.33,17.39,17.46,17.51,17.54,17.60,17.62,17.66,17.71,17.73,17.79,17.86,17.91,17.93,17.99,18.02,18.06,18.12,18.20,18.22,18.27,18.31,18.33,18.39,18.46,18.51,18.54,18.60,18.62,18.62,18.64,18.70,18.70,18.70,18.70,18.70,18.70,18.72,18.72,18.74,18.80,18.80,18.81,18.85,18.90,18.90,18.96,19.00,19.00,19.02,19.08,19.10,19.13,19.20,19.20,19.21,19.25,19.30,19.30,19.30,19.31,19.32,19.32,19.32,19.36,19.40,19.40,19.42,19.47,19.50,19.52,19.59,19.60,19.61,19.64,19.70,19.70,19.71,19.72,19.73,19.79,19.80,19.81,19.82,19.82,19.88,19.91,19.92,19.93,19.99,20.00,20.00,20.00,20.02,20.02,20.06,20.10,20.10,20.10,20.16,20.24,20.31,20.39,20.47,20.54,20.62,20.70,20.78,20.85,20.93,21.01,21.08,21.16,21.23,21.28,21.30,21.37,21.45,21.52,21.58,21.66,21.69,21.73,21.81,21.89,21.95,21.99,22.02,22.10,22.18,22.24,22.31,22.38,22.40,22.46,22.54,22.61,22.67,22.69,22.75,22.82,22.88,22.90,22.94,23.01,23.08,23.08,23.09,23.13,23.18,23.20,23.26,23.28,23.31,23.38,23.38,23.39,23.43,23.48,23.48,23.55,23.58,23.58,23.58,23.66,23.68,23.68,23.69,23.76,23.78,23.78,23.80,23.87,23.88,23.88,23.91,23.98,23.98,23.98,23.99,24.01,24.07,24.08,24.08,24.10,24.18,24.18,24.18,24.21,24.28,24.28,24.28,24.32,24.38,24.38,24.38,24.38,24.38,24.40,24.46,24.54,24.59,24.61,24.67,24.75,24.79,24.82,24.88,24.89,25.32,25.97,26.71,27.52,28.30,29.03,29.83,30.95,32.08,33.06,33.96,34.88,36.59,38.55,40.92,43.61,45.91,47.81,49.49,50.69,50.95
16.10,16.18,16.25,16.29,16.30,16.38,16.39,16.43,16.49,16.49,16.50,16.54,16.59,16.59,16.67,16.69,16.74,16.82,16.89,16.97,17.05,17.12,17.20,17.27,17.29,17.33,17.39,17.40,17.46,17.54,17.59,17.60,17.66,17.69,17.72,17.79,17.80,17.86,17.93,17.99,18.00,18.06,18.09,18.12,18.20,18.27,18.29,18.33,18.39,18.40,18.46,18.54,18.59,18.60,18.66,18.69,18.69,18.70,18.70,18.70,18.70,18.70,18.70,18.76,18.79,18.79,18.80,18.80,18.85,18.89,18.90,18.90,18.96,19.00,19.02,19.08,19.10,19.10,19.13,19.20,19.20,19.25,19.29,19.30,19.30,19.30,19.34,19.39,19.39,19.39,19.39,19.40,19.41,19.47,19.50,19.50,19.52,19.59,19.60,19.64,19.69,19.70,19.70,19.75,19.79,19.79,19.80,19.80,19.84,19.89,19.89,19.90,19.95,19.99,19.99,20.00,20.00,20.00,20.01,20.08,20.09,20.09,20.10,20.10,20.10,20.16,20.24,20.31,20.39,20.47,20.54,20.62,20.70,20.78,20.85,20.93,21.01,21.08,21.16,21.21,21.23,21.29,21.37,21.45,21.50,21.52,21.59,21.66,21.73,21.81,21.89,21.91,21.95,22.02,22.10,22.18,22.21,22.24,22.32,22.39,22.46,22.54,22.60,22.61,22.67,22.75,22.80,22.81,22.88,22.91,22.95,23.01,23.01,23.07,23.11,23.13,23.20,23.21,23.21,23.24,23.31,23.31,23.37,23.40,23.41,23.41,23.48,23.51,23.51,23.51,23.59,23.61,23.61,23.62,23.70,23.71,23.71,23.73,23.81,23.81,23.81,23.84,23.91,23.91,23.91,23.95,24.00,24.01,24.01,24.01,24.04,24.11,24.11,24.11,24.15,24.21,24.21,24.21,24.25,24.31,24.31,24.31,24.31,24.34,24.40,24.41,24.47,24.55,24.60,24.61,24.68,24.75,24.80,24.81,24.88,25.11,25.63,26.44,27.16,27.92,28.65,29.32,29.89,30.71,31.56,32.44,33.42,35.38,37.28,39.25,41.44,44.14,46.43,48.72,50.46,50.83
16.05,16.13,16.23,16.32,16.36,16.44,16.45,16.47,16.51,16.55,16.55,16.60,16.65,16.66,16.73,16.75,16.79,16.87,16.94,17.02,17.10,17.18,17.25,17.29,17.33,17.37,17.41,17.44,17.48,17.54,17.61,17.65,17.69,17.73,17.76,17.80,17.84,17.91,17.97,18.01,18.05,18.08,18.12,18.17,18.25,18.29,18.33,18.37,18.41,18.44,18.48,18.54,18.61,18.65,18.69,18.70,18.70,18.70,18.70,18.70,18.70,18.71,18.75,18.78,18.80,18.80,18.80,18.84,18.88,18.90,18.90,18.94,18.98,19.02,19.06,19.10,19.10,19.13,19.16,19.20,19.24,19.28,19.30,19.31,19.35,19.35,19.37,19.40,19.40,19.40,19.40,19.40,19.41,19.49,19.50,19.52,19.56,19.60,19.60,19.65,19.70,19.70,19.74,19.78,19.80,19.80,19.80,19.83,19.87,19.90,19.90,19.94,19.98,20.00,20.00,20.00,20.00,20.02,20.06,20.10,20.10,20.10,20.10,20.10,20.14,20.18,20.24,20.31,20.39,20.47,20.54,20.62,20.70,20.78,20.85,20.93,21.01,21.08,21.13,21.17,21.22,21.29,21.37,21.42,21.46,21.50,21.58,21.66,21.73,21.81,21.84,21.88,21.94,22.02,22.10,22.14,22.18,22.23,22.31,22.38,22.46,22.52,22.56,22.60,22.67,22.72,22.76,22.80,22.84,22.88,22.92,22.95,22.99,23.03,23.05,23.07,23.15,23.15,23.18,23.21,23.25,23.29,23.33,23.35,23.36,23.40,23.43,23.45,23.46,23.50,23.54,23.55,23.57,23.61,23.64,23.65,23.65,23.67,23.75,23.75,23.75,23.78,23.85,23.85,23.85,23.89,23.95,23.95,23.95,23.97,24.01,24.05,24.05,24.08,24.12,24.15,24.15,24.15,24.19,24.25,24.25,24.25,24.27,24.31,24.35,24.39,24.46,24.52,24.56,24.60,24.67,24.72,24.76,24.80,24.84,24.96,25.39,26.19,26.97,27.64,28.30,28.89,29.27,29.80,30.36,31.06,32.04,33.77,35.48,37.25,39.23,41.81,44.41,47.02,49.23,50.44
16.00,16.08,16.20,16.32,16.40,16.47,16.49,16.51,16.53,16.61,16.61,16.67,16.71,16.72,16.79,16.81,16.85,16.92,16.99,17.07,17.15,17.22,17.30,17.31,17.36,17.40,17.42,17.49,17.51,17.55,17.62,17.70,17.71,17.76,17.80,17.82,17.89,17.96,18.01,18.03,18.09,18.11,18.15,18.22,18.30,18.31,18.36,18.40,18.42,18.49,18.51,18.56,18.63,18.70,18.70,18.70,18.70,18.70,18.70,18.71,18.71,18.73,18.79,18.80,18.80,18.80,18.80,18.88,18.90,18.90,18.92,18.99,19.00,19.04,19.10,19.10,19.11,19.16,19.20,19.20,19.28,19.30,19.31,19.33,19.39,19.40,19.40,19.40,19.41,19.41,19.41,19.41,19.42,19.49,19.50,19.54,19.60,19.60,19.61,19.66,19.70,19.70,19.78,19.80,19.81,19.81,19.81,19.87,19.90,19.90,19.91,19.98,20.00,20.00,20.00,20.01,20.01,20.05,20.10,20.10,20.10,20.11,20.11,20.12,20.18,20.20,20.24,20.31,20.39,20.47,20.54,20.62,20.70,20.78,20.85,20.93,21.01,21.07,21.09,21.14,21.22,21.29,21.36,21.39,21.43,21.50,21.58,21.66,21.73,21.79,21.80,21.87,21.94,22.02,22.08,22.10,22.15,22.23,22.31,22.37,22.45,22.49,22.52,22.59,22.66,22.69,22.72,22.79,22.80,22.85,22.89,22.90,22.97,22.99,22.99,23.02,23.08,23.10,23.14,23.19,23.19,23.27,23.29,23.29,23.30,23.38,23.39,23.39,23.41,23.49,23.49,23.49,23.52,23.59,23.59,23.59,23.59,23.62,23.68,23.69,23.69,23.71,23.79,23.79,23.79,23.82,23.89,23.89,23.89,23.93,23.99,23.99,23.99,24.04,24.09,24.09,24.09,24.09,24.14,24.19,24.19,24.20,24.25,24.30,24.31,24.38,24.45,24.49,24.51,24.59,24.66,24.69,24.72,24.79,24.80,24.86,25.21,25.97,26.79,27.36,27.92,28.44,28.76,29.11,29.45,29.96,30.82,32.08,33.50,35.13,37.02,39.42,42.11,44.81,47.29,49.28
16.00,16.08,16.17,16.25,16.33,16.41,16.47,16.53,16.60,16.68,16.68,16.73,16.78,16.78,16.80,16.85,16.89,16.92,16.99,17.07,17.15,17.22,17.30,17.36,17.39,17.43,17.48,17.50,17.55,17.59,17.62,17.70,17.76,17.79,17.82,17.88,17.90,17.96,18.03,18.08,18.10,18.15,18.19,18.22,18.30,18.36,18.39,18.43,18.48,18.50,18.55,18.62,18.68,18.70,18.70,18.70,18.70,18.70,18.70,18.75,18.78,18.78,18.80,18.80,18.80,18.80,18.80,18.88,18.90,18.93,18.98,19.00,19.00,19.04,19.10,19.10,19.16,19.19,19.20,19.20,19.28,19.30,19.33,19.38,19.40,19.40,19.40,19.42,19.48,19.48,19.48,19.48,19.48,19.50,19.50,19.54,19.60,19.60,19.66,19.69,19.70,19.70,19.78,19.80,19.83,19.88,19.88,19.89,19.90,19.92,19.98,20.00,20.00,20.00,20.01,20.07,20.08,20.09,20.10,20.10,20.10,20.14,20.18,20.18,20.20,20.20,20.24,20.31,20.39,20.47,20.54,20.62,20.70,20.78,20.85,20.93,21.00,21.02,21.07,21.14,21.22,21.29,21.32,21.36,21.43,21.50,21.58,21.66,21.71,21.73,21.79,21.87,21.94,22.00,22.02,22.08,22.15,22.23,22.30,22.32,22.38,22.45,22.52,22.59,22.61,22.66,22.71,22.72,22.78,22.81,22.82,22.83,22.91,22.92,22.96,23.00,23.02,23.08,23.11,23.12,23.13,23.20,23.22,23.22,23.24,23.31,23.32,23.32,23.35,23.42,23.42,23.42,23.45,23.52,23.52,23.52,23.55,23.60,23.62,23.62,23.62,23.65,23.72,23.72,23.72,23.76,23.82,23.82,23.82,23.87,23.92,23.92,23.92,23.98,24.02,24.02,24.02,24.07,24.11,24.12,24.12,24.18,24.25,24.30,24.31,24.38,24.41,24.45,24.51,24.59,24.61,24.66,24.70,24.72,24.78,24.86,25.17,25.83,26.49,27.00,27.46,27.88,28.25,28.73,29.23,29.68,30.06,30.43,31.42,32.91,34.85,37.24,39.46,41.67,43.82,45.76
15.96,16.04,16.11,16.19,16.27,16.38,16.47,16.54,16.62,16.70,16.73,16.77,16.81,16.84,16.84,16.90,16.94,16.96,17.04,17.11,17.19,17.26,17.30,17.38,17.42,17.46,17.50,17.54,17.58,17.62,17.66,17.74,17.79,17.82,17.86,17.90,17.94,18.00,18.06,18.11,18.14,18.18,18.22,18.26,18.30,18.38,18.42,18.46,18.50,18.54,18.58,18.64,18.70,18.70,18.70,18.70,18.71,18.74,18.74,18.78,18.80,18.80,18.80,18.80,18.80,18.81,18.84,18.89,18.92,18.96,19.00,19.00,19.03,19.07,19.11,19.14,19.18,19.20,19.21,19.25,19.29,19.30,19.34,19.40,19.40,19.43,19.44,19.46,19.50,19.50,19.50,19.50,19.50,19.50,19.53,19.57,19.60,19.60,19.67,19.70,19.71,19.75,19.79,19.80,19.84,19.90,19.90,19.90,19.92,19.96,20.00,20.00,20.00,20.01,20.05,20.09,20.10,20.10,20.10,20.10,20.13,20.17,20.20,20.20,20.20,20.22,20.26,20.31,20.39,20.47,20.54,20.62,20.70,20.78,20.83,20.89,20.96,20.99,21.06,21.14,21.21,21.25,21.29,21.35,21.43,21.50,21.55,21.61,21.67,21.71,21.79,21.87,21.92,21.97,22.00,22.08,22.15,22.22,22.26,22.29,22.36,22.44,22.51,22.55,22.59,22.63,22.67,22.70,22.75,22.76,22.77,22.81,22.85,22.89,22.92,22.96,22.96,23.03,23.06,23.06,23.06,23.14,23.16,23.16,23.17,23.25,23.26,23.26,23.28,23.36,23.36,23.36,23.39,23.46,23.46,23.46,23.50,23.56,23.56,23.56,23.58,23.62,23.66,23.66,23.66,23.69,23.76,23.76,23.76,23.80,23.86,23.86,23.86,23.91,23.96,23.96,23.99,24.06,24.10,24.11,24.14,24.18,24.25,24.31,24.35,24.39,24.43,24.46,24.51,24.59,24.60,24.65,24.70,24.70,24.78,24.86,25.12,25.64,26.19,26.67,27.13,27.58,28.03,28.54,29.07,29.50,29.72,29.80,30.32,31.22,32.62,34.95,36.99,38.91,40.79,42.72
15.90,15.97,16.05,16.13,16.22,16.37,16.46,16.54,16.61,16.69,16.77,16.80,16.84,16.91,16.91,16.96,17.00,17.02,17.09,17.17,17.25,17.30,17.31,17.39,17.46,17.50,17.52,17.59,17.60,17.65,17.72,17.80,17.80,17.85,17.90,17.91,17.98,18.06,18.10,18.12,18.19,18.20,18.25,18.30,18.31,18.38,18.46,18.50,18.52,18.59,18.60,18.65,18.70,18.70,18.70,18.71,18.73,18.80,18.80,18.80,18.80,18.80,18.80,18.80,18.81,18.83,18.90,18.90,18.95,19.00,19.00,19.01,19.07,19.10,19.12,19.20,19.20,19.20,19.23,19.30,19.30,19.30,19.34,19.40,19.41,19.47,19.50,19.50,19.50,19.50,19.50,19.51,19.51,19.51,19.57,19.60,19.60,19.61,19.67,19.70,19.73,19.80,19.80,19.80,19.84,19.90,19.90,19.90,19.95,20.00,20.00,20.00,20.00,20.04,20.10,20.10,20.10,20.10,20.11,20.11,20.17,20.20,20.20,20.20,20.21,20.26,20.30,20.31,20.39,20.47,20.54,20.62,20.69,20.77,20.80,20.83,20.91,20.98,21.06,21.14,21.19,21.20,21.27,21.35,21.42,21.49,21.50,21.56,21.63,21.71,21.78,21.86,21.90,21.92,22.00,22.07,22.15,22.20,22.21,22.28,22.36,22.43,22.49,22.49,22.56,22.59,22.62,22.69,22.69,22.70,22.73,22.79,22.79,22.86,22.89,22.89,22.90,22.97,22.99,23.00,23.01,23.08,23.09,23.10,23.11,23.19,23.19,23.20,23.22,23.29,23.29,23.29,23.33,23.39,23.39,23.39,23.44,23.49,23.49,23.49,23.54,23.59,23.59,23.59,23.60,23.64,23.69,23.69,23.70,23.74,23.79,23.80,23.80,23.86,23.90,23.92,23.99,24.06,24.10,24.12,24.20,24.20,24.25,24.33,24.40,24.40,24.46,24.50,24.52,24.59,24.60,24.65,24.70,24.71,24.78,24.86,25.06,25.44,25.91,26.38,26.88,27.42,27.96,28.43,28.95,29.37,29.59,29.67,29.75,29.93,30.55,32.64,34.65,36.41,38.10,40.02
15.83,15.91,15.99,16.09,16.21,16.31,16.39,16.47,16.55,16.63,16.76,16.84,16.90,16.97,16.97,16.99,17.03,17.08,17.10,17.17,17.25,17.32,17.37,17.45,17.49,17.52,17.57,17.60,17.65,17.68,17.72,17.80,17.85,17.89,17.92,17.97,17.99,18.06,18.13,18.17,18.20,18.25,18.28,18.32,18.37,18.45,18.49,18.52,18.57,18.60,18.65,18.68,18.70,18.70,18.75,18.77,18.78,18.80,18.80,18.80,18.80,18.80,18.80,18.85,18.87,18.88,18.90,18.90,18.95,19.00,19.01,19.06,19.09,19.10,19.12,19.20,19.20,19.24,19.28,19.30,19.30,19.34,19.38,19.41,19.46,19.49,19.50,19.50,19.50,19.50,19.54,19.57,19.57,19.57,19.59,19.60,19.61,19.67,19.69,19.70,19.73,19.80,19.80,19.84,19.88,19.90,19.90,19.95,19.98,20.00,20.00,20.00,20.04,20.08,20.10,20.10,20.10,20.13,20.17,20.17,20.19,20.20,20.20,20.20,20.26,20.29,20.30,20.31,20.39,20.47,20.54,20.61,20.63,20.71,20.77,20.83,20.91,20.98,21.06,21.11,21.14,21.20,21.27,21.35,21.41,21.43,21.49,21.56,21.63,21.70,21.73,21.80,21.86,21.92,22.00,22.02,22.08,22.15,22.21,22.28,22.32,22.37,22.43,22.43,22.50,22.53,22.55,22.63,22.63,22.67,22.71,22.73,22.73,22.80,22.83,22.84,22.90,22.92,22.93,22.95,23.00,23.02,23.03,23.06,23.10,23.13,23.13,23.16,23.21,23.23,23.23,23.23,23.26,23.33,23.33,23.33,23.37,23.43,23.43,23.43,23.48,23.53,23.53,23.53,23.57,23.61,23.63,23.63,23.68,23.71,23.75,23.80,23.80,23.86,23.92,23.97,24.00,24.06,24.10,24.12,24.20,24.25,24.29,24.33,24.40,24.40,24.46,24.53,24.57,24.60,24.65,24.68,24.72,24.77,24.79,24.86,25.02,25.32,25.78,26.29,26.82,27.35,27.83,28.35,28.88,29.27,29.40,29.53,29.62,29.75,30.05,30.76,32.52,34.50,36.47,38.29
15.77,15.87,15.96,16.06,16.18,16.25,16.33,16.42,16.52,16.60,16.72,16.82,16.89,16.97,16.99,17.02,17.07,17.13,17.13,17.20,17.28,17.35,17.40,17.48,17.52,17.56,17.60,17.63,17.68,17.71,17.75,17.83,17.88,17.92,17.95,18.00,18.03,18.07,18.14,18.21,18.23,18.28,18.32,18.35,18.40,18.48,18.52,18.56,18.60,18.63,18.68,18.71,18.73,18.73,18.78,18.80,18.80,18.80,18.80,18.80,18.81,18.83,18.83,18.88,18.90,18.90,18.90,18.93,18.97,19.01,19.04,19.09,19.10,19.11,19.15,19.20,19.23,19.27,19.30,19.30,19.33,19.37,19.40,19.41,19.49,19.50,19.52,19.53,19.53,19.53,19.57,19.60,19.60,19.60,19.60,19.61,19.65,19.70,19.70,19.72,19.75,19.80,19.83,19.87,19.90,19.90,19.93,19.98,20.00,20.00,20.00,20.03,20.07,20.10,20.10,20.10,20.12,20.16,20.20,20.20,20.20,20.22,20.23,20.24,20.29,20.30,20.30,20.31,20.39,20.44,20.51,20.57,20.60,20.68,20.75,20.83,20.91,20.98,21.04,21.08,21.12,21.19,21.27,21.33,21.37,21.40,21.48,21.56,21.62,21.67,21.70,21.77,21.84,21.91,21.96,21.99,22.05,22.13,22.20,22.26,22.29,22.33,22.37,22.40,22.45,22.48,22.52,22.57,22.57,22.62,22.67,22.67,22.70,22.74,22.77,22.79,22.86,22.87,22.87,22.89,22.97,22.97,22.97,23.00,23.07,23.07,23.07,23.11,23.17,23.17,23.17,23.18,23.22,23.27,23.27,23.27,23.31,23.37,23.37,23.37,23.42,23.47,23.47,23.47,23.53,23.58,23.60,23.60,23.67,23.70,23.72,23.80,23.83,23.87,23.93,24.00,24.00,24.06,24.11,24.15,24.20,24.27,24.32,24.35,24.40,24.43,24.47,24.54,24.60,24.63,24.68,24.72,24.75,24.80,24.83,24.89,25.04,25.32,25.73,26.23,26.74,27.25,27.74,28.28,28.80,29.16,29.24,29.37,29.48,29.60,29.75,29.85,30.96,32.76,34.82,36.57
15.71,15.86,15.96,16.03,16.11,16.19,16.27,16.39,16.52,16.60,16.68,16.75,16.83,16.91,16.98,17.06,17.14,17.20,17.20,17.27,17.35,17.40,17.40,17.48,17.56,17.60,17.61,17.69,17.70,17.74,17.82,17.90,17.90,17.95,18.00,18.01,18.08,18.10,18.14,18.21,18.29,18.30,18.35,18.40,18.40,18.48,18.55,18.60,18.61,18.69,18.70,18.74,18.80,18.80,18.80,18.80,18.80,18.80,18.80,18.80,18.84,18.90,18.90,18.90,18.90,18.90,18.90,18.98,19.00,19.03,19.10,19.10,19.10,19.14,19.20,19.20,19.27,19.30,19.30,19.30,19.38,19.40,19.40,19.41,19.49,19.50,19.54,19.60,19.60,19.60,19.60,19.60,19.60,19.60,19.60,19.64,19.70,19.70,19.70,19.75,19.80,19.80,19.88,19.90,19.90,19.91,19.99,20.00,20.00,20.00,20.00,20.08,20.10,20.10,20.10,20.10,20.16,20.20,20.20,20.20,20.20,20.25,20.30,20.30,20.30,20.30,20.30,20.31,20.39,20.40,20.45,20.52,20.60,20.68,20.75,20.83,20.91,20.98,21.00,21.04,21.12,21.19,21.27,21.30,21.33,21.40,21.48,21.56,21.60,21.61,21.69,21.77,21.84,21.90,21.90,21.98,22.05,22.13,22.20,22.20,22.26,22.30,22.32,22.39,22.40,22.45,22.50,22.50,22.50,22.56,22.60,22.61,22.69,22.70,22.70,22.72,22.80,22.80,22.80,22.83,22.90,22.90,22.90,22.94,23.00,23.00,23.00,23.05,23.10,23.10,23.10,23.16,23.20,23.20,23.20,23.20,23.24,23.30,23.30,23.30,23.35,23.40,23.40,23.40,23.46,23.54,23.60,23.60,23.67,23.70,23.72,23.80,23.88,23.90,23.93,24.00,24.00,24.06,24.14,24.20,24.20,24.27,24.35,24.40,24.41,24.48,24.50,24.54,24.61,24.69,24.70,24.75,24.80,24.80,24.88,24.95,25.13,25.44,25.75,26.19,26.65,27.13,27.67,28.21,28.70,29.03,29.11,29.19,29.32,29.48,29.63,29.78,29.89,31.17,33.14,34.84
15.70,15.81,15.89,15.97,16.05,16.13,16.24,16.36,16.46,16.53,16.61,16.69,16.78,16.91,16.98,17.06,17.14,17.21,17.26,17.29,17.35,17.42,17.46,17.49,17.56,17.62,17.67,17.70,17.74,17.78,17.82,17.90,17.95,17.98,18.02,18.06,18.09,18.14,18.20,18.27,18.30,18.34,18.38,18.41,18.46,18.54,18.58,18.62,18.67,18.70,18.74,18.78,18.80,18.80,18.80,18.80,18.80,18.80,18.85,18.86,18.88,18.90,18.90,18.90,18.90,18.91,18.96,18.99,19.00,19.03,19.10,19.10,19.14,19.18,19.20,19.20,19.27,19.30,19.32,19.36,19.39,19.40,19.42,19.47,19.50,19.54,19.58,19.60,19.60,19.60,19.60,19.62,19.66,19.66,19.66,19.68,19.70,19.70,19.75,19.78,19.80,19.80,19.88,19.90,19.90,19.91,19.99,20.00,20.00,20.01,20.06,20.09,20.10,20.10,20.11,20.15,20.19,20.20,20.20,20.20,20.24,20.28,20.30,20.30,20.30,20.30,20.32,20.37,20.40,20.40,20.44,20.52,20.60,20.68,20.75,20.81,20.85,20.92,20.98,21.04,21.11,21.14,21.21,21.27,21.33,21.40,21.48,21.52,21.56,21.61,21.69,21.77,21.82,21.85,21.90,21.98,22.05,22.11,22.14,22.19,22.22,22.26,22.31,22.34,22.38,22.42,22.44,22.44,22.49,22.52,22.56,22.60,22.63,22.64,22.64,22.66,22.74,22.74,22.74,22.77,22.84,22.84,22.84,22.88,22.94,22.94,22.94,22.98,23.04,23.04,23.04,23.09,23.14,23.14,23.14,23.18,23.22,23.24,23.24,23.28,23.32,23.36,23.40,23.45,23.49,23.54,23.60,23.60,23.67,23.73,23.77,23.80,23.88,23.93,23.97,24.01,24.05,24.09,24.14,24.21,24.26,24.29,24.35,24.40,24.41,24.48,24.54,24.58,24.61,24.69,24.74,24.78,24.81,24.86,24.89,25.02,25.23,25.50,25.81,26.17,26.59,27.07,27.61,28.10,28.58,28.90,28.98,29.06,29.19,29.35,29.50,29.66,29.79,30.36,31.48,33.18
15.68,15.75,15.83,15.92,16.01,16.09,16.21,16.32,16.39,16.47,16.57,16.65,16.75,16.88,16.96,17.03,17.11,17.19,17.29,17.32,17.37,17.44,17.50,17.52,17.58,17.65,17.70,17.72,17.77,17.81,17.85,17.92,17.98,18.01,18.05,18.10,18.12,18.17,18.24,18.30,18.32,18.38,18.41,18.44,18.50,18.58,18.61,18.65,18.70,18.72,18.77,18.80,18.80,18.80,18.80,18.81,18.83,18.83,18.89,18.90,18.90,18.90,18.90,18.90,18.91,18.94,19.00,19.00,19.01,19.05,19.10,19.12,19.17,19.20,19.20,19.23,19.28,19.30,19.33,19.40,19.40,19.42,19.45,19.50,19.50,19.57,19.60,19.61,19.63,19.63,19.63,19.65,19.70,19.70,19.70,19.70,19.70,19.70,19.77,19.80,19.81,19.83,19.89,19.90,19.90,19.91,19.99,20.00,20.00,20.02,20.10,20.10,20.10,20.11,20.13,20.19,20.20,20.20,20.20,20.22,20.28,20.30,20.30,20.30,20.32,20.33,20.35,20.40,20.40,20.40,20.44,20.52,20.60,20.68,20.74,20.78,20.81,20.88,20.96,21.03,21.08,21.10,21.17,21.25,21.32,21.38,21.45,21.49,21.53,21.61,21.67,21.74,21.79,21.82,21.90,21.96,22.03,22.08,22.11,22.16,22.19,22.23,22.27,22.27,22.34,22.37,22.38,22.40,22.46,22.47,22.51,22.57,22.57,22.57,22.58,22.61,22.67,22.67,22.69,22.72,22.77,22.77,22.79,22.83,22.87,22.87,22.87,22.92,22.97,22.97,22.97,23.03,23.07,23.08,23.10,23.15,23.18,23.20,23.20,23.27,23.31,23.35,23.41,23.48,23.52,23.55,23.60,23.62,23.68,23.75,23.81,23.83,23.88,23.96,24.00,24.01,24.09,24.12,24.16,24.22,24.30,24.32,24.36,24.41,24.43,24.49,24.56,24.61,24.64,24.69,24.77,24.81,24.84,24.90,24.92,25.11,25.35,25.59,25.90,26.21,26.58,27.02,27.52,28.01,28.45,28.76,28.85,28.93,29.07,29.22,29.37,29.53,29.68,29.83,30.30,31.59
15.61,15.69,15.77,15.87,16.01,16.09,16.17,16.25,16.33,16.41,16.55,16.65,16.73,16.82,16.89,16.97,17.05,17.14,17.29,17.36,17.44,17.49,17.50,17.57,17.65,17.69,17.71,17.78,17.80,17.84,17.91,17.99,18.00,18.05,18.09,18.11,18.17,18.20,18.24,18.31,18.38,18.40,18.44,18.49,18.50,18.58,18.65,18.69,18.71,18.78,18.80,18.80,18.80,18.80,18.80,18.85,18.89,18.89,18.90,18.90,18.90,18.90,18.90,18.90,18.94,18.99,19.00,19.00,19.05,19.09,19.11,19.18,19.20,19.20,19.22,19.29,19.30,19.30,19.33,19.40,19.40,19.45,19.49,19.50,19.50,19.57,19.60,19.62,19.69,19.69,19.69,19.69,19.70,19.70,19.70,19.70,19.70,19.70,19.77,19.80,19.82,19.89,19.90,19.90,19.90,19.91,19.99,20.00,20.00,20.02,20.10,20.10,20.10,20.13,20.19,20.20,20.20,20.20,20.22,20.29,20.30,20.30,20.30,20.30,20.37,20.39,20.39,20.40,20.40,20.40,20.44,20.52,20.60,20.68,20.71,20.74,20.81,20.88,20.96,21.00,21.02,21.09,21.17,21.25,21.30,21.31,21.39,21.46,21.53,21.60,21.61,21.68,21.75,21.82,21.90,21.91,21.96,22.04,22.10,22.11,22.17,22.20,22.21,22.21,22.28,22.31,22.33,22.40,22.41,22.41,22.44,22.51,22.51,22.51,22.55,22.60,22.61,22.61,22.66,22.70,22.71,22.71,22.76,22.80,22.81,22.81,22.81,22.86,22.91,22.91,22.91,22.97,23.01,23.02,23.09,23.11,23.15,23.20,23.20,23.27,23.35,23.39,23.41,23.48,23.55,23.59,23.61,23.68,23.70,23.75,23.82,23.89,23.90,23.96,24.00,24.01,24.09,24.16,24.19,24.22,24.30,24.37,24.40,24.43,24.49,24.50,24.56,24.63,24.69,24.70,24.77,24.84,24.89,24.90,24.97,25.21,25.48,25.72,26.03,26.34,26.65,27.00,27.40,27.92,28.32,28.58,28.72,28.80,28.94,29.09,29.25,29.40,29.56,29.67,29.82,30.12
15.55,15.67,15.76,15.85,15.96,16.03,16.11,16.19,16.28,16.40,16.51,16.60,16.67,16.75,16.83,16.94,17.04,17.12,17.23,17.32,17.39,17.46,17.50,17.58,17.66,17.72,17.76,17.79,17.84,17.87,17.92,18.00,18.04,18.08,18.12,18.16,18.19,18.23,18.29,18.36,18.40,18.44,18.48,18.51,18.56,18.63,18.68,18.72,18.76,18.79,18.80,18.80,18.81,18.85,18.85,18.88,18.90,18.90,18.90,18.90,18.90,18.91,18.95,18.95,18.98,19.00,19.00,19.04,19.08,19.10,19.11,19.19,19.20,19.22,19.26,19.30,19.30,19.33,19.37,19.40,19.44,19.48,19.50,19.51,19.55,19.59,19.62,19.66,19.70,19.70,19.70,19.70,19.70,19.75,19.75,19.75,19.75,19.75,19.79,19.80,19.83,19.90,19.90,19.90,19.90,19.91,19.99,20.00,20.00,20.02,20.10,20.10,20.10,20.13,20.20,20.20,20.20,20.22,20.26,20.30,20.30,20.30,20.31,20.36,20.39,20.40,20.40,20.40,20.40,20.44,20.47,20.52,20.60,20.63,20.67,20.73,20.81,20.88,20.93,20.97,21.02,21.09,21.17,21.22,21.26,21.30,21.38,21.46,21.52,21.55,21.59,21.67,21.74,21.81,21.84,21.89,21.95,22.01,22.05,22.05,22.11,22.15,22.15,22.20,22.23,22.25,22.27,22.35,22.35,22.35,22.38,22.45,22.45,22.45,22.49,22.55,22.55,22.55,22.60,22.65,22.65,22.65,22.71,22.75,22.75,22.75,22.78,22.82,22.85,22.85,22.89,22.96,23.00,23.01,23.09,23.14,23.17,23.21,23.25,23.29,23.35,23.42,23.46,23.49,23.56,23.60,23.61,23.69,23.74,23.78,23.82,23.90,23.94,23.98,24.02,24.06,24.09,24.16,24.22,24.26,24.30,24.37,24.40,24.43,24.50,24.54,24.58,24.64,24.71,24.75,24.79,24.85,24.90,24.90,25.10,25.35,25.62,25.90,26.16,26.47,26.75,27.04,27.38,27.83,28.19,28.45,28.60,28.72,28.83,28.96,29.12,29.27,29.43,29.54,29.62,29.74
15.50,15.64,15.74,15.82,15.89,15.97,16.06,16.14,16.24,16.38,16.46,16.53,16.61,16.69,16.78,16.91,17.02,17.10,17.17,17.25,17.33,17.41,17.50,17.58,17.66,17.73,17.80,17.82,17.87,17.91,17.93,18.00,18.07,18.11,18.14,18.20,18.22,18.27,18.34,18.40,18.42,18.47,18.51,18.54,18.60,18.68,18.71,18.74,18.80,18.80,18.80,18.81,18.83,18.90,18.90,18.90,18.90,18.90,18.90,18.90,18.91,18.93,18.99,19.00,19.00,19.00,19.02,19.08,19.10,19.11,19.13,19.19,19.20,19.24,19.30,19.30,19.31,19.36,19.40,19.40,19.48,19.50,19.51,19.53,19.59,19.60,19.65,19.70,19.70,19.71,19.72,19.72,19.73,19.79,19.80,19.80,19.80,19.80,19.80,19.81,19.84,19.90,19.90,19.90,19.91,19.93,19.99,20.00,20.01,20.04,20.10,20.10,20.10,20.13,20.20,20.20,20.20,20.24,20.30,20.30,20.30,20.31,20.34,20.40,20.40,20.40,20.41,20.42,20.42,20.47,20.50,20.52,20.58,20.60,20.65,20.72,20.79,20.87,20.89,20.94,21.01,21.08,21.15,21.19,21.23,21.30,21.37,21.44,21.49,21.51,21.59,21.67,21.74,21.79,21.80,21.86,21.93,21.98,21.98,22.00,22.05,22.09,22.11,22.18,22.18,22.19,22.22,22.28,22.28,22.28,22.32,22.38,22.38,22.38,22.42,22.48,22.48,22.48,22.53,22.58,22.58,22.58,22.64,22.68,22.68,22.70,22.77,22.80,22.80,22.82,22.88,22.96,23.01,23.03,23.09,23.17,23.20,23.22,23.30,23.31,23.36,23.43,23.50,23.52,23.57,23.61,23.63,23.69,23.77,23.81,23.84,23.90,23.98,24.00,24.03,24.10,24.12,24.17,24.24,24.30,24.30,24.37,24.41,24.44,24.51,24.58,24.61,24.65,24.71,24.79,24.81,24.86,24.91,24.96,25.25,25.51,25.78,26.07,26.31,26.60,26.87,27.13,27.42,27.78,28.08,28.32,28.47,28.63,28.72,28.84,28.99,29.15,29.29,29.39,29.47,29.55
15.50,15.59,15.67,15.75,15.83,15.91,16.04,16.14,16.22,16.31,16.39,16.47,16.55,16.63,16.77,16.87,16.96,17.03,17.11,17.19,17.26,17.36,17.50,17.58,17.66,17.73,17.81,17.87,17.89,17.93,17.99,18.00,18.07,18.14,18.19,18.20,18.27,18.29,18.34,18.41,18.48,18.49,18.54,18.59,18.60,18.68,18.75,18.79,18.80,18.80,18.80,18.83,18.89,18.90,18.90,18.90,18.90,18.90,18.90,18.90,18.93,18.98,19.00,19.00,19.00,19.02,19.08,19.10,19.10,19.13,19.18,19.20,19.20,19.24,19.30,19.30,19.36,19.39,19.40,19.40,19.48,19.50,19.53,19.58,19.60,19.60,19.65,19.70,19.70,19.76,19.78,19.78,19.78,19.80,19.80,19.80,19.80,19.80,19.80,19.84,19.89,19.90,19.90,19.90,19.93,19.98,20.00,20.00,20.04,20.09,20.10,20.10,20.10,20.13,20.20,20.20,20.20,20.24,20.30,20.30,20.30,20.34,20.39,20.40,20.40,20.40,20.43,20.48,20.48,20.49,20.50,20.50,20.52,20.58,20.65,20.71,20.73,20.80,20.87,20.94,21.00,21.02,21.09,21.16,21.23,21.30,21.31,21.38,21.45,21.51,21.59,21.67,21.71,21.73,21.80,21.81,21.87,21.92,21.92,21.99,22.01,22.05,22.10,22.12,22.12,22.16,22.20,22.22,22.22,22.22,22.25,22.32,22.32,22.32,22.36,22.42,22.42,22.42,22.47,22.52,22.52,22.52,22.58,22.62,22.63,22.69,22.77,22.80,22.82,22.88,22.90,22.96,23.03,23.08,23.10,23.17,23.20,23.22,23.30,23.36,23.39,23.43,23.50,23.57,23.59,23.63,23.68,23.70,23.77,23.84,23.89,23.90,23.98,24.00,24.03,24.11,24.17,24.19,24.24,24.30,24.30,24.37,24.44,24.49,24.51,24.58,24.65,24.69,24.71,24.79,24.86,24.89,24.96,25.15,25.39,25.68,25.95,26.20,26.50,26.75,27.02,27.31,27.55,27.81,28.02,28.19,28.35,28.50,28.59,28.71,28.86,29.02,29.12,29.20,29.28,29.35
15.46,15.53,15.61,15.70,15.81,15.89,16.00,16.10,16.17,16.25,16.33,16.43,16.53,16.61,16.73,16.81,16.89,16.97,17.05,17.16,17.25,17.34,17.46,17.53,17.61,17.69,17.77,17.88,17.93,17.97,18.01,18.04,18.12,18.17,18.21,18.25,18.29,18.33,18.38,18.45,18.50,18.53,18.57,18.61,18.65,18.72,18.78,18.80,18.80,18.84,18.85,18.87,18.90,18.90,18.90,18.90,18.90,18.90,18.94,18.95,18.97,19.00,19.00,19.00,19.00,19.02,19.10,19.10,19.13,19.16,19.20,19.20,19.23,19.27,19.31,19.34,19.39,19.40,19.41,19.45,19.49,19.53,19.57,19.60,19.60,19.63,19.67,19.70,19.70,19.78,19.80,19.80,19.80,19.80,19.83,19.85,19.85,19.85,19.85,19.87,19.90,19.90,19.90,19.93,19.97,20.00,20.00,20.03,20.07,20.10,20.10,20.10,20.12,20.16,20.20,20.20,20.23,20.27,20.30,20.30,20.30,20.35,20.40,20.40,20.40,20.43,20.47,20.50,20.50,20.50,20.50,20.51,20.55,20.59,20.63,20.67,20.71,20.78,20.86,20.92,20.96,21.00,21.07,21.15,21.21,21.26,21.29,21.36,21.43,21.51,21.55,21.62,21.67,21.71,21.75,21.79,21.83,21.87,21.90,21.95,21.95,21.99,22.05,22.05,22.05,22.10,22.15,22.15,22.15,22.18,22.22,22.25,22.25,22.28,22.32,22.35,22.35,22.39,22.43,22.47,22.50,22.50,22.56,22.60,22.62,22.69,22.77,22.80,22.82,22.90,22.90,22.96,23.03,23.10,23.10,23.17,23.22,23.26,23.30,23.37,23.42,23.46,23.51,23.58,23.60,23.64,23.71,23.74,23.78,23.85,23.90,23.90,23.98,24.03,24.06,24.11,24.19,24.23,24.27,24.31,24.34,24.39,24.45,24.51,24.55,24.59,24.66,24.70,24.71,24.79,24.87,24.92,25.03,25.29,25.53,25.79,26.06,26.33,26.60,26.87,27.14,27.39,27.59,27.75,27.91,28.06,28.22,28.33,28.45,28.58,28.73,28.85,28.96,29.05,29.12,29.16
15.39,15.48,15.56,15.66,15.80,15.88,15.96,16.03,16.11,16.20,16.27,16.40,16.52,16.60,16.67,16.75,16.83,16.92,16.99,17.13,17.24,17.31,17.39,17.47,17.55,17.63,17.72,17.87,17.95,17.99,18.02,18.10,18.17,18.21,18.24,18.30,18.31,18.36,18.44,18.50,18.51,18.57,18.60,18.63,18.70,18.78,18.81,18.81,18.82,18.89,18.90,18.90,18.90,18.90,18.90,18.91,18.91,18.91,18.98,19.00,19.00,19.00,19.00,19.00,19.00,19.03,19.10,19.11,19.16,19.20,19.20,19.21,19.27,19.30,19.32,19.40,19.40,19.41,19.43,19.50,19.50,19.56,19.60,19.60,19.61,19.67,19.70,19.70,19.71,19.78,19.81,19.81,19.81,19.81,19.87,19.90,19.90,19.90,19.90,19.90,19.90,19.91,19.91,19.96,20.00,20.00,20.00,20.07,20.10,20.10,20.10,20.11,20.16,20.20,20.20,20.21,20.27,20.30,20.30,20.30,20.31,20.35,20.40,20.40,20.41,20.46,20.50,20.50,20.50,20.51,20.51,20.53,20.60,20.60,20.60,20.63,20.71,20.78,20.86,20.89,20.92,20.99,21.07,21.14,21.19,21.20,21.28,21.36,21.43,21.49,21.50,21.57,21.64,21.69,21.70,21.77,21.79,21.82,21.89,21.89,21.89,21.93,21.99,21.99,21.99,22.04,22.09,22.09,22.09,22.15,22.19,22.19,22.19,22.26,22.29,22.30,22.30,22.37,22.40,22.43,22.50,22.50,22.56,22.60,22.62,22.69,22.77,22.80,22.82,22.90,22.91,22.96,23.03,23.10,23.10,23.17,23.24,23.30,23.30,23.37,23.45,23.50,23.51,23.58,23.61,23.64,23.71,23.79,23.80,23.85,23.90,23.91,23.98,24.06,24.10,24.12,24.19,24.26,24.30,24.32,24.40,24.41,24.46,24.53,24.60,24.60,24.66,24.70,24.72,24.79,24.87,24.96,25.11,25.41,25.65,25.89,26.15,26.45,26.68,26.96,27.21,27.42,27.57,27.65,27.78,27.93,28.08,28.16,28.30,28.45,28.59,28.67,28.81,28.92,28.97,28.97
15.33,15.46,15.56,15.64,15.74,15.81,15.89,15.97,16.06,16.20,16.27,16.37,16.45,16.53,16.61,16.69,16.79,16.92,16.99,17.09,17.17,17.25,17.33,17.40,17.52,17.63,17.71,17.81,17.89,17.96,18.02,18.10,18.17,18.24,18.28,18.30,18.36,18.39,18.44,18.51,18.57,18.59,18.63,18.68,18.70,18.78,18.84,18.87,18.88,18.90,18.90,18.90,18.90,18.90,18.90,18.94,18.97,18.98,19.00,19.00,19.00,19.00,19.00,19.00,19.03,19.08,19.10,19.16,19.19,19.20,19.21,19.26,19.29,19.30,19.32,19.40,19.40,19.44,19.48,19.50,19.50,19.56,19.60,19.61,19.67,19.69,19.70,19.72,19.77,19.79,19.84,19.87,19.87,19.87,19.89,19.90,19.90,19.90,19.90,19.90,19.92,19.97,19.97,19.99,20.00,20.00,20.00,20.07,20.10,20.10,20.10,20.16,20.19,20.20,20.21,20.26,20.29,20.30,20.30,20.30,20.35,20.39,20.40,20.40,20.46,20.49,20.50,20.50,20.50,20.55,20.57,20.58,20.60,20.60,20.60,20.63,20.71,20.78,20.82,20.86,20.92,20.99,21.07,21.11,21.14,21.20,21.28,21.36,21.41,21.43,21.49,21.57,21.61,21.64,21.70,21.72,21.73,21.76,21.83,21.83,21.83,21.86,21.93,21.93,21.93,21.97,22.03,22.03,22.03,22.08,22.13,22.13,22.13,22.19,22.26,22.30,22.30,22.37,22.40,22.43,22.50,22.50,22.56,22.63,22.68,22.70,22.77,22.80,22.82,22.90,22.96,22.99,23.03,23.10,23.10,23.17,23.24,23.30,23.30,23.37,23.45,23.50,23.51,23.58,23.64,23.68,23.71,23.79,23.80,23.85,23.92,23.97,23.99,24.06,24.12,24.18,24.20,24.26,24.30,24.32,24.40,24.45,24.49,24.53,24.60,24.60,24.66,24.73,24.78,24.80,24.87,25.01,25.22,25.48,25.77,26.01,26.28,26.58,26.81,26.96,27.12,27.29,27.44,27.53,27.65,27.79,27.89,28.02,28.17,28.33,28.47,28.54,28.64,28.72,28.78,28.78
15.30,15.43,15.52,15.60,15.67,15.75,15.85,15.94,16.03,16.16,16.24,16.31,16.39,16.47,16.55,16.65,16.76,16.88,16.95,17.03,17.11,17.19,17.26,17.37,17.49,17.60,17.67,17.75,17.83,17.92,18.02,18.10,18.17,18.25,18.31,18.34,18.39,18.42,18.48,18.55,18.59,18.63,18.67,18.71,18.74,18.79,18.86,18.90,18.90,18.90,18.90,18.90,18.91,18.94,18.94,18.97,19.00,19.00,19.00,19.00,19.00,19.01,19.03,19.04,19.07,19.10,19.10,19.18,19.20,19.21,19.24,19.29,19.30,19.32,19.35,19.40,19.43,19.47,19.50,19.50,19.53,19.57,19.61,19.65,19.69,19.70,19.72,19.75,19.80,19.80,19.85,19.90,19.90,19.90,19.90,19.92,19.94,19.94,19.94,19.94,19.95,20.00,20.00,20.00,20.01,20.04,20.04,20.08,20.10,20.11,20.14,20.19,20.20,20.20,20.21,20.29,20.30,20.30,20.31,20.34,20.38,20.40,20.41,20.44,20.49,20.50,20.50,20.50,20.53,20.58,20.60,20.60,20.60,20.63,20.64,20.66,20.70,20.75,20.79,20.84,20.91,20.96,21.03,21.08,21.13,21.20,21.25,21.32,21.38,21.41,21.49,21.54,21.56,21.58,21.66,21.66,21.68,21.72,21.76,21.76,21.79,21.82,21.86,21.86,21.86,21.91,21.96,21.96,21.99,22.04,22.07,22.10,22.13,22.18,22.24,22.30,22.30,22.37,22.40,22.43,22.50,22.53,22.58,22.64,22.70,22.70,22.77,22.82,22.85,22.90,22.98,23.00,23.03,23.10,23.13,23.18,23.24,23.30,23.30,23.37,23.45,23.50,23.51,23.58,23.64,23.68,23.71,23.79,23.80,23.85,23.92,24.00,24.00,24.06,24.13,24.20,24.20,24.26,24.32,24.35,24.40,24.47,24.52,24.56,24.60,24.63,24.68,24.74,24.81,24.83,24.88,25.07,25.35,25.58,25.86,26.10,26.34,26.58,26.76,26.87,27.01,27.15,27.28,27.39,27.52,27.65,27.73,27.89,28.04,28.18,28.30,28.38,28.45,28.53,28.59,28.59
15.30,15.38,15.45,15.53,15.61,15.69,15.83,15.94,16.02,16.10,16.17,16.25,16.33,16.41,16.48,16.62,16.74,16.81,16.89,16.97,17.05,17.12,17.20,17.36,17.45,17.53,17.61,17.69,17.76,17.88,18.02,18.09,18.17,18.25,18.33,18.40,18.40,18.46,18.54,18.60,18.60,18.67,18.70,18.73,18.80,18.80,18.86,18.90,18.90,18.90,18.90,18.90,18.92,19.00,19.00,19.00,19.00,19.00,19.00,19.00,19.00,19.02,19.09,19.10,19.10,19.10,19.10,19.18,19.20,19.23,19.30,19.30,19.30,19.34,19.40,19.40,19.47,19.50,19.50,19.51,19.58,19.60,19.64,19.70,19.70,19.70,19.75,19.80,19.80,19.80,19.86,19.90,19.90,19.90,19.90,19.94,20.00,20.00,20.00,20.00,20.00,20.00,20.00,20.00,20.04,20.10,20.10,20.10,20.10,20.12,20.20,20.20,20.20,20.20,20.21,20.29,20.30,20.30,20.32,20.39,20.40,20.40,20.43,20.50,20.50,20.50,20.50,20.51,20.59,20.60,20.60,20.60,20.60,20.68,20.70,20.70,20.70,20.70,20.76,20.84,20.90,20.90,20.97,21.05,21.13,21.20,21.20,21.26,21.33,21.41,21.49,21.50,21.50,21.52,21.60,21.60,21.65,21.70,21.70,21.70,21.76,21.80,21.80,21.80,21.80,21.85,21.90,21.90,21.98,22.00,22.04,22.11,22.19,22.20,22.24,22.30,22.30,22.37,22.40,22.43,22.51,22.58,22.60,22.64,22.70,22.70,22.77,22.85,22.90,22.90,22.98,23.00,23.03,23.11,23.19,23.20,23.24,23.30,23.30,23.37,23.45,23.50,23.51,23.58,23.60,23.64,23.71,23.79,23.80,23.85,23.92,24.00,24.00,24.06,24.13,24.20,24.20,24.26,24.34,24.40,24.40,24.47,24.55,24.60,24.61,24.68,24.70,24.74,24.81,24.89,24.90,25.13,25.47,25.70,25.93,26.16,26.36,26.51,26.58,26.72,26.88,27.01,27.09,27.24,27.40,27.52,27.61,27.76,27.91,28.03,28.11,28.19,28.26,28.34,28.39,28.39
15.24,15.31,15.39,15.47,15.55,15.68,15.79,15.88,15.95,16.03,16.11,16.19,16.28,16.41,16.48,16.58,16.67,16.75,16.83,16.90,17.01,17.12,17.20,17.31,17.39,17.47,17.54,17.62,17.74,17.86,17.95,18.03,18.11,18.19,18.28,18.40,18.45,18.49,18.54,18.61,18.66,18.69,18.73,18.77,18.80,18.85,18.88,18.90,18.90,18.90,18.94,18.97,18.97,19.00,19.00,19.00,19.00,19.00,19.00,19.04,19.07,19.07,19.10,19.10,19.10,19.12,19.17,19.19,19.20,19.23,19.30,19.30,19.34,19.38,19.40,19.40,19.47,19.50,19.52,19.57,19.59,19.60,19.64,19.70,19.70,19.74,19.78,19.80,19.80,19.85,19.88,19.90,19.91,19.96,19.97,19.98,20.00,20.00,20.00,20.00,20.00,20.00,20.00,20.04,20.08,20.10,20.10,20.10,20.13,20.17,20.20,20.20,20.20,20.22,20.27,20.30,20.30,20.33,20.37,20.40,20.40,20.40,20.43,20.50,20.50,20.50,20.52,20.57,20.60,20.60,20.60,20.61,20.66,20.69,20.70,20.70,20.70,20.70,20.76,20.81,20.85,20.90,20.97,21.05,21.11,21.14,21.19,21.26,21.33,21.40,21.43,21.43,21.46,21.51,21.53,21.53,21.59,21.63,21.63,21.63,21.70,21.73,21.74,21.80,21.80,21.85,21.90,21.90,21.98,22.04,22.08,22.11,22.19,22.20,22.24,22.30,22.30,22.37,22.40,22.43,22.51,22.58,22.60,22.64,22.70,22.70,22.77,22.85,22.90,22.90,22.98,23.00,23.03,23.11,23.19,23.20,23.24,23.31,23.36,23.39,23.45,23.50,23.51,23.58,23.64,23.68,23.71,23.79,23.80,23.85,23.92,24.00,24.00,24.06,24.11,24.14,24.19,24.26,24.31,24.35,24.40,24.47,24.52,24.55,24.61,24.68,24.70,24.74,24.81,24.89,24.90,25.10,25.42,25.70,25.88,26.06,26.23,26.38,26.46,26.60,26.75,26.89,26.96,27.11,27.27,27.40,27.48,27.63,27.79,27.90,27.97,28.00,28.07,28.15,28.20,28.20
15.17,15.25,15.33,15.40,15.49,15.65,15.74,15.81,15.89,15.97,16.04,16.14,16.25,16.38,16.45,16.53,16.61,16.69,16.79,16.87,16.98,17.09,17.17,17.25,17.33,17.41,17.51,17.59,17.71,17.81,17.89,17.97,18.04,18.14,18.25,18.38,18.45,18.49,18.54,18.61,18.69,18.72,18.76,18.81,18.83,18.88,18.90,18.91,18.93,18.93,18.97,19.00,19.00,19.00,19.00,19.00,19.01,19.03,19.03,19.07,19.10,19.10,19.10,19.10,19.11,19.15,19.20,19.20,19.22,19.25,19.30,19.33,19.37,19.40,19.41,19.43,19.48,19.51,19.55,19.60,19.60,19.62,19.66,19.70,19.70,19.77,19.80,19.81,19.83,19.88,19.92,19.93,19.94,19.99,20.00,20.00,20.00,20.00,20.00,20.00,20.00,20.00,20.02,20.07,20.10,20.10,20.10,20.12,20.16,20.20,20.20,20.20,20.22,20.25,20.30,20.30,20.32,20.36,20.40,20.40,20.40,20.41,20.45,20.50,20.50,20.52,20.55,20.60,20.60,20.60,20.61,20.64,20.70,20.70,20.70,20.71,20.73,20.73,20.77,20.80,20.82,20.89,20.97,21.03,21.08,21.10,21.18,21.24,21.30,21.37,21.37,21.37,21.41,21.47,21.47,21.47,21.52,21.58,21.60,21.60,21.66,21.70,21.72,21.79,21.80,21.85,21.90,21.90,21.98,22.06,22.10,22.11,22.19,22.20,22.24,22.30,22.30,22.37,22.42,22.45,22.51,22.58,22.60,22.64,22.70,22.73,22.78,22.85,22.90,22.90,22.98,23.02,23.05,23.11,23.19,23.20,23.24,23.32,23.40,23.40,23.45,23.50,23.51,23.58,23.66,23.70,23.71,23.79,23.82,23.86,23.92,24.00,24.00,24.06,24.11,24.14,24.19,24.26,24.30,24.32,24.40,24.47,24.50,24.53,24.60,24.66,24.69,24.74,24.81,24.86,24.89,25.06,25.33,25.64,25.80,25.95,26.10,26.22,26.32,26.47,26.61,26.73,26.84,26.99,27.13,27.25,27.35,27.50,27.64,27.75,27.81,27.81,27.88,27.96,28.01,28.01
15.11,15.19,15.26,15.34,15.43,15.58,15.67,15.75,15.83,15.90,15.98,16.11,16.23,16.31,16.39,16.47,16.54,16.64,16.79,16.87,16.95,17.03,17.11,17.18,17.26,17.37,17.51,17.59,17.67,17.75,17.83,17.90,17.98,18.11,18.23,18.31,18.39,18.46,18.54,18.61,18.69,18.76,18.80,18.82,18.89,18.90,18.90,18.93,18.99,18.99,19.00,19.00,19.00,19.00,19.00,19.00,19.03,19.09,19.09,19.10,19.10,19.10,19.10,19.10,19.14,19.20,19.20,19.20,19.25,19.30,19.31,19.38,19.40,19.40,19.42,19.49,19.50,19.55,19.60,19.60,19.60,19.66,19.70,19.70,19.70,19.77,19.80,19.82,19.89,19.90,19.95,19.99,19.99,20.00,20.00,20.00,20.00,20.00,20.00,20.00,20.00,20.00,20.08,20.10,20.10,20.10,20.10,20.16,20.20,20.20,20.20,20.20,20.25,20.30,20.30,20.30,20.36,20.40,20.40,20.40,20.40,20.45,20.50,20.50,20.50,20.55,20.60,20.60,20.60,20.60,20.64,20.70,20.70,20.70,20.70,20.73,20.79,20.79,20.80,20.80,20.82,20.89,20.97,21.00,21.03,21.10,21.18,21.20,21.24,21.31,21.31,21.31,21.35,21.41,21.41,21.41,21.46,21.53,21.60,21.60,21.66,21.70,21.72,21.79,21.80,21.85,21.90,21.90,21.98,22.06,22.10,22.11,22.19,22.20,22.24,22.30,22.30,22.37,22.45,22.50,22.51,22.58,22.60,22.64,22.71,22.79,22.80,22.85,22.90,22.90,22.98,23.05,23.10,23.11,23.19,23.20,23.24,23.32,23.40,23.40,23.45,23.50,23.51,23.58,23.66,23.70,23.71,23.79,23.87,23.90,23.92,24.00,24.00,24.06,24.13,24.19,24.20,24.26,24.30,24.32,24.40,24.47,24.50,24.53,24.60,24.61,24.66,24.74,24.80,24.81,24.87,25.00,25.21,25.51,25.67,25.82,25.95,26.04,26.19,26.34,26.46,26.55,26.70,26.86,26.97,27.07,27.22,27.38,27.48,27.56,27.62,27.62,27.69,27.76,27.82,27.82
15.04,15.12,15.20,15.28,15.36,15.52,15.61,15.69,15.76,15.84,15.92,16.05,16.17,16.25,16.33,16.40,16.48,16.56,16.67,16.79,16.89,16.97,17.04,17.12,17.20,17.31,17.45,17.53,17.61,17.68,17.76,17.84,17.96,18.07,18.17,18.25,18.33,18.40,18.50,18.61,18.69,18.77,18.83,18.87,18.90,18.95,18.96,18.97,19.00,19.00,19.00,19.00,19.00,19.00,19.04,19.06,19.07,19.10,19.10,19.10,19.10,19.10,19.10,19.14,19.18,19.20,19.20,19.24,19.28,19.30,19.31,19.39,19.40,19.42,19.47,19.50,19.50,19.55,19.60,19.60,19.65,19.68,19.70,19.71,19.75,19.79,19.83,19.87,19.90,19.90,19.95,20.00,20.00,20.00,20.00,20.00,20.00,20.00,20.04,20.06,20.06,20.06,20.09,20.10,20.12,20.16,20.16,20.19,20.20,20.21,20.26,20.26,20.28,20.30,20.30,20.35,20.38,20.40,20.40,20.40,20.44,20.48,20.50,20.50,20.55,20.58,20.60,20.60,20.60,20.64,20.68,20.70,20.70,20.70,20.70,20.73,20.80,20.80,20.80,20.80,20.82,20.89,20.93,20.97,21.03,21.10,21.13,21.18,21.21,21.24,21.24,21.28,21.32,21.35,21.40,21.40,21.45,21.53,21.60,21.60,21.66,21.70,21.72,21.79,21.80,21.85,21.91,21.96,21.99,22.06,22.10,22.11,22.19,22.20,22.24,22.31,22.36,22.39,22.45,22.50,22.51,22.58,22.60,22.64,22.72,22.79,22.80,22.85,22.91,22.96,22.99,23.06,23.10,23.11,23.19,23.24,23.28,23.32,23.40,23.40,23.45,23.52,23.56,23.59,23.66,23.70,23.71,23.79,23.87,23.90,23.92,24.00,24.05,24.08,24.13,24.20,24.20,24.26,24.32,24.37,24.40,24.47,24.50,24.53,24.60,24.65,24.68,24.74,24.80,24.80,24.87,24.94,25.08,25.39,25.54,25.69,25.82,25.90,26.06,26.21,26.33,26.42,26.58,26.73,26.84,26.94,27.09,27.20,27.29,27.36,27.43,27.43,27.50,27.57,27.63,27.63
14.98,15.06,15.13,15.21,15.30,15.44,15.54,15.62,15.70,15.78,15.85,15.98,16.11,16.18,16.26,16.34,16.42,16.49,16.57,16.72,16.83,16.90,16.98,17.06,17.15,17.26,17.39,17.47,17.54,17.62,17.70,17.78,17.93,18.03,18.11,18.18,18.26,18.34,18.45,18.59,18.67,18.75,18.82,18.89,18.92,18.98,19.00,19.00,19.00,19.00,19.00,19.01,19.02,19.02,19.08,19.10,19.10,19.10,19.10,19.10,19.11,19.12,19.12,19.18,19.20,19.20,19.22,19.28,19.30,19.31,19.33,19.39,19.41,19.45,19.50,19.50,19.52,19.56,19.61,19.63,19.69,19.70,19.71,19.73,19.79,19.80,19.85,19.90,19.90,19.92,19.96,20.00,20.00,20.02,20.02,20.02,20.02,20.02,20.08,20.10,20.10,20.10,20.10,20.11,20.15,20.20,20.20,20.20,20.21,20.24,20.30,20.30,20.30,20.31,20.33,20.39,20.40,20.40,20.40,20.42,20.48,20.50,20.51,20.52,20.58,20.60,20.60,20.60,20.62,20.67,20.70,20.70,20.70,20.70,20.71,20.75,20.80,20.80,20.80,20.81,20.83,20.90,20.90,20.95,21.02,21.08,21.10,21.14,21.19,21.20,21.20,21.27,21.30,21.32,21.40,21.42,21.46,21.53,21.60,21.60,21.66,21.70,21.72,21.79,21.82,21.86,21.93,22.00,22.00,22.06,22.10,22.11,22.19,22.21,22.26,22.32,22.40,22.40,22.45,22.50,22.51,22.58,22.61,22.65,22.72,22.79,22.80,22.85,22.92,23.00,23.00,23.06,23.10,23.11,23.19,23.27,23.30,23.32,23.40,23.42,23.46,23.53,23.60,23.60,23.66,23.71,23.73,23.79,23.87,23.90,23.92,24.00,24.08,24.10,24.13,24.20,24.20,24.26,24.34,24.40,24.40,24.47,24.51,24.54,24.61,24.68,24.70,24.74,24.80,24.80,24.87,24.90,24.98,25.24,25.41,25.56,25.67,25.78,25.93,26.07,26.19,26.29,26.45,26.60,26.71,26.81,26.96,27.04,27.10,27.17,27.24,27.24,27.30,27.38,27.45,27.48
14.92,14.99,15.07,15.15,15.23,15.32,15.45,15.56,15.63,15.71,15.79,15.92,16.04,16.12,16.20,16.28,16.35,16.43,16.51,16.65,16.76,16.84,16.92,16.99,17.12,17.24,17.32,17.40,17.48,17.56,17.63,17.71,17.86,17.97,18.04,18.12,18.20,18.27,18.39,18.53,18.61,18.68,18.76,18.85,18.99,19.00,19.00,19.00,19.00,19.00,19.00,19.04,19.09,19.09,19.10,19.10,19.10,19.10,19.10,19.10,19.13,19.19,19.19,19.20,19.20,19.22,19.29,19.30,19.30,19.33,19.39,19.40,19.45,19.49,19.50,19.50,19.56,19.59,19.62,19.69,19.70,19.70,19.73,19.79,19.80,19.80,19.85,19.90,19.90,19.97,19.99,20.00,20.01,20.07,20.09,20.09,20.09,20.09,20.10,20.10,20.10,20.10,20.10,20.15,20.19,20.20,20.20,20.20,20.24,20.29,20.30,20.30,20.30,20.33,20.39,20.40,20.40,20.40,20.41,20.48,20.50,20.50,20.52,20.59,20.60,20.60,20.60,20.61,20.68,20.70,20.70,20.70,20.70,20.70,20.75,20.79,20.80,20.80,20.80,20.83,20.89,20.90,20.90,20.95,21.00,21.02,21.08,21.11,21.14,21.20,21.20,21.27,21.30,21.32,21.40,21.46,21.49,21.53,21.60,21.60,21.66,21.70,21.72,21.79,21.86,21.89,21.93,22.00,22.00,22.06,22.10,22.11,22.19,22.26,22.29,22.32,22.40,22.40,22.45,22.50,22.51,22.58,22.65,22.69,22.72,22.79,22.80,22.85,22.92,23.00,23.00,23.06,23.10,23.11,23.19,23.27,23.30,23.32,23.40,23.46,23.49,23.53,23.60,23.60,23.66,23.73,23.79,23.80,23.87,23.90,23.92,24.00,24.08,24.10,24.13,24.20,24.20,24.26,24.34,24.40,24.40,24.47,24.54,24.59,24.61,24.68,24.70,24.74,24.80,24.80,24.87,24.90,24.93,25.05,25.27,25.39,25.50,25.65,25.80,25.90,26.02,26.17,26.32,26.48,26.58,26.68,26.83,26.91,26.94,26.98,27.04,27.04,27.11,27.19,27.28,27.41
