59.98,57.69,54.18,50.63,47.01,45.35,44.81,45.22,46.91,49.77,53.24,57.23,61.64,66.66,69.76,70.83,70.14,68.88,67.21,66.14,65.63,65.21,64.74,63.82,62.64,61.33,60.01,56.54,52.01,46.92,41.70,37.36,33.33,28.57,22.17,19.82,18.66,17.99,17.37,16.81,16.22,15.84,15.72,15.91,16.22,16.59,16.95,17.20,17.41,17.58,17.71,17.81,17.94,18.03,18.15,18.30,18.47,18.98,19.33,19.63,19.94,20.26,20.59,21.18,22.17,23.75,25.69,27.63,29.88,32.70,35.65,38.82,40.52,40.10,37.51,34.46,31.67,29.27,27.32,26.12,24.86,23.60,22.38,21.50,20.72,19.89,18.93,17.80,16.60,15.50,14.68,14.33,14.74,15.06,15.28,15.40,15.40,15.40,15.64,16.05,16.44,16.78,16.97,17.12,17.30,17.43,17.53,17.61,17.63,17.47,17.30,17.05,16.64,15.99,15.37,14.64,13.95,13.30,12.37,10.67,9.33,8.43,7.82,7.32,6.84,6.27,5.57,4.91,4.61,4.83,5.50,6.39,6.39,6.25,6.06,5.85,5.45,5.10,4.72,4.38,4.50,4.63,4.75,4.81,4.76,4.60,4.48,4.34,4.16,3.92,3.67,3.40,3.13,2.93,3.15,3.19,3.06,2.84,2.71,2.73,2.81,2.86,2.78,2.71,2.67,2.68,2.71,2.86,3.01,3.17,3.32,3.48,3.63,3.79,3.94,4.09,4.20,4.20,4.14,4.06,3.91,3.79,3.68,3.54,3.39,3.24,3.11,3.00,2.84,2.71,2.56,2.43,2.32,2.17,2.09,2.06,2.04,2.04,2.04,2.04,2.04,2.04,2.04,2.04,2.04,2.04,2.04,2.06,2.07,2.07,2.07,2.12,2.14,2.14,2.14,2.14,2.14,2.14,2.14,2.14,2.14,2.14,2.14,2.14,2.16,2.17,2.13,2.06,2.01,1.98,1.97,1.97,1.97,1.92,1.95,2.06,2.21,2.28,2.42,2.54,2.62,2.72,2.85,2.96,3.07,3.20,3.28,3.41,3.53,3.61,3.69,3.70,3.73,3.77,3.77,3.79
61.57,59.40,55.93,52.38,49.31,48.38,48.54,49.53,51.64,54.53,57.59,61.27,66.05,69.89,70.85,70.29,69.04,67.36,65.76,64.77,64.26,63.80,63.51,63.07,62.39,61.45,60.47,57.17,52.78,47.84,42.74,37.88,33.13,27.84,21.45,19.57,18.48,17.73,17.06,16.55,16.20,16.09,16.21,16.52,16.82,17.17,17.51,17.81,18.04,18.25,18.40,18.48,18.61,18.72,18.84,19.01,19.27,19.96,20.50,21.04,21.63,22.07,22.46,23.26,24.50,26.04,28.08,30.32,32.92,36.03,39.95,43.74,45.42,44.44,41.61,38.45,35.22,32.18,29.68,28.12,26.68,25.30,24.01,23.24,22.44,21.53,20.51,19.43,18.28,17.15,16.42,16.38,16.89,17.27,17.48,17.53,17.48,17.45,17.64,18.02,18.51,18.98,19.31,19.58,19.82,19.95,19.97,19.92,19.80,19.65,19.47,19.09,18.57,17.97,17.33,16.64,16.05,15.51,14.58,13.44,12.35,11.44,10.82,10.16,9.33,8.47,7.68,6.96,6.45,6.40,6.85,7.73,7.57,7.37,7.15,6.86,6.29,5.86,5.50,5.24,5.34,5.51,5.63,5.65,5.52,5.34,5.15,4.91,4.63,4.38,4.14,3.87,3.58,3.34,3.50,3.50,3.36,3.16,3.00,3.02,3.08,3.08,3.01,2.95,2.93,2.93,2.93,3.08,3.24,3.39,3.55,3.70,3.85,4.01,4.15,4.26,4.31,4.28,4.22,4.16,4.00,3.89,3.76,3.61,3.45,3.32,3.21,3.09,2.94,2.78,2.64,2.53,2.42,2.26,2.19,2.17,2.16,2.13,2.13,2.15,2.17,2.17,2.17,2.17,2.17,2.17,2.17,2.17,2.17,2.17,2.17,2.22,2.23,2.23,2.23,2.23,2.25,2.27,2.27,2.27,2.27,2.27,2.27,2.26,2.24,2.23,2.20,2.12,2.04,2.03,2.03,2.03,2.03,1.96,1.98,2.08,2.21,2.28,2.40,2.52,2.62,2.69,2.84,2.95,3.05,3.20,3.28,3.41,3.53,3.61,3.69,3.72,3.76,3.80,3.80,3.80
62.65,60.75,57.48,54.18,51.90,51.60,52.35,53.92,56.51,59.49,62.23,65.66,70.66,71.45,70.30,68.60,67.04,65.27,63.69,62.83,62.48,62.01,61.77,61.78,61.66,61.15,60.36,57.30,53.16,48.47,43.67,38.48,32.93,27.07,21.07,19.44,18.38,17.54,16.75,16.28,16.45,16.65,16.84,17.15,17.46,17.77,18.08,18.39,18.62,18.91,19.10,19.18,19.26,19.40,19.51,19.71,20.17,21.16,22.03,22.96,23.94,24.48,24.89,25.74,26.97,28.23,30.49,33.34,36.34,39.31,44.42,48.55,49.84,48.13,45.20,42.12,38.89,35.56,32.22,29.72,28.02,26.67,25.46,24.98,24.31,23.45,22.39,21.16,19.86,18.65,18.05,18.43,19.04,19.47,19.64,19.58,19.58,19.52,19.63,19.95,20.49,20.96,21.46,21.90,22.18,22.26,22.27,22.19,22.04,21.88,21.66,21.04,20.36,19.95,19.25,18.67,18.23,17.81,16.88,16.39,15.67,14.83,14.21,13.44,12.20,11.13,10.58,10.11,9.52,8.93,8.57,8.91,8.72,8.49,8.21,7.81,7.20,6.65,6.32,6.27,6.42,6.64,6.70,6.58,6.35,6.13,5.85,5.51,5.14,4.83,4.59,4.31,4.02,3.79,3.85,3.79,3.63,3.47,3.32,3.34,3.35,3.28,3.20,3.19,3.19,3.19,3.19,3.34,3.49,3.65,3.80,3.96,4.11,4.26,4.39,4.39,4.40,4.35,4.30,4.29,4.13,3.98,3.83,3.67,3.52,3.43,3.31,3.15,3.00,2.85,2.74,2.63,2.48,2.33,2.29,2.29,2.28,2.20,2.20,2.24,2.29,2.29,2.29,2.29,2.29,2.29,2.29,2.29,2.29,2.29,2.29,2.30,2.30,2.30,2.30,2.30,2.36,2.39,2.39,2.39,2.39,2.39,2.39,2.39,2.32,2.30,2.26,2.19,2.11,2.10,2.10,2.10,2.10,2.02,2.05,2.13,2.21,2.28,2.36,2.48,2.62,2.69,2.84,2.95,3.05,3.20,3.28,3.41,3.53,3.61,3.69,3.76,3.80,3.80,3.80,3.80
64.46,62.56,59.28,56.46,54.31,54.56,55.83,57.92,61.47,65.04,67.42,69.37,71.73,69.74,67.62,65.68,64.04,62.68,61.52,60.73,60.31,60.21,60.30,60.53,60.47,59.73,58.17,55.07,51.45,47.57,43.20,37.77,32.25,26.77,21.47,19.57,18.44,17.57,16.79,16.75,17.04,17.29,17.48,17.79,18.10,18.41,18.72,19.03,19.30,19.79,20.31,20.78,21.13,21.35,21.31,21.31,21.79,22.65,23.57,24.55,25.57,26.49,27.23,28.28,29.64,31.11,33.08,35.61,38.86,43.00,48.31,51.99,52.85,51.07,48.55,45.60,42.38,38.99,35.55,32.35,29.81,28.07,27.12,26.75,26.18,25.41,24.40,23.07,21.71,20.55,19.87,19.92,20.35,20.60,20.69,20.66,20.66,20.84,21.18,21.73,22.59,23.10,23.63,24.08,24.36,24.44,24.45,24.37,24.21,24.06,23.65,22.83,21.93,21.27,20.72,20.35,20.11,19.89,19.48,19.13,18.67,18.08,17.41,16.13,14.68,13.45,12.67,12.21,11.66,11.11,10.66,10.46,10.10,9.79,9.39,8.77,8.15,7.66,7.41,7.41,7.57,7.62,7.54,7.34,7.07,6.79,6.52,6.23,5.88,5.53,5.16,4.82,4.52,4.24,4.21,4.10,3.93,3.73,3.58,3.60,3.61,3.53,3.45,3.40,3.38,3.38,3.38,3.53,3.69,3.84,4.00,4.15,4.31,4.41,4.46,4.46,4.42,4.38,4.34,4.30,4.19,4.05,3.91,3.80,3.64,3.51,3.37,3.22,3.06,2.95,2.84,2.70,2.55,2.44,2.42,2.42,2.40,2.33,2.32,2.34,2.36,2.36,2.36,2.39,2.42,2.42,2.42,2.42,2.42,2.42,2.42,2.42,2.42,2.42,2.42,2.42,2.44,2.46,2.46,2.46,2.50,2.49,2.46,2.46,2.38,2.33,2.29,2.25,2.17,2.16,2.16,2.16,2.16,2.13,2.11,2.13,2.21,2.28,2.36,2.48,2.62,2.69,2.84,2.95,3.05,3.20,3.28,3.38,3.49,3.61,3.69,3.76,3.80,3.81,3.86,3.86
66.71,64.63,61.24,58.63,56.64,57.37,59.38,62.26,66.24,69.83,71.48,71.74,71.35,67.58,64.80,62.64,60.94,59.81,58.74,57.85,57.31,57.43,57.74,58.20,58.22,57.32,55.27,52.34,49.22,45.97,42.14,36.13,30.86,26.26,21.88,19.70,18.51,17.66,16.94,17.27,17.65,17.92,18.15,18.46,18.76,19.11,19.53,20.06,20.78,21.70,22.58,23.28,23.71,23.64,23.28,23.06,23.49,24.25,25.15,26.12,27.12,28.34,29.62,31.07,32.63,34.22,35.88,38.30,41.89,46.81,51.94,55.26,55.93,54.19,51.80,48.96,45.71,42.10,38.21,34.67,32.02,30.31,29.44,28.96,28.25,27.42,26.41,25.01,23.61,22.49,21.73,21.36,21.51,21.61,21.66,21.69,21.82,22.21,22.69,23.39,24.48,25.16,25.76,26.23,26.51,26.58,26.60,26.53,26.39,26.18,25.57,24.60,23.52,22.63,22.14,21.96,21.88,21.84,21.76,21.48,21.18,20.77,20.05,18.56,17.07,15.74,14.72,14.26,13.71,13.20,12.72,12.16,11.69,11.28,10.67,9.65,8.98,8.65,8.53,8.55,8.61,8.51,8.32,8.06,7.77,7.46,7.20,6.94,6.62,6.24,5.80,5.41,5.07,4.74,4.58,4.42,4.24,4.01,3.84,3.85,3.86,3.78,3.71,3.63,3.60,3.60,3.60,3.73,3.88,4.03,4.19,4.34,4.47,4.52,4.52,4.52,4.45,4.42,4.40,4.32,4.24,4.12,4.01,3.90,3.75,3.59,3.45,3.31,3.15,3.05,2.92,2.77,2.64,2.56,2.55,2.54,2.51,2.45,2.45,2.45,2.45,2.45,2.45,2.49,2.52,2.52,2.52,2.52,2.53,2.55,2.55,2.55,2.55,2.55,2.55,2.55,2.55,2.55,2.55,2.55,2.60,2.58,2.52,2.52,2.44,2.37,2.32,2.31,2.24,2.22,2.22,2.22,2.22,2.22,2.17,2.15,2.21,2.28,2.36,2.48,2.62,2.69,2.82,2.93,3.04,3.18,3.27,3.36,3.47,3.61,3.69,3.76,3.81,3.84,3.90,3.90
69.59,67.08,63.47,60.57,58.82,59.96,63.06,67.20,70.69,73.28,73.63,71.98,68.92,65.00,61.92,59.55,57.79,56.51,54.95,53.71,53.01,53.03,53.33,54.06,54.31,53.37,51.42,49.02,46.31,43.37,40.22,33.06,28.35,25.35,22.26,19.83,18.61,17.83,17.23,17.81,18.22,18.55,18.85,19.16,19.47,19.91,20.63,21.75,23.55,25.29,26.54,27.18,27.32,26.37,25.43,24.94,25.28,25.98,26.81,27.68,28.61,29.97,32.12,34.25,36.12,37.60,38.98,41.76,45.82,50.78,55.17,58.40,59.27,57.69,54.91,52.11,48.79,44.69,39.68,36.39,34.88,33.93,32.83,31.91,30.63,29.47,28.38,26.99,25.54,24.47,23.61,22.80,22.50,22.54,22.62,22.71,23.18,23.70,24.19,24.87,26.02,27.04,27.81,28.33,28.61,28.69,28.70,28.69,28.59,28.24,27.38,26.32,25.18,24.09,23.56,23.47,23.53,23.56,23.49,23.20,22.93,22.54,21.78,20.63,19.35,18.00,16.76,16.30,15.72,15.18,14.69,14.08,13.61,13.07,12.09,10.41,9.59,9.56,9.68,9.65,9.47,9.26,8.99,8.71,8.47,8.16,7.91,7.64,7.33,6.94,6.55,6.12,5.70,5.32,4.97,4.74,4.56,4.33,4.11,4.11,4.12,4.04,3.96,3.88,3.85,3.85,3.85,3.94,4.07,4.23,4.38,4.53,4.58,4.59,4.59,4.59,4.52,4.49,4.46,4.38,4.31,4.22,4.11,3.96,3.81,3.65,3.54,3.43,3.28,3.13,2.98,2.85,2.77,2.69,2.68,2.64,2.59,2.58,2.58,2.58,2.58,2.58,2.58,2.58,2.59,2.59,2.59,2.59,2.63,2.68,2.68,2.68,2.68,2.68,2.68,2.68,2.68,2.68,2.68,2.68,2.68,2.64,2.59,2.59,2.51,2.43,2.39,2.38,2.30,2.29,2.29,2.29,2.29,2.29,2.24,2.19,2.21,2.28,2.36,2.48,2.62,2.69,2.78,2.90,3.03,3.11,3.26,3.36,3.47,3.61,3.69,3.76,3.84,3.89,3.90,3.90
70.93,68.21,65.25,63.38,62.84,64.16,66.94,70.51,73.43,74.69,73.74,71.05,67.37,63.39,60.18,57.58,55.45,53.53,51.74,50.48,49.84,49.76,49.95,50.55,50.83,50.16,48.47,46.34,43.86,40.61,35.44,30.39,26.94,24.39,21.67,19.72,18.66,18.00,17.60,18.22,18.71,19.13,19.59,20.26,21.05,21.89,22.88,24.16,26.32,28.43,30.05,30.98,31.10,29.30,27.79,27.00,27.12,27.73,28.49,29.33,30.37,32.37,34.86,37.73,40.88,44.23,45.36,47.32,50.18,53.80,57.92,61.03,61.83,60.22,57.36,54.14,50.44,46.21,41.48,40.08,39.42,38.93,38.31,37.83,36.62,34.76,32.27,29.16,27.58,26.47,25.57,24.66,24.04,23.74,23.76,24.09,24.63,25.17,25.69,26.37,27.45,28.69,29.92,31.02,31.88,32.12,32.19,31.96,31.37,30.47,29.01,27.68,26.46,25.32,25.10,25.14,25.24,25.29,25.26,24.98,24.72,24.30,23.45,22.37,21.18,19.95,18.80,18.30,17.73,17.19,16.65,16.00,15.18,14.16,12.89,11.47,11.30,11.62,11.78,11.52,11.01,10.50,9.97,9.48,9.17,8.86,8.61,8.35,8.03,7.64,7.26,6.85,6.44,6.05,5.66,5.30,4.96,4.65,4.42,4.36,4.32,4.24,4.17,4.12,4.11,4.11,4.11,4.14,4.26,4.42,4.56,4.64,4.65,4.65,4.65,4.65,4.58,4.55,4.53,4.45,4.41,4.32,4.18,4.03,3.87,3.75,3.64,3.51,3.36,3.20,3.07,2.96,2.85,2.81,2.77,2.73,2.70,2.70,2.70,2.70,2.70,2.70,2.70,2.70,2.70,2.70,2.70,2.70,2.72,2.75,2.75,2.75,2.78,2.80,2.80,2.80,2.80,2.78,2.75,2.75,2.75,2.70,2.64,2.60,2.56,2.50,2.45,2.44,2.36,2.35,2.35,2.35,2.35,2.35,2.30,2.25,2.25,2.29,2.36,2.46,2.57,2.69,2.77,2.89,3.02,3.10,3.26,3.36,3.47,3.61,3.69,3.80,3.87,3.90,3.90,3.94
72.27,69.44,67.27,66.66,67.32,68.60,70.73,73.38,75.38,75.14,73.06,69.80,66.12,62.20,58.98,56.20,53.69,51.24,49.16,47.77,47.04,46.80,46.90,47.34,47.60,47.21,45.81,43.79,41.09,37.20,30.81,28.06,25.74,23.38,20.87,19.53,18.66,18.16,18.03,18.64,19.23,19.83,20.57,21.64,22.90,24.12,25.35,26.71,29.04,31.39,33.34,34.64,34.90,32.81,30.84,29.51,29.09,29.49,30.11,30.99,32.30,34.82,37.62,41.25,45.73,50.89,52.09,53.16,54.64,56.90,60.73,63.62,64.23,62.43,59.34,55.66,51.64,47.58,43.90,44.33,44.46,44.43,44.34,44.23,43.21,40.72,36.83,31.98,29.63,28.23,27.28,26.36,25.49,24.90,24.89,25.43,26.00,26.57,27.14,27.87,28.94,30.47,32.15,33.82,35.27,35.91,35.99,35.35,34.09,32.53,30.48,28.87,27.61,26.57,26.63,26.80,26.95,27.03,27.04,26.77,26.49,26.03,25.09,24.00,22.86,21.73,20.71,20.17,19.63,19.07,18.45,17.70,16.48,15.04,13.74,12.97,13.42,13.93,14.03,13.57,12.80,12.03,11.25,10.56,10.11,9.73,9.39,9.06,8.73,8.36,7.97,7.59,7.20,6.82,6.43,5.94,5.45,5.06,4.78,4.62,4.53,4.45,4.37,4.35,4.35,4.35,4.35,4.36,4.46,4.60,4.72,4.72,4.72,4.72,4.71,4.70,4.64,4.62,4.59,4.52,4.52,4.40,4.25,4.11,3.95,3.85,3.73,3.57,3.42,3.28,3.17,3.06,2.93,2.92,2.86,2.83,2.83,2.82,2.82,2.82,2.82,2.83,2.83,2.83,2.83,2.83,2.83,2.83,2.83,2.83,2.83,2.83,2.88,2.92,2.92,2.92,2.92,2.88,2.83,2.82,2.82,2.77,2.69,2.62,2.62,2.56,2.52,2.50,2.43,2.41,2.41,2.42,2.42,2.42,2.37,2.33,2.32,2.32,2.38,2.45,2.54,2.69,2.77,2.89,3.02,3.10,3.26,3.36,3.46,3.60,3.69,3.82,3.90,3.92,3.92,3.98
74.66,71.91,70.36,70.73,71.88,72.62,74.15,76.04,76.11,74.08,71.40,68.36,65.18,61.66,58.60,55.79,53.13,50.78,48.17,45.99,44.52,43.93,44.17,44.59,44.83,44.55,43.39,41.15,37.04,31.86,28.67,26.47,24.39,22.28,20.12,19.27,18.53,18.27,18.60,19.15,19.91,20.96,22.23,23.54,24.96,26.33,27.70,29.20,31.58,34.06,36.26,37.92,38.63,37.92,35.86,33.33,31.44,31.24,31.53,32.59,34.52,36.95,40.23,44.66,49.95,55.35,57.55,58.38,59.14,60.93,64.02,66.48,66.70,64.35,60.33,56.42,52.46,49.27,47.93,48.85,49.83,50.49,50.61,50.06,49.09,46.42,42.06,36.67,31.66,29.22,28.18,27.25,26.27,25.78,25.82,26.35,27.07,27.74,28.44,29.35,30.66,32.79,34.75,36.54,38.21,39.89,39.73,38.36,36.23,33.97,31.60,29.80,28.61,28.03,28.05,28.36,28.64,28.76,28.82,28.56,28.22,27.68,26.69,25.55,24.39,23.27,22.25,21.71,21.17,20.53,19.74,18.74,17.18,15.81,15.15,15.59,15.99,16.23,16.12,15.62,14.84,14.07,13.26,12.47,11.77,11.10,10.39,9.81,9.44,9.12,8.74,8.35,7.97,7.58,7.20,6.71,6.20,5.75,5.28,4.96,4.78,4.71,4.63,4.56,4.54,4.54,4.54,4.60,4.68,4.75,4.78,4.78,4.78,4.78,4.77,4.70,4.69,4.68,4.65,4.58,4.58,4.46,4.34,4.24,4.08,3.94,3.79,3.64,3.48,3.39,3.26,3.14,3.05,2.99,2.97,2.96,2.95,2.88,2.88,2.88,2.90,2.96,2.96,2.96,2.96,2.96,2.96,2.96,2.96,2.96,2.96,2.96,2.97,2.98,2.98,2.98,2.98,2.97,2.95,2.89,2.88,2.83,2.75,2.68,2.68,2.62,2.58,2.57,2.49,2.43,2.43,2.48,2.48,2.48,2.47,2.44,2.38,2.38,2.44,2.52,2.60,2.69,2.77,2.89,3.02,3.10,3.26,3.36,3.44,3.54,3.68,3.78,3.89,3.98,3.98,3.99
77.75,75.82,75.05,75.63,76.48,76.60,76.57,76.21,74.52,71.92,69.21,66.39,63.42,60.45,57.69,55.05,52.50,50.08,47.26,44.59,42.44,41.21,41.44,41.80,41.93,41.47,39.28,36.32,32.63,28.88,26.85,24.93,22.98,21.14,19.62,19.03,18.70,18.78,19.29,20.03,21.09,22.40,23.85,25.24,26.64,28.10,29.83,31.97,34.57,37.07,39.42,41.39,42.37,42.12,40.09,37.13,34.45,33.96,33.50,34.12,36.19,38.58,42.56,47.83,53.77,59.26,62.07,63.61,64.84,66.56,68.78,70.04,69.23,66.19,61.66,57.69,54.78,53.20,53.17,54.35,55.34,56.00,56.13,55.06,52.87,49.50,45.03,39.63,34.65,31.08,28.93,27.97,27.07,26.70,26.77,27.19,27.86,28.58,30.02,31.87,33.56,35.61,37.70,39.92,42.23,43.83,42.59,40.24,37.56,35.29,32.99,31.20,30.08,29.68,29.82,30.33,30.83,31.14,31.22,30.86,30.29,29.43,28.16,27.03,25.91,24.80,23.77,23.13,22.32,21.43,20.43,19.25,17.89,17.20,17.29,18.11,18.33,18.33,18.12,17.66,16.89,16.11,15.30,14.47,13.70,12.89,12.08,11.35,10.77,10.19,9.63,9.16,8.78,8.39,8.01,7.52,7.00,6.50,5.96,5.54,5.25,5.09,4.98,4.86,4.82,4.82,4.82,4.86,4.86,4.84,4.84,4.84,4.84,4.84,4.83,4.75,4.74,4.72,4.69,4.64,4.61,4.53,4.44,4.32,4.16,4.01,3.87,3.74,3.59,3.48,3.36,3.24,3.14,3.10,3.09,3.07,3.03,2.99,2.99,2.99,3.00,3.04,3.04,3.04,3.06,3.09,3.09,3.09,3.09,3.09,3.09,3.09,3.09,3.09,3.08,3.05,3.04,3.04,3.03,2.95,2.91,2.87,2.82,2.74,2.74,2.69,2.64,2.63,2.56,2.48,2.49,2.54,2.54,2.54,2.54,2.51,2.44,2.44,2.48,2.54,2.62,2.69,2.77,2.87,2.99,3.10,3.22,3.34,3.43,3.52,3.68,3.76,3.88,4.00,4.00,4.00
81.17,80.28,80.25,80.62,80.76,80.15,78.19,75.09,71.91,69.29,66.78,64.18,61.31,58.94,56.49,54.07,51.72,49.24,46.41,43.46,40.72,38.71,38.76,38.95,38.84,37.93,34.49,30.87,28.40,27.02,25.21,23.40,21.58,20.08,19.30,18.89,19.09,19.56,20.16,21.17,22.56,24.02,25.46,26.84,28.22,29.81,31.98,34.90,37.77,40.28,42.72,44.94,46.13,45.89,43.93,40.90,37.74,36.98,35.67,35.61,37.56,40.08,44.78,50.87,57.36,62.73,65.94,68.58,70.80,72.67,74.06,73.86,71.82,68.09,63.40,59.62,58.12,58.27,58.92,60.19,60.78,61.04,60.98,59.31,55.36,51.08,46.68,41.61,37.76,33.24,29.72,28.64,27.87,27.64,27.72,28.01,28.54,29.48,31.95,35.02,37.16,38.94,41.12,43.79,46.65,47.63,45.11,41.75,38.61,36.54,34.49,32.84,31.80,31.48,31.83,32.56,33.32,33.86,33.93,33.41,32.49,31.19,29.49,28.39,27.30,26.21,25.17,24.36,23.21,22.02,20.85,19.61,18.71,18.88,19.65,20.42,20.38,20.19,19.93,19.56,18.83,18.10,17.32,16.51,15.73,14.87,14.06,13.25,12.39,11.48,10.68,10.09,9.67,9.25,8.84,8.34,7.80,7.26,6.71,6.23,5.83,5.54,5.39,5.24,5.18,5.18,5.17,5.17,5.07,4.97,4.96,4.94,4.93,4.91,4.88,4.81,4.81,4.76,4.71,4.70,4.63,4.61,4.54,4.38,4.23,4.08,3.97,3.87,3.71,3.56,3.46,3.35,3.21,3.21,3.21,3.18,3.11,3.11,3.11,3.11,3.11,3.11,3.11,3.11,3.15,3.21,3.21,3.21,3.21,3.21,3.21,3.21,3.21,3.21,3.20,3.13,3.11,3.10,3.09,3.01,2.94,2.91,2.88,2.81,2.81,2.75,2.71,2.70,2.62,2.54,2.55,2.61,2.61,2.61,2.61,2.58,2.51,2.51,2.50,2.54,2.62,2.69,2.77,2.85,2.95,3.10,3.18,3.31,3.43,3.52,3.68,3.76,3.88,4.00,4.01,4.01
84.57,83.73,83.42,83.22,82.52,80.51,77.18,73.08,69.75,66.98,64.42,61.96,59.53,57.41,54.91,52.39,50.08,48.14,45.77,43.07,40.20,37.45,36.42,35.83,34.66,32.33,30.51,28.60,26.85,25.30,23.83,21.83,20.43,19.66,19.37,19.46,20.05,20.95,22.02,23.08,24.44,25.82,27.17,28.51,30.35,32.57,35.17,38.10,41.02,43.69,46.24,48.50,49.94,49.67,47.64,44.42,40.85,38.85,37.31,37.10,38.73,42.28,47.27,53.80,60.55,64.87,68.33,71.53,74.36,76.70,78.14,77.17,74.53,70.81,66.95,64.72,63.89,63.94,64.15,65.02,65.15,64.63,63.39,60.63,55.48,50.55,46.27,42.14,38.34,34.50,31.31,29.41,28.69,28.55,28.68,28.95,29.38,32.02,35.62,39.27,41.96,44.43,46.94,49.01,50.25,50.39,48.30,44.58,40.32,37.66,35.85,34.57,33.85,33.73,34.43,35.28,36.16,36.85,36.87,35.91,34.50,32.65,30.25,29.01,27.84,26.73,25.65,24.60,23.40,22.26,21.32,20.72,20.28,20.44,20.95,21.42,21.03,20.81,20.62,20.39,20.00,19.61,19.15,18.52,17.64,16.68,15.78,14.91,14.06,13.25,12.46,11.72,11.02,10.36,9.69,9.11,8.55,7.96,7.42,6.89,6.45,6.12,5.96,5.90,5.88,5.87,5.81,5.81,5.71,5.57,5.45,5.29,5.17,5.03,4.90,4.87,4.87,4.82,4.77,4.77,4.69,4.67,4.60,4.45,4.29,4.19,4.07,3.93,3.77,3.67,3.55,3.43,3.34,3.34,3.34,3.30,3.24,3.24,3.24,3.24,3.24,3.24,3.24,3.24,3.25,3.27,3.27,3.27,3.27,3.29,3.34,3.34,3.31,3.27,3.27,3.25,3.20,3.14,3.10,3.07,3.00,2.97,2.95,2.87,2.87,2.81,2.77,2.76,2.68,2.61,2.61,2.67,2.67,2.67,2.67,2.66,2.64,2.58,2.53,2.54,2.62,2.69,2.77,2.85,2.95,3.10,3.18,3.31,3.43,3.52,3.68,3.76,3.85,3.96,4.07,4.07
88.35,87.35,86.48,85.43,83.48,80.59,76.60,72.02,68.37,65.30,62.52,60.06,57.95,55.89,53.46,51.00,48.77,47.02,44.85,42.40,39.63,36.46,34.42,33.08,31.54,29.27,28.17,26.91,25.48,23.93,22.46,20.80,19.98,19.88,20.19,20.74,21.67,22.82,24.05,25.16,26.42,27.81,29.36,31.13,33.34,35.83,38.53,41.37,44.27,47.08,49.81,52.30,54.12,53.80,51.53,47.96,43.95,40.86,38.87,38.52,40.17,44.24,49.70,56.24,62.66,66.71,70.36,73.90,77.24,80.25,81.96,80.96,78.12,74.39,71.67,70.58,70.22,70.16,69.97,70.04,69.14,67.39,64.88,61.50,55.87,50.48,45.92,42.10,38.37,35.19,32.52,30.32,29.76,30.24,30.82,31.38,32.77,36.32,40.32,44.06,46.89,49.56,51.64,52.90,53.21,52.49,50.58,47.03,42.59,39.17,37.50,36.47,36.03,36.19,37.10,38.21,39.38,40.29,39.99,38.22,36.13,33.79,31.06,29.50,28.24,27.12,26.01,24.85,23.80,22.92,22.26,21.96,21.72,21.82,22.08,22.29,21.75,21.44,21.24,21.08,20.84,20.80,20.74,20.41,19.45,18.42,17.46,16.59,15.80,15.03,14.25,13.44,12.60,11.80,10.95,10.13,9.33,8.59,7.96,7.44,7.02,6.69,6.57,6.55,6.55,6.54,6.49,6.46,6.34,6.17,5.96,5.76,5.59,5.40,5.19,5.08,5.00,4.90,4.84,4.83,4.75,4.74,4.68,4.55,4.39,4.28,4.15,4.00,3.87,3.77,3.63,3.52,3.47,3.47,3.45,3.41,3.37,3.37,3.37,3.37,3.37,3.37,3.37,3.37,3.37,3.37,3.37,3.37,3.37,3.38,3.43,3.44,3.38,3.34,3.34,3.34,3.27,3.20,3.14,3.14,3.06,3.04,3.01,2.94,2.94,2.88,2.84,2.82,2.75,2.67,2.68,2.74,2.74,2.74,2.74,2.74,2.73,2.65,2.57,2.56,2.62,2.69,2.79,2.88,2.97,3.10,3.18,3.29,3.41,3.52,3.64,3.75,3.84,3.94,4.09,4.10
92.42,91.13,89.46,87.32,83.80,80.44,76.37,71.73,67.64,64.12,60.99,58.42,56.55,54.39,52.11,49.85,47.74,45.88,43.70,41.50,39.02,35.70,32.69,30.64,29.28,28.31,27.15,25.69,24.26,22.85,21.08,20.21,20.09,20.61,21.60,22.60,23.83,25.07,26.23,27.39,28.49,29.95,31.94,34.56,37.03,39.50,42.03,44.68,47.54,50.46,53.43,56.30,58.60,58.20,55.57,51.53,47.06,42.98,40.36,39.88,41.85,46.02,52.07,58.27,63.90,68.30,72.10,75.78,79.55,83.41,85.57,85.13,82.42,78.68,77.34,77.05,76.99,76.82,76.28,75.22,72.83,69.49,65.61,61.99,56.48,50.78,45.61,41.60,37.95,35.43,33.40,31.36,31.05,32.58,33.94,35.04,38.25,42.04,45.86,49.30,51.93,54.41,55.41,55.72,55.66,54.05,52.11,49.18,45.32,41.01,39.38,38.51,38.33,38.82,39.82,41.29,42.91,44.09,43.24,40.37,37.44,34.67,31.89,29.89,28.53,27.42,26.26,25.10,24.38,23.92,23.61,23.30,23.06,23.03,23.08,23.06,22.52,22.10,21.82,21.65,21.42,21.72,22.15,22.18,21.18,20.10,19.13,18.29,17.59,16.81,16.04,15.23,14.38,13.53,12.54,11.34,10.14,9.15,8.38,7.90,7.55,7.28,7.20,7.19,7.19,7.19,7.19,7.11,6.98,6.77,6.48,6.32,6.17,5.97,5.72,5.42,5.18,5.00,4.90,4.90,4.82,4.80,4.76,4.67,4.52,4.37,4.21,4.08,4.00,3.85,3.69,3.60,3.60,3.60,3.54,3.50,3.50,3.50,3.50,3.50,3.50,3.50,3.50,3.50,3.50,3.50,3.50,3.50,3.50,3.50,3.50,3.50,3.45,3.40,3.40,3.40,3.34,3.26,3.20,3.20,3.13,3.10,3.07,3.00,3.00,2.94,2.90,2.89,2.81,2.73,2.74,2.80,2.80,2.80,2.80,2.80,2.79,2.72,2.64,2.60,2.62,2.69,2.84,2.95,3.02,3.10,3.18,3.26,3.37,3.51,3.59,3.73,3.84,3.94,4.09,4.10
97.52,95.48,92.08,87.72,84.02,80.39,76.52,72.48,68.67,65.22,62.01,59.30,57.35,55.63,53.46,50.96,48.30,46.16,43.22,40.45,37.72,34.49,31.57,29.76,28.54,27.43,26.42,24.94,23.46,22.31,21.94,21.86,22.04,22.63,23.83,24.98,26.18,27.35,28.55,30.29,32.09,34.20,36.49,38.59,41.19,43.74,46.30,48.98,52.22,55.22,57.91,60.32,62.64,61.39,58.97,55.34,50.25,45.91,43.07,42.33,43.94,47.57,53.55,59.48,64.80,69.44,73.08,76.63,80.63,85.31,88.64,89.22,87.94,85.60,83.65,82.58,82.19,81.92,81.02,79.06,75.46,71.06,66.52,62.55,57.60,52.39,47.14,41.96,38.72,36.31,34.32,32.58,33.24,35.00,36.99,39.09,42.19,46.14,50.21,53.89,56.66,57.96,58.48,58.37,57.70,56.03,54.00,51.45,48.39,44.89,42.89,41.94,41.99,42.97,44.36,45.97,47.41,48.17,46.98,41.77,37.80,35.09,32.40,30.25,28.82,27.68,26.57,25.90,25.43,25.09,24.84,24.63,24.40,24.27,24.13,23.82,23.28,22.79,22.55,22.61,22.76,23.16,23.61,23.74,23.03,21.95,21.24,20.53,19.55,18.63,17.79,16.93,16.03,15.13,13.82,12.37,10.90,9.55,8.92,8.47,8.15,7.92,7.84,7.87,7.89,7.88,7.83,7.75,7.55,7.30,7.05,6.89,6.74,6.55,6.30,5.99,5.71,5.44,5.23,5.08,4.91,4.86,4.83,4.74,4.58,4.43,4.30,4.19,4.07,3.96,3.82,3.73,3.72,3.67,3.64,3.60,3.56,3.56,3.56,3.56,3.58,3.63,3.63,3.63,3.63,3.63,3.63,3.63,3.63,3.61,3.56,3.56,3.54,3.51,3.46,3.41,3.38,3.32,3.26,3.26,3.19,3.16,3.14,3.06,3.06,3.01,2.94,2.90,2.87,2.80,2.81,2.86,2.86,2.86,2.86,2.86,2.86,2.78,2.74,2.70,2.68,2.76,2.86,2.95,3.02,3.10,3.18,3.26,3.37,3.51,3.59,3.73,3.84,3.94,4.09,4.15
101.54,98.83,94.29,88.30,84.52,80.78,77.07,73.42,70.00,66.80,63.66,60.87,58.78,57.33,55.21,52.56,49.65,47.22,43.66,40.04,36.60,33.31,30.62,29.03,27.89,26.69,25.66,24.36,23.24,22.68,23.20,23.67,24.06,24.68,25.94,27.19,28.56,29.97,31.48,33.63,35.93,38.44,40.90,42.80,45.66,48.56,51.48,54.43,57.42,60.44,62.92,64.77,66.45,64.67,62.24,58.78,53.52,48.93,45.86,44.68,45.60,48.82,54.90,60.73,65.80,70.48,73.99,77.49,81.63,86.74,90.59,92.36,92.47,91.26,89.28,87.77,87.03,86.28,84.51,81.58,77.06,71.92,66.91,62.63,58.11,53.34,48.25,42.75,39.51,37.08,35.29,34.15,35.51,37.48,39.91,42.74,45.89,49.96,54.15,57.91,60.63,61.21,61.37,60.93,59.79,58.03,55.92,53.61,51.11,48.33,46.50,45.92,46.55,48.21,50.00,51.15,51.72,51.45,49.23,42.58,38.09,35.55,33.05,30.83,29.25,28.09,27.18,26.82,26.52,26.26,26.04,25.86,25.64,25.37,25.01,24.48,23.94,23.40,23.28,23.67,24.18,24.63,25.07,25.27,24.88,24.09,23.69,23.09,21.93,20.85,19.80,18.73,17.62,16.53,15.03,13.46,11.86,10.30,9.49,9.01,8.73,8.56,8.50,8.54,8.57,8.55,8.47,8.37,8.13,7.85,7.62,7.45,7.31,7.12,6.87,6.56,6.25,5.95,5.65,5.38,5.12,4.97,4.87,4.81,4.67,4.52,4.40,4.29,4.16,4.06,3.92,3.83,3.82,3.76,3.75,3.71,3.65,3.65,3.65,3.65,3.67,3.73,3.73,3.73,3.73,3.73,3.75,3.74,3.73,3.71,3.63,3.63,3.63,3.60,3.52,3.44,3.43,3.39,3.33,3.33,3.26,3.23,3.20,3.13,3.13,3.07,2.99,2.93,2.93,2.86,2.87,2.93,2.93,2.93,2.93,2.93,2.92,2.87,2.84,2.79,2.74,2.79,2.87,2.95,3.02,3.10,3.18,3.26,3.37,3.51,3.59,3.73,3.84,3.93,4.07,4.17
104.05,100.78,95.94,89.20,85.41,81.80,78.15,74.61,71.68,69.03,66.15,63.34,61.02,59.62,57.44,54.82,52.03,49.37,45.34,40.54,35.75,32.16,29.90,28.45,27.34,26.16,24.88,24.00,23.82,24.30,24.98,25.64,26.13,26.74,27.85,29.16,30.97,33.06,35.27,37.57,40.06,42.60,45.07,47.26,50.56,54.16,57.91,61.49,63.29,66.26,68.64,69.83,69.98,68.10,65.36,61.68,56.90,52.07,48.75,46.87,46.65,49.62,56.08,62.06,66.95,71.39,74.84,78.38,82.55,87.54,91.00,94.19,95.62,95.12,93.92,92.54,91.40,89.68,86.28,82.27,77.23,71.82,66.56,62.04,57.76,53.33,48.72,44.11,40.30,37.69,36.32,36.21,37.87,40.02,42.67,45.80,49.31,53.40,57.54,61.14,63.57,64.05,64.04,63.36,61.94,60.03,57.86,55.61,53.35,51.11,50.19,50.65,52.33,54.94,57.12,57.00,55.75,53.59,49.40,42.56,38.30,36.08,33.88,31.71,29.90,28.72,28.21,27.90,27.64,27.41,27.18,26.95,26.72,26.27,25.66,24.99,24.45,23.91,24.02,24.87,25.67,26.12,26.51,26.78,26.73,26.62,26.57,26.09,24.91,23.63,22.19,20.67,19.13,17.64,16.17,14.64,13.09,11.54,10.09,9.50,9.28,9.20,9.20,9.20,9.21,9.18,9.11,8.96,8.70,8.42,8.19,7.97,7.86,7.70,7.45,7.14,6.83,6.52,6.19,5.82,5.52,5.13,4.90,4.88,4.79,4.65,4.50,4.37,4.28,4.14,3.98,3.89,3.89,3.88,3.88,3.84,3.78,3.78,3.78,3.78,3.78,3.79,3.79,3.79,3.79,3.80,3.87,3.82,3.79,3.77,3.69,3.69,3.69,3.66,3.58,3.51,3.49,3.45,3.39,3.39,3.32,3.29,3.27,3.19,3.19,3.13,3.06,2.99,2.99,2.93,2.93,2.99,2.99,2.99,2.99,2.99,2.99,2.98,2.93,2.85,2.79,2.80,2.87,2.95,3.02,3.10,3.18,3.26,3.37,3.51,3.59,3.73,3.84,3.92,4.01,4.15
103.62,100.16,95.66,90.00,86.38,82.85,79.24,75.79,73.31,70.73,68.11,65.57,63.24,61.34,59.08,56.56,53.85,51.11,46.57,41.23,35.79,31.15,29.33,27.98,26.82,25.71,25.11,25.00,25.32,25.96,26.65,27.35,27.96,28.80,30.27,32.09,34.17,36.44,38.86,41.39,44.00,46.80,49.82,53.11,56.79,60.40,63.73,66.57,68.27,71.39,73.98,75.23,74.69,71.91,68.35,64.25,59.75,55.34,51.66,49.27,48.77,51.79,57.79,63.44,68.13,72.24,75.63,79.14,83.02,87.37,91.23,95.15,97.97,98.98,97.43,95.20,92.54,89.37,85.56,81.22,76.00,70.42,65.01,60.66,56.71,52.58,48.31,44.29,40.86,38.40,37.38,38.12,40.15,42.73,45.66,48.89,52.57,56.54,60.32,63.68,66.40,66.90,66.64,65.71,64.30,63.00,60.50,57.93,55.67,53.84,53.44,54.89,57.21,59.31,60.71,59.86,57.24,53.18,47.98,42.00,38.34,36.39,34.44,32.44,30.80,29.75,29.34,29.03,28.75,28.50,28.27,28.04,27.69,27.08,26.33,25.56,24.98,24.58,24.82,25.71,26.60,27.27,27.86,28.61,29.87,31.18,31.51,30.55,28.36,26.62,24.98,23.22,21.36,19.56,17.96,16.39,14.84,13.25,11.79,10.79,10.21,10.01,10.06,10.06,10.06,9.99,9.75,9.51,9.22,8.94,8.72,8.53,8.43,8.25,7.97,7.66,7.35,7.04,6.72,6.38,6.07,5.68,5.29,4.99,4.87,4.72,4.59,4.48,4.36,4.20,4.08,4.01,4.01,4.01,4.01,3.97,3.91,3.91,3.91,3.91,3.91,3.91,3.91,3.91,3.91,3.91,3.95,3.89,3.85,3.85,3.81,3.77,3.73,3.69,3.65,3.57,3.55,3.52,3.45,3.45,3.38,3.35,3.33,3.25,3.25,3.20,3.12,3.05,3.05,2.99,3.00,3.05,3.05,3.05,3.05,3.05,3.05,3.05,2.99,2.92,2.85,2.85,2.89,2.95,3.02,3.10,3.18,3.26,3.35,3.46,3.58,3.69,3.81,3.92,4.00,4.15
102.22,98.99,95.13,90.72,87.22,83.77,80.23,76.86,74.54,71.90,69.32,66.81,64.34,62.08,59.79,57.39,54.85,52.16,47.39,41.77,35.88,30.35,28.87,27.59,26.47,25.63,25.73,26.25,26.88,27.53,28.22,29.05,29.93,31.11,32.89,35.16,37.52,40.00,42.63,45.42,48.29,51.44,55.01,59.11,63.07,66.41,69.09,71.18,73.06,76.05,78.55,79.72,78.77,75.37,71.22,66.80,62.48,58.45,54.52,51.77,51.12,54.21,59.57,64.80,69.34,73.19,76.55,79.99,83.55,87.27,91.52,96.12,100.17,102.48,100.38,96.87,92.61,88.18,84.26,79.70,74.44,68.83,63.33,59.23,55.65,51.92,48.08,44.59,41.60,39.31,38.61,40.15,42.62,45.58,48.74,52.07,55.84,59.70,63.27,66.57,69.70,70.60,70.01,68.61,67.04,66.26,63.53,60.59,58.11,56.55,56.60,58.60,61.11,62.68,63.16,61.61,57.96,52.55,46.66,41.52,38.46,36.77,35.07,33.23,31.84,30.96,30.58,30.26,29.95,29.66,29.40,29.09,28.59,27.85,27.00,26.16,25.50,25.28,25.63,26.49,27.41,28.26,29.48,31.27,33.89,35.99,36.49,35.24,32.50,30.07,27.99,25.90,23.77,21.75,19.98,18.31,16.68,15.04,13.58,12.25,11.34,10.96,11.04,11.05,11.01,10.83,10.37,10.07,9.76,9.47,9.25,9.11,9.01,8.81,8.50,8.19,7.88,7.57,7.26,6.93,6.62,6.27,5.79,5.23,5.00,4.82,4.68,4.58,4.42,4.28,4.18,4.14,4.14,4.14,4.13,4.08,4.02,4.02,4.03,4.04,4.04,4.04,4.04,4.04,4.03,4.02,4.02,3.95,3.92,3.92,3.92,3.84,3.77,3.72,3.71,3.63,3.62,3.58,3.52,3.52,3.45,3.42,3.39,3.32,3.30,3.25,3.18,3.12,3.12,3.05,3.06,3.12,3.12,3.12,3.12,3.12,3.12,3.12,3.06,2.99,2.93,2.92,2.91,2.95,3.02,3.10,3.19,3.27,3.35,3.44,3.58,3.66,3.78,3.92,4.00,4.15
99.69,97.57,94.82,91.29,87.69,84.34,80.97,77.64,74.78,71.96,68.86,65.67,62.69,60.63,58.42,56.23,54.07,51.67,47.36,41.82,35.71,30.04,28.60,27.33,26.52,26.43,26.87,27.50,28.18,28.87,29.56,30.84,32.36,34.03,35.76,38.13,40.92,43.90,46.95,50.03,53.50,57.18,61.01,64.86,68.86,71.55,73.55,75.49,77.71,79.84,81.33,81.81,80.82,77.82,73.87,69.48,65.16,61.08,57.24,54.45,53.55,56.64,61.29,66.12,70.61,74.41,77.81,81.14,84.43,87.78,92.03,97.44,102.36,105.11,102.42,97.04,91.43,86.42,82.60,77.73,72.68,67.30,61.83,57.97,54.89,51.83,48.72,45.72,42.89,40.65,40.24,42.55,45.56,48.68,51.97,55.44,59.16,63.07,66.89,70.61,74.25,76.37,75.29,72.90,70.68,69.84,67.23,63.94,60.85,59.24,59.75,61.18,62.98,64.55,64.29,61.92,57.88,52.49,46.25,41.51,38.82,37.43,36.03,34.24,33.10,32.43,32.05,31.67,31.35,31.02,30.61,30.07,29.36,28.56,27.71,26.86,26.05,25.98,26.46,27.32,28.18,29.03,31.82,35.85,39.50,40.58,40.66,39.87,38.18,34.57,31.38,28.65,26.32,24.25,22.28,20.39,18.57,16.82,15.11,13.80,12.80,12.17,12.25,12.26,12.08,11.65,10.95,10.70,10.36,10.05,9.83,9.74,9.61,9.38,9.07,8.76,8.45,8.14,7.81,7.44,7.14,6.82,6.36,5.77,5.29,4.99,4.78,4.64,4.49,4.39,4.31,4.26,4.26,4.26,4.21,4.14,4.08,4.08,4.14,4.16,4.16,4.16,4.16,4.16,4.14,4.08,4.08,4.02,3.98,3.98,3.98,3.91,3.83,3.78,3.78,3.70,3.68,3.64,3.58,3.58,3.51,3.48,3.46,3.38,3.32,3.29,3.25,3.18,3.18,3.12,3.12,3.18,3.18,3.18,3.18,3.18,3.18,3.18,3.12,3.08,3.05,2.99,2.92,2.95,3.02,3.10,3.24,3.34,3.42,3.49,3.59,3.66,3.78,3.92,4.00,4.15
97.27,95.79,93.86,91.15,87.77,84.52,81.31,78.05,74.64,71.48,68.06,64.51,61.07,58.92,56.71,54.55,52.47,50.19,46.21,40.98,35.19,29.94,28.56,27.60,27.18,27.43,27.93,28.59,29.41,30.37,31.38,32.81,34.58,36.57,38.65,41.36,44.38,47.58,50.91,54.37,58.03,61.81,65.74,69.96,74.43,76.80,78.09,79.32,81.14,82.62,83.45,83.36,81.86,79.11,75.32,71.09,67.16,63.28,59.68,56.92,55.68,57.99,62.44,67.22,71.71,75.53,78.98,82.17,85.22,88.37,93.01,98.95,104.45,107.76,105.51,98.10,91.23,85.75,81.67,76.73,71.83,67.03,62.55,59.44,57.08,54.11,50.55,47.12,44.38,42.86,43.25,45.90,48.68,51.82,55.20,58.85,62.95,66.78,70.47,74.23,78.32,80.58,79.89,78.00,76.19,74.88,71.55,67.59,64.10,62.69,63.31,64.43,65.77,66.98,66.09,62.55,57.82,52.59,46.93,42.64,39.83,38.11,36.76,35.23,34.36,33.85,33.47,33.08,32.73,32.32,31.81,31.08,30.08,29.17,28.32,27.47,26.62,26.64,27.20,28.05,28.90,31.40,35.32,39.60,42.69,43.34,43.16,42.38,41.02,38.01,34.74,31.65,28.88,26.44,24.14,22.03,20.10,18.33,16.55,15.24,14.19,13.43,13.47,13.47,13.13,12.48,11.71,11.33,10.97,10.70,10.54,10.43,10.40,10.18,9.75,9.30,8.98,8.67,8.35,8.00,7.69,7.38,6.95,6.37,5.79,5.29,4.94,4.71,4.59,4.48,4.42,4.39,4.39,4.35,4.31,4.25,4.19,4.19,4.23,4.25,4.25,4.25,4.25,4.25,4.21,4.15,4.15,4.08,4.05,4.04,4.00,3.96,3.89,3.85,3.84,3.76,3.75,3.71,3.65,3.65,3.58,3.55,3.52,3.44,3.37,3.35,3.31,3.24,3.21,3.16,3.19,3.25,3.25,3.25,3.25,3.25,3.25,3.25,3.21,3.17,3.13,3.05,3.01,3.02,3.07,3.15,3.27,3.36,3.43,3.51,3.59,3.66,3.78,3.92,4.00,4.11
94.87,93.78,92.45,90.33,87.29,84.20,81.21,78.14,74.47,71.02,67.40,63.61,59.77,57.35,54.98,52.72,50.54,48.24,44.59,39.80,34.55,29.91,28.64,28.10,28.10,28.49,29.01,29.72,30.73,32.00,33.38,34.85,36.74,39.02,41.60,44.72,47.90,51.22,54.74,58.52,62.23,65.93,69.91,74.67,79.49,81.72,82.50,82.99,84.18,85.07,85.30,84.59,82.46,79.88,76.27,72.26,68.78,65.16,61.87,59.20,57.67,58.96,63.41,68.25,72.74,76.61,80.07,83.11,85.95,88.98,94.09,100.39,106.27,110.09,108.63,99.55,91.74,85.95,81.57,76.65,71.89,67.70,64.36,62.05,60.32,57.29,53.04,48.76,46.07,45.46,46.75,49.50,51.82,54.94,58.48,62.35,66.85,70.52,73.95,77.66,82.19,84.11,84.02,83.08,81.96,80.16,76.04,71.36,67.52,66.58,67.43,68.48,69.42,69.90,68.35,63.77,58.38,53.19,48.26,44.33,41.20,38.90,37.44,36.26,35.64,35.26,34.87,34.49,34.08,33.59,32.95,32.05,30.76,29.72,28.85,28.00,27.17,27.27,27.88,28.77,29.83,34.34,39.04,42.84,44.93,45.38,44.99,44.05,42.72,40.76,37.77,34.49,31.27,28.34,25.73,23.48,21.52,19.74,17.97,16.64,15.54,14.69,14.69,14.64,14.13,13.31,12.53,11.97,11.59,11.38,11.32,11.19,11.29,11.11,10.59,9.95,9.56,9.21,8.89,8.58,8.26,7.95,7.54,6.99,6.37,5.68,5.14,4.80,4.70,4.56,4.51,4.51,4.50,4.43,4.42,4.38,4.32,4.32,4.32,4.32,4.32,4.32,4.31,4.31,4.28,4.21,4.21,4.15,4.12,4.09,4.01,4.01,3.96,3.91,3.90,3.83,3.81,3.77,3.71,3.71,3.64,3.61,3.59,3.51,3.43,3.41,3.38,3.30,3.22,3.21,3.25,3.31,3.31,3.31,3.31,3.31,3.31,3.31,3.31,3.27,3.20,3.13,3.11,3.11,3.12,3.20,3.28,3.36,3.43,3.51,3.59,3.66,3.78,3.91,4.00,4.07
92.32,91.30,89.92,87.29,84.54,81.92,79.51,77.25,74.81,71.79,68.14,64.13,60.13,57.02,53.96,51.12,48.50,45.81,42.86,38.74,33.98,29.83,28.91,28.78,29.05,29.48,30.35,31.48,32.73,34.04,35.37,36.88,38.99,41.71,44.93,48.25,51.62,55.05,58.56,62.29,65.95,69.61,73.64,78.75,82.29,84.65,86.06,86.80,87.69,87.89,87.09,85.30,82.87,80.27,76.95,73.28,69.80,66.23,63.31,60.97,59.44,60.14,64.54,69.35,73.78,77.69,80.92,83.81,86.58,89.56,94.77,101.06,106.84,110.64,109.72,101.28,94.01,88.63,84.45,79.68,74.99,70.79,67.37,65.11,62.97,60.33,56.64,51.12,48.46,48.44,50.09,52.38,54.69,57.97,61.94,66.30,70.41,73.63,76.97,80.92,85.89,87.27,87.17,86.29,85.13,83.68,80.23,75.21,70.74,71.23,73.69,75.48,75.86,74.38,71.79,67.60,62.19,56.12,50.80,46.73,43.16,40.24,38.33,37.55,37.05,36.66,36.28,35.89,35.36,34.73,33.90,32.71,31.35,30.17,29.17,28.33,27.59,27.80,28.46,29.58,32.03,37.01,41.56,45.02,47.17,47.41,46.80,45.67,44.23,42.07,39.12,35.92,32.64,29.26,26.85,24.82,22.99,21.21,19.44,18.04,16.84,15.90,15.90,15.55,14.93,14.13,13.30,12.64,12.26,12.13,12.17,12.24,12.38,12.35,12.02,11.23,10.52,9.92,9.46,9.15,8.78,8.46,8.07,7.57,6.95,6.22,5.51,4.95,4.71,4.66,4.61,4.57,4.57,4.55,4.55,4.51,4.45,4.45,4.45,4.45,4.45,4.45,4.39,4.37,4.34,4.27,4.27,4.26,4.22,4.15,4.08,4.07,4.02,3.97,3.97,3.89,3.87,3.84,3.77,3.77,3.70,3.67,3.65,3.57,3.49,3.47,3.44,3.36,3.29,3.27,3.32,3.37,3.37,3.37,3.37,3.37,3.37,3.37,3.37,3.34,3.27,3.25,3.20,3.14,3.12,3.20,3.28,3.36,3.43,3.51,3.59,3.66,3.75,3.86,3.99,4.07
89.57,87.86,85.96,83.12,80.93,78.76,76.90,75.34,73.76,71.50,68.30,64.53,60.65,57.17,53.69,50.40,47.31,44.11,41.30,37.76,33.78,30.24,29.59,29.68,30.11,30.60,31.55,32.94,34.39,35.79,37.19,39.04,41.62,44.77,48.21,51.52,55.08,58.68,62.23,65.88,69.42,72.98,76.97,82.05,85.42,87.73,89.23,90.19,90.79,90.44,89.00,86.66,84.16,81.13,77.81,74.34,70.87,67.40,64.82,62.96,61.80,61.89,65.98,70.55,74.81,78.78,81.76,84.55,87.31,90.34,95.33,101.47,107.16,110.97,110.25,103.13,96.69,91.67,87.74,83.06,78.28,73.89,70.19,67.43,64.89,62.31,59.03,53.82,52.07,52.29,53.60,55.23,57.72,61.11,65.08,69.28,72.98,76.06,79.82,84.24,88.99,90.35,90.53,89.92,88.81,87.24,83.95,79.58,76.06,77.20,79.26,80.42,80.02,77.68,74.58,70.78,65.73,59.60,53.79,49.18,45.22,41.95,39.49,38.90,38.48,38.09,37.68,37.23,36.60,35.75,34.66,33.32,31.91,30.54,29.41,28.67,28.26,28.53,29.22,30.59,34.04,38.99,43.52,47.04,49.17,49.20,48.47,47.27,45.75,43.39,40.48,37.34,34.01,30.37,28.00,26.03,24.24,22.50,20.84,19.44,18.17,17.13,17.02,16.46,15.74,14.95,14.10,13.32,13.04,13.04,13.15,13.31,13.46,13.53,13.35,12.62,11.78,11.02,10.38,9.87,9.37,9.01,8.64,8.17,7.53,6.77,6.05,5.44,5.01,4.89,4.78,4.70,4.68,4.68,4.65,4.61,4.58,4.58,4.58,4.56,4.54,4.54,4.46,4.44,4.40,4.34,4.34,4.31,4.27,4.22,4.14,4.14,4.09,4.04,4.03,3.95,3.94,3.90,3.84,3.84,3.77,3.72,3.68,3.64,3.56,3.54,3.50,3.43,3.35,3.34,3.36,3.41,3.44,3.44,3.44,3.44,3.44,3.44,3.44,3.40,3.34,3.34,3.27,3.19,3.15,3.20,3.28,3.36,3.43,3.51,3.59,3.69,3.76,3.84,3.99,4.07
86.67,83.76,81.02,78.15,76.68,74.98,73.65,72.72,71.72,70.44,68.03,64.81,61.26,57.64,53.96,50.31,46.70,42.90,39.86,36.86,33.85,31.00,30.55,30.74,31.24,31.80,32.65,34.17,35.80,37.35,38.90,41.30,44.49,48.04,51.43,54.60,58.33,62.13,65.75,69.30,72.66,76.11,79.99,84.79,88.75,90.88,92.12,93.29,93.60,92.82,91.01,88.48,86.08,82.34,78.79,75.42,71.95,68.65,66.41,65.13,64.59,64.05,67.64,71.82,75.84,79.86,82.61,85.31,88.14,91.27,95.83,101.70,107.31,111.16,110.41,105.10,99.66,94.95,91.29,86.66,81.70,76.98,72.87,69.22,66.30,63.56,60.58,56.79,56.54,56.77,57.27,58.10,60.85,64.32,67.97,71.55,74.87,78.00,82.52,87.59,91.65,93.37,94.04,93.84,92.87,90.85,87.37,84.34,82.82,84.02,84.28,83.87,82.54,80.09,76.84,73.42,69.00,63.38,57.07,51.61,47.33,43.92,40.84,40.30,39.93,39.55,39.08,38.52,37.79,36.68,35.29,33.90,32.43,30.87,29.61,29.04,29.13,29.46,30.17,31.76,35.91,40.48,45.07,48.91,50.99,50.80,50.03,48.84,47.26,44.70,41.84,38.74,35.38,31.60,29.17,27.14,25.35,23.66,22.20,20.84,19.53,18.38,18.06,17.35,16.58,15.78,14.93,14.01,13.89,14.09,14.24,14.40,14.55,14.67,14.61,14.07,13.25,12.40,11.55,10.71,10.01,9.59,9.24,8.80,8.11,7.35,6.71,6.15,5.54,5.22,5.01,4.89,4.81,4.81,4.74,4.70,4.70,4.70,4.70,4.65,4.60,4.60,4.52,4.50,4.47,4.40,4.40,4.34,4.30,4.28,4.20,4.20,4.15,4.10,4.09,4.02,4.00,3.96,3.90,3.90,3.83,3.75,3.70,3.70,3.62,3.60,3.57,3.49,3.41,3.40,3.40,3.42,3.50,3.50,3.50,3.50,3.50,3.50,3.50,3.46,3.40,3.40,3.33,3.26,3.20,3.20,3.28,3.36,3.43,3.51,3.59,3.73,3.80,3.84,3.99,4.07
83.64,79.96,76.64,73.56,72.14,71.00,70.24,69.76,69.26,68.20,66.35,63.87,60.95,57.63,54.20,50.25,45.73,41.39,38.99,36.88,34.62,32.01,31.67,31.93,32.45,33.00,33.65,35.13,36.80,38.52,40.52,43.41,46.64,49.99,53.29,56.61,60.09,63.60,67.09,70.64,74.08,77.61,81.69,87.14,90.74,92.96,94.59,96.17,96.47,95.85,94.02,91.18,88.18,83.71,79.73,76.25,72.99,70.37,68.75,67.81,67.28,66.79,68.76,72.31,76.66,80.62,83.38,86.05,88.98,92.48,96.88,102.06,107.34,111.52,111.66,108.03,103.15,98.09,93.85,89.52,84.49,79.46,74.81,70.37,67.24,64.42,62.19,61.56,61.55,61.88,62.30,62.67,64.09,66.38,69.40,72.91,76.33,80.13,84.92,89.83,93.51,95.77,97.33,98.19,98.08,95.26,92.02,89.62,88.32,87.94,87.04,85.05,82.37,79.44,76.15,72.79,68.75,63.83,58.26,52.36,48.13,45.16,42.37,42.08,41.85,41.45,40.75,39.75,38.69,37.37,35.83,34.29,32.77,31.38,30.58,30.80,31.43,32.18,32.92,33.99,36.95,41.38,45.73,49.26,51.25,51.93,51.37,50.22,48.83,46.03,43.12,40.05,36.76,33.18,30.26,28.20,26.61,25.07,23.60,22.25,20.94,19.72,19.01,18.29,17.54,16.70,15.70,15.07,15.11,15.33,15.39,15.49,15.64,15.78,15.81,15.52,14.72,13.87,13.02,12.17,11.37,10.68,10.03,9.39,8.80,8.18,7.58,7.01,6.49,6.13,5.84,5.58,5.30,5.10,4.92,4.81,4.77,4.77,4.77,4.72,4.67,4.66,4.59,4.57,4.53,4.47,4.47,4.40,4.37,4.34,4.27,4.27,4.21,4.17,4.16,4.08,4.07,4.03,3.97,3.97,3.90,3.82,3.77,3.76,3.69,3.67,3.63,3.55,3.48,3.47,3.47,3.49,3.56,3.57,3.57,3.57,3.57,3.57,3.57,3.55,3.52,3.47,3.40,3.35,3.31,3.27,3.29,3.36,3.45,3.58,3.65,3.75,3.83,3.89,4.00,4.07
81.46,76.94,73.01,69.72,68.01,67.16,66.75,66.64,66.70,65.88,64.46,62.49,60.03,56.95,53.75,49.51,44.27,40.27,38.42,36.86,35.07,32.85,32.72,33.05,33.57,34.09,34.73,35.96,37.51,39.37,41.77,44.90,48.11,51.35,54.62,57.95,61.24,64.50,67.77,71.18,74.77,78.49,82.71,88.07,91.61,94.28,96.51,98.53,98.99,98.55,96.94,94.12,90.35,85.24,80.77,77.20,74.52,72.51,71.31,70.57,70.01,69.43,70.51,73.53,77.71,81.40,84.12,86.78,89.83,93.57,97.61,102.47,107.54,111.81,112.90,110.36,105.90,100.60,95.62,91.33,86.37,81.28,76.36,71.44,68.15,65.71,64.55,65.83,66.89,67.90,68.50,68.43,68.85,70.13,72.06,74.62,77.98,82.21,86.99,91.59,95.10,98.06,100.55,102.30,102.73,99.42,96.78,94.81,93.20,91.25,88.93,85.64,81.90,78.26,74.64,71.22,67.45,63.10,58.15,52.46,48.54,46.11,44.16,44.01,43.84,43.39,42.49,41.12,39.54,37.92,36.30,34.70,33.32,32.53,32.46,33.18,34.11,35.09,35.84,36.54,38.49,42.18,46.10,49.48,51.59,53.00,52.74,51.64,50.19,47.42,44.45,41.34,38.08,34.62,31.50,29.34,27.80,26.44,25.00,23.64,22.41,21.34,20.32,19.41,18.48,17.44,16.21,16.06,16.34,16.61,16.62,16.67,16.75,16.88,16.97,16.84,16.12,15.31,14.47,13.64,12.79,11.95,11.12,10.31,9.66,9.04,8.44,7.89,7.45,7.06,6.71,6.37,6.00,5.65,5.34,5.08,4.90,4.83,4.83,4.78,4.73,4.73,4.65,4.63,4.59,4.53,4.53,4.46,4.43,4.41,4.33,4.33,4.28,4.23,4.22,4.15,4.13,4.09,4.02,4.00,3.95,3.88,3.83,3.83,3.75,3.71,3.68,3.62,3.54,3.53,3.53,3.55,3.63,3.63,3.63,3.63,3.63,3.63,3.63,3.63,3.61,3.54,3.48,3.44,3.40,3.33,3.33,3.39,3.49,3.61,3.69,3.76,3.84,3.92,4.00,4.07
80.27,74.82,70.27,66.78,64.38,63.47,63.19,63.32,64.03,63.49,62.32,60.59,58.38,55.50,52.45,47.94,42.24,39.62,38.23,36.79,35.16,33.47,33.70,34.10,34.57,35.07,35.90,36.62,37.85,39.83,42.57,45.64,48.78,52.00,55.31,58.50,61.68,64.73,67.66,70.78,74.57,78.64,82.91,87.34,91.18,94.69,97.78,100.28,101.09,100.88,99.75,97.38,92.62,86.97,81.94,78.29,76.64,75.12,74.13,73.42,72.78,71.96,73.00,75.58,79.04,82.19,84.84,87.52,90.67,94.55,97.94,102.94,107.94,112.01,114.14,111.97,107.77,102.35,96.45,91.91,87.17,82.32,77.43,72.42,69.02,67.51,67.79,69.52,72.62,75.00,76.08,75.61,75.44,75.89,76.20,76.74,79.86,84.24,88.65,92.77,96.39,100.23,103.68,106.10,106.74,103.28,101.67,99.91,97.36,93.82,89.79,85.55,81.08,76.43,72.18,68.53,64.89,60.95,56.49,51.78,48.49,46.74,46.27,46.12,45.91,45.37,44.31,42.64,40.32,38.30,36.70,35.15,34.14,34.44,35.40,36.31,37.24,38.22,38.94,39.47,40.63,42.89,46.10,49.53,52.03,53.99,54.17,53.12,51.32,48.88,45.87,42.63,39.30,35.90,32.91,30.59,28.91,27.79,26.39,25.00,23.98,23.29,22.07,20.75,19.40,17.99,16.40,16.99,17.59,17.95,17.95,17.96,17.91,17.96,18.06,17.98,17.46,16.71,15.89,15.11,14.26,13.46,12.59,11.61,10.71,9.94,9.30,8.80,8.40,8.02,7.64,7.28,6.95,6.50,6.05,5.57,5.13,4.91,4.89,4.85,4.79,4.79,4.71,4.69,4.66,4.59,4.59,4.53,4.49,4.47,4.40,4.39,4.34,4.29,4.29,4.21,4.19,4.15,4.08,4.01,4.00,3.95,3.89,3.89,3.81,3.74,3.70,3.68,3.60,3.59,3.59,3.61,3.69,3.69,3.69,3.69,3.69,3.69,3.69,3.69,3.68,3.60,3.59,3.54,3.47,3.39,3.39,3.45,3.53,3.61,3.69,3.76,3.84,3.92,4.00,4.07
78.73,73.34,68.66,64.92,61.83,60.54,60.10,60.21,60.90,60.51,59.65,58.29,56.33,53.64,49.97,45.36,40.58,39.07,38.05,36.88,35.56,34.33,34.64,35.07,35.60,36.26,37.11,37.77,38.73,40.25,42.63,45.54,48.33,51.39,55.23,58.61,61.71,64.60,67.38,70.16,74.22,78.66,83.10,87.21,90.99,94.60,97.87,100.63,102.05,102.37,101.67,99.67,95.42,89.86,85.07,81.58,79.60,77.86,76.83,76.07,75.30,74.45,74.90,76.92,79.98,82.85,85.53,88.25,91.30,94.82,98.14,102.85,107.64,111.66,113.72,111.97,108.22,103.00,96.81,91.64,87.09,82.66,78.04,73.33,70.26,70.13,72.45,75.55,79.22,81.86,83.41,83.89,82.64,82.27,81.83,81.43,82.76,85.99,89.86,93.90,97.67,102.00,106.11,109.13,110.21,107.35,104.14,100.97,97.79,94.21,90.50,85.47,80.10,75.37,70.87,66.65,62.80,59.22,55.39,51.78,49.46,48.41,48.32,48.26,47.98,47.08,45.37,43.32,40.82,38.77,37.23,35.81,35.76,36.50,37.59,38.65,39.62,40.45,41.19,41.89,42.62,44.36,46.89,49.75,52.25,54.40,55.22,54.67,52.84,50.22,47.05,43.79,40.55,37.33,34.46,31.89,29.85,28.51,27.34,25.74,24.05,22.45,21.08,20.15,19.11,17.95,16.81,17.83,18.92,19.51,19.35,19.35,19.29,19.29,19.30,19.14,18.83,18.23,17.48,16.75,15.90,15.01,14.04,13.01,12.08,11.17,10.42,9.84,9.36,8.98,8.56,8.14,7.74,7.32,6.83,6.33,5.86,5.50,5.27,5.03,4.86,4.85,4.78,4.76,4.72,4.66,4.66,4.59,4.56,4.54,4.46,4.46,4.40,4.36,4.35,4.27,4.26,4.22,4.14,4.06,4.06,4.01,3.96,3.95,3.88,3.80,3.76,3.75,3.67,3.66,3.66,3.68,3.75,3.76,3.76,3.77,3.81,3.77,3.76,3.76,3.75,3.72,3.67,3.61,3.53,3.46,3.46,3.48,3.53,3.61,3.69,3.76,3.84,3.92,4.00,4.07
76.93,71.87,67.33,63.51,60.04,58.31,57.41,57.10,57.46,57.15,56.67,55.77,54.12,51.52,47.20,42.75,39.36,38.59,37.81,36.86,35.88,35.21,35.58,36.06,36.68,37.47,38.30,39.18,40.13,41.29,43.04,45.36,47.66,50.45,54.34,58.33,61.53,64.32,66.96,69.51,73.74,78.44,83.04,86.98,90.70,94.29,97.64,100.60,102.63,103.71,103.45,101.67,98.24,93.19,88.81,85.42,83.03,81.00,79.73,78.77,77.83,76.95,76.81,78.21,80.82,83.56,86.31,89.08,91.98,95.07,98.35,102.79,107.37,111.25,113.10,111.71,108.21,103.01,96.61,91.10,86.85,82.83,78.44,74.19,72.14,73.44,77.34,81.61,85.45,88.29,90.28,91.44,89.55,88.45,87.38,86.30,86.20,88.32,91.53,95.34,99.24,103.91,108.40,111.71,112.95,110.26,105.57,101.20,97.56,94.20,90.94,85.46,79.52,74.92,70.30,65.50,61.37,58.12,55.24,52.76,51.33,50.82,50.89,50.79,50.26,48.86,46.46,44.11,41.58,39.48,37.92,36.77,37.47,38.47,39.58,40.70,41.70,42.41,43.19,44.08,44.66,46.05,48.02,50.39,52.94,55.15,56.42,56.37,54.76,51.67,48.17,44.87,41.78,38.51,35.73,33.09,30.85,29.26,28.21,26.40,24.20,21.96,20.39,19.69,18.91,18.07,17.42,18.47,19.80,20.75,20.89,20.78,20.66,20.56,20.46,20.25,20.06,19.60,18.98,18.32,17.49,16.51,15.45,14.39,13.45,12.42,11.60,10.97,10.43,9.93,9.45,8.99,8.53,8.13,7.63,7.14,6.68,6.23,5.81,5.41,5.12,5.02,4.86,4.82,4.79,4.72,4.72,4.65,4.62,4.60,4.52,4.52,4.47,4.42,4.41,4.34,4.31,4.27,4.21,4.13,4.12,4.07,4.02,4.02,3.94,3.86,3.82,3.81,3.73,3.72,3.72,3.74,3.82,3.82,3.82,3.85,3.92,3.85,3.83,3.82,3.82,3.82,3.75,3.67,3.60,3.54,3.53,3.51,3.53,3.61,3.69,3.76,3.84,3.92,4.02,4.09
74.65,70.28,66.34,62.77,59.54,57.30,55.42,53.93,53.50,53.17,53.14,52.87,51.68,48.94,44.11,40.36,38.97,38.20,37.43,36.59,35.96,36.08,36.53,37.12,37.85,38.68,39.46,41.00,42.49,43.63,44.35,45.23,46.84,49.14,52.02,57.34,61.00,63.81,66.32,68.87,73.02,77.75,82.47,86.41,90.12,93.68,97.04,100.14,102.71,104.95,105.17,103.29,100.95,97.16,93.31,89.88,87.24,84.91,83.10,81.64,80.44,79.46,78.88,79.58,81.55,84.39,87.28,90.10,92.81,95.45,98.57,102.95,107.33,110.89,112.49,111.34,107.62,101.97,95.33,90.22,86.51,82.83,78.53,74.97,75.22,77.96,82.32,87.14,90.68,93.89,96.26,97.21,95.66,94.07,92.40,90.91,90.52,91.94,94.26,97.41,101.41,106.18,110.55,113.57,114.31,110.73,105.48,100.73,96.94,93.93,90.87,85.55,79.84,75.56,71.00,65.67,61.18,58.21,56.91,55.57,54.79,54.51,54.53,54.13,53.00,50.86,47.79,45.35,42.91,40.67,38.93,38.27,39.14,40.22,41.33,42.36,43.36,44.07,44.89,45.93,46.85,47.98,49.64,51.87,54.67,56.78,58.06,58.36,57.40,53.38,49.22,45.84,42.93,39.13,36.39,34.04,31.99,30.21,29.01,27.06,24.91,22.87,21.01,19.96,19.18,18.62,18.37,18.70,19.77,21.27,22.71,22.25,21.94,21.67,21.43,21.27,20.99,20.65,20.24,19.73,18.95,17.90,16.79,15.72,14.73,13.61,12.80,12.25,11.71,10.87,10.28,9.82,9.36,8.91,8.44,7.97,7.52,7.12,6.61,6.18,5.79,5.39,4.99,4.88,4.85,4.78,4.78,4.72,4.68,4.66,4.59,4.58,4.53,4.48,4.48,4.40,4.33,4.29,4.27,4.19,4.18,4.14,4.08,4.08,4.01,3.93,3.88,3.87,3.80,3.78,3.78,3.80,3.88,3.88,3.88,3.91,3.98,3.97,3.92,3.88,3.88,3.88,3.81,3.74,3.68,3.67,3.60,3.54,3.53,3.61,3.69,3.76,3.84,3.94,4.08,4.16
71.49,67.86,64.59,61.43,58.75,56.39,54.19,52.26,51.05,50.35,50.26,50.09,49.07,46.36,42.37,39.55,38.74,38.01,37.21,36.65,36.49,36.87,37.33,37.93,38.72,39.80,41.74,43.85,45.62,46.76,46.96,46.69,47.43,49.19,51.74,56.93,60.49,63.25,65.73,68.24,72.01,76.76,81.75,85.69,89.29,92.78,96.09,99.15,101.90,104.69,106.25,106.12,104.34,101.29,98.04,94.87,91.98,89.25,86.85,84.99,83.64,82.34,81.64,81.69,82.79,85.47,88.35,91.17,93.88,96.48,99.23,103.60,107.78,110.76,111.63,109.90,105.50,99.54,93.63,89.21,85.85,82.47,78.66,76.05,77.85,81.52,86.00,90.38,93.72,97.30,100.52,102.62,101.75,99.98,98.26,97.08,96.69,97.42,98.91,101.34,104.99,109.67,114.12,116.72,116.27,111.58,106.08,101.16,97.17,93.97,90.88,86.43,81.77,77.97,72.96,67.47,63.25,60.95,60.29,59.35,58.68,58.34,58.26,57.61,55.67,52.53,48.65,46.17,43.86,41.80,40.22,39.56,40.57,41.74,42.89,43.97,44.97,45.74,46.53,47.48,48.71,49.77,51.57,54.00,56.63,59.17,60.82,61.22,60.14,57.39,52.32,47.90,44.38,40.26,37.53,35.36,33.49,31.68,30.04,28.08,26.05,24.05,22.12,21.10,20.32,19.68,19.19,19.15,20.13,21.93,24.01,23.44,23.02,22.67,22.38,22.15,21.85,21.54,21.20,20.80,20.06,19.15,18.11,17.00,15.88,14.86,14.07,13.41,12.65,11.76,11.11,10.62,10.19,9.72,9.29,8.85,8.38,7.92,7.39,6.94,6.48,5.87,5.29,5.06,4.95,4.85,4.85,4.78,4.75,4.73,4.65,4.65,4.60,4.53,4.50,4.46,4.39,4.35,4.33,4.26,4.25,4.20,4.14,4.10,4.06,3.99,3.95,3.94,3.86,3.85,3.85,3.87,3.95,3.95,3.95,3.98,4.05,4.05,3.99,3.95,3.95,3.95,3.88,3.82,3.79,3.75,3.67,3.62,3.60,3.61,3.69,3.80,3.89,3.98,4.09,4.17
68.12,65.10,62.46,59.85,57.72,55.48,53.31,51.29,49.49,48.30,47.83,47.46,46.40,43.92,41.17,39.29,38.58,37.89,37.15,36.93,37.18,37.64,38.11,38.68,39.60,41.16,44.33,46.94,48.92,50.05,49.82,48.60,48.54,49.75,52.07,56.69,60.00,62.67,65.13,67.61,70.92,75.65,80.92,84.88,88.37,91.77,95.00,98.00,100.80,104.00,107.01,108.93,107.72,105.22,102.48,99.62,96.63,93.65,90.80,88.56,87.03,85.39,84.59,84.02,84.27,86.70,89.53,92.37,95.16,97.83,100.27,104.46,108.28,110.63,110.57,107.73,102.67,96.76,91.81,88.18,85.11,82.06,78.99,77.51,80.31,84.50,88.91,92.57,95.76,99.66,103.79,107.37,107.33,105.67,104.20,103.53,103.29,103.51,104.31,106.10,109.37,113.73,118.01,119.99,118.25,112.60,107.00,102.01,97.80,94.38,91.31,87.87,84.35,80.93,75.54,69.91,66.10,64.65,64.42,63.68,62.89,62.26,61.96,60.81,58.04,54.02,49.43,46.93,44.77,42.98,41.62,40.79,41.90,43.14,44.37,45.54,46.56,47.43,48.21,49.06,50.41,51.56,53.62,56.29,58.84,62.04,64.15,64.52,63.04,61.56,55.87,50.53,46.35,42.04,39.04,36.87,35.10,33.30,31.06,29.07,27.21,25.41,23.60,22.69,21.90,21.07,20.17,20.07,21.05,22.95,25.20,24.54,24.02,23.63,23.32,23.01,22.71,22.40,22.09,21.73,21.04,20.29,19.36,18.22,16.98,16.08,15.28,14.47,13.49,12.64,11.94,11.41,11.01,10.55,10.14,9.71,9.23,8.69,8.14,7.67,7.12,6.35,5.65,5.28,5.08,4.95,4.92,4.85,4.81,4.79,4.71,4.70,4.65,4.58,4.51,4.51,4.45,4.41,4.40,4.32,4.31,4.26,4.19,4.11,4.11,4.06,4.01,3.99,3.92,3.91,3.91,3.93,4.01,4.01,4.01,4.04,4.11,4.11,4.05,4.01,4.01,4.01,3.95,3.92,3.89,3.81,3.74,3.72,3.68,3.62,3.70,3.83,3.94,4.02,4.10,4.17
65.08,62.00,59.78,58.08,56.15,54.46,52.83,51.23,49.73,47.92,46.49,45.22,43.81,42.07,40.46,39.26,38.52,37.82,37.55,37.65,38.00,38.40,38.92,39.51,40.90,43.59,46.82,49.71,51.90,52.95,51.93,50.28,49.89,50.66,52.25,56.43,59.51,62.07,64.50,66.97,69.86,74.45,79.86,83.92,87.36,90.65,93.79,96.79,99.69,103.50,107.27,110.09,110.22,108.15,105.46,102.66,100.22,97.78,95.00,92.45,90.40,88.66,87.39,86.25,86.00,88.24,91.02,94.04,96.99,99.64,102.27,105.46,108.36,110.10,108.96,103.93,98.92,94.35,90.10,87.26,84.40,81.90,80.15,80.20,82.58,86.28,90.35,93.37,96.48,100.49,105.16,109.86,110.81,110.14,109.40,109.15,109.26,109.74,110.37,111.88,115.24,118.56,121.42,122.09,119.52,113.82,108.42,103.39,99.02,95.90,93.40,90.62,87.45,83.83,78.93,72.90,69.25,68.88,69.44,69.01,67.83,66.38,65.34,62.67,59.27,55.12,50.56,47.92,46.05,44.50,43.14,42.02,43.11,44.42,45.75,47.02,48.14,49.17,50.20,51.19,51.89,53.53,55.68,58.37,61.71,65.89,68.33,68.56,66.50,63.34,58.63,54.12,50.07,45.87,41.54,38.66,36.70,34.86,31.77,29.39,27.90,27.11,25.88,25.05,24.18,23.17,22.03,22.65,23.79,25.24,26.58,25.67,25.03,24.59,24.28,23.97,23.71,23.43,23.06,22.56,21.87,21.12,20.28,19.30,18.07,17.16,16.20,15.21,14.39,13.54,12.80,12.22,11.78,11.37,10.94,10.48,10.00,9.46,8.87,8.22,7.50,6.73,5.98,5.57,5.34,5.18,5.00,4.91,4.88,4.86,4.78,4.72,4.69,4.65,4.58,4.58,4.52,4.48,4.46,4.38,4.38,4.33,4.25,4.18,4.18,4.12,4.05,4.00,3.98,3.98,3.98,4.00,4.07,4.08,4.08,4.11,4.18,4.18,4.12,4.08,4.08,4.08,4.06,4.02,3.95,3.88,3.86,3.81,3.74,3.69,3.76,3.86,3.94,4.02,4.10,4.17
64.60,61.42,59.18,57.93,56.42,54.86,53.27,51.70,50.22,48.36,46.67,45.08,43.45,41.85,40.43,39.36,38.66,38.00,38.03,38.35,38.80,39.25,40.39,41.58,43.47,46.48,49.94,53.06,55.12,55.68,54.21,52.51,51.63,51.78,53.01,56.16,58.93,61.46,63.90,66.37,68.97,73.24,78.50,82.87,86.15,89.30,92.35,95.30,98.20,102.15,106.41,110.12,111.51,110.33,108.13,105.57,103.24,101.19,98.76,96.25,93.89,91.99,90.23,88.52,87.73,89.59,92.60,95.84,98.89,101.46,104.11,106.82,108.41,108.26,105.87,100.70,96.10,92.27,88.82,86.34,84.12,82.50,81.81,82.92,85.03,88.04,91.34,93.69,96.62,100.50,105.16,110.14,111.85,112.77,113.27,113.62,114.10,114.87,115.75,117.30,120.23,122.54,124.49,124.32,121.05,115.39,109.97,105.19,101.37,98.88,96.54,93.79,90.67,87.22,82.29,76.55,73.36,73.47,74.38,74.33,72.97,70.60,67.76,64.61,60.95,56.81,52.44,49.08,47.26,45.81,44.44,43.24,44.23,45.52,46.86,48.20,50.08,51.82,53.22,54.15,54.43,55.44,56.98,59.41,63.29,68.15,70.92,71.16,68.85,65.22,61.15,57.35,53.75,49.61,44.83,41.49,39.13,36.94,33.98,31.65,30.08,29.16,28.24,27.43,26.45,25.34,24.20,25.95,26.95,27.42,27.54,26.53,25.94,25.56,25.28,25.00,24.74,24.41,23.96,23.35,22.66,21.88,21.07,20.21,19.10,18.05,17.03,16.08,15.28,14.46,13.68,13.04,12.58,12.16,11.69,11.19,10.68,10.11,9.41,8.66,7.89,7.12,6.34,5.89,5.62,5.43,5.19,5.07,4.97,4.89,4.84,4.77,4.74,4.71,4.64,4.64,4.58,4.54,4.52,4.45,4.44,4.39,4.32,4.24,4.24,4.18,4.11,4.04,4.04,4.04,4.04,4.06,4.14,4.14,4.14,4.17,4.24,4.24,4.20,4.17,4.14,4.14,4.14,4.09,4.02,3.94,3.94,3.88,3.81,3.75,3.79,3.86,3.94,4.02,4.10,4.17
65.79,62.58,60.11,58.93,57.80,56.08,54.27,52.54,50.92,49.30,47.76,46.18,44.40,42.61,40.83,39.56,38.92,38.33,38.57,39.05,39.60,40.17,42.23,44.32,46.70,49.61,53.43,56.67,58.36,58.25,56.57,55.02,53.61,53.05,54.12,55.95,58.33,60.87,63.34,65.80,68.20,72.03,76.96,81.74,84.82,87.82,90.75,93.60,96.48,100.30,104.84,109.37,111.99,112.01,110.61,108.38,105.94,104.17,102.23,99.96,97.42,95.31,93.08,90.84,89.51,90.89,94.26,97.72,100.81,103.27,105.82,108.28,108.34,105.68,102.05,97.87,93.87,90.41,87.82,85.51,84.18,83.60,83.77,85.62,87.61,89.93,92.27,93.93,96.52,100.03,104.33,109.06,111.39,114.14,116.16,117.24,118.17,119.28,120.67,122.43,124.64,126.02,127.39,126.70,122.90,117.33,111.79,107.43,104.48,102.78,100.30,97.15,93.85,90.75,85.54,80.59,78.05,78.29,79.26,79.54,78.13,74.85,69.78,66.66,62.92,58.90,54.82,50.46,48.46,46.98,45.60,44.45,45.32,46.51,47.82,49.26,52.26,54.99,56.84,57.60,57.60,57.41,57.99,60.05,64.33,69.60,72.59,72.88,70.51,67.15,63.53,60.36,57.35,53.28,48.48,44.84,41.98,39.28,36.97,34.95,33.06,31.40,30.63,29.83,28.77,27.60,26.59,29.55,30.20,29.47,28.24,27.25,26.81,26.55,26.31,26.08,25.78,25.36,24.82,24.12,23.42,22.61,21.79,20.99,20.06,18.81,17.81,17.02,16.17,15.40,14.57,13.87,13.40,12.93,12.40,11.84,11.28,10.65,9.83,9.03,8.26,7.50,6.73,6.23,5.91,5.68,5.45,5.29,5.09,4.92,4.91,4.83,4.80,4.77,4.70,4.70,4.64,4.60,4.59,4.51,4.50,4.46,4.38,4.30,4.30,4.25,4.17,4.10,4.10,4.10,4.10,4.12,4.20,4.20,4.20,4.23,4.30,4.30,4.30,4.27,4.20,4.20,4.20,4.16,4.08,4.01,4.00,3.95,3.87,3.81,3.80,3.87,3.94,4.02,4.10,4.17
69.40,67.59,65.41,62.56,59.35,57.19,55.48,53.96,52.39,50.67,48.94,47.18,45.35,43.47,41.59,40.08,39.17,38.91,39.21,39.71,40.45,41.56,43.73,45.95,48.71,52.34,56.65,59.01,59.98,59.80,58.52,57.04,55.56,54.71,55.19,56.63,58.40,60.59,63.12,65.39,67.67,71.07,75.46,80.15,83.27,86.08,88.72,91.33,94.61,98.28,102.54,107.11,110.92,113.02,112.70,110.86,108.82,107.09,105.28,103.16,100.68,98.18,95.85,93.50,92.01,93.20,96.33,99.47,102.27,104.55,107.10,108.05,106.84,103.70,100.07,95.98,92.22,89.16,87.07,86.20,85.87,85.71,85.74,87.54,90.72,93.88,96.33,97.35,97.70,99.76,103.24,107.48,110.06,112.90,115.77,118.50,120.71,122.75,124.62,126.42,128.35,129.58,130.55,130.11,127.43,121.81,116.63,112.32,109.12,107.32,103.99,99.70,95.42,91.94,87.42,84.41,83.07,83.17,83.60,83.30,81.82,78.88,74.25,69.46,65.36,61.82,58.46,53.51,50.01,47.85,46.67,45.72,46.55,47.57,48.87,50.78,54.87,58.13,60.14,60.85,60.80,60.77,61.50,63.76,68.48,72.92,74.73,74.20,71.86,69.09,65.85,62.95,60.18,56.45,50.61,46.53,43.57,40.69,38.53,36.58,34.86,33.45,32.73,32.45,31.64,30.44,29.33,31.18,31.35,30.37,28.90,28.16,27.81,27.57,27.34,27.10,26.75,26.26,25.65,24.95,24.15,23.31,22.43,21.50,20.57,19.54,18.64,17.86,17.07,16.29,15.47,14.73,14.16,13.59,12.88,12.13,11.38,10.66,9.92,9.22,8.55,7.88,7.11,6.54,6.17,5.94,5.77,5.61,5.41,5.21,5.11,4.93,4.87,4.84,4.77,4.77,4.71,4.67,4.65,4.57,4.57,4.52,4.44,4.37,4.37,4.31,4.23,4.17,4.17,4.17,4.17,4.19,4.27,4.27,4.27,4.30,4.37,4.37,4.37,4.33,4.27,4.27,4.27,4.22,4.16,4.13,4.08,4.01,3.96,3.93,3.88,3.89,3.94,4.02,4.10,4.17
71.36,70.35,68.42,64.93,60.68,58.43,56.93,55.61,53.99,52.04,50.02,48.04,46.18,44.25,42.32,40.64,39.48,39.43,39.86,40.46,41.34,42.83,45.05,47.26,50.27,54.57,58.76,60.50,61.13,61.03,60.00,58.70,57.34,56.37,56.34,57.52,58.88,60.66,62.89,65.05,67.26,70.06,73.68,78.24,81.47,84.15,86.64,89.31,92.88,96.56,100.67,105.22,109.82,113.05,114.15,113.49,111.76,110.06,108.39,106.36,103.83,101.17,98.41,95.81,94.29,95.49,98.27,101.11,103.75,106.02,108.20,107.59,105.29,102.01,98.57,94.94,91.89,89.45,87.52,87.42,87.82,87.94,87.69,89.30,93.32,97.51,100.64,101.29,100.23,100.85,103.02,106.24,108.95,111.94,115.36,119.03,122.18,125.10,127.56,129.63,131.48,132.88,133.74,133.35,131.12,126.20,121.64,117.64,114.32,111.86,107.40,101.95,96.88,93.34,89.68,88.18,87.84,88.02,87.91,86.78,84.89,82.03,77.90,72.41,67.96,64.43,61.37,56.71,52.09,49.10,47.73,46.95,47.70,48.65,49.97,52.02,56.51,60.05,62.55,63.99,64.35,65.03,66.40,68.95,73.20,76.44,76.96,75.61,73.22,70.70,67.91,65.24,62.49,58.93,52.35,47.80,44.59,41.54,39.60,37.96,36.61,35.59,35.21,35.25,34.61,33.45,32.37,33.23,32.83,31.56,29.95,29.19,28.81,28.57,28.36,28.13,27.71,27.12,26.44,25.71,24.81,23.93,22.99,21.97,21.02,20.05,19.19,18.42,17.67,16.93,16.14,15.35,14.56,13.85,13.02,12.18,11.34,10.54,9.88,9.27,8.67,8.08,7.38,6.81,6.43,6.24,6.08,5.91,5.71,5.52,5.36,5.13,5.01,4.92,4.83,4.83,4.77,4.73,4.72,4.64,4.61,4.57,4.51,4.43,4.41,4.36,4.30,4.23,4.23,4.23,4.23,4.25,4.33,4.33,4.33,4.36,4.43,4.43,4.43,4.39,4.33,4.33,4.33,4.30,4.26,4.23,4.15,4.09,4.05,4.02,3.94,3.93,3.96,4.03,4.13,4.21
71.65,70.83,69.10,66.01,61.76,59.79,58.61,57.49,55.72,53.41,50.99,48.74,46.88,44.95,43.02,41.23,39.87,39.87,40.52,41.28,42.29,43.98,46.20,48.24,51.39,56.29,59.74,61.13,61.79,61.95,61.01,60.00,58.92,58.01,57.55,58.64,59.79,61.08,62.63,64.79,66.96,69.00,71.59,76.01,79.43,82.00,84.49,87.54,91.31,95.14,99.24,103.71,108.70,112.10,114.94,116.25,114.76,113.06,111.57,109.58,106.84,104.29,100.75,97.75,96.33,97.78,100.10,102.64,105.24,107.69,109.13,106.89,103.70,100.62,97.58,94.78,92.89,91.30,89.19,89.18,90.04,90.31,89.63,90.89,95.38,100.81,105.22,105.77,104.14,103.33,103.69,105.35,108.05,111.28,114.92,118.82,122.56,126.29,129.47,132.04,134.04,135.93,136.97,136.42,133.98,130.49,126.83,123.41,120.10,116.40,110.52,103.89,98.22,94.93,92.31,91.88,92.35,92.84,92.19,90.00,87.35,84.30,80.71,75.51,70.74,66.74,63.55,60.07,54.70,50.73,48.78,48.16,48.78,49.77,51.11,52.96,57.15,60.74,64.08,67.02,68.27,70.17,72.72,75.64,78.51,80.18,79.28,77.10,74.62,72.00,69.71,67.22,64.28,60.72,53.68,48.63,45.03,41.80,40.16,39.08,38.30,37.80,38.06,38.23,37.67,36.62,35.69,35.73,34.65,33.03,31.39,30.33,29.82,29.55,29.38,29.15,28.64,27.96,27.19,26.41,25.41,24.47,23.48,22.41,21.41,20.35,19.44,18.69,17.99,17.29,16.59,15.72,14.61,13.70,12.83,11.98,11.13,10.29,9.72,9.17,8.63,8.08,7.53,7.04,6.71,6.55,6.40,6.18,5.99,5.84,5.68,5.45,5.23,5.03,4.90,4.90,4.83,4.80,4.78,4.70,4.63,4.60,4.57,4.49,4.42,4.40,4.36,4.30,4.30,4.30,4.30,4.32,4.39,4.40,4.40,4.42,4.50,4.50,4.50,4.46,4.40,4.40,4.40,4.39,4.37,4.29,4.22,4.19,4.16,4.09,4.01,4.00,4.00,4.04,4.19,4.27
69.29,68.61,67.79,66.54,63.90,61.97,60.38,58.77,56.53,54.03,51.50,49.19,47.29,45.36,43.43,41.69,40.48,40.81,41.44,42.17,43.24,45.12,46.99,48.69,51.62,56.53,59.92,61.37,62.28,62.80,61.97,61.14,60.36,59.75,59.46,60.13,60.99,61.98,63.10,64.53,66.39,68.23,70.29,73.23,76.30,79.07,82.05,85.65,89.71,93.62,97.57,101.83,106.89,110.77,113.93,116.22,117.42,116.78,115.80,113.86,110.83,107.69,104.12,100.75,98.52,98.93,101.31,104.00,106.76,109.23,109.01,106.31,102.95,99.86,97.72,96.88,95.70,93.88,91.39,92.17,94.24,95.31,94.34,93.28,96.89,102.58,107.97,109.48,108.25,107.03,106.19,106.07,108.09,111.07,114.76,118.85,122.59,126.25,129.59,132.69,135.70,137.91,139.63,139.91,138.36,136.06,132.59,128.69,124.69,120.82,114.44,107.53,101.57,97.84,96.35,96.35,96.86,97.12,95.88,93.06,89.73,86.19,82.68,78.34,73.20,68.48,64.81,61.18,56.92,53.26,50.72,49.69,50.19,51.18,52.61,54.51,57.58,60.97,64.59,68.28,71.62,74.95,78.01,80.65,82.69,82.92,80.82,77.99,75.58,73.28,71.01,68.41,65.38,61.97,55.88,50.28,45.89,43.19,42.86,42.96,43.34,43.88,44.41,43.70,42.12,40.07,38.13,37.38,36.03,34.43,32.95,32.24,31.72,31.33,30.98,30.43,29.55,28.67,27.81,26.94,25.93,24.92,23.87,22.80,21.80,20.72,19.79,19.01,18.31,17.62,16.95,16.07,14.82,13.57,12.60,11.73,10.89,10.09,9.57,9.04,8.50,7.97,7.56,7.25,7.03,6.87,6.72,6.50,6.31,6.16,6.00,5.77,5.57,5.38,5.19,5.05,4.92,4.86,4.84,4.77,4.69,4.66,4.63,4.56,4.48,4.46,4.43,4.36,4.36,4.36,4.36,4.38,4.46,4.46,4.46,4.49,4.56,4.56,4.56,4.54,4.51,4.46,4.50,4.49,4.44,4.36,4.33,4.29,4.23,4.15,4.07,4.06,4.06,4.09,4.20,4.27
67.67,66.58,65.92,65.93,64.78,63.20,61.46,59.51,56.96,54.36,51.76,49.42,47.58,45.67,43.77,42.19,41.28,41.84,42.43,43.11,44.15,45.99,47.57,49.08,51.90,56.73,59.93,61.40,62.52,63.43,63.07,62.42,61.87,61.51,61.39,61.74,62.38,63.16,63.98,64.80,66.20,67.69,69.25,71.02,73.90,76.88,80.23,84.13,88.20,92.07,95.89,99.95,104.87,109.27,112.70,115.71,118.97,119.61,119.31,117.78,115.02,111.61,108.15,104.68,101.89,101.17,103.29,105.84,108.54,110.89,109.11,106.06,102.82,100.25,99.82,100.09,98.93,96.56,93.80,95.42,98.56,100.46,99.59,96.65,98.57,103.62,109.49,112.21,111.59,110.27,108.71,107.39,108.85,111.46,115.05,119.26,123.07,126.53,129.88,133.34,137.09,139.54,141.85,142.99,142.46,141.04,138.01,134.10,129.69,125.19,118.58,111.51,105.37,101.44,100.74,100.93,101.31,101.18,99.27,95.87,92.01,88.10,84.55,80.80,75.60,70.28,65.72,61.66,58.38,55.29,52.60,51.18,51.68,52.68,54.09,55.92,58.15,61.46,65.32,69.52,74.27,78.59,82.20,84.90,86.50,85.48,82.18,78.67,76.36,74.23,71.97,69.27,66.05,62.29,56.77,51.21,46.96,45.26,45.99,47.30,48.77,50.04,50.47,48.94,46.57,43.76,40.88,39.05,37.38,35.90,34.68,34.23,33.72,33.24,32.70,31.87,30.59,29.42,28.39,27.42,26.40,25.33,24.25,23.19,22.20,21.18,20.21,19.35,18.66,17.96,17.31,16.40,15.05,13.59,12.45,11.50,10.67,9.92,9.43,8.92,8.41,7.96,7.69,7.50,7.35,7.19,7.04,6.82,6.63,6.48,6.32,6.09,5.91,5.73,5.50,5.26,5.08,4.97,4.91,4.83,4.75,4.72,4.70,4.62,4.54,4.52,4.49,4.42,4.42,4.42,4.42,4.44,4.52,4.52,4.52,4.55,4.62,4.62,4.62,4.62,4.61,4.53,4.59,4.58,4.50,4.42,4.42,4.37,4.29,4.22,4.16,4.13,4.11,4.12,4.20,4.27
67.68,65.19,63.35,63.42,63.36,62.70,61.38,59.38,56.83,54.27,51.64,49.31,47.71,45.84,44.03,42.78,42.38,42.98,43.54,44.14,44.98,46.39,47.81,49.44,52.38,57.06,59.72,61.12,62.37,63.66,64.44,63.93,63.53,63.31,63.24,63.49,64.07,64.78,65.47,65.99,66.72,67.56,68.56,69.89,72.89,76.09,79.54,83.26,86.84,90.48,94.21,98.13,102.55,107.53,111.36,114.70,118.62,120.79,121.44,120.93,119.42,116.40,113.22,110.07,107.29,105.43,106.70,108.54,110.75,112.77,109.71,106.38,103.67,102.56,105.19,104.94,102.62,99.34,96.50,98.96,102.83,105.55,105.42,101.65,100.62,103.60,109.10,113.35,113.55,112.57,111.02,109.55,110.76,112.86,116.09,120.27,124.38,127.52,130.71,134.21,138.11,140.71,143.38,145.29,145.89,144.82,142.78,139.77,135.51,129.49,122.98,115.85,109.69,106.05,105.55,105.64,105.65,104.94,102.24,98.27,94.12,90.09,86.34,82.69,77.94,72.27,66.14,61.34,58.58,56.33,54.26,52.54,53.25,54.28,55.50,56.99,58.97,62.45,66.56,70.95,75.79,80.34,84.63,88.08,89.82,87.87,83.32,79.05,76.86,74.63,72.39,69.64,66.04,61.10,55.26,50.77,48.33,48.35,49.63,52.07,54.42,55.86,55.54,53.45,50.84,47.84,44.27,40.88,38.76,37.48,36.66,36.27,35.81,35.24,34.52,33.54,31.84,30.26,28.93,27.87,26.80,25.72,24.64,23.58,22.64,21.75,20.74,19.73,19.04,18.34,17.65,16.70,15.31,13.84,12.43,11.31,10.49,9.78,9.30,8.79,8.36,8.16,7.98,7.82,7.67,7.51,7.36,7.14,6.95,6.79,6.64,6.41,6.23,6.05,5.82,5.58,5.36,5.15,4.97,4.89,4.82,4.79,4.76,4.69,4.61,4.59,4.55,4.49,4.49,4.49,4.49,4.51,4.58,4.59,4.59,4.62,4.69,4.69,4.69,4.69,4.67,4.59,4.66,4.64,4.56,4.49,4.49,4.43,4.35,4.29,4.28,4.22,4.15,4.12,4.20,4.27
69.95,66.60,63.17,61.23,61.38,61.46,60.68,58.87,56.20,53.50,51.04,49.04,47.64,45.94,44.19,43.28,43.51,44.13,44.72,45.30,45.97,46.88,48.15,49.76,52.38,56.22,58.89,60.45,61.79,63.17,64.53,65.05,65.18,65.12,65.09,65.28,65.78,66.38,66.94,67.36,67.95,68.63,69.47,70.63,72.63,75.44,78.66,81.91,85.39,88.99,92.66,96.42,100.39,105.34,109.75,113.83,118.05,120.84,122.83,123.34,122.15,120.04,117.34,114.35,111.59,109.89,111.09,112.24,113.06,113.18,109.66,106.49,105.48,107.07,110.40,109.23,106.18,102.35,98.87,101.18,105.62,109.28,110.06,106.16,103.27,104.42,108.90,113.58,115.86,116.37,115.72,114.65,114.67,115.09,117.24,121.19,125.41,128.87,132.21,135.62,139.24,142.30,145.19,147.61,149.15,148.35,146.51,143.68,139.69,134.18,127.64,120.97,115.40,112.09,111.83,111.52,110.62,108.75,105.30,100.69,96.14,91.85,87.82,84.15,79.64,73.92,67.19,62.21,59.22,56.93,55.12,54.09,54.90,55.87,56.97,58.30,60.63,64.06,68.02,72.24,76.76,81.55,86.06,89.62,91.36,89.57,84.52,79.63,77.12,74.96,72.86,70.42,67.27,62.80,58.94,56.54,55.48,55.45,55.61,57.12,58.77,59.79,59.36,57.09,54.32,51.23,47.76,43.82,41.15,39.55,38.74,38.27,37.71,37.07,36.25,34.97,33.31,31.23,29.34,28.26,27.18,26.13,25.12,24.17,23.28,22.36,21.32,20.28,19.42,18.73,18.03,17.03,15.57,14.10,12.63,11.33,10.32,9.70,9.26,8.86,8.55,8.40,8.29,8.14,7.99,7.83,7.63,7.44,7.27,7.11,6.96,6.73,6.55,6.37,6.14,5.90,5.67,5.44,5.22,5.07,4.91,4.85,4.83,4.75,4.67,4.65,4.62,4.55,4.55,4.55,4.55,4.57,4.65,4.65,4.65,4.68,4.75,4.75,4.75,4.75,4.74,4.66,4.72,4.70,4.64,4.60,4.56,4.50,4.43,4.40,4.36,4.29,4.23,4.20,4.20,4.24
72.22,68.10,63.32,59.46,59.43,59.91,59.57,58.02,55.31,52.55,50.39,48.77,47.50,45.98,44.43,43.91,44.66,45.29,45.90,46.47,47.01,47.54,48.60,50.09,52.28,55.26,57.97,59.67,61.07,62.49,64.15,65.65,66.40,66.67,66.86,67.07,67.49,67.98,68.44,68.90,69.65,70.45,71.34,72.43,73.28,75.22,77.76,80.50,83.94,87.56,91.21,94.84,98.44,103.03,107.88,112.70,117.17,120.50,123.64,125.17,124.59,123.36,121.07,118.15,115.44,114.36,115.53,115.86,115.10,113.13,109.50,107.19,108.29,112.28,115.14,112.95,109.33,105.18,101.15,103.22,108.29,112.85,114.33,110.28,106.07,105.57,108.76,113.59,117.92,120.05,120.51,120.02,118.90,117.76,118.70,122.11,126.36,130.20,133.72,137.06,140.39,143.88,147.00,149.85,152.15,151.81,150.12,147.17,143.17,138.51,132.21,126.38,121.72,118.80,118.43,117.46,115.45,112.27,108.08,103.06,98.22,93.64,89.20,85.41,81.02,75.30,68.31,63.40,60.03,57.50,55.86,55.66,56.54,57.50,58.60,60.01,62.81,66.18,69.93,73.87,77.67,82.56,87.13,90.66,92.44,90.91,85.85,80.63,77.53,75.47,73.56,71.50,69.01,65.58,63.74,63.06,62.84,62.36,61.48,61.82,62.53,62.97,62.20,59.78,56.92,53.89,50.76,46.77,43.80,41.94,41.10,40.68,39.95,39.13,38.13,36.49,34.82,32.34,29.94,28.66,27.60,26.60,25.68,24.83,23.98,22.98,21.92,20.86,19.84,19.12,18.40,17.36,15.83,14.36,12.89,11.44,10.21,9.66,9.29,9.02,8.82,8.67,8.58,8.45,8.31,8.14,7.91,7.74,7.59,7.43,7.28,7.05,6.87,6.69,6.46,6.24,6.01,5.78,5.56,5.33,5.09,4.98,4.91,4.81,4.74,4.71,4.68,4.61,4.61,4.61,4.61,4.63,4.71,4.71,4.71,4.74,4.81,4.81,4.81,4.81,4.80,4.74,4.78,4.77,4.73,4.71,4.64,4.57,4.52,4.51,4.44,4.36,4.32,4.30,4.22,4.20
72.72,67.66,62.52,58.81,57.99,58.00,57.62,56.36,53.94,51.62,49.97,48.67,47.31,45.89,45.06,45.06,45.82,46.50,47.08,47.62,48.15,48.63,49.35,50.46,52.26,54.85,57.26,58.83,60.28,61.81,63.27,64.85,66.22,67.39,68.40,68.80,69.17,69.57,70.08,70.83,72.30,73.73,74.99,76.13,76.32,76.23,76.96,79.28,82.57,86.27,90.00,93.60,97.11,100.71,105.38,110.59,115.47,119.83,123.18,125.77,127.45,126.56,124.28,121.29,118.76,118.66,119.35,118.45,116.13,112.77,109.43,110.05,113.54,117.97,118.51,115.23,111.25,107.17,103.39,105.70,111.73,116.98,118.31,113.48,108.89,107.07,108.67,113.64,118.88,122.13,123.65,123.84,122.58,121.17,121.11,123.07,127.32,131.15,134.73,138.16,141.54,145.08,148.57,151.79,154.40,155.25,154.17,150.71,145.72,141.31,136.33,132.13,128.86,126.52,124.92,122.63,119.24,114.75,109.82,105.20,100.59,95.76,90.48,86.34,81.81,76.06,69.13,64.72,61.07,58.36,56.86,57.10,58.10,59.22,60.71,62.84,66.03,69.50,73.15,76.66,78.89,83.36,87.80,91.40,93.52,91.60,87.56,82.81,78.63,76.66,74.97,73.24,71.39,69.50,67.99,66.93,66.12,65.39,65.05,65.15,65.41,65.26,62.87,60.06,57.34,54.73,52.09,48.84,46.44,44.95,44.35,44.42,43.43,42.09,40.53,38.50,36.30,33.77,31.24,29.11,28.15,27.25,26.38,25.53,24.68,23.60,22.50,21.42,20.35,19.53,18.71,17.64,16.15,14.62,13.14,11.65,10.33,9.73,9.49,9.31,9.14,8.99,8.85,8.75,8.63,8.46,8.23,8.06,7.91,7.75,7.60,7.37,7.19,7.01,6.78,6.61,6.39,6.19,6.00,5.77,5.54,5.30,5.07,4.88,4.80,4.78,4.75,4.68,4.68,4.68,4.68,4.70,4.78,4.78,4.78,4.81,4.88,4.88,4.88,4.88,4.88,4.86,4.82,4.83,4.84,4.78,4.70,4.67,4.63,4.58,4.56,4.49,4.42,4.36,4.28,4.22
71.33,65.70,60.86,58.20,56.98,56.36,55.67,54.67,53.24,51.44,50.14,49.03,47.64,46.31,45.76,46.02,46.90,47.66,48.23,48.77,49.29,49.76,50.18,51.01,52.36,54.27,56.42,58.04,59.60,61.22,62.71,64.29,65.86,67.35,68.72,69.74,70.75,71.56,72.17,73.12,74.98,76.88,78.54,79.83,79.58,78.57,78.04,79.00,81.75,85.19,88.83,92.38,95.62,98.69,102.84,107.79,112.95,118.15,122.67,126.54,129.40,129.09,127.39,124.64,122.05,121.86,121.36,119.48,116.56,113.20,111.54,114.09,117.95,120.97,119.88,116.22,112.48,108.88,105.42,107.98,114.29,119.69,121.09,117.31,112.56,109.39,109.29,114.02,119.38,123.37,125.93,127.18,126.86,126.00,125.04,124.89,128.01,131.70,135.38,139.02,142.65,146.20,149.84,153.33,156.39,157.99,157.56,154.20,148.88,144.26,140.20,137.22,134.81,132.32,128.96,125.14,120.63,115.46,110.12,105.87,101.71,97.07,91.41,86.83,82.16,76.56,70.00,65.68,61.96,59.23,57.88,58.50,59.96,61.61,63.65,66.30,69.73,73.25,76.72,79.85,81.78,85.74,89.41,92.34,94.48,92.36,88.94,84.66,80.23,78.33,76.70,75.17,73.77,72.57,71.69,70.81,70.05,69.55,69.40,69.12,68.49,67.16,64.12,60.51,57.58,55.22,52.88,50.49,48.93,48.09,47.85,48.05,47.34,46.16,44.49,41.93,38.73,35.72,32.89,30.15,28.89,27.94,27.09,26.23,25.31,24.21,23.09,21.99,20.91,19.92,19.01,17.90,16.43,14.92,13.49,12.10,10.87,10.22,9.85,9.62,9.46,9.31,9.15,9.03,8.92,8.78,8.55,8.38,8.23,8.07,7.92,7.72,7.57,7.42,7.23,7.04,6.84,6.65,6.45,6.22,5.99,5.73,5.46,5.19,4.98,4.88,4.81,4.74,4.74,4.74,4.74,4.75,4.80,4.83,4.84,4.88,4.99,5.02,5.00,4.99,4.98,4.95,4.90,4.91,4.93,4.88,4.81,4.76,4.72,4.68,4.65,4.58,4.50,4.42,4.35,4.27
68.90,63.05,58.92,57.59,56.21,55.03,54.04,53.33,53.13,51.83,50.72,49.62,48.20,46.96,46.52,46.91,47.95,48.79,49.38,49.92,50.43,50.89,51.05,51.65,52.56,53.72,55.60,57.33,59.03,60.71,62.33,63.88,65.42,66.94,68.41,70.17,72.07,73.53,74.41,75.55,77.64,79.90,81.99,83.51,82.96,81.62,80.21,79.50,81.45,84.34,87.72,91.19,94.12,96.91,100.40,104.78,110.13,116.00,121.98,127.17,130.76,131.16,130.27,127.93,125.24,124.48,122.52,119.79,116.76,114.13,114.78,118.53,121.67,122.51,120.24,116.61,113.39,110.44,107.34,110.21,116.42,121.64,123.20,121.25,116.58,112.21,110.48,114.67,119.78,124.26,127.80,130.19,131.26,131.27,129.59,127.27,128.66,132.08,135.85,139.75,143.70,147.27,150.94,154.66,158.17,160.23,160.35,157.38,152.15,147.16,143.78,141.68,139.73,136.75,131.45,126.14,120.74,115.24,109.71,105.80,102.13,97.85,92.07,87.06,82.27,76.93,70.86,66.49,62.82,60.17,58.96,59.91,61.90,64.19,66.83,69.88,73.39,76.93,80.22,83.10,85.39,88.78,91.42,93.41,95.40,93.15,90.10,86.29,82.12,80.24,78.60,77.28,76.23,75.28,75.08,74.69,74.34,74.34,74.19,73.50,71.83,69.08,65.80,61.13,57.77,55.57,53.42,51.97,51.33,51.23,51.39,51.53,51.30,50.55,48.99,45.97,41.69,38.02,34.77,31.58,29.80,28.67,27.79,26.91,25.90,24.83,23.70,22.57,21.48,20.33,19.32,18.17,16.72,15.26,13.92,12.70,11.65,10.97,10.37,10.02,9.84,9.65,9.48,9.32,9.20,9.09,8.87,8.70,8.55,8.39,8.24,8.09,7.99,7.89,7.73,7.50,7.33,7.13,6.90,6.67,6.44,6.20,5.95,5.64,5.25,5.03,4.89,4.81,4.81,4.80,4.80,4.80,4.81,4.89,4.93,5.00,5.15,5.22,5.16,5.12,5.10,5.03,5.02,5.02,5.03,5.03,4.95,4.87,4.82,4.80,4.72,4.64,4.56,4.49,4.42,4.34
65.50,61.00,58.26,56.90,55.62,55.20,55.08,55.05,55.15,53.83,52.21,50.44,48.58,47.34,47.37,48.10,49.09,49.88,50.51,51.04,51.49,51.85,52.01,52.34,53.03,54.19,55.58,57.12,58.77,60.44,62.01,63.61,65.14,66.60,68.02,69.58,71.61,73.80,75.90,77.63,79.89,82.42,84.94,87.00,86.48,85.20,83.76,82.71,83.27,84.55,86.96,90.22,93.10,95.89,98.93,102.82,108.21,114.14,120.06,125.87,130.94,132.17,131.71,129.82,127.57,126.90,124.24,120.66,117.48,115.99,118.47,121.35,123.07,122.91,120.40,117.36,114.50,111.82,109.27,113.03,118.57,123.08,124.81,123.40,119.85,115.82,113.48,116.39,121.20,125.86,129.72,132.34,134.05,134.28,132.99,130.82,130.05,132.79,136.37,140.30,144.40,148.12,151.94,155.77,159.28,161.04,160.75,158.07,153.64,149.00,145.91,143.46,140.91,137.44,130.91,125.42,120.08,114.59,109.36,105.52,101.78,97.45,91.82,86.85,82.22,77.19,71.60,67.52,64.15,61.58,60.35,61.49,63.31,65.69,68.52,71.64,74.82,78.16,81.69,85.23,88.01,90.73,92.87,94.65,96.55,93.86,90.85,87.61,84.33,82.15,80.73,79.99,79.50,78.36,78.29,78.45,78.89,79.64,79.54,78.79,76.66,72.99,68.63,62.31,58.33,56.31,54.31,53.84,53.74,53.87,54.06,54.11,53.74,52.94,51.57,49.24,45.14,41.03,37.24,33.97,31.40,29.71,28.54,27.61,26.55,25.43,24.31,23.19,22.06,20.95,19.82,18.61,17.30,15.95,14.62,13.50,12.64,12.11,11.65,11.18,10.70,10.22,9.85,9.64,9.49,9.36,9.18,9.02,8.87,8.71,8.56,8.45,8.41,8.33,8.18,8.00,7.80,7.58,7.35,7.11,6.88,6.65,6.39,6.08,5.75,5.43,5.12,4.87,4.87,4.82,4.80,4.81,4.87,5.00,5.19,5.38,5.52,5.55,5.41,5.31,5.30,5.22,5.21,5.24,5.30,5.35,5.22,5.09,4.96,4.86,4.78,4.71,4.63,4.56,4.54,4.47
63.10,59.62,57.86,56.70,56.05,56.22,56.59,56.95,57.18,55.58,53.44,51.12,48.97,48.08,48.42,49.34,50.35,50.99,51.59,52.12,52.55,52.81,53.02,53.28,53.79,54.68,55.90,57.25,58.71,60.26,61.83,63.42,64.95,66.43,67.87,69.29,71.37,73.86,76.51,78.71,81.34,84.25,87.18,89.68,89.78,89.01,87.78,86.49,85.96,85.96,87.13,89.50,92.35,95.26,98.42,102.35,107.62,113.02,118.37,124.04,129.65,132.22,133.13,132.02,129.95,129.23,126.90,122.81,119.28,118.43,121.33,123.73,124.55,123.47,120.85,118.15,115.53,113.32,112.01,116.05,120.74,124.63,126.62,125.51,122.47,118.77,116.22,117.91,122.52,127.13,131.08,133.98,136.36,137.19,136.52,134.70,132.74,134.17,137.08,140.87,145.04,148.93,152.85,156.68,160.13,161.94,161.11,158.15,153.73,149.07,146.31,143.73,140.62,136.35,129.78,124.46,119.25,113.84,108.87,104.92,100.91,96.39,91.01,86.02,81.48,76.89,72.10,68.38,65.41,63.04,61.82,63.11,64.73,66.94,69.71,72.95,76.12,79.65,83.53,87.53,90.81,93.34,95.14,96.47,97.74,95.44,92.45,89.25,86.30,84.54,84.19,84.53,84.91,84.33,84.27,84.11,84.05,84.27,83.80,82.59,80.08,76.04,70.60,63.48,59.12,57.16,55.68,55.87,56.17,56.47,56.70,56.65,56.11,55.12,53.65,51.61,48.17,44.07,39.95,36.42,33.46,31.16,29.47,28.27,27.13,25.98,24.85,23.72,22.56,21.46,20.30,19.09,17.85,16.57,15.38,14.49,13.89,13.43,13.01,12.45,11.82,11.20,10.69,10.32,10.01,9.71,9.50,9.34,9.20,9.06,8.88,8.87,8.86,8.79,8.66,8.48,8.26,8.02,7.79,7.56,7.33,7.10,6.85,6.57,6.23,5.86,5.48,5.16,5.05,4.90,4.83,4.87,5.00,5.23,5.53,5.79,5.90,5.85,5.68,5.55,5.49,5.44,5.44,5.50,5.60,5.67,5.51,5.34,5.16,4.99,4.86,4.79,4.73,4.66,4.64,4.56
61.56,58.82,57.67,56.94,57.37,57.95,58.52,58.99,59.22,57.13,54.44,51.69,49.38,49.13,49.64,50.61,51.72,52.11,52.63,53.17,53.61,53.77,54.07,54.43,54.79,55.20,56.51,57.65,58.82,60.14,61.76,63.31,64.86,66.40,67.94,69.25,71.30,73.76,76.37,78.91,82.10,85.50,88.80,91.65,92.90,93.02,92.22,90.76,89.39,88.40,88.12,88.98,91.84,94.97,98.74,103.16,108.18,112.53,116.89,121.74,127.08,131.43,134.53,134.47,132.39,131.47,130.36,126.05,122.01,121.37,123.48,125.75,126.09,124.17,121.55,118.99,116.48,114.92,115.45,119.25,122.95,126.27,128.61,127.60,124.53,121.13,118.74,119.24,123.75,128.12,131.95,135.18,138.25,140.00,140.18,138.85,136.54,136.14,137.96,141.44,145.61,149.70,153.68,157.43,160.75,162.90,161.43,157.69,152.63,147.62,145.21,142.67,139.05,133.73,128.14,123.28,118.27,112.99,108.27,104.04,99.56,94.77,89.74,84.64,80.14,76.10,72.41,69.07,66.62,64.54,63.38,64.77,66.16,67.96,70.46,73.86,77.33,81.38,85.69,89.98,93.75,96.51,98.11,98.78,98.96,97.78,94.79,91.17,88.07,87.35,88.80,90.65,92.15,92.81,92.64,91.41,89.73,88.32,87.11,85.08,82.28,78.36,71.82,64.65,60.11,58.10,57.46,58.05,58.60,59.05,59.31,59.16,58.45,57.13,55.30,53.21,50.81,47.14,42.87,38.91,35.90,32.96,30.57,28.89,27.66,26.49,25.33,24.17,23.01,21.85,20.75,19.60,18.37,17.13,16.20,15.65,15.36,14.90,14.43,13.83,13.16,12.54,11.93,11.31,10.71,10.14,9.84,9.66,9.55,9.43,9.20,9.34,9.33,9.26,9.17,8.93,8.70,8.47,8.24,8.01,7.78,7.54,7.31,7.08,6.69,6.30,5.95,5.64,5.34,5.03,4.90,4.96,5.19,5.56,5.95,6.22,6.28,6.13,5.97,5.82,5.69,5.69,5.69,5.79,5.91,5.99,5.83,5.62,5.39,5.16,4.93,4.90,4.85,4.78,4.70,4.62
61.25,58.96,58.24,58.13,58.69,59.49,60.31,60.73,59.81,57.43,54.68,51.99,49.78,49.98,50.82,51.95,53.11,53.83,54.28,54.62,54.93,55.28,55.59,55.92,56.04,55.93,56.86,58.10,59.45,60.83,62.21,63.74,65.26,66.74,68.19,69.55,71.40,73.67,76.25,78.79,82.08,85.61,89.11,92.25,94.85,96.47,96.75,95.54,93.48,91.71,90.53,90.53,93.10,96.68,100.82,105.27,109.79,113.59,117.57,121.90,126.55,130.81,134.68,135.96,134.97,133.42,131.27,127.73,124.68,123.87,125.91,127.72,127.79,125.84,122.73,119.87,117.37,116.20,117.54,121.37,125.44,128.88,130.94,130.22,127.92,124.92,122.04,120.49,124.54,128.58,132.21,135.41,138.59,140.76,141.67,141.23,139.39,138.39,139.37,142.07,145.82,149.96,154.30,158.50,162.03,162.90,160.60,156.24,150.74,145.48,143.12,140.47,136.67,131.29,126.49,121.93,117.23,112.40,108.02,104.21,100.15,95.62,90.51,85.26,80.55,76.50,73.11,69.88,67.54,65.76,64.94,66.19,67.57,69.45,72.12,75.78,79.88,84.53,89.09,93.29,97.17,99.70,100.95,101.26,101.17,100.64,98.24,94.35,90.06,90.61,92.74,95.15,97.21,98.24,98.32,97.41,95.45,92.46,89.69,86.69,83.28,78.94,71.75,65.71,61.75,60.06,60.59,63.10,65.41,67.01,67.51,66.73,63.65,60.09,56.83,54.46,52.02,48.77,44.92,40.89,37.54,34.46,31.72,29.46,28.17,26.91,25.71,24.56,23.40,22.29,21.19,20.07,18.90,17.85,17.31,17.03,16.84,16.42,15.83,15.20,14.56,13.94,13.33,12.60,11.73,10.84,10.53,10.27,10.06,9.89,9.70,9.80,9.85,9.79,9.61,9.38,9.15,8.92,8.69,8.46,8.22,7.99,7.76,7.53,7.33,7.03,6.71,6.41,6.20,5.87,5.63,5.56,5.69,6.02,6.39,6.63,6.59,6.39,6.23,6.05,5.89,5.89,5.93,6.04,6.19,6.31,6.15,5.94,5.71,5.49,5.30,5.15,5.02,4.90,4.83,4.75
60.97,59.25,58.99,59.53,60.43,61.43,61.97,61.63,59.81,57.34,54.71,52.29,50.54,51.04,52.07,53.29,54.47,55.45,55.95,56.19,56.34,56.61,57.07,57.42,57.39,56.93,57.33,58.48,59.89,61.32,62.62,64.16,65.65,67.08,68.47,69.86,71.50,73.59,76.13,78.62,81.92,85.57,89.28,92.67,96.14,98.80,100.04,99.43,97.24,95.07,93.38,92.81,94.77,98.59,102.92,107.31,111.37,114.78,118.51,122.56,126.86,131.00,135.32,137.48,137.20,135.15,132.40,129.45,127.10,126.20,128.40,129.93,129.79,127.80,124.50,121.26,118.60,117.55,119.28,123.36,127.67,131.21,133.26,133.14,131.50,128.86,125.74,122.94,125.45,128.81,132.31,135.50,138.76,141.27,142.93,143.48,142.13,140.84,141.11,143.02,146.27,150.34,155.33,160.11,163.49,162.83,159.67,154.70,148.76,143.29,140.74,137.92,134.15,129.14,124.87,120.75,116.79,112.98,109.19,105.69,101.95,97.68,92.61,87.08,82.11,77.88,74.39,71.04,68.57,66.99,66.51,67.55,69.15,71.32,74.27,78.11,82.70,87.64,92.29,96.41,100.17,102.65,103.86,104.13,103.98,103.52,101.32,97.45,92.91,93.89,96.40,99.14,101.40,102.44,102.62,101.79,99.57,95.69,91.78,87.93,83.96,79.25,71.60,66.67,63.92,63.44,65.40,69.06,72.01,73.74,73.90,72.14,67.33,62.18,57.89,55.40,52.96,50.16,46.76,42.62,38.91,35.72,32.76,30.09,28.65,27.34,26.11,24.95,23.83,22.79,21.75,20.68,19.58,18.76,18.48,18.39,18.27,17.92,17.22,16.56,15.93,15.27,14.51,13.62,12.59,11.54,11.23,10.94,10.67,10.43,10.24,10.15,10.33,10.43,10.21,9.94,9.65,9.38,9.13,8.90,8.67,8.44,8.21,7.98,7.96,7.75,7.47,7.21,7.06,6.73,6.41,6.23,6.31,6.55,6.85,7.01,6.88,6.65,6.48,6.29,6.10,6.08,6.17,6.31,6.48,6.63,6.45,6.25,6.03,5.81,5.65,5.45,5.26,5.10,4.98,4.87
60.70,59.71,59.96,61.20,62.79,63.96,63.45,61.34,59.02,56.74,54.44,52.62,51.82,52.42,53.44,54.61,55.77,56.90,57.63,57.92,57.87,57.64,58.48,58.92,58.86,58.33,57.99,58.75,60.02,61.48,62.92,64.52,66.00,67.40,68.79,70.18,71.60,73.53,76.05,78.39,81.58,85.35,89.32,92.85,96.52,99.55,101.49,101.98,100.47,98.45,96.82,96.11,96.98,100.70,105.00,109.22,112.83,116.10,119.75,123.86,128.32,132.35,136.75,139.08,138.92,136.57,134.00,131.30,129.14,128.28,130.98,132.49,132.21,130.14,127.09,123.39,120.34,119.02,120.56,125.19,129.51,133.08,135.57,136.49,135.30,132.95,130.01,127.16,126.56,128.75,132.20,135.44,138.75,141.50,143.93,145.61,144.76,143.56,143.33,144.44,147.09,150.92,157.01,162.50,165.19,162.70,158.65,153.07,146.68,141.07,137.99,134.92,131.46,127.42,123.30,119.82,117.24,115.25,112.40,109.06,105.45,101.39,96.57,90.54,85.25,80.62,76.51,72.72,69.76,68.24,68.11,68.85,70.98,73.75,77.09,81.00,85.83,90.60,95.12,99.21,102.52,105.25,106.90,107.57,107.62,106.43,103.83,100.39,97.04,97.17,99.69,102.42,104.42,104.96,105.02,103.84,101.35,97.58,93.18,88.69,84.21,79.22,71.37,67.48,66.85,68.86,72.59,76.23,78.11,78.45,77.39,74.15,68.66,62.96,58.24,55.90,53.56,51.26,48.30,44.01,39.90,36.61,33.60,30.81,29.08,27.77,26.53,25.36,24.34,23.40,22.45,21.48,20.50,19.92,19.74,19.69,19.63,19.39,18.60,17.90,17.24,16.47,15.37,14.24,13.16,12.24,11.93,11.68,11.41,11.11,10.82,10.34,10.76,11.22,11.03,10.66,10.24,9.87,9.58,9.35,9.12,8.89,8.65,8.43,8.56,8.42,8.21,8.04,7.89,7.60,7.25,7.00,7.07,7.17,7.33,7.36,7.14,6.91,6.74,6.55,6.35,6.28,6.40,6.60,6.80,6.94,6.72,6.54,6.35,6.13,5.97,5.81,5.62,5.39,5.18,4.96
62.59,62.64,63.38,64.32,65.56,65.11,63.41,60.96,58.77,56.65,55.02,53.86,53.10,53.84,54.83,55.94,57.10,58.26,59.52,59.98,59.68,59.00,59.64,60.18,60.24,59.62,59.03,59.28,60.23,61.69,63.28,64.94,66.46,67.86,69.21,70.52,71.80,73.50,75.76,77.99,80.94,84.69,88.87,92.71,96.38,99.57,102.03,103.54,103.10,101.72,100.31,99.35,99.38,102.16,105.76,109.52,112.91,116.15,120.06,124.96,130.53,134.14,138.06,140.47,140.79,138.77,136.24,133.50,131.86,132.40,134.93,135.58,134.80,132.63,128.58,124.92,122.23,121.20,122.59,127.09,131.09,134.60,137.53,139.27,138.75,137.15,134.81,131.91,129.99,130.46,132.67,135.80,139.08,141.95,144.69,146.98,147.41,146.47,145.74,146.01,148.04,152.53,158.46,163.60,166.04,162.76,158.18,152.24,145.63,139.91,136.51,133.10,129.87,127.17,125.10,122.99,121.03,119.06,116.11,112.58,108.67,104.37,99.67,93.98,88.59,83.65,79.24,75.12,71.40,69.86,70.48,71.96,74.46,77.12,80.11,83.71,88.37,93.07,97.52,101.52,104.73,108.07,110.64,111.92,111.42,109.37,106.46,103.11,100.19,101.35,104.01,106.31,107.61,107.70,107.09,105.25,102.05,97.50,92.86,88.25,83.63,78.68,72.17,70.79,71.96,74.70,78.09,80.25,81.30,81.09,79.39,74.79,68.55,62.73,58.33,56.18,53.91,51.71,48.79,44.39,40.14,36.81,33.78,30.95,29.38,28.25,27.20,26.22,25.38,24.58,23.66,22.70,21.77,21.23,20.96,20.82,20.71,20.48,19.83,19.03,18.13,17.14,15.99,14.83,13.77,12.95,12.68,12.37,12.04,11.70,11.39,10.82,11.23,11.86,12.02,11.59,11.14,10.71,10.32,9.97,9.61,9.33,9.11,8.93,9.09,9.08,9.01,8.93,8.77,8.42,8.05,7.82,7.89,7.89,7.83,7.70,7.50,7.27,7.07,6.85,6.64,6.53,6.69,6.88,7.06,7.21,7.02,6.86,6.67,6.45,6.29,6.10,5.91,5.71,5.48,5.21
65.27,66.10,67.03,67.34,67.64,65.70,63.16,60.70,58.73,57.01,56.02,55.31,54.40,55.25,56.22,57.30,58.51,59.98,61.73,62.30,61.72,60.62,60.95,61.50,61.61,60.91,60.28,60.13,60.77,62.13,63.75,65.39,66.95,68.39,69.69,70.98,72.23,73.70,75.53,77.56,80.23,83.96,88.35,92.48,96.07,99.33,102.17,104.47,105.33,104.96,104.10,103.18,102.65,104.26,106.92,110.09,113.24,116.39,120.55,126.15,132.66,136.09,139.38,141.75,142.59,141.02,138.28,135.78,134.99,136.89,139.06,138.85,137.51,135.06,130.04,126.53,124.28,123.56,124.72,128.90,132.53,135.92,139.14,141.52,141.75,140.92,139.24,136.60,134.43,133.65,134.55,137.23,140.24,143.01,145.81,148.49,150.09,149.29,148.12,147.71,149.21,154.24,159.68,164.32,166.77,163.03,158.06,151.95,145.42,140.00,136.58,133.10,130.16,128.48,128.17,127.13,125.53,123.31,119.91,115.96,111.59,106.98,102.36,97.17,91.71,86.50,81.86,77.53,73.27,71.87,73.27,75.46,78.14,80.56,83.12,86.32,90.59,95.16,99.57,103.55,106.84,111.35,114.77,116.26,115.20,112.41,109.19,105.91,103.46,106.43,109.37,110.98,111.17,110.70,109.26,106.49,102.36,97.05,92.25,87.66,83.07,78.36,73.55,74.51,77.06,80.02,82.67,83.53,83.86,83.18,80.88,74.96,68.08,62.29,58.31,56.30,54.12,51.96,49.00,44.44,40.03,36.76,33.92,31.35,29.96,28.91,28.00,27.19,26.49,25.80,24.94,24.01,23.12,22.59,22.24,21.97,21.70,21.32,20.72,19.82,18.72,17.56,16.40,15.28,14.32,13.62,13.36,12.99,12.61,12.24,11.93,11.35,11.71,12.43,12.89,12.57,12.13,11.66,11.18,10.71,10.24,9.94,9.74,9.59,9.90,10.15,10.28,10.27,10.05,9.38,8.87,8.63,8.64,8.54,8.30,8.04,7.87,7.64,7.42,7.17,6.92,6.78,6.97,7.15,7.31,7.48,7.33,7.18,6.99,6.77,6.61,6.40,6.21,6.01,5.76,5.47
68.94,69.72,70.02,69.38,67.65,65.52,63.15,60.79,58.97,58.31,57.68,56.85,55.74,56.59,57.60,58.71,60.09,62.69,64.69,65.14,64.25,62.80,62.79,63.06,63.00,62.27,61.89,61.72,62.13,63.16,64.48,65.92,67.49,69.02,70.27,71.76,73.24,74.51,75.59,77.12,79.51,83.30,87.93,92.15,95.56,98.79,101.70,104.23,106.81,108.13,108.66,108.62,108.14,108.42,109.83,112.15,114.96,117.76,121.97,127.64,134.16,138.28,140.76,142.86,144.12,143.05,139.47,138.08,138.87,141.32,142.94,142.35,140.45,137.31,131.98,128.67,126.70,126.04,126.76,130.39,133.73,136.92,140.00,142.63,143.73,143.54,142.38,140.83,140.40,139.84,139.88,141.26,143.43,145.55,148.03,150.75,152.85,151.79,150.33,149.67,150.93,155.71,160.38,164.68,167.58,163.75,158.60,152.68,146.90,142.86,140.13,137.35,134.89,133.20,132.89,131.78,130.20,127.95,123.71,118.88,113.88,108.98,104.40,99.70,94.18,88.72,83.90,79.57,75.56,74.74,76.81,79.10,81.55,83.72,85.98,88.77,92.30,96.54,100.89,105.03,108.76,115.70,119.55,120.10,118.85,115.65,112.15,109.02,107.55,113.48,116.97,117.40,115.63,114.27,111.85,107.59,102.19,96.60,91.75,87.26,82.93,78.86,75.92,78.03,81.02,83.76,85.62,86.42,86.22,84.82,81.77,74.57,67.40,61.79,58.12,56.11,54.06,52.02,49.02,44.10,39.40,36.43,34.35,32.69,31.30,30.04,29.02,28.21,27.52,26.82,26.13,25.35,24.46,23.99,23.64,23.22,22.61,21.68,20.77,19.78,18.72,17.56,16.40,15.43,14.69,14.18,13.82,13.44,13.05,12.69,12.38,11.89,12.22,12.88,13.38,13.55,13.22,12.72,12.19,11.67,11.20,10.96,10.81,10.63,11.53,12.29,12.75,12.79,12.32,10.74,9.73,9.40,9.16,8.96,8.68,8.41,8.19,7.96,7.77,7.48,7.13,7.03,7.18,7.34,7.53,7.80,7.65,7.49,7.31,7.09,6.93,6.76,6.54,6.25,5.96,5.71
72.51,72.59,71.75,69.97,67.58,65.32,63.10,61.19,60.28,59.93,59.23,58.20,57.03,57.85,59.04,60.59,62.61,65.72,67.67,67.80,66.54,64.89,64.40,64.41,64.37,63.90,63.66,63.52,63.69,64.31,65.51,66.85,68.29,69.78,71.26,72.87,74.39,75.62,76.53,77.47,79.23,82.61,87.11,91.47,94.86,98.13,101.26,104.21,107.44,109.75,111.43,112.46,112.38,113.09,114.40,116.24,118.54,121.45,125.27,130.14,135.68,139.69,141.95,143.90,145.44,145.63,142.73,142.64,144.24,146.09,146.93,145.76,143.26,139.55,134.18,131.33,129.39,128.25,128.07,131.30,134.46,137.56,140.59,143.47,145.58,146.14,145.63,145.45,145.85,145.85,145.89,146.41,147.61,149.34,151.37,153.52,155.66,154.73,153.24,152.58,154.14,158.26,162.40,166.15,168.50,165.03,160.09,154.74,149.85,146.75,144.60,142.30,139.97,137.88,136.73,135.23,133.22,130.36,125.74,120.20,114.80,109.86,105.54,101.16,95.77,90.39,85.69,81.54,77.86,77.25,79.42,81.91,84.47,86.54,88.64,91.31,94.25,98.04,102.41,107.18,112.09,118.52,122.15,122.71,121.04,118.29,114.84,112.72,113.52,118.50,121.05,120.88,118.74,116.70,113.35,108.57,103.12,97.87,92.86,88.23,83.80,79.93,78.48,81.29,84.65,87.45,88.97,89.40,88.54,86.16,81.93,73.87,66.63,61.29,57.93,55.92,53.97,52.08,49.25,44.51,39.72,37.24,35.69,34.30,32.91,31.56,30.35,29.34,28.54,27.84,27.20,26.48,25.60,24.86,24.18,23.45,22.60,21.52,20.51,19.55,18.55,17.44,16.56,15.80,15.20,14.74,14.28,13.89,13.52,13.18,12.87,12.48,12.75,13.32,13.85,14.27,14.21,13.91,13.51,13.11,12.75,12.65,12.69,12.70,13.92,14.97,15.64,15.82,15.52,13.95,12.62,11.45,9.64,9.31,9.04,8.78,8.55,8.32,8.07,7.71,7.32,7.24,7.41,7.60,7.82,8.12,7.97,7.81,7.64,7.45,7.26,7.07,6.81,6.50,6.19,5.93
75.66,74.68,72.60,69.86,67.43,65.12,63.17,61.92,62.08,61.66,60.71,59.47,58.34,59.12,60.58,62.68,65.39,68.68,70.56,70.39,68.74,66.87,65.94,65.72,65.75,65.63,65.51,65.42,65.39,65.62,66.69,67.96,69.23,70.66,72.44,74.14,75.62,76.88,77.87,78.36,79.48,82.12,86.08,90.58,94.02,97.37,100.72,104.13,107.54,110.48,113.09,115.17,115.86,117.67,119.32,120.91,122.77,125.89,129.16,132.90,137.08,140.66,142.91,144.80,146.55,148.14,146.75,147.97,149.98,150.89,150.91,149.04,145.90,141.73,136.53,134.25,132.26,130.46,129.26,132.05,135.02,138.06,141.12,144.38,147.35,148.64,148.87,149.97,150.74,151.43,151.87,151.95,152.34,153.78,155.27,156.61,158.58,157.85,156.41,155.81,157.76,161.20,164.99,168.19,169.73,166.79,162.25,157.58,153.59,151.17,149.50,147.52,145.15,142.47,140.19,138.20,135.57,131.86,126.88,120.75,115.09,110.22,106.20,102.07,96.93,91.76,87.27,83.40,80.11,79.62,81.72,84.43,87.23,89.33,91.38,94.05,96.54,99.92,104.34,109.77,115.86,120.83,124.01,124.85,122.79,120.67,117.53,116.66,119.76,122.56,123.65,123.09,121.18,118.61,114.46,109.63,104.64,99.91,94.70,89.78,85.13,81.42,81.37,84.63,88.25,91.15,92.51,92.43,90.84,87.45,81.97,73.17,65.88,60.80,57.77,55.79,53.94,52.19,49.69,45.54,40.77,38.71,37.45,36.03,34.64,33.23,31.83,30.53,29.52,28.78,28.10,27.38,26.50,25.42,24.33,23.29,22.26,21.18,20.18,19.28,18.37,17.36,16.82,16.28,15.78,15.30,14.76,14.35,14.00,13.69,13.38,13.08,13.28,13.76,14.30,14.84,15.11,15.13,14.97,14.78,14.55,14.60,14.86,15.20,16.55,17.70,18.46,18.76,18.76,17.63,16.20,14.22,10.80,9.98,9.49,9.17,8.93,8.69,8.33,7.90,7.51,7.44,7.65,7.88,8.14,8.44,8.30,8.14,7.98,7.81,7.57,7.34,7.07,6.76,6.45,6.14
76.52,73.90,71.37,69.18,66.99,65.02,63.99,63.91,64.12,63.16,61.95,60.75,59.81,60.70,62.54,64.85,67.40,70.44,72.92,72.94,70.93,68.42,67.61,67.25,67.18,67.31,67.50,67.43,67.42,67.60,68.02,69.10,70.41,71.95,73.78,75.48,77.04,78.33,79.38,80.62,81.75,82.82,84.77,89.36,92.85,96.22,99.59,103.05,106.56,109.68,112.46,115.09,117.95,120.41,122.32,124.09,126.27,129.10,131.90,134.73,137.67,140.85,143.04,145.01,146.94,148.83,150.29,152.38,154.22,155.01,154.64,151.80,147.85,143.51,139.25,137.46,135.55,133.43,131.48,133.29,135.73,138.64,141.98,146.36,148.94,150.54,151.66,152.97,153.60,154.76,156.04,157.03,158.02,159.02,159.74,160.40,162.12,160.97,159.38,158.67,160.13,163.86,167.70,170.89,172.54,170.15,166.06,161.86,158.34,156.32,154.68,152.59,149.94,146.70,143.64,141.20,137.99,133.35,127.04,120.57,114.95,110.22,106.20,102.37,97.66,92.73,88.16,84.78,82.02,82.03,84.48,87.24,90.18,92.75,95.14,97.63,100.27,103.84,108.25,113.36,118.81,123.83,126.76,127.27,125.41,123.04,120.83,120.51,122.97,125.92,126.20,125.03,122.94,120.28,115.98,111.57,107.08,102.39,96.99,91.39,86.69,84.02,85.79,89.12,92.48,95.11,96.22,95.45,93.17,89.15,83.08,73.19,65.37,60.37,57.81,56.03,54.28,52.60,50.81,48.61,43.94,41.24,39.38,37.75,36.36,34.87,33.34,31.78,30.24,29.19,28.29,27.42,26.50,25.42,24.33,23.26,22.20,21.12,20.16,19.31,18.55,17.87,17.38,16.86,16.35,15.88,15.34,14.88,14.51,14.20,13.89,13.64,13.76,14.14,14.68,15.16,15.70,16.17,16.50,16.61,16.41,16.42,16.83,17.75,18.86,19.51,19.82,19.91,19.91,19.53,19.02,18.11,16.17,12.65,10.52,9.55,9.31,8.97,8.54,8.09,7.71,7.69,7.90,8.17,8.46,8.76,8.66,8.49,8.30,8.13,7.84,7.60,7.32,7.01,6.71,6.40
75.81,72.59,70.06,68.32,66.75,65.72,65.53,65.89,65.75,64.45,63.11,62.01,61.42,62.09,63.93,66.24,68.73,71.92,75.08,75.87,74.24,71.04,69.44,68.68,68.50,68.70,69.12,69.29,69.42,69.56,69.66,70.34,71.48,73.03,74.94,76.78,78.66,80.41,82.03,83.94,85.47,85.99,86.41,88.60,91.62,94.85,98.19,101.55,104.96,108.19,111.19,114.16,117.72,120.67,123.04,125.26,127.83,130.48,133.11,135.67,138.18,140.96,143.05,144.98,146.93,148.97,151.95,154.90,157.16,158.20,157.78,155.06,151.00,146.48,143.04,141.31,139.22,136.74,134.21,134.78,136.69,139.72,143.66,148.21,150.31,151.87,153.42,155.03,156.14,157.83,159.88,161.97,163.52,164.47,164.92,165.12,165.86,164.32,162.66,161.89,163.00,166.52,170.15,173.32,175.31,173.72,170.37,167.00,164.12,161.84,159.62,157.02,153.86,150.01,146.25,143.20,139.23,133.66,126.64,120.32,114.87,110.23,106.27,102.62,98.26,93.65,89.31,86.20,83.96,84.32,86.97,90.03,93.26,96.23,99.14,102.19,105.38,109.12,113.37,118.11,123.40,127.98,130.32,130.35,128.43,125.68,124.48,124.97,126.95,129.03,128.67,127.08,124.72,121.85,117.71,113.57,109.27,104.54,98.91,92.94,88.65,87.37,90.63,93.98,96.74,98.66,99.52,98.21,95.11,90.09,83.02,72.95,64.67,59.70,57.64,56.08,54.55,53.07,51.71,50.42,46.59,43.76,41.47,39.46,37.73,36.01,34.25,32.44,30.58,29.40,28.38,27.43,26.47,25.44,24.37,23.28,22.19,21.19,20.37,19.63,18.98,18.42,17.95,17.43,16.91,16.40,15.78,15.36,15.02,14.72,14.44,14.21,14.21,14.49,15.02,15.49,16.14,16.81,17.40,17.81,17.89,18.09,18.58,19.48,20.20,20.54,20.66,20.65,20.63,20.53,20.38,20.01,19.10,16.09,13.30,11.06,9.61,9.17,8.71,8.25,7.88,7.94,8.18,8.49,8.81,9.08,9.01,8.82,8.61,8.41,8.10,7.83,7.54,7.23,6.92,6.61
