e,e,e,e,e,e,e,e,e,e,e,e,e,e,e,e,e,e,e,e,e,e,e,e,e,e,e,e,e,e,e,0.28,0.59,0.90,1.21,1.52,1.77,2.04,2.35,2.65,2.96,3.27,3.56,3.79,4.10,4.51,4.98,5.40,5.40,5.40,5.40,5.38,5.31,5.16,5.05,4.95,4.80,4.72,4.64,4.53,4.39,4.31,4.17,4.06,3.98,3.90,3.75,3.65,3.54,3.39,3.32,3.24,3.12,2.99,2.91,2.76,2.65,2.58,2.50,2.34,2.24,2.13,1.99,1.91,1.84,1.72,1.58,1.50,1.35,1.25,1.17,1.09,0.93,0.84,0.73,0.59,0.51,0.43,0.35,0.28,0.20,0.12,e,e,e,e,e,0.39,0.93,1.47,2.01,2.50,2.83,2.91,2.98,3.06,3.17,3.31,3.39,3.47,3.55,3.65,3.80,3.88,3.95,4.06,4.20,4.20,4.20,4.20,4.20,4.20,4.27,4.30,4.30,4.30,4.30,4.30,4.34,4.40,4.40,4.40,4.40,4.40,4.40,4.48,4.50,4.50,4.50,4.50,4.50,4.50,4.52,4.59,4.60,4.60,4.60,4.60,4.60,4.66,4.70,4.70,4.70,4.70,4.70,4.70,4.70,4.78,4.80,4.80,4.80,4.80,4.80,4.80,4.80,4.80,4.80,4.80,4.80,4.80,4.80,4.80,4.80,4.80,4.80,4.80,4.80,4.80,4.80,4.80,4.80,4.80,4.80,4.80,4.80,4.80,4.80,4.80,4.80,4.85,4.90,4.90,4.90,4.90,4.90,4.90,4.90,4.90,4.90,4.90,4.90,4.90,4.90,4.90,4.90,4.90,4.90,4.94,5.02,5.09,5.17,5.25,5.35,5.50,5.66,5.81,5.97,6.13,6.36,6.60,6.83,7.04,7.19,7.42,7.60,7.76,7.92,8.15,8.32,8.48,8.65,8.88,9.04,9.19,9.37,9.60,9.84,10.07,10.23,10.32,10.48,10.63,10.74,10.82,10.90,11.12
e,e,e,e,e,e,e,e,e,e,e,e,e,e,e,e,e,e,e,e,e,e,e,e,e,e,e,e,e,e,e,e,0.43,0.71,1.02,1.33,1.62,1.91,2.21,2.47,2.77,3.16,3.60,3.98,4.39,4.86,5.25,5.39,5.24,5.25,5.27,5.27,5.24,5.14,5.05,4.95,4.80,4.72,4.64,4.53,4.39,4.31,4.17,4.06,3.98,3.90,3.75,3.65,3.54,3.39,3.32,3.24,3.12,2.99,2.91,2.76,2.65,2.58,2.50,2.34,2.24,2.13,1.99,1.91,1.84,1.72,1.58,1.50,1.35,1.25,1.17,1.09,0.93,0.84,0.73,0.59,0.51,0.43,0.35,0.28,0.20,0.12,0.04,e,e,e,e,e,0.61,1.15,1.69,2.21,2.59,2.72,2.84,2.93,3.02,3.12,3.20,3.32,3.42,3.50,3.61,3.69,3.80,3.92,4.01,4.06,4.15,4.20,4.20,4.20,4.27,4.30,4.30,4.30,4.30,4.30,4.34,4.40,4.40,4.40,4.40,4.40,4.40,4.43,4.47,4.50,4.50,4.50,4.50,4.50,4.52,4.59,4.60,4.60,4.60,4.60,4.60,4.66,4.70,4.70,4.70,4.70,4.70,4.70,4.70,4.78,4.80,4.80,4.80,4.80,4.80,4.80,4.80,4.80,4.80,4.80,4.80,4.80,4.85,4.86,4.84,4.80,4.80,4.80,4.80,4.80,4.80,4.80,4.80,4.80,4.80,4.80,4.80,4.80,4.80,4.80,4.80,4.82,4.85,4.90,4.90,4.90,4.90,4.90,4.90,4.90,4.90,4.90,4.90,4.90,4.90,4.90,4.90,4.90,4.90,4.91,4.94,4.97,5.09,5.21,5.37,5.57,5.67,5.81,5.97,6.13,6.36,6.60,6.83,7.05,7.26,7.44,7.64,7.82,7.98,8.21,8.39,8.54,8.71,8.94,9.10,9.26,9.44,9.67,9.90,10.10,10.25,10.38,10.54,10.69,10.83,10.95,11.02,11.25
e,e,e,e,e,e,e,e,e,e,e,e,e,e,e,e,e,e,e,e,e,e,e,e,e,e,e,e,e,e,e,e,e,0.54,0.85,1.16,1.47,1.81,2.17,2.47,2.81,3.27,3.79,4.25,4.71,5.17,5.37,5.17,5.07,5.11,5.14,5.14,5.14,5.07,5.01,4.93,4.80,4.72,4.64,4.53,4.39,4.31,4.17,4.06,3.98,3.90,3.75,3.65,3.54,3.39,3.32,3.24,3.12,2.99,2.91,2.76,2.65,2.58,2.50,2.34,2.24,2.13,1.99,1.91,1.84,1.72,1.58,1.50,1.35,1.25,1.17,1.09,0.93,0.84,0.74,0.61,0.54,0.46,0.38,0.30,0.23,0.15,0.07,e,e,e,e,e,e,e,1.40,1.94,2.36,2.55,2.69,2.78,2.86,2.96,3.04,3.16,3.26,3.35,3.44,3.52,3.64,3.75,3.83,3.93,4.05,4.13,4.15,4.20,4.27,4.30,4.30,4.30,4.30,4.30,4.34,4.40,4.40,4.40,4.40,4.40,4.40,4.40,4.45,4.50,4.50,4.50,4.50,4.50,4.52,4.59,4.60,4.60,4.60,4.60,4.60,4.64,4.68,4.70,4.70,4.70,4.70,4.70,4.70,4.78,4.80,4.80,4.80,4.80,4.80,4.80,4.80,4.80,4.80,4.80,4.80,4.80,4.88,4.90,4.87,4.83,4.83,4.83,4.83,4.83,4.83,4.81,4.80,4.80,4.80,4.80,4.80,4.80,4.80,4.80,4.80,4.80,4.82,4.87,4.87,4.89,4.90,4.90,4.90,4.90,4.90,4.90,4.90,4.90,4.90,4.90,4.90,4.90,4.90,4.90,4.90,4.90,5.04,5.21,5.39,5.57,5.65,5.80,5.98,6.16,6.37,6.60,6.83,7.06,7.29,7.47,7.67,7.87,8.05,8.28,8.45,8.60,8.77,9.00,9.17,9.32,9.50,9.73,9.94,10.11,10.27,10.42,10.58,10.75,10.91,11.05,11.15,11.36
e,e,e,e,e,e,e,e,e,e,e,e,e,e,e,e,e,e,e,e,e,e,e,e,e,e,e,e,e,e,e,e,e,0.42,0.73,1.03,1.34,1.75,2.26,2.70,3.15,3.65,4.17,4.63,5.10,5.42,5.32,4.68,4.88,4.98,5.02,5.02,5.02,4.95,4.91,4.88,4.80,4.72,4.64,4.53,4.39,4.31,4.17,4.06,3.98,3.90,3.75,3.65,3.54,3.39,3.32,3.24,3.12,2.99,2.91,2.76,2.65,2.58,2.50,2.34,2.24,2.13,1.99,1.91,1.84,1.72,1.58,1.50,1.35,1.25,1.17,1.09,0.93,0.84,0.76,0.68,0.60,0.52,0.45,0.37,0.29,0.21,0.14,e,e,e,e,e,e,e,1.15,1.69,2.14,2.42,2.51,2.58,2.70,2.83,2.91,2.99,3.07,3.17,3.32,3.39,3.48,3.56,3.64,3.79,3.89,3.96,4.05,4.19,4.27,4.30,4.30,4.30,4.30,4.30,4.34,4.40,4.40,4.40,4.40,4.40,4.40,4.40,4.45,4.50,4.50,4.50,4.50,4.50,4.52,4.59,4.60,4.60,4.60,4.60,4.60,4.60,4.64,4.70,4.70,4.70,4.70,4.70,4.70,4.78,4.80,4.80,4.80,4.80,4.80,4.80,4.80,4.80,4.80,4.80,4.80,4.80,4.88,4.90,4.90,4.89,4.89,4.89,4.89,4.89,4.89,4.82,4.80,4.80,4.80,4.80,4.80,4.80,4.80,4.80,4.80,4.80,4.80,4.81,4.81,4.86,4.90,4.90,4.90,4.90,4.90,4.90,4.90,4.90,4.90,4.90,4.90,4.90,4.90,4.90,4.90,4.90,5.04,5.24,5.42,5.51,5.59,5.77,6.00,6.21,6.38,6.60,6.83,7.06,7.29,7.52,7.70,7.88,8.11,8.34,8.51,8.67,8.84,9.07,9.23,9.39,9.56,9.79,9.96,10.11,10.27,10.42,10.58,10.79,10.98,11.13,11.28,11.44
e,e,e,e,e,e,e,e,e,e,e,e,e,e,e,e,e,e,e,e,e,e,e,e,e,e,e,e,e,e,e,e,e,0.39,0.82,1.22,1.61,2.07,2.60,3.06,3.53,4.01,4.51,5.02,5.40,5.33,4.93,4.40,4.68,4.79,4.83,4.83,4.83,4.80,4.79,4.78,4.74,4.71,4.64,4.53,4.39,4.31,4.17,4.06,3.98,3.90,3.75,3.65,3.54,3.39,3.32,3.24,3.12,2.99,2.91,2.76,2.65,2.58,2.50,2.34,2.24,2.13,1.99,1.91,1.84,1.72,1.58,1.50,1.35,1.25,1.17,1.09,0.98,0.90,0.82,0.74,0.66,0.59,0.51,0.43,0.35,0.28,0.20,0.12,e,e,e,e,e,e,0.83,1.37,1.86,2.24,2.32,2.43,2.54,2.65,2.72,2.84,2.93,3.02,3.13,3.21,3.32,3.42,3.50,3.61,3.70,3.80,3.92,4.03,4.11,4.19,4.26,4.30,4.30,4.30,4.32,4.35,4.39,4.40,4.40,4.40,4.40,4.40,4.45,4.50,4.50,4.50,4.50,4.50,4.52,4.59,4.60,4.60,4.60,4.60,4.60,4.60,4.64,4.70,4.70,4.70,4.70,4.70,4.70,4.78,4.80,4.80,4.80,4.80,4.80,4.80,4.80,4.80,4.80,4.80,4.80,4.80,4.88,4.90,4.90,4.90,4.90,4.90,4.90,4.90,4.90,4.87,4.86,4.86,4.86,4.86,4.86,4.83,4.80,4.80,4.80,4.80,4.80,4.80,4.80,4.83,4.84,4.85,4.89,4.90,4.90,4.90,4.90,4.90,4.90,4.90,4.90,4.90,4.90,4.90,4.91,4.95,5.10,5.22,5.33,5.45,5.57,5.77,6.00,6.23,6.43,6.62,6.83,7.06,7.29,7.52,7.73,7.94,8.17,8.36,8.56,8.73,8.90,9.13,9.29,9.45,9.63,9.86,10.01,10.17,10.32,10.48,10.63,10.81,10.98,11.16,11.40,11.60
e,e,e,e,e,e,e,e,e,e,e,e,e,e,e,e,e,e,e,e,e,e,e,e,e,e,e,e,e,e,e,e,e,e,1.01,1.49,1.96,2.45,2.97,3.44,3.91,4.37,4.86,5.40,5.53,5.10,4.52,4.19,4.50,4.62,4.66,4.66,4.66,4.66,4.66,4.66,4.66,4.65,4.60,4.51,4.39,4.31,4.17,4.06,3.98,3.90,3.75,3.65,3.54,3.39,3.32,3.24,3.12,2.99,2.91,2.76,2.65,2.58,2.50,2.34,2.24,2.13,1.99,1.91,1.84,1.72,1.58,1.50,1.35,1.25,1.17,1.09,1.02,0.94,0.86,0.79,0.71,0.63,0.55,0.48,0.40,0.32,0.24,0.17,0.09,0.01,e,e,e,e,e,1.07,1.59,2.03,2.14,2.27,2.38,2.46,2.55,2.68,2.79,2.87,2.96,3.04,3.16,3.27,3.35,3.44,3.52,3.63,3.76,3.84,3.93,4.05,4.17,4.24,4.27,4.29,4.30,4.31,4.39,4.40,4.40,4.40,4.40,4.40,4.45,4.50,4.50,4.50,4.50,4.50,4.51,4.58,4.59,4.60,4.60,4.60,4.60,4.60,4.64,4.70,4.70,4.70,4.70,4.70,4.70,4.78,4.80,4.80,4.80,4.80,4.80,4.80,4.80,4.80,4.80,4.80,4.80,4.80,4.88,4.90,4.90,4.90,4.90,4.90,4.90,4.90,4.90,4.90,4.90,4.90,4.90,4.90,4.90,4.87,4.82,4.82,4.82,4.82,4.82,4.82,4.80,4.80,4.80,4.81,4.87,4.89,4.90,4.90,4.90,4.90,4.90,4.90,4.90,4.90,4.90,4.90,4.91,4.98,5.11,5.17,5.23,5.40,5.57,5.78,6.00,6.23,6.46,6.64,6.84,7.06,7.29,7.52,7.76,7.99,8.21,8.38,8.59,8.78,8.96,9.20,9.36,9.51,9.69,9.92,10.08,10.23,10.39,10.54,10.69,10.84,11.00,11.22,11.53,11.76
e,e,e,e,e,e,e,e,e,e,e,e,e,e,e,e,e,e,e,e,e,e,e,e,e,e,e,e,e,e,e,e,e,e,1.33,1.86,2.34,2.81,3.29,3.82,4.29,4.76,5.24,5.78,5.29,4.65,4.16,4.06,4.37,4.49,4.53,4.53,4.53,4.53,4.53,4.53,4.53,4.47,4.44,4.42,4.39,4.31,4.17,4.06,3.98,3.90,3.75,3.65,3.54,3.39,3.32,3.24,3.12,2.99,2.91,2.76,2.65,2.58,2.50,2.34,2.24,2.13,1.99,1.91,1.84,1.72,1.58,1.50,1.35,1.25,1.17,1.09,1.02,0.94,0.86,0.79,0.71,0.63,0.55,0.48,0.40,0.32,0.24,0.17,0.09,0.01,e,e,e,e,e,0.82,1.33,1.78,1.99,2.10,2.19,2.28,2.42,2.51,2.60,2.69,2.83,2.91,3.00,3.08,3.17,3.31,3.40,3.48,3.57,3.65,3.78,3.89,3.98,4.06,4.19,4.27,4.30,4.31,4.39,4.40,4.40,4.40,4.40,4.40,4.45,4.50,4.50,4.50,4.50,4.50,4.50,4.52,4.58,4.60,4.60,4.60,4.60,4.60,4.64,4.70,4.70,4.70,4.70,4.70,4.70,4.78,4.80,4.80,4.80,4.80,4.80,4.80,4.80,4.80,4.80,4.80,4.80,4.80,4.88,4.90,4.90,4.90,4.90,4.90,4.90,4.90,4.90,4.90,4.90,4.90,4.90,4.90,4.90,4.89,4.88,4.88,4.88,4.88,4.88,4.88,4.82,4.80,4.80,4.80,4.81,4.87,4.90,4.90,4.90,4.90,4.90,4.90,4.90,4.90,4.90,4.90,4.90,4.92,5.00,5.07,5.19,5.41,5.62,5.81,6.00,6.23,6.46,6.69,6.88,7.06,7.29,7.52,7.76,7.99,8.22,8.44,8.61,8.81,9.03,9.26,9.42,9.58,9.76,9.99,10.14,10.30,10.45,10.60,10.76,10.86,11.05,11.34,11.65,11.89
e,e,e,e,e,e,e,e,e,e,e,e,e,e,e,e,e,e,e,e,e,e,e,e,e,e,e,e,e,e,e,e,e,e,e,e,2.72,3.19,3.66,4.20,4.68,5.14,5.50,5.57,4.90,4.20,3.80,3.88,4.19,4.35,4.41,4.41,4.41,4.37,4.36,4.36,4.36,4.32,4.31,4.31,4.30,4.26,4.15,4.06,3.98,3.90,3.75,3.65,3.54,3.39,3.32,3.24,3.12,2.99,2.91,2.76,2.65,2.58,2.50,2.34,2.24,2.13,1.99,1.91,1.84,1.72,1.58,1.50,1.39,1.30,1.22,1.14,1.06,0.99,0.91,0.83,0.76,0.68,0.60,0.52,0.45,0.37,0.29,0.21,0.14,0.06,e,e,e,e,e,e,1.04,1.53,1.80,1.95,2.04,2.13,2.24,2.33,2.43,2.54,2.66,2.74,2.84,2.94,3.02,3.14,3.22,3.32,3.42,3.50,3.62,3.71,3.80,3.91,4.03,4.12,4.19,4.27,4.34,4.38,4.40,4.40,4.40,4.40,4.45,4.50,4.50,4.50,4.50,4.50,4.50,4.50,4.57,4.60,4.60,4.60,4.60,4.60,4.64,4.70,4.70,4.70,4.70,4.70,4.70,4.74,4.78,4.80,4.80,4.80,4.80,4.80,4.81,4.84,4.85,4.82,4.80,4.80,4.84,4.88,4.90,4.90,4.90,4.90,4.90,4.90,4.90,4.90,4.90,4.90,4.90,4.90,4.90,4.90,4.90,4.90,4.90,4.90,4.90,4.90,4.86,4.85,4.85,4.85,4.85,4.88,4.90,4.90,4.90,4.90,4.90,4.90,4.90,4.90,4.90,4.90,4.90,4.90,4.94,5.02,5.17,5.41,5.64,5.84,6.03,6.23,6.46,6.70,6.91,7.10,7.29,7.52,7.76,7.99,8.22,8.45,8.65,8.84,9.05,9.28,9.47,9.64,9.81,10.00,10.16,10.31,10.47,10.62,10.73,10.91,11.16,11.47,11.78,12.02
e,e,e,e,e,e,e,e,e,e,e,e,e,e,e,e,e,e,e,e,e,e,e,e,e,e,e,e,e,e,e,e,e,e,e,e,2.99,3.57,4.04,4.58,5.06,5.47,5.62,5.13,4.44,3.77,3.46,3.70,4.01,4.19,4.27,4.27,4.27,4.20,4.18,4.18,4.18,4.18,4.18,4.18,4.18,4.17,4.11,4.04,3.97,3.90,3.75,3.65,3.54,3.39,3.32,3.24,3.12,2.99,2.91,2.76,2.65,2.58,2.50,2.34,2.24,2.13,1.99,1.91,1.84,1.72,1.58,1.50,1.43,1.35,1.28,1.21,1.13,1.05,0.97,0.90,0.82,0.74,0.66,0.59,0.51,0.43,0.36,0.28,0.20,0.12,0.05,e,e,e,e,e,0.75,1.27,1.60,1.79,1.90,1.98,2.07,2.15,2.26,2.39,2.47,2.55,2.68,2.80,2.88,2.95,3.04,3.16,3.29,3.36,3.45,3.53,3.63,3.77,3.85,3.93,4.05,4.18,4.26,4.34,4.38,4.39,4.40,4.40,4.45,4.50,4.50,4.50,4.50,4.50,4.50,4.50,4.57,4.60,4.60,4.60,4.60,4.60,4.64,4.70,4.70,4.70,4.70,4.70,4.70,4.70,4.75,4.80,4.80,4.80,4.80,4.80,4.82,4.89,4.90,4.86,4.81,4.80,4.80,4.86,4.90,4.90,4.90,4.90,4.90,4.90,4.90,4.90,4.90,4.90,4.90,4.90,4.90,4.90,4.90,4.90,4.90,4.90,4.90,4.90,4.90,4.90,4.90,4.90,4.90,4.90,4.90,4.90,4.90,4.90,4.90,4.90,4.90,4.90,4.90,4.90,4.90,4.90,4.91,5.01,5.19,5.42,5.64,5.87,6.07,6.24,6.47,6.70,6.93,7.14,7.31,7.53,7.76,7.99,8.22,8.45,8.68,8.88,9.05,9.28,9.51,9.70,9.86,10.01,10.17,10.32,10.47,10.61,10.71,10.98,11.29,11.60,11.91,12.14
e,e,e,e,e,e,e,e,e,e,e,e,e,e,e,e,e,e,e,e,e,e,e,e,e,e,e,e,e,e,e,e,e,e,e,e,2.71,3.95,4.42,4.90,5.42,5.55,5.26,4.62,3.93,3.43,3.28,3.58,3.88,4.03,4.08,4.08,4.08,4.06,4.05,4.05,4.05,4.05,4.05,4.05,4.04,3.98,3.96,3.94,3.92,3.90,3.75,3.65,3.54,3.39,3.32,3.24,3.12,2.99,2.91,2.76,2.65,2.58,2.50,2.34,2.24,2.13,1.99,1.91,1.84,1.72,1.58,1.50,1.43,1.35,1.29,1.27,1.19,1.12,1.04,0.96,0.88,0.81,0.73,0.65,0.57,0.50,0.42,0.34,0.27,0.19,0.11,e,e,e,e,e,0.47,0.96,1.44,1.62,1.71,1.80,1.93,2.02,2.11,2.20,2.28,2.41,2.52,2.61,2.68,2.76,2.89,3.00,3.09,3.17,3.30,3.40,3.48,3.58,3.66,3.78,3.90,3.99,4.07,4.19,4.28,4.34,4.40,4.40,4.45,4.50,4.50,4.50,4.50,4.50,4.50,4.50,4.57,4.60,4.60,4.60,4.60,4.60,4.64,4.70,4.70,4.70,4.70,4.70,4.70,4.70,4.75,4.80,4.80,4.80,4.80,4.80,4.82,4.89,4.90,4.89,4.86,4.80,4.80,4.86,4.90,4.90,4.90,4.90,4.90,4.90,4.90,4.90,4.90,4.90,4.90,4.90,4.90,4.90,4.90,4.90,4.90,4.90,4.90,4.90,4.90,4.90,4.90,4.90,4.90,4.90,4.90,4.90,4.90,4.90,4.90,4.90,4.90,4.90,4.90,4.90,4.90,4.90,4.95,5.07,5.25,5.48,5.65,5.87,6.09,6.30,6.47,6.70,6.93,7.15,7.37,7.54,7.76,7.99,8.22,8.45,8.68,8.90,9.11,9.28,9.51,9.73,9.92,10.08,10.23,10.39,10.52,10.63,10.82,11.11,11.42,11.73,12.04,12.27
e,e,e,e,e,e,e,e,e,e,e,e,e,e,e,e,e,e,e,e,e,e,e,e,e,e,e,e,e,e,e,e,e,e,e,e,e,3.70,4.80,5.26,5.56,5.40,4.85,4.15,3.46,3.10,3.10,3.41,3.72,3.87,3.92,3.92,3.92,3.92,3.92,3.92,3.92,3.89,3.88,3.88,3.88,3.83,3.82,3.82,3.82,3.82,3.73,3.65,3.54,3.39,3.32,3.24,3.12,2.99,2.91,2.76,2.65,2.58,2.50,2.34,2.24,2.13,1.99,1.91,1.84,1.73,1.62,1.54,1.47,1.39,1.33,1.29,1.22,1.14,1.06,0.99,0.91,0.83,0.75,0.68,0.60,0.52,0.44,0.37,0.29,0.21,0.14,0.06,e,e,e,e,e,0.68,1.22,1.43,1.53,1.64,1.77,1.85,1.95,2.05,2.12,2.25,2.34,2.43,2.53,2.61,2.72,2.82,2.91,3.02,3.14,3.23,3.32,3.43,3.50,3.62,3.72,3.80,3.91,4.03,4.13,4.21,4.28,4.34,4.42,4.47,4.50,4.50,4.50,4.50,4.50,4.50,4.57,4.60,4.60,4.60,4.60,4.60,4.64,4.70,4.70,4.70,4.70,4.70,4.70,4.70,4.75,4.80,4.80,4.80,4.80,4.80,4.82,4.89,4.90,4.90,4.88,4.84,4.81,4.86,4.90,4.90,4.90,4.90,4.90,4.90,4.90,4.90,4.90,4.90,4.90,4.90,4.90,4.90,4.90,4.90,4.90,4.90,4.90,4.90,4.90,4.90,4.90,4.90,4.90,4.90,4.90,4.90,4.90,4.90,4.90,4.90,4.90,4.90,4.90,4.90,4.90,4.90,5.00,5.13,5.31,5.54,5.70,5.89,6.10,6.33,6.51,6.71,6.93,7.16,7.39,7.58,7.77,7.99,8.22,8.45,8.68,8.91,9.14,9.32,9.55,9.78,9.99,10.14,10.27,10.39,10.53,10.71,10.94,11.24,11.55,11.86,12.16,12.40
e,e,e,e,e,e,e,e,e,e,e,e,e,e,e,e,e,e,e,e,e,e,e,e,e,e,e,e,e,e,e,e,e,e,e,e,e,e,5.12,5.62,5.56,5.09,4.40,3.70,3.01,2.79,2.91,3.22,3.53,3.72,3.79,3.79,3.79,3.79,3.79,3.79,3.79,3.72,3.69,3.69,3.69,3.69,3.69,3.69,3.69,3.69,3.69,3.64,3.54,3.39,3.32,3.24,3.12,2.99,2.91,2.76,2.65,2.58,2.50,2.34,2.24,2.14,1.99,1.92,1.84,1.76,1.68,1.61,1.53,1.45,1.37,1.30,1.22,1.14,1.07,0.99,0.91,0.83,0.76,0.68,0.60,0.52,0.45,0.37,0.29,0.22,0.14,0.06,e,e,e,e,e,e,e,1.21,1.37,1.51,1.58,1.66,1.78,1.91,1.99,2.07,2.15,2.26,2.40,2.48,2.56,2.64,2.73,2.88,2.96,3.04,3.15,3.30,3.37,3.45,3.53,3.62,3.77,3.86,3.94,4.02,4.09,4.25,4.35,4.42,4.49,4.50,4.50,4.50,4.50,4.50,4.57,4.60,4.60,4.60,4.60,4.60,4.63,4.70,4.70,4.70,4.70,4.70,4.70,4.70,4.75,4.80,4.80,4.80,4.80,4.80,4.82,4.89,4.90,4.90,4.90,4.90,4.82,4.86,4.90,4.90,4.90,4.90,4.90,4.90,4.90,4.90,4.90,4.90,4.90,4.90,4.90,4.90,4.90,4.90,4.90,4.90,4.90,4.90,4.90,4.90,4.90,4.90,4.90,4.90,4.90,4.90,4.90,4.90,4.90,4.90,4.90,4.90,4.90,4.90,4.90,4.90,5.04,5.20,5.38,5.60,5.76,5.92,6.10,6.34,6.57,6.73,6.93,7.16,7.39,7.62,7.80,7.99,8.22,8.45,8.68,8.92,9.15,9.38,9.61,9.84,10.05,10.20,10.28,10.36,10.54,10.83,11.07,11.37,11.67,11.98,12.29,12.53
e,e,e,e,e,e,e,e,e,e,e,e,e,e,e,e,e,e,e,e,e,e,e,e,e,e,e,e,e,e,e,e,e,e,e,e,e,e,4.04,5.48,5.26,4.65,3.95,3.26,2.61,2.54,2.78,3.09,3.35,3.56,3.67,3.67,3.67,3.62,3.60,3.60,3.60,3.57,3.57,3.57,3.57,3.57,3.57,3.57,3.55,3.50,3.50,3.48,3.45,3.39,3.32,3.24,3.12,2.99,2.91,2.76,2.65,2.58,2.50,2.34,2.24,2.16,2.06,1.98,1.90,1.82,1.75,1.67,1.59,1.52,1.44,1.36,1.28,1.21,1.13,1.05,0.97,0.90,0.82,0.74,0.67,0.59,0.51,0.43,0.36,0.28,0.20,0.13,e,e,e,e,e,e,e,1.00,1.22,1.31,1.39,1.51,1.63,1.72,1.80,1.93,2.02,2.11,2.21,2.29,2.41,2.51,2.59,2.69,2.77,2.88,3.00,3.10,3.18,3.30,3.40,3.48,3.59,3.67,3.78,3.89,3.97,4.07,4.15,4.25,4.37,4.42,4.48,4.50,4.50,4.50,4.57,4.60,4.60,4.60,4.60,4.60,4.61,4.64,4.69,4.70,4.70,4.70,4.70,4.70,4.75,4.80,4.80,4.80,4.80,4.80,4.82,4.89,4.90,4.90,4.90,4.90,4.87,4.85,4.86,4.90,4.90,4.90,4.90,4.90,4.90,4.90,4.90,4.90,4.90,4.90,4.90,4.90,4.90,4.90,4.90,4.90,4.90,4.90,4.90,4.90,4.90,4.90,4.90,4.90,4.90,4.90,4.90,4.90,4.90,4.90,4.90,4.90,4.90,4.90,4.91,4.96,5.11,5.26,5.42,5.61,5.81,5.98,6.17,6.39,6.57,6.77,6.97,7.16,7.39,7.62,7.84,8.05,8.29,8.52,8.75,8.96,9.15,9.38,9.61,9.84,10.03,10.13,10.21,10.40,10.64,10.90,11.19,11.49,11.80,12.11,12.42,12.65
e,e,e,e,e,e,e,e,e,e,e,e,e,e,e,e,e,e,e,e,e,e,e,e,e,e,e,e,e,e,e,e,e,e,e,e,e,e,2.84,4.98,4.83,4.20,3.51,2.81,2.30,2.33,2.63,2.93,3.19,3.40,3.51,3.51,3.51,3.46,3.44,3.44,3.44,3.44,3.44,3.44,3.44,3.41,3.41,3.41,3.40,3.34,3.34,3.34,3.34,3.34,3.28,3.21,3.11,2.99,2.91,2.76,2.65,2.58,2.50,2.34,2.24,2.17,2.09,2.01,1.94,1.86,1.78,1.70,1.63,1.55,1.47,1.39,1.32,1.24,1.16,1.09,1.01,0.93,0.85,0.78,0.70,0.65,0.58,0.50,0.42,0.34,0.27,0.19,0.11,0.03,e,e,e,e,e,0.79,1.06,1.15,1.23,1.35,1.45,1.54,1.64,1.77,1.86,1.95,2.05,2.13,2.25,2.35,2.43,2.53,2.61,2.72,2.84,2.91,3.01,3.14,3.24,3.33,3.43,3.51,3.62,3.73,3.81,3.91,3.99,4.09,4.22,4.29,4.39,4.45,4.47,4.50,4.57,4.60,4.60,4.60,4.60,4.60,4.60,4.61,4.69,4.70,4.70,4.70,4.70,4.70,4.75,4.80,4.80,4.80,4.80,4.80,4.81,4.87,4.89,4.90,4.90,4.90,4.90,4.86,4.85,4.90,4.90,4.90,4.90,4.90,4.90,4.90,4.90,4.90,4.90,4.90,4.90,4.90,4.90,4.90,4.90,4.90,4.90,4.90,4.90,4.90,4.90,4.90,4.90,4.90,4.90,4.90,4.90,4.90,4.90,4.90,4.90,4.90,4.90,4.90,4.92,5.02,5.17,5.33,5.48,5.64,5.84,6.03,6.22,6.43,6.60,6.81,7.00,7.18,7.39,7.62,7.84,8.06,8.29,8.52,8.75,8.95,9.12,9.35,9.58,9.81,9.99,10.07,10.22,10.48,10.76,11.00,11.31,11.62,11.93,12.23,12.52,12.77
e,e,e,e,e,e,e,e,e,e,e,e,e,e,e,e,e,e,e,e,e,e,e,e,e,e,e,e,e,e,e,e,e,e,e,e,e,e,1.50,4.09,4.25,3.75,3.06,2.36,2.09,2.17,2.43,2.74,3.05,3.24,3.32,3.32,3.32,3.31,3.31,3.31,3.31,3.31,3.31,3.31,3.30,3.23,3.22,3.22,3.22,3.21,3.21,3.21,3.21,3.21,3.21,3.15,3.07,2.99,2.91,2.76,2.65,2.58,2.50,2.34,2.24,2.17,2.09,2.01,1.94,1.86,1.78,1.70,1.63,1.55,1.47,1.39,1.32,1.24,1.16,1.09,1.01,0.93,0.85,0.78,0.70,0.70,0.64,0.56,0.48,0.41,0.33,0.25,0.18,0.10,e,e,e,e,e,0.57,0.89,1.03,1.10,1.18,1.26,1.36,1.51,1.59,1.67,1.78,1.92,2.00,2.08,2.16,2.25,2.40,2.48,2.56,2.64,2.73,2.88,2.97,3.05,3.14,3.29,3.38,3.46,3.54,3.62,3.77,3.87,3.94,4.03,4.10,4.24,4.35,4.42,4.49,4.57,4.60,4.60,4.60,4.60,4.60,4.60,4.61,4.69,4.70,4.70,4.70,4.70,4.70,4.75,4.80,4.80,4.80,4.80,4.80,4.80,4.81,4.87,4.90,4.90,4.90,4.90,4.90,4.90,4.90,4.90,4.90,4.90,4.90,4.90,4.90,4.90,4.90,4.90,4.90,4.90,4.90,4.90,4.90,4.90,4.90,4.90,4.90,4.90,4.90,4.90,4.90,4.90,4.90,4.90,4.90,4.90,4.90,4.90,4.90,4.90,4.90,4.90,4.90,4.93,5.08,5.23,5.39,5.54,5.70,5.86,6.07,6.26,6.43,6.66,6.83,7.03,7.24,7.39,7.62,7.81,7.99,8.22,8.46,8.69,8.88,9.05,9.28,9.51,9.75,9.93,10.01,10.31,10.61,10.89,11.13,11.44,11.75,12.06,12.35,12.58,12.89
e,e,e,e,e,e,e,e,e,e,e,e,e,e,e,e,e,e,e,e,e,e,e,e,e,e,e,e,e,e,e,e,e,e,e,e,e,e,e,e,3.46,3.25,2.55,1.86,1.83,2.01,2.30,2.61,2.87,3.08,3.18,3.18,3.18,3.18,3.18,3.18,3.18,3.14,3.13,3.13,3.12,3.09,3.08,3.08,3.08,3.08,3.08,3.08,3.07,3.03,3.03,3.00,2.97,2.94,2.90,2.76,2.65,2.58,2.50,2.39,2.30,2.23,2.15,2.07,1.99,1.92,1.84,1.76,1.68,1.61,1.53,1.45,1.38,1.30,1.22,1.14,1.07,0.99,0.91,0.83,0.76,0.71,0.64,0.57,0.49,0.41,0.34,0.26,0.18,0.10,0.03,e,e,e,e,e,0.66,0.84,0.92,1.03,1.13,1.22,1.33,1.40,1.51,1.63,1.73,1.81,1.93,2.02,2.11,2.22,2.30,2.40,2.51,2.59,2.70,2.78,2.88,3.00,3.11,3.19,3.30,3.41,3.48,3.59,3.68,3.77,3.89,3.97,4.07,4.17,4.25,4.38,4.46,4.51,4.56,4.60,4.60,4.60,4.60,4.61,4.69,4.70,4.70,4.70,4.70,4.70,4.75,4.80,4.80,4.80,4.80,4.80,4.80,4.80,4.87,4.90,4.90,4.90,4.90,4.90,4.90,4.90,4.90,4.90,4.90,4.90,4.90,4.90,4.90,4.90,4.90,4.90,4.90,4.90,4.90,4.90,4.90,4.90,4.90,4.90,4.90,4.90,4.90,4.90,4.90,4.90,4.90,4.90,4.90,4.90,4.90,4.90,4.90,4.90,4.90,4.92,4.99,5.14,5.30,5.45,5.61,5.76,5.92,6.09,6.29,6.48,6.67,6.87,7.06,7.25,7.45,7.64,7.83,8.05,8.27,8.46,8.65,8.84,9.04,9.22,9.45,9.68,9.91,10.12,10.43,10.74,11.02,11.26,11.57,11.88,12.19,12.47,12.71,13.01
e,e,e,e,e,e,e,e,e,e,e,e,e,e,e,e,e,e,e,e,e,e,e,e,e,e,e,e,e,e,e,e,e,e,e,e,e,e,e,e,e,2.76,2.08,1.43,1.59,1.85,2.15,2.45,2.70,2.94,3.06,3.06,3.06,3.04,3.03,3.03,3.03,2.97,2.96,2.96,2.96,2.96,2.96,2.96,2.95,2.93,2.93,2.93,2.91,2.86,2.86,2.86,2.86,2.86,2.86,2.75,2.66,2.60,2.52,2.44,2.37,2.29,2.21,2.13,2.06,1.98,1.90,1.83,1.75,1.67,1.59,1.52,1.44,1.36,1.29,1.21,1.13,1.05,0.98,0.90,0.82,0.74,0.67,0.59,0.51,0.44,0.36,0.28,0.20,0.13,0.05,e,e,e,e,e,0.43,0.65,0.74,0.88,0.98,1.06,1.16,1.23,1.35,1.47,1.54,1.64,1.77,1.87,1.96,2.05,2.13,2.24,2.36,2.44,2.53,2.61,2.72,2.85,2.92,3.02,3.14,3.26,3.33,3.43,3.51,3.61,3.74,3.82,3.91,4.00,4.09,4.22,4.31,4.39,4.48,4.56,4.57,4.59,4.60,4.61,4.69,4.70,4.70,4.70,4.70,4.70,4.74,4.78,4.80,4.80,4.80,4.80,4.80,4.80,4.87,4.90,4.90,4.90,4.90,4.90,4.90,4.90,4.90,4.90,4.90,4.90,4.90,4.90,4.90,4.90,4.90,4.90,4.90,4.90,4.90,4.90,4.90,4.90,4.90,4.90,4.90,4.90,4.90,4.90,4.90,4.90,4.90,4.90,4.90,4.90,4.90,4.90,4.90,4.90,4.90,4.95,5.05,5.21,5.36,5.52,5.67,5.83,5.96,6.11,6.30,6.52,6.68,6.90,7.09,7.26,7.49,7.67,7.87,8.09,8.31,8.49,8.64,8.84,9.05,9.21,9.42,9.64,9.90,10.21,10.53,10.86,11.14,11.39,11.69,12.00,12.31,12.60,12.83,13.14
e,e,e,e,e,e,e,e,e,e,e,e,e,e,e,e,e,e,e,e,e,e,e,e,e,e,e,e,e,e,e,e,e,e,e,e,e,e,e,e,e,2.31,1.67,1.17,1.43,1.69,1.96,2.27,2.56,2.81,2.93,2.93,2.93,2.87,2.84,2.84,2.84,2.83,2.83,2.83,2.83,2.83,2.83,2.83,2.81,2.74,2.74,2.74,2.74,2.73,2.73,2.73,2.73,2.73,2.73,2.71,2.69,2.66,2.58,2.51,2.43,2.35,2.28,2.20,2.12,2.04,1.97,1.89,1.81,1.74,1.66,1.58,1.50,1.43,1.35,1.27,1.19,1.12,1.04,0.96,0.89,0.81,0.73,0.65,0.58,0.50,0.42,0.34,0.27,0.19,0.11,e,e,e,e,e,0.20,0.47,0.61,0.71,0.79,0.88,1.03,1.11,1.19,1.27,1.36,1.50,1.60,1.68,1.78,1.92,2.00,2.08,2.17,2.25,2.39,2.49,2.57,2.66,2.73,2.87,2.98,3.06,3.14,3.28,3.38,3.46,3.55,3.63,3.76,3.87,3.95,4.04,4.11,4.23,4.35,4.43,4.50,4.56,4.60,4.61,4.69,4.70,4.70,4.70,4.70,4.70,4.71,4.74,4.80,4.80,4.80,4.80,4.80,4.80,4.87,4.90,4.90,4.90,4.90,4.90,4.90,4.90,4.90,4.90,4.90,4.90,4.90,4.90,4.90,4.90,4.90,4.90,4.90,4.90,4.90,4.90,4.90,4.90,4.90,4.90,4.90,4.90,4.90,4.90,4.90,4.90,4.90,4.90,4.90,4.90,4.90,4.90,4.90,4.90,4.90,4.97,5.12,5.27,5.43,5.58,5.74,5.89,5.98,6.11,6.30,6.52,6.68,6.90,7.09,7.26,7.49,7.71,7.90,8.09,8.32,8.54,8.71,8.90,9.12,9.27,9.44,9.64,9.90,10.21,10.58,10.96,11.27,11.51,11.82,12.13,12.44,12.73,12.96,13.27
e,e,e,e,e,e,e,e,e,e,e,e,e,e,e,e,e,e,e,e,e,e,e,e,e,e,e,e,e,e,e,e,e,e,e,e,e,e,e,e,e,1.64,1.27,0.96,1.25,1.53,1.82,2.12,2.39,2.63,2.75,2.75,2.75,2.72,2.70,2.70,2.70,2.70,2.70,2.70,2.69,2.66,2.65,2.65,2.64,2.60,2.60,2.60,2.60,2.60,2.60,2.60,2.58,2.56,2.60,2.63,2.67,2.68,2.60,2.52,2.44,2.37,2.29,2.21,2.14,2.06,1.98,1.90,1.83,1.75,1.67,1.59,1.52,1.44,1.36,1.29,1.21,1.13,1.05,0.98,0.90,0.82,0.74,0.67,0.59,0.51,0.44,0.38,0.33,0.25,0.18,0.10,e,e,e,e,e,0.32,0.44,0.52,0.62,0.73,0.85,0.93,1.03,1.13,1.21,1.33,1.41,1.51,1.63,1.74,1.82,1.90,1.99,2.11,2.22,2.31,2.40,2.51,2.59,2.70,2.80,2.88,3.00,3.12,3.20,3.30,3.41,3.49,3.59,3.69,3.78,3.89,3.97,4.07,4.18,4.26,4.37,4.46,4.52,4.57,4.68,4.70,4.70,4.70,4.70,4.70,4.70,4.73,4.80,4.80,4.80,4.80,4.80,4.80,4.87,4.90,4.90,4.90,4.90,4.90,4.90,4.90,4.90,4.90,4.90,4.90,4.90,4.90,4.90,4.90,4.90,4.90,4.90,4.90,4.90,4.90,4.90,4.90,4.90,4.90,4.90,4.90,4.90,4.90,4.90,4.90,4.90,4.90,4.90,4.90,4.90,4.90,4.90,4.90,4.93,5.03,5.18,5.34,5.49,5.64,5.80,5.95,6.07,6.18,6.33,6.53,6.72,6.91,7.11,7.31,7.54,7.74,7.93,8.14,8.37,8.56,8.75,8.94,9.14,9.33,9.52,9.72,9.95,10.26,10.60,10.95,11.28,11.60,11.94,12.26,12.57,12.86,13.09,13.40
e,e,e,e,e,e,e,e,e,e,e,e,e,e,e,e,e,e,e,e,e,e,e,e,e,e,e,e,e,e,e,e,e,e,e,e,e,e,e,e,e,e,0.87,0.78,1.07,1.37,1.68,1.98,2.22,2.46,2.57,2.57,2.57,2.57,2.57,2.57,2.57,2.56,2.56,2.56,2.55,2.48,2.47,2.47,2.47,2.47,2.47,2.47,2.47,2.46,2.46,2.47,2.45,2.41,2.49,2.57,2.65,2.68,2.61,2.54,2.46,2.38,2.30,2.23,2.15,2.07,1.99,1.92,1.84,1.76,1.69,1.61,1.53,1.45,1.38,1.30,1.22,1.15,1.07,0.99,0.91,0.84,0.76,0.68,0.60,0.53,0.46,0.42,0.40,0.32,0.24,0.16,0.09,e,e,e,e,e,e,0.34,0.46,0.58,0.66,0.75,0.87,0.99,1.07,1.16,1.24,1.35,1.48,1.55,1.64,1.72,1.82,1.96,2.04,2.13,2.24,2.37,2.45,2.54,2.62,2.71,2.86,2.94,3.02,3.13,3.27,3.34,3.42,3.50,3.60,3.75,3.83,3.91,4.00,4.08,4.22,4.32,4.40,4.50,4.64,4.67,4.68,4.70,4.70,4.70,4.70,4.73,4.80,4.80,4.80,4.80,4.80,4.80,4.87,4.90,4.90,4.90,4.90,4.90,4.90,4.90,4.90,4.90,4.90,4.90,4.90,4.90,4.90,4.90,4.90,4.90,4.90,4.90,4.90,4.91,4.92,4.91,4.90,4.90,4.92,4.95,4.97,4.98,4.96,4.94,4.92,4.91,4.90,4.90,4.90,4.90,4.90,4.90,4.97,5.10,5.26,5.40,5.55,5.71,5.86,6.02,6.17,6.27,6.38,6.55,6.77,6.94,7.14,7.36,7.59,7.76,7.96,8.19,8.41,8.58,8.79,8.98,9.16,9.38,9.61,9.80,10.01,10.33,10.64,10.95,11.29,11.66,12.04,12.37,12.68,12.97,13.22,13.52
e,e,e,e,e,e,e,e,e,e,e,e,e,e,e,e,e,e,e,e,e,e,e,e,e,e,e,e,e,e,e,e,e,e,e,e,e,e,e,e,e,e,0.43,0.64,0.94,1.21,1.48,1.79,2.08,2.33,2.44,2.44,2.44,2.44,2.44,2.44,2.44,2.38,2.37,2.37,2.36,2.35,2.34,2.34,2.34,2.34,2.34,2.34,2.32,2.27,2.27,2.31,2.37,2.41,2.49,2.57,2.65,2.69,2.68,2.60,2.52,2.44,2.37,2.29,2.21,2.14,2.06,1.98,1.90,1.83,1.75,1.67,1.60,1.52,1.44,1.36,1.29,1.21,1.13,1.05,0.98,0.90,0.82,0.75,0.67,0.59,0.56,0.52,0.46,0.38,0.30,0.23,0.15,e,e,e,e,e,e,0.21,0.30,0.39,0.47,0.60,0.71,0.80,0.88,1.02,1.11,1.19,1.28,1.36,1.50,1.59,1.68,1.77,1.85,1.97,2.09,2.18,2.26,2.39,2.49,2.57,2.67,2.74,2.86,2.98,3.08,3.15,3.23,3.34,3.47,3.56,3.64,3.75,3.87,3.95,4.04,4.13,4.23,4.36,4.45,4.52,4.61,4.70,4.70,4.70,4.70,4.73,4.80,4.80,4.80,4.80,4.80,4.80,4.87,4.90,4.90,4.90,4.90,4.90,4.90,4.90,4.90,4.90,4.90,4.90,4.90,4.90,4.90,4.90,4.90,4.90,4.90,4.90,4.91,4.97,5.03,4.98,4.90,4.90,5.02,5.19,5.32,5.35,5.23,5.11,5.02,4.96,4.90,4.90,4.90,4.90,4.90,4.90,5.01,5.18,5.37,5.47,5.62,5.77,5.93,6.08,6.24,6.33,6.45,6.60,6.77,6.98,7.17,7.36,7.59,7.81,7.99,8.19,8.42,8.63,8.81,9.01,9.21,9.38,9.61,9.83,10.09,10.46,10.77,11.08,11.40,11.72,12.05,12.41,12.75,13.05,13.34,13.65
e,e,e,e,e,e,e,e,e,e,e,e,e,e,e,e,e,e,e,e,e,e,e,e,e,e,e,e,e,e,e,e,e,e,e,e,e,e,e,e,e,e,0.19,0.47,0.77,1.05,1.33,1.64,1.92,2.18,2.32,2.32,2.32,2.29,2.28,2.28,2.27,2.23,2.22,2.22,2.22,2.22,2.22,2.22,2.21,2.18,2.18,2.18,2.16,2.12,2.15,2.22,2.30,2.37,2.45,2.53,2.61,2.67,2.70,2.65,2.59,2.51,2.43,2.35,2.28,2.20,2.12,2.05,1.97,1.89,1.81,1.74,1.66,1.58,1.50,1.43,1.35,1.27,1.20,1.12,1.04,0.96,0.89,0.81,0.73,0.65,0.64,0.60,0.52,0.45,0.37,0.29,0.21,e,e,e,e,e,e,0.13,0.20,0.28,0.36,0.48,0.57,0.65,0.73,0.85,0.94,1.03,1.13,1.21,1.33,1.42,1.51,1.62,1.70,1.81,1.91,1.99,2.10,2.22,2.32,2.41,2.52,2.59,2.70,2.81,2.89,3.00,3.08,3.18,3.29,3.37,3.48,3.59,3.70,3.78,3.89,3.97,4.07,4.19,4.27,4.37,4.49,4.58,4.62,4.65,4.70,4.76,4.80,4.80,4.80,4.80,4.80,4.80,4.84,4.88,4.90,4.90,4.90,4.90,4.90,4.90,4.90,4.90,4.90,4.90,4.90,4.90,4.90,4.90,4.90,4.90,4.98,5.06,5.14,5.28,5.27,5.15,5.04,5.07,5.23,5.44,5.61,5.69,5.57,5.42,5.29,5.19,5.11,5.05,5.00,4.98,4.98,4.98,5.08,5.26,5.46,5.57,5.72,5.88,6.02,6.15,6.30,6.42,6.55,6.70,6.82,7.01,7.19,7.36,7.59,7.82,8.00,8.19,8.42,8.65,8.82,9.01,9.24,9.42,9.62,9.84,10.14,10.59,10.90,11.21,11.52,11.82,12.13,12.48,12.81,13.12,13.43,13.77
e,e,e,e,e,e,e,e,e,e,e,e,e,e,e,e,e,e,e,e,e,e,e,e,e,e,e,e,e,e,e,e,e,e,e,e,e,e,e,e,e,e,e,e,0.59,0.89,1.20,1.50,1.74,2.03,2.18,2.18,2.18,2.12,2.09,2.09,2.09,2.09,2.09,2.09,2.09,2.08,2.08,2.08,2.06,1.99,1.99,1.99,1.99,2.00,2.08,2.15,2.23,2.31,2.39,2.46,2.54,2.62,2.69,2.70,2.64,2.57,2.49,2.41,2.34,2.26,2.18,2.10,2.03,1.95,1.87,1.79,1.72,1.64,1.56,1.49,1.41,1.33,1.25,1.18,1.10,1.03,0.95,0.87,0.80,0.72,0.71,0.66,0.59,0.51,0.43,0.36,0.28,0.19,0.04,e,e,e,e,e,0.14,0.22,0.29,0.37,0.45,0.53,0.60,0.68,0.76,0.88,1.01,1.09,1.17,1.24,1.35,1.49,1.57,1.65,1.72,1.81,1.96,2.05,2.13,2.23,2.38,2.46,2.54,2.62,2.71,2.86,2.95,3.03,3.11,3.18,3.33,3.43,3.51,3.60,3.75,3.84,3.92,4.00,4.08,4.22,4.33,4.41,4.49,4.57,4.69,4.79,4.79,4.80,4.80,4.80,4.80,4.80,4.80,4.85,4.90,4.90,4.90,4.90,4.90,4.90,4.90,4.90,4.90,4.90,4.90,4.90,4.90,4.90,4.91,4.93,5.12,5.32,5.49,5.72,5.59,5.38,5.25,5.33,5.48,5.69,5.89,6.01,5.94,5.80,5.64,5.51,5.43,5.28,5.18,5.14,5.13,5.13,5.19,5.33,5.54,5.69,5.85,6.00,6.13,6.21,6.37,6.52,6.67,6.82,6.90,7.04,7.20,7.37,7.59,7.82,8.00,8.19,8.41,8.64,8.82,9.01,9.24,9.47,9.64,9.84,10.17,10.69,11.01,11.32,11.63,11.94,12.25,12.56,12.88,13.19,13.50,13.88
e,e,e,e,e,e,e,e,e,e,e,e,e,e,e,e,e,e,e,e,e,e,e,e,e,e,e,e,e,e,e,e,e,e,e,e,e,e,e,e,e,e,e,e,0.46,0.73,1.01,1.32,1.60,1.86,1.99,1.99,1.99,1.97,1.96,1.96,1.96,1.96,1.96,1.96,1.95,1.90,1.89,1.89,1.89,1.86,1.86,1.86,1.88,1.94,2.01,2.09,2.17,2.25,2.32,2.40,2.48,2.55,2.63,2.68,2.64,2.57,2.49,2.41,2.34,2.26,2.18,2.10,2.03,1.95,1.87,1.79,1.72,1.64,1.56,1.49,1.41,1.33,1.25,1.18,1.10,1.08,1.01,0.94,0.86,0.78,0.77,0.73,0.65,0.57,0.50,0.42,0.32,0.19,0.09,e,e,e,e,e,0.08,0.15,0.23,0.31,0.39,0.46,0.54,0.62,0.74,0.85,0.95,1.03,1.10,1.18,1.27,1.37,1.44,1.52,1.60,1.68,1.78,1.86,1.97,2.09,2.19,2.27,2.38,2.49,2.57,2.67,2.75,2.86,2.98,3.06,3.16,3.24,3.34,3.47,3.57,3.65,3.75,3.87,3.95,4.05,4.14,4.23,4.36,4.44,4.53,4.61,4.67,4.78,4.80,4.80,4.80,4.80,4.80,4.85,4.90,4.90,4.90,4.90,4.90,4.90,4.90,4.90,4.90,4.90,4.90,4.90,4.90,4.92,5.00,5.32,5.57,5.79,5.99,6.17,5.95,5.70,5.55,5.58,5.74,5.95,6.15,6.27,6.25,6.11,5.99,5.88,5.75,5.65,5.60,5.57,5.52,5.52,5.49,5.51,5.60,5.76,5.91,6.06,6.21,6.34,6.50,6.61,6.74,6.89,7.02,7.17,7.32,7.47,7.60,7.77,7.97,8.17,8.35,8.58,8.79,9.01,9.24,9.41,9.62,9.84,10.14,10.57,10.93,11.25,11.59,11.94,12.25,12.60,12.97,13.32,13.63,13.96
e,e,e,e,e,e,e,e,e,e,e,e,e,e,e,e,e,e,e,e,e,e,e,e,e,e,e,e,e,e,e,e,e,e,e,e,e,e,e,e,e,e,e,e,e,0.57,0.85,1.16,1.44,1.70,1.83,1.83,1.83,1.83,1.83,1.83,1.83,1.81,1.80,1.80,1.79,1.74,1.73,1.73,1.73,1.73,1.76,1.78,1.83,1.91,1.98,2.06,2.14,2.21,2.29,2.37,2.45,2.52,2.60,2.68,2.66,2.60,2.52,2.45,2.37,2.29,2.21,2.14,2.06,1.98,1.91,1.83,1.75,1.67,1.60,1.52,1.44,1.36,1.29,1.22,1.17,1.14,1.08,1.00,0.93,0.88,0.85,0.79,0.72,0.67,0.57,0.48,0.38,0.23,0.15,0.07,e,e,e,e,e,0.09,0.17,0.24,0.34,0.43,0.51,0.59,0.71,0.81,0.88,0.96,1.04,1.12,1.19,1.27,1.35,1.43,1.50,1.58,1.69,1.77,1.87,1.99,2.07,2.14,2.26,2.36,2.44,2.52,2.60,2.70,2.82,2.89,3.00,3.08,3.18,3.30,3.38,3.48,3.59,3.71,3.79,3.89,3.98,4.07,4.20,4.28,4.37,4.46,4.55,4.68,4.72,4.76,4.80,4.80,4.80,4.85,4.90,4.90,4.90,4.90,4.90,4.90,4.90,4.90,4.90,4.90,4.90,4.90,4.94,5.04,5.24,5.71,6.01,6.24,6.42,6.52,6.27,6.04,5.88,5.84,5.99,6.19,6.38,6.54,6.59,6.47,6.34,6.23,6.10,6.05,6.02,5.97,5.90,5.93,5.87,5.82,5.81,5.86,5.98,6.13,6.28,6.44,6.59,6.71,6.83,6.98,7.11,7.29,7.45,7.59,7.70,7.82,7.99,8.15,8.29,8.52,8.75,8.98,9.20,9.35,9.58,9.81,10.08,10.44,10.80,11.14,11.50,11.88,12.18,12.56,12.94,13.31,13.62,13.95
e,e,e,e,e,e,e,e,e,e,e,e,e,e,e,e,e,e,e,e,e,e,e,e,e,e,e,e,e,e,e,e,e,e,e,e,e,e,e,e,e,e,e,e,e,0.41,0.72,1.03,1.26,1.55,1.71,1.71,1.71,1.71,1.71,1.71,1.70,1.63,1.61,1.61,1.61,1.61,1.61,1.61,1.61,1.61,1.68,1.75,1.83,1.91,1.98,2.06,2.14,2.21,2.29,2.37,2.45,2.52,2.60,2.68,2.70,2.66,2.59,2.51,2.43,2.36,2.28,2.20,2.12,2.05,1.97,1.89,1.81,1.74,1.66,1.58,1.51,1.43,1.35,1.30,1.29,1.22,1.14,1.06,1.00,0.99,0.93,0.86,0.80,0.79,0.65,0.55,0.44,0.29,0.22,0.14,e,e,e,e,e,0.03,0.10,0.18,0.31,0.43,0.51,0.59,0.67,0.74,0.82,0.90,0.98,1.05,1.13,1.21,1.28,1.36,1.44,1.53,1.68,1.77,1.85,1.93,2.00,2.08,2.16,2.24,2.31,2.39,2.47,2.55,2.63,2.70,2.85,2.95,3.03,3.11,3.19,3.32,3.44,3.52,3.60,3.74,3.85,3.93,4.01,4.08,4.21,4.34,4.41,4.49,4.57,4.68,4.80,4.80,4.80,4.85,4.90,4.90,4.90,4.90,4.90,4.90,4.90,4.90,4.90,4.90,4.90,4.90,5.00,5.24,5.63,6.09,6.43,6.66,6.78,6.79,6.57,6.39,6.23,6.09,6.25,6.40,6.59,6.81,6.96,6.85,6.70,6.56,6.49,6.48,6.43,6.35,6.29,6.36,6.32,6.24,6.15,6.01,6.07,6.19,6.35,6.50,6.66,6.81,6.96,7.11,7.19,7.39,7.58,7.73,7.89,7.97,8.05,8.13,8.22,8.45,8.68,8.92,9.13,9.29,9.51,9.74,10.00,10.31,10.62,10.99,11.37,11.75,12.06,12.43,12.82,13.18,13.49,13.87
e,e,e,e,e,e,e,e,e,e,e,e,e,e,e,e,e,e,e,e,e,e,e,e,e,e,e,e,e,e,e,e,e,e,e,e,e,e,e,e,e,e,e,e,e,e,0.53,0.84,1.12,1.42,1.58,1.58,1.58,1.54,1.52,1.52,1.52,1.49,1.48,1.48,1.48,1.48,1.48,1.48,1.49,1.54,1.61,1.69,1.77,1.84,1.92,2.00,2.08,2.15,2.23,2.31,2.39,2.46,2.54,2.62,2.67,2.69,2.65,2.57,2.50,2.42,2.34,2.26,2.19,2.11,2.03,1.96,1.88,1.80,1.72,1.65,1.57,1.49,1.42,1.36,1.36,1.28,1.21,1.13,1.06,1.06,1.00,0.92,0.86,0.86,0.72,0.61,0.51,0.36,0.28,0.20,e,e,e,e,e,0.02,0.10,0.18,0.28,0.37,0.45,0.53,0.60,0.68,0.76,0.83,0.91,0.99,1.08,1.20,1.28,1.36,1.44,1.52,1.63,1.71,1.78,1.86,1.94,2.02,2.09,2.17,2.25,2.32,2.44,2.54,2.62,2.69,2.80,2.89,2.97,3.04,3.12,3.22,3.31,3.39,3.47,3.57,3.66,3.75,3.88,3.95,4.05,4.15,4.23,4.35,4.44,4.53,4.63,4.67,4.77,4.85,4.90,4.90,4.90,4.90,4.90,4.90,4.90,4.90,4.90,4.90,4.90,5.08,5.35,5.68,6.07,6.48,6.85,7.11,7.21,7.11,6.94,6.74,6.54,6.35,6.46,6.63,6.83,7.01,7.21,7.15,7.05,6.95,6.87,6.87,6.81,6.74,6.68,6.80,6.77,6.69,6.60,6.44,6.41,6.41,6.47,6.63,6.78,6.90,7.03,7.18,7.30,7.48,7.67,7.86,8.02,8.14,8.23,8.31,8.39,8.53,8.67,8.85,9.07,9.22,9.45,9.68,9.92,10.18,10.54,10.92,11.30,11.69,12.04,12.42,12.81,13.18,13.49,13.87
e,e,e,e,e,e,e,e,e,e,e,e,e,e,e,e,e,e,e,e,e,e,e,e,e,e,e,e,e,e,e,e,e,e,e,e,e,e,e,e,e,e,e,e,e,e,0.36,0.65,0.96,1.27,1.43,1.43,1.43,1.37,1.35,1.35,1.35,1.35,1.35,1.35,1.35,1.35,1.37,1.39,1.42,1.50,1.57,1.65,1.73,1.81,1.88,1.96,2.04,2.11,2.19,2.27,2.35,2.42,2.50,2.56,2.63,2.68,2.69,2.61,2.54,2.46,2.38,2.30,2.23,2.15,2.07,1.99,1.92,1.84,1.77,1.71,1.63,1.56,1.48,1.42,1.42,1.35,1.27,1.19,1.12,1.12,1.06,0.99,0.95,0.93,0.78,0.67,0.57,0.42,0.34,0.25,0.14,e,e,e,e,e,e,0.15,0.23,0.31,0.38,0.46,0.54,0.62,0.70,0.79,0.87,0.95,1.05,1.18,1.26,1.33,1.41,1.49,1.57,1.64,1.72,1.80,1.87,1.95,2.04,2.13,2.21,2.29,2.41,2.52,2.59,2.67,2.75,2.82,2.90,2.98,3.06,3.13,3.22,3.31,3.39,3.47,3.54,3.64,3.77,3.85,3.93,4.01,4.09,4.20,4.29,4.37,4.47,4.54,4.68,4.77,4.84,4.88,4.90,4.90,4.90,4.90,4.90,4.90,4.95,5.05,5.15,5.45,5.81,6.19,6.56,6.95,7.29,7.53,7.61,7.44,7.28,7.08,6.85,6.63,6.68,6.87,7.07,7.23,7.47,7.47,7.41,7.33,7.25,7.25,7.20,7.12,7.06,7.20,7.19,7.13,7.02,6.89,6.80,6.73,6.69,6.75,6.89,7.00,7.12,7.27,7.43,7.58,7.77,7.97,8.14,8.32,8.43,8.50,8.58,8.66,8.74,8.87,9.05,9.19,9.41,9.64,9.87,10.11,10.49,10.88,11.27,11.65,12.04,12.42,12.81,13.18,13.51,13.88
e,e,e,e,e,e,e,e,e,e,e,e,e,e,e,e,e,e,e,e,e,e,e,e,e,e,e,e,e,e,e,e,e,e,e,e,e,e,e,e,e,e,e,e,e,e,0.21,0.46,0.77,1.08,1.23,1.23,1.23,1.23,1.22,1.22,1.22,1.22,1.22,1.22,1.22,1.22,1.28,1.35,1.42,1.50,1.57,1.65,1.73,1.81,1.88,1.96,2.04,2.11,2.19,2.27,2.35,2.42,2.50,2.51,2.57,2.64,2.69,2.61,2.54,2.46,2.38,2.30,2.23,2.15,2.07,1.99,1.92,1.84,1.80,1.77,1.70,1.62,1.54,1.49,1.49,1.41,1.33,1.26,1.19,1.19,1.12,1.08,1.06,0.99,0.84,0.74,0.63,0.48,0.41,0.28,0.16,e,e,e,e,e,e,0.09,0.17,0.24,0.32,0.40,0.47,0.55,0.65,0.79,0.87,0.95,1.03,1.12,1.19,1.27,1.35,1.42,1.50,1.58,1.66,1.73,1.81,1.89,2.01,2.13,2.21,2.29,2.37,2.45,2.53,2.61,2.68,2.76,2.84,2.91,2.99,3.07,3.18,3.31,3.39,3.47,3.54,3.62,3.71,3.79,3.86,3.94,4.01,4.03,4.10,4.21,4.34,4.42,4.50,4.58,4.68,4.81,4.88,4.90,4.90,4.90,4.90,4.90,5.09,5.44,5.78,6.09,6.45,6.81,7.14,7.52,7.74,7.91,7.99,7.76,7.60,7.40,7.17,6.94,6.95,7.13,7.32,7.49,7.72,7.81,7.79,7.71,7.64,7.63,7.58,7.50,7.44,7.53,7.59,7.55,7.42,7.33,7.25,7.17,7.06,6.88,6.97,7.10,7.25,7.40,7.55,7.71,7.87,8.05,8.27,8.49,8.62,8.70,8.77,8.85,8.93,9.01,9.11,9.19,9.41,9.64,9.87,10.11,10.49,10.88,11.27,11.65,12.04,12.42,12.81,13.19,13.57,13.89
e,e,e,e,e,e,e,e,e,e,e,e,e,e,e,e,e,e,e,e,e,e,e,e,e,e,e,e,e,e,e,e,e,e,e,e,e,e,e,e,e,e,e,e,e,e,e,0.32,0.63,0.91,1.06,1.09,1.09,1.09,1.09,1.09,1.09,1.05,1.04,1.06,1.10,1.14,1.21,1.29,1.37,1.44,1.52,1.60,1.68,1.75,1.83,1.91,1.98,2.06,2.14,2.22,2.29,2.37,2.45,2.49,2.56,2.63,2.70,2.66,2.59,2.51,2.43,2.36,2.28,2.20,2.12,2.05,1.97,1.92,1.89,1.84,1.76,1.68,1.63,1.59,1.55,1.47,1.40,1.34,1.30,1.26,1.19,1.15,1.13,1.06,0.91,0.80,0.70,0.55,0.47,0.33,0.22,0.14,0.06,e,e,e,e,e,0.10,0.20,0.31,0.39,0.46,0.54,0.63,0.74,0.82,0.90,0.97,1.05,1.13,1.21,1.28,1.36,1.44,1.55,1.64,1.72,1.80,1.88,1.98,2.08,2.16,2.23,2.31,2.39,2.46,2.54,2.62,2.70,2.79,2.90,2.98,3.06,3.15,3.26,3.34,3.41,3.49,3.57,3.65,3.72,3.80,3.88,3.95,3.99,4.10,4.21,4.32,4.39,4.47,4.55,4.64,4.75,4.83,4.85,4.87,4.95,5.28,5.57,5.93,6.33,6.63,6.94,7.19,7.46,7.81,8.11,8.23,8.31,8.31,8.08,7.92,7.72,7.49,7.26,7.22,7.35,7.54,7.74,7.93,8.09,8.14,8.11,8.07,8.03,7.96,7.89,7.82,7.90,7.98,7.96,7.85,7.78,7.70,7.60,7.43,7.16,7.16,7.24,7.36,7.47,7.63,7.78,7.96,8.17,8.40,8.59,8.76,8.89,8.96,9.04,9.12,9.20,9.27,9.30,9.48,9.69,9.94,10.21,10.56,10.90,11.27,11.65,12.04,12.42,12.81,13.20,13.58,13.93
e,e,e,e,e,e,e,e,e,e,e,e,e,e,e,e,e,e,e,e,e,e,e,e,e,e,e,e,e,e,e,e,e,e,e,e,e,e,e,e,e,e,e,e,e,e,e,e,e,0.74,0.90,0.97,0.97,0.96,0.95,0.95,0.95,0.88,0.88,0.92,0.99,1.07,1.15,1.23,1.30,1.38,1.46,1.53,1.61,1.69,1.77,1.84,1.92,2.00,2.08,2.15,2.23,2.31,2.38,2.46,2.54,2.62,2.69,2.70,2.64,2.56,2.48,2.40,2.34,2.27,2.19,2.11,2.03,2.02,1.98,1.90,1.83,1.75,1.72,1.69,1.62,1.54,1.46,1.42,1.41,1.33,1.25,1.22,1.20,1.12,0.97,0.87,0.76,0.61,0.53,0.40,0.28,0.20,0.13,e,e,e,e,e,0.05,0.16,0.29,0.37,0.45,0.52,0.60,0.68,0.76,0.83,0.91,0.99,1.06,1.15,1.24,1.31,1.39,1.52,1.63,1.71,1.78,1.86,1.94,2.01,2.09,2.17,2.25,2.32,2.40,2.49,2.57,2.65,2.75,2.89,2.96,3.04,3.12,3.20,3.27,3.35,3.43,3.51,3.60,3.68,3.76,3.85,3.92,4.00,4.14,4.26,4.34,4.43,4.50,4.58,4.66,4.75,4.83,4.87,4.95,5.17,5.86,6.44,6.95,7.35,7.58,7.85,7.97,8.14,8.48,8.68,8.72,8.70,8.63,8.40,8.23,8.02,7.79,7.56,7.47,7.57,7.77,7.99,8.14,8.36,8.47,8.48,8.48,8.42,8.35,8.27,8.21,8.28,8.37,8.38,8.30,8.22,8.15,8.01,7.80,7.50,7.41,7.42,7.48,7.56,7.71,7.86,8.06,8.29,8.51,8.68,8.88,9.06,9.16,9.25,9.32,9.39,9.45,9.45,9.59,9.80,10.06,10.36,10.66,10.97,11.30,11.67,12.04,12.42,12.81,13.20,13.58,13.97
e,e,e,e,e,e,e,e,e,e,e,e,e,e,e,e,e,e,e,e,e,e,e,e,e,e,e,e,e,e,e,e,e,e,e,e,e,e,e,e,e,e,e,e,e,e,e,e,e,0.59,0.78,0.84,0.84,0.78,0.76,0.76,0.76,0.74,0.78,0.85,0.93,1.01,1.08,1.16,1.24,1.32,1.39,1.47,1.55,1.63,1.70,1.78,1.86,1.93,2.01,2.09,2.17,2.24,2.32,2.40,2.48,2.55,2.63,2.69,2.64,2.56,2.48,2.40,2.39,2.33,2.25,2.18,2.10,2.08,2.04,1.97,1.89,1.81,1.78,1.76,1.68,1.60,1.53,1.48,1.47,1.39,1.32,1.28,1.26,1.18,1.03,0.93,0.83,0.68,0.60,0.46,0.34,0.27,0.19,e,e,e,e,e,0.05,0.14,0.23,0.31,0.38,0.46,0.54,0.61,0.69,0.77,0.85,0.92,1.00,1.13,1.24,1.31,1.39,1.48,1.56,1.64,1.72,1.80,1.87,1.95,2.03,2.11,2.18,2.26,2.35,2.49,2.57,2.65,2.73,2.82,2.90,2.98,3.05,3.13,3.21,3.29,3.36,3.46,3.60,3.68,3.80,3.91,3.99,4.07,4.21,4.32,4.41,4.55,4.63,4.71,4.81,4.94,5.02,5.13,5.38,5.85,6.78,7.48,8.03,8.43,8.66,8.79,8.80,8.87,9.11,9.15,9.16,9.10,8.95,8.72,8.50,8.28,8.05,7.82,7.68,7.80,8.03,8.25,8.40,8.62,8.76,8.80,8.80,8.79,8.73,8.65,8.59,8.67,8.79,8.83,8.75,8.67,8.59,8.43,8.18,7.88,7.74,7.67,7.65,7.68,7.84,7.99,8.19,8.40,8.57,8.79,8.97,9.16,9.35,9.49,9.53,9.58,9.64,9.64,9.78,10.02,10.30,10.55,10.86,11.17,11.45,11.72,12.05,12.42,12.81,13.20,13.58,13.97
e,e,e,e,e,e,e,e,e,e,e,e,e,e,e,e,e,e,e,e,e,e,e,e,e,e,e,e,e,e,e,e,e,e,e,e,e,e,e,e,e,e,e,e,e,e,e,e,e,0.43,0.60,0.67,0.67,0.63,0.61,0.62,0.66,0.69,0.76,0.83,0.91,0.99,1.07,1.14,1.22,1.30,1.37,1.45,1.53,1.61,1.68,1.76,1.84,1.91,1.99,2.07,2.15,2.22,2.30,2.34,2.41,2.49,2.57,2.64,2.65,2.60,2.53,2.45,2.44,2.39,2.32,2.24,2.16,2.14,2.11,2.03,1.95,1.88,1.84,1.82,1.74,1.67,1.59,1.54,1.53,1.46,1.41,1.37,1.32,1.21,1.09,0.97,0.86,0.74,0.66,0.53,0.41,0.32,0.21,0.09,e,e,e,e,e,0.09,0.16,0.24,0.32,0.41,0.52,0.60,0.70,0.79,0.87,0.95,1.06,1.18,1.30,1.40,1.48,1.56,1.65,1.76,1.83,1.94,2.03,2.12,2.23,2.31,2.39,2.48,2.59,2.71,2.83,2.92,2.99,3.07,3.18,3.27,3.36,3.47,3.55,3.62,3.72,3.83,3.95,4.07,4.18,4.29,4.37,4.48,4.60,4.71,4.83,4.95,5.03,5.13,5.24,5.36,5.47,5.51,5.86,6.63,7.60,8.42,9.19,9.80,10.10,10.19,10.09,9.96,9.90,9.66,9.56,9.44,9.27,9.04,8.81,8.58,8.35,8.12,7.93,8.05,8.27,8.46,8.65,8.88,9.04,9.12,9.12,9.12,9.09,9.04,8.97,9.05,9.19,9.25,9.20,9.16,9.02,8.82,8.56,8.22,8.03,7.92,7.88,7.89,7.94,8.10,8.30,8.49,8.68,8.88,9.07,9.28,9.50,9.66,9.77,9.84,9.88,9.88,10.02,10.24,10.52,10.78,11.06,11.36,11.65,11.92,12.23,12.54,12.88,13.23,13.58,13.97
e,e,e,e,e,e,e,e,e,e,e,e,e,e,e,e,e,e,e,e,e,e,e,e,e,e,e,e,e,e,e,e,e,e,e,e,e,e,e,e,e,e,e,e,e,e,e,e,e,e,0.42,0.48,0.48,0.48,0.49,0.52,0.59,0.67,0.75,0.83,0.90,0.98,1.06,1.13,1.21,1.29,1.37,1.44,1.52,1.60,1.67,1.75,1.83,1.91,1.98,2.06,2.14,2.22,2.29,2.30,2.36,2.43,2.51,2.59,2.66,2.65,2.58,2.50,2.50,2.45,2.38,2.30,2.23,2.21,2.17,2.09,2.02,1.95,1.91,1.89,1.81,1.73,1.66,1.61,1.60,1.52,1.51,1.47,1.37,1.22,1.14,1.01,0.88,0.80,0.73,0.59,0.47,0.38,0.23,0.14,0.06,e,e,e,e,e,0.13,0.22,0.31,0.43,0.57,0.66,0.81,0.92,1.00,1.08,1.23,1.33,1.44,1.58,1.66,1.74,1.86,1.99,2.07,2.22,2.32,2.43,2.57,2.65,2.73,2.85,2.99,3.07,3.21,3.32,3.40,3.48,3.63,3.73,3.84,3.98,4.06,4.14,4.26,4.39,4.47,4.62,4.72,4.80,4.89,5.04,5.13,5.25,5.38,5.46,5.54,5.67,5.79,5.88,6.02,5.97,6.40,7.46,8.40,9.41,10.50,11.43,11.82,11.91,11.72,11.37,10.94,10.40,10.10,9.86,9.62,9.36,9.12,8.89,8.66,8.43,8.19,8.30,8.50,8.67,8.90,9.13,9.32,9.43,9.44,9.44,9.44,9.41,9.36,9.43,9.57,9.65,9.66,9.67,9.44,9.20,8.92,8.54,8.31,8.19,8.14,8.12,8.05,8.22,8.40,8.58,8.81,8.97,9.18,9.41,9.63,9.81,10.04,10.17,10.17,10.16,10.30,10.50,10.74,11.05,11.27,11.56,11.86,12.17,12.48,12.73,13.00,13.31,13.62,13.99
e,e,e,e,e,e,e,e,e,e,e,e,e,e,e,e,e,e,e,e,e,e,e,e,e,e,e,e,e,e,e,e,e,e,e,e,e,e,e,e,e,e,e,e,e,e,e,e,e,e,0.29,0.36,0.36,0.36,0.39,0.45,0.53,0.61,0.68,0.76,0.84,0.92,0.99,1.07,1.15,1.22,1.30,1.38,1.46,1.53,1.61,1.69,1.77,1.84,1.92,2.00,2.07,2.15,2.23,2.28,2.36,2.43,2.51,2.59,2.62,2.62,2.58,2.50,2.50,2.49,2.44,2.37,2.35,2.30,2.24,2.16,2.08,2.05,2.01,1.95,1.87,1.79,1.76,1.72,1.66,1.59,1.57,1.53,1.44,1.28,1.20,1.07,0.94,0.87,0.79,0.65,0.54,0.44,0.29,0.20,0.13,e,e,e,e,e,0.33,0.47,0.64,0.81,0.98,1.17,1.32,1.43,1.52,1.66,1.75,1.88,2.00,2.10,2.23,2.32,2.41,2.52,2.65,2.75,2.87,2.99,3.09,3.16,3.29,3.40,3.51,3.64,3.74,3.83,3.92,4.05,4.15,4.28,4.40,4.49,4.57,4.69,4.81,4.91,5.05,5.15,5.23,5.33,5.46,5.56,5.69,5.80,5.89,5.97,6.10,6.21,6.32,6.45,6.44,6.65,7.27,8.30,9.34,11.05,12.71,13.94,14.38,14.46,14.28,13.83,13.18,12.64,11.82,10.94,10.14,9.63,9.38,9.14,8.91,8.68,8.45,8.56,8.76,8.92,9.16,9.39,9.58,9.70,9.76,9.76,9.76,9.75,9.74,9.82,9.96,10.06,10.12,10.17,9.87,9.56,9.26,8.93,8.64,8.50,8.44,8.39,8.36,8.42,8.53,8.70,8.94,9.15,9.37,9.58,9.77,10.15,10.50,10.68,10.67,10.61,10.74,10.91,11.11,11.36,11.54,11.81,12.10,12.36,12.67,12.96,13.26,13.57,13.88,14.15
e,e,e,e,e,e,e,e,e,e,e,e,e,e,e,e,e,e,e,e,e,e,e,e,e,e,e,e,e,e,e,e,e,e,e,e,e,e,e,e,e,e,e,e,e,e,e,e,e,e,e,0.23,0.23,0.25,0.31,0.39,0.47,0.54,0.62,0.70,0.77,0.85,0.93,1.01,1.08,1.16,1.24,1.32,1.39,1.47,1.55,1.62,1.70,1.78,1.86,1.93,2.01,2.09,2.16,2.24,2.34,2.44,2.55,2.62,2.61,2.57,2.52,2.47,2.46,2.45,2.41,2.36,2.36,2.33,2.26,2.19,2.14,2.14,2.09,2.01,1.94,1.86,1.84,1.80,1.73,1.68,1.65,1.59,1.50,1.34,1.26,1.14,1.01,0.93,0.85,0.72,0.60,0.51,0.35,0.27,0.17,e,e,e,e,e,0.36,0.59,0.80,1.00,1.18,1.39,1.57,1.72,1.86,2.02,2.15,2.30,2.44,2.58,2.73,2.84,2.95,3.06,3.19,3.29,3.41,3.52,3.60,3.71,3.83,3.94,4.05,4.18,4.26,4.36,4.47,4.59,4.70,4.82,4.92,5.01,5.11,5.24,5.35,5.46,5.59,5.67,5.76,5.88,6.00,6.10,6.23,6.34,6.44,6.52,6.64,6.76,6.86,6.95,6.96,7.33,8.05,9.15,10.76,13.02,15.03,16.43,16.86,17.00,16.81,16.26,15.39,14.60,13.51,12.32,11.18,10.28,9.74,9.40,9.17,8.94,8.71,8.79,8.99,9.18,9.41,9.64,9.86,10.06,10.22,10.25,10.24,10.24,10.27,10.31,10.40,10.49,10.55,10.55,10.19,9.84,9.53,9.27,8.99,8.82,8.71,8.64,8.61,8.61,8.71,8.90,9.10,9.33,9.56,9.80,10.05,10.49,10.86,11.09,11.14,11.09,11.20,11.35,11.52,11.72,11.90,12.14,12.37,12.59,12.90,13.18,13.48,13.79,14.10,14.36
e,e,e,e,e,e,e,e,e,e,e,e,e,e,e,e,e,e,e,e,e,e,e,e,e,e,e,e,e,e,e,e,e,e,e,e,e,e,e,e,e,e,e,e,e,e,e,e,e,e,e,0.10,0.10,0.17,0.25,0.32,0.40,0.48,0.56,0.63,0.71,0.79,0.87,0.94,1.02,1.10,1.17,1.25,1.33,1.41,1.48,1.56,1.64,1.71,1.79,1.87,1.95,2.02,2.10,2.18,2.31,2.47,2.61,2.69,2.64,2.52,2.40,2.40,2.40,2.35,2.30,2.30,2.30,2.30,2.26,2.20,2.20,2.20,2.15,2.08,2.00,1.92,1.90,1.87,1.80,1.80,1.74,1.66,1.56,1.41,1.33,1.20,1.07,1.00,0.92,0.78,0.66,0.57,0.42,0.33,0.21,0.10,0.10,e,e,e,e,e,0.83,1.02,1.24,1.39,1.62,1.85,2.05,2.21,2.44,2.62,2.81,3.03,3.18,3.34,3.49,3.62,3.70,3.85,3.95,4.03,4.12,4.27,4.36,4.48,4.62,4.69,4.77,4.90,5.03,5.11,5.26,5.36,5.44,5.53,5.68,5.77,5.89,6.02,6.10,6.18,6.31,6.43,6.52,6.67,6.76,6.88,7.02,7.09,7.17,7.30,7.40,7.41,7.56,8.00,8.75,10.00,12.55,15.23,17.45,18.91,19.29,19.53,19.34,18.68,17.58,16.35,15.17,13.94,12.61,11.22,10.18,9.66,9.42,9.19,8.96,9.01,9.20,9.43,9.67,9.90,10.17,10.48,10.79,10.88,10.85,10.83,10.90,10.90,10.90,10.94,10.97,10.81,10.45,10.06,9.75,9.59,9.36,9.13,8.97,8.89,8.81,8.80,8.93,9.14,9.29,9.52,9.76,10.04,10.43,10.82,11.14,11.41,11.60,11.60,11.67,11.79,11.95,12.10,12.34,12.51,12.67,12.84,13.15,13.39,13.67,13.98,14.29,14.60
e,e,e,e,e,e,e,e,e,e,e,e,e,e,e,e,e,e,e,e,e,e,e,e,e,e,e,e,e,e,e,e,e,e,e,e,e,e,e,e,e,e,e,e,e,e,e,e,e,e,e,0.05,0.10,0.17,0.25,0.32,0.40,0.48,0.56,0.63,0.71,0.79,0.87,0.94,1.02,1.10,1.17,1.25,1.33,1.41,1.48,1.56,1.64,1.71,1.79,1.87,1.92,1.98,2.10,2.23,2.38,2.53,2.67,2.70,2.59,2.45,2.32,2.27,2.27,2.25,2.24,2.23,2.18,2.17,2.16,2.14,2.14,2.09,2.06,2.03,2.00,1.97,1.93,1.89,1.85,1.75,1.71,1.69,1.63,1.47,1.39,1.26,1.14,1.06,0.93,0.82,0.70,0.58,0.48,0.35,0.27,0.24,0.29,e,e,e,e,e,0.87,1.06,1.25,1.45,1.63,1.85,2.07,2.27,2.46,2.65,2.85,3.03,3.24,3.44,3.62,3.78,3.95,4.11,4.28,4.43,4.57,4.77,4.91,5.03,5.13,5.21,5.33,5.44,5.55,5.68,5.79,5.87,5.97,6.09,6.20,6.32,6.44,6.53,6.61,6.74,6.85,6.96,7.09,7.19,7.31,7.43,7.53,7.61,7.73,7.84,7.93,7.98,8.14,8.62,9.73,11.70,14.89,17.66,19.68,20.94,21.52,21.62,21.18,20.32,19.18,18.00,16.64,15.15,13.62,12.18,10.91,10.05,9.58,9.45,9.37,9.42,9.54,9.68,9.87,10.13,10.43,10.74,11.05,11.27,11.46,11.60,11.66,11.61,11.49,11.33,11.13,10.83,10.49,10.13,9.81,9.66,9.53,9.39,9.26,9.14,9.07,9.06,9.16,9.34,9.55,9.78,10.04,10.35,10.69,11.07,11.44,11.76,11.99,12.04,12.12,12.24,12.40,12.55,12.78,12.96,13.11,13.28,13.54,13.74,13.96,14.22,14.48,14.79
e,e,e,e,e,e,e,e,e,e,e,e,e,e,e,e,e,e,e,e,e,e,e,e,e,e,e,e,e,e,e,e,e,e,e,e,e,e,e,e,e,e,e,e,e,e,e,e,e,e,e,e,e,0.14,0.22,0.30,0.37,0.45,0.53,0.61,0.68,0.76,0.84,0.91,0.99,1.07,1.15,1.22,1.30,1.38,1.46,1.53,1.61,1.69,1.76,1.84,1.90,1.98,2.13,2.28,2.44,2.59,2.72,2.70,2.57,2.42,2.28,2.18,2.17,2.16,2.14,2.14,2.08,2.07,2.06,2.04,2.04,1.99,1.97,1.97,1.94,1.94,1.90,1.86,1.83,1.69,1.67,1.68,1.67,1.54,1.43,1.31,1.19,1.09,0.96,0.85,0.74,0.61,0.54,0.43,0.38,0.41,0.48,0.20,e,e,e,e,e,0.98,1.17,1.40,1.60,1.82,2.05,2.28,2.46,2.68,2.88,3.06,3.27,3.50,3.70,3.89,4.10,4.27,4.47,4.67,4.85,5.08,5.25,5.39,5.51,5.60,5.77,5.90,6.03,6.20,6.30,6.40,6.51,6.64,6.74,6.87,6.98,7.07,7.15,7.28,7.39,7.50,7.63,7.73,7.86,7.96,8.04,8.14,8.29,8.40,8.48,8.58,8.72,9.29,10.83,13.52,17.07,19.61,21.43,22.68,23.59,23.37,22.60,21.55,20.45,19.32,17.84,16.23,14.62,13.09,11.75,10.69,10.03,9.85,9.78,9.84,9.93,10.01,10.15,10.39,10.68,11.00,11.33,11.64,11.95,12.19,12.31,12.19,11.97,11.67,11.33,10.92,10.58,10.20,9.91,9.87,9.83,9.72,9.57,9.42,9.33,9.33,9.44,9.62,9.83,10.06,10.33,10.64,10.97,11.33,11.71,12.07,12.37,12.51,12.55,12.67,12.84,13.00,13.21,13.39,13.56,13.72,13.93,14.11,14.31,14.52,14.73,15.01
e,e,e,e,e,e,e,e,e,e,e,e,e,e,e,e,e,e,e,e,e,e,e,e,e,e,e,e,e,e,e,e,e,e,e,e,e,e,e,e,e,e,e,e,e,e,e,e,e,e,e,e,e,0.08,0.16,0.23,0.31,0.39,0.46,0.54,0.62,0.70,0.77,0.85,0.93,1.01,1.08,1.16,1.24,1.31,1.39,1.47,1.55,1.62,1.70,1.78,1.89,2.04,2.19,2.35,2.50,2.66,2.78,2.71,2.57,2.42,2.26,2.12,2.11,2.06,2.02,2.02,2.01,2.01,1.97,1.92,1.92,1.91,1.91,1.89,1.82,1.82,1.81,1.78,1.71,1.62,1.61,1.65,1.68,1.60,1.45,1.35,1.24,1.09,1.01,0.88,0.76,0.68,0.60,0.58,0.58,0.60,0.68,0.44,e,e,e,e,e,0.75,0.98,1.21,1.50,1.76,1.99,2.22,2.45,2.68,2.90,3.12,3.28,3.50,3.73,3.94,4.10,4.32,4.50,4.69,4.92,5.15,5.32,5.51,5.71,5.86,6.08,6.25,6.43,6.65,6.80,6.94,7.06,7.16,7.31,7.40,7.52,7.65,7.72,7.81,7.94,8.06,8.15,8.30,8.39,8.47,8.57,8.71,8.87,8.97,9.07,9.22,9.30,10.05,12.10,15.50,19.05,20.96,22.53,24.03,25.43,24.70,23.48,22.25,21.29,20.20,18.69,17.14,15.61,13.93,12.71,11.65,10.84,10.42,10.21,10.26,10.38,10.45,10.54,10.69,10.94,11.27,11.65,11.96,12.27,12.57,12.81,12.60,12.31,11.97,11.57,11.12,10.73,10.30,10.06,10.25,10.32,10.12,9.89,9.74,9.59,9.63,9.78,9.99,10.15,10.38,10.62,10.91,11.28,11.60,11.97,12.35,12.72,13.01,12.98,13.09,13.29,13.44,13.61,13.81,14.01,14.16,14.32,14.54,14.73,14.89,15.05,15.29
e,e,e,e,e,e,e,e,e,e,e,e,e,e,e,e,e,e,e,e,e,e,e,e,e,e,e,e,e,e,e,e,e,e,e,e,e,e,e,e,e,e,e,e,e,e,e,e,e,e,e,e,e,0.03,0.09,0.17,0.25,0.32,0.40,0.48,0.56,0.63,0.71,0.79,0.86,0.94,1.02,1.10,1.17,1.25,1.33,1.40,1.48,1.57,1.69,1.81,1.95,2.10,2.26,2.41,2.57,2.70,2.78,2.66,2.52,2.36,2.21,2.05,2.00,1.97,1.94,1.94,1.90,1.89,1.87,1.84,1.84,1.81,1.79,1.78,1.74,1.74,1.71,1.66,1.58,1.50,1.52,1.59,1.64,1.60,1.49,1.38,1.26,1.15,1.03,0.91,0.82,0.75,0.72,0.75,0.77,0.76,0.76,0.61,e,e,e,e,e,0.50,0.73,0.96,1.23,1.47,1.70,1.93,2.17,2.40,2.63,2.86,3.05,3.28,3.51,3.73,3.93,4.16,4.37,4.58,4.81,5.05,5.25,5.46,5.69,5.89,6.12,6.33,6.53,6.76,6.92,7.10,7.27,7.40,7.60,7.73,7.89,8.07,8.19,8.31,8.45,8.59,8.71,8.82,8.91,9.01,9.13,9.29,9.44,9.60,9.83,10.20,10.58,11.75,13.72,16.43,19.68,21.39,22.75,23.95,24.90,24.34,23.56,22.66,21.67,20.55,19.16,17.70,16.24,14.80,13.69,12.80,12.10,11.60,11.15,10.86,10.77,10.85,10.97,11.08,11.26,11.53,11.91,12.22,12.53,12.84,13.11,12.92,12.63,12.29,11.88,11.42,11.03,10.70,10.55,10.69,10.86,10.67,10.34,9.99,9.80,9.87,10.07,10.32,10.47,10.70,10.93,11.22,11.60,11.91,12.28,12.65,12.99,13.34,13.42,13.56,13.74,13.89,14.05,14.26,14.46,14.61,14.76,14.95,15.12,15.28,15.48,15.67
e,e,e,e,e,e,e,e,e,e,e,e,e,e,e,e,e,e,e,e,e,e,e,e,e,e,e,e,e,e,e,e,e,e,e,e,e,e,e,e,e,e,e,e,e,e,e,e,e,e,e,e,e,e,0.05,0.12,0.20,0.28,0.36,0.43,0.51,0.59,0.67,0.74,0.82,0.90,0.97,1.05,1.13,1.21,1.28,1.37,1.46,1.57,1.71,1.86,2.01,2.17,2.32,2.48,2.63,2.75,2.78,2.63,2.47,2.32,2.16,2.01,1.91,1.87,1.86,1.86,1.79,1.78,1.77,1.76,1.76,1.71,1.68,1.68,1.66,1.66,1.62,1.55,1.47,1.38,1.43,1.50,1.56,1.58,1.52,1.41,1.29,1.21,1.06,0.96,0.89,0.84,0.86,0.89,0.88,0.84,0.76,0.67,0.46,e,e,e,e,e,0.46,0.69,0.92,1.15,1.38,1.62,1.85,2.08,2.31,2.54,2.77,3.01,3.24,3.47,3.70,3.93,4.16,4.40,4.63,4.86,5.09,5.32,5.55,5.79,6.02,6.25,6.48,6.71,6.88,7.10,7.30,7.48,7.71,7.89,8.09,8.31,8.48,8.65,8.82,8.99,9.15,9.26,9.36,9.53,9.77,10.01,10.22,10.49,10.90,11.49,12.11,13.62,15.45,17.39,19.98,21.48,22.62,23.47,23.94,23.57,23.23,22.68,21.77,20.73,19.41,18.06,16.78,15.67,14.73,14.01,13.41,12.87,12.25,11.69,11.36,11.33,11.41,11.48,11.60,11.81,12.15,12.47,12.79,13.10,13.37,13.24,12.96,12.60,12.20,11.74,11.36,11.14,11.08,11.14,11.37,11.20,10.78,10.29,10.07,10.14,10.36,10.62,10.79,11.02,11.25,11.54,11.90,12.23,12.59,12.94,13.27,13.64,13.86,14.02,14.17,14.34,14.49,14.69,14.88,15.04,15.19,15.35,15.50,15.68,15.91,16.09
e,e,e,e,e,e,e,e,e,e,e,e,e,e,e,e,e,e,e,e,e,e,e,e,e,e,e,e,e,e,e,e,e,e,e,e,e,e,e,e,e,e,e,e,e,e,e,e,e,e,e,e,e,e,0.05,0.12,0.20,0.28,0.36,0.43,0.51,0.59,0.67,0.74,0.82,0.90,0.97,1.05,1.13,1.21,1.28,1.41,1.55,1.68,1.77,1.92,2.08,2.23,2.39,2.54,2.69,2.79,2.78,2.63,2.47,2.32,2.16,2.01,1.87,1.77,1.73,1.73,1.72,1.72,1.69,1.63,1.63,1.62,1.62,1.60,1.53,1.53,1.52,1.48,1.40,1.26,1.30,1.37,1.45,1.51,1.50,1.44,1.36,1.27,1.12,1.02,0.98,0.98,1.04,0.95,0.82,0.71,0.63,0.49,0.37,e,e,e,e,e,0.14,0.37,0.60,0.83,1.06,1.30,1.53,1.76,1.99,2.22,2.45,2.69,2.92,3.15,3.38,3.61,3.84,4.08,4.31,4.54,4.77,5.00,5.24,5.47,5.70,5.93,6.16,6.39,6.61,6.84,7.07,7.29,7.52,7.74,7.97,8.19,8.41,8.63,8.85,9.07,9.29,9.49,9.70,10.04,10.54,11.08,11.44,11.96,12.61,13.34,13.96,15.59,17.34,18.77,19.98,21.07,21.96,22.58,22.79,22.42,22.21,21.92,21.36,20.71,19.27,18.05,17.25,16.53,15.90,15.28,14.69,14.15,13.53,12.97,12.44,11.99,11.82,11.87,11.99,12.15,12.34,12.71,13.04,13.35,13.63,13.61,13.30,12.92,12.52,12.06,11.72,11.58,11.57,11.59,11.82,11.61,11.16,10.68,10.51,10.51,10.65,10.89,11.11,11.34,11.57,11.84,12.16,12.54,12.87,13.22,13.58,13.90,14.25,14.44,14.57,14.79,14.94,15.10,15.27,15.42,15.58,15.73,15.88,16.06,16.29,16.57
e,e,e,e,e,e,e,e,e,e,e,e,e,e,e,e,e,e,e,e,e,e,e,e,e,e,e,e,e,e,e,e,e,e,e,e,e,e,e,e,e,e,e,e,e,e,e,e,e,e,e,e,e,e,e,0.08,0.15,0.23,0.31,0.39,0.46,0.54,0.62,0.70,0.77,0.85,0.93,1.00,1.09,1.21,1.32,1.47,1.62,1.77,1.88,2.00,2.14,2.29,2.45,2.60,2.76,2.82,2.73,2.58,2.42,2.27,2.11,1.96,1.81,1.70,1.65,1.65,1.61,1.61,1.59,1.55,1.55,1.52,1.51,1.49,1.45,1.45,1.43,1.37,1.29,1.17,1.22,1.29,1.37,1.45,1.49,1.47,1.41,1.29,1.17,1.14,1.11,1.04,0.97,0.82,0.67,0.52,0.41,0.29,0.20,e,e,e,e,e,e,e,0.38,0.61,0.84,1.07,1.30,1.53,1.77,2.00,2.23,2.49,2.74,2.97,3.20,3.44,3.67,3.90,4.13,4.36,4.59,4.83,5.06,5.29,5.56,5.80,6.03,6.26,6.50,6.73,6.96,7.19,7.42,7.65,7.89,8.13,8.40,8.63,8.86,9.09,9.32,9.56,9.82,10.28,10.94,11.63,12.28,13.00,13.77,14.54,15.27,16.54,17.84,18.88,19.62,20.43,21.12,21.57,21.65,21.41,21.26,21.02,20.61,20.29,19.48,18.79,18.31,17.70,17.15,16.56,15.97,15.42,14.81,14.22,13.64,13.08,12.67,12.43,12.40,12.51,12.63,12.98,13.30,13.61,13.89,13.93,13.63,13.24,12.84,12.38,12.15,12.08,12.08,12.08,12.28,12.02,11.58,11.16,11.04,10.99,11.05,11.20,11.43,11.66,11.89,12.15,12.47,12.85,13.18,13.53,13.90,14.21,14.58,14.83,14.99,15.19,15.34,15.50,15.67,15.85,16.01,16.16,16.32,16.49,16.72,16.99
e,e,e,e,e,e,e,e,e,e,e,e,e,e,e,e,e,e,e,e,e,e,e,e,e,e,e,e,e,e,e,e,e,e,e,e,e,e,e,e,e,e,e,e,e,e,e,e,e,e,e,e,e,e,e,0.02,0.10,0.18,0.26,0.33,0.41,0.48,0.55,0.63,0.71,0.79,0.87,0.96,1.07,1.22,1.38,1.53,1.69,1.84,2.00,2.09,2.21,2.36,2.51,2.67,2.82,2.83,2.68,2.53,2.37,2.22,2.06,1.91,1.75,1.64,1.59,1.57,1.50,1.49,1.48,1.48,1.48,1.42,1.39,1.39,1.38,1.38,1.32,1.25,1.17,1.10,1.15,1.23,1.31,1.38,1.46,1.49,1.45,1.31,1.22,1.24,1.19,1.02,0.79,0.62,0.46,e,e,e,e,e,e,e,e,e,e,e,e,0.43,0.66,0.89,1.13,1.36,1.60,1.83,2.06,2.35,2.61,2.84,3.08,3.31,3.54,3.77,4.01,4.25,4.48,4.71,4.94,5.17,5.47,5.73,5.96,6.19,6.42,6.65,6.88,7.12,7.35,7.58,7.81,8.06,8.36,8.59,8.83,9.06,9.29,9.53,9.82,10.35,11.09,11.88,12.80,13.68,14.52,15.31,16.15,16.98,17.78,18.52,19.15,19.77,20.27,20.58,20.58,20.51,20.39,20.17,19.85,19.79,19.72,19.60,19.37,18.80,18.30,17.76,17.22,16.69,16.08,15.47,14.88,14.33,13.71,13.15,12.92,12.93,12.98,13.25,13.55,13.86,14.15,14.24,13.95,13.56,13.17,12.73,12.63,12.60,12.59,12.58,12.74,12.44,12.02,11.69,11.62,11.55,11.51,11.55,11.75,11.98,12.21,12.47,12.79,13.17,13.50,13.85,14.22,14.53,14.90,15.20,15.42,15.58,15.74,15.89,16.07,16.29,16.44,16.60,16.75,16.93,17.16,17.40
e,e,e,e,e,e,e,e,e,e,e,e,e,e,e,e,e,e,e,e,e,e,e,e,e,e,e,e,e,e,e,e,e,e,e,e,e,e,e,e,e,e,e,e,e,e,e,e,e,e,e,e,e,e,e,0.02,0.10,0.18,0.26,0.33,0.40,0.42,0.49,0.57,0.64,0.72,0.85,0.99,1.13,1.29,1.44,1.60,1.75,1.90,2.06,2.20,2.31,2.42,2.58,2.73,2.84,2.83,2.68,2.53,2.37,2.22,2.06,1.91,1.75,1.61,1.50,1.45,1.43,1.42,1.40,1.35,1.35,1.33,1.32,1.31,1.25,1.25,1.19,1.12,1.05,1.03,1.09,1.17,1.24,1.32,1.40,1.46,1.47,1.37,1.23,1.13,0.97,0.77,0.60,0.39,0.21,e,e,e,e,e,e,e,e,e,e,e,e,0.30,0.53,0.77,1.06,1.30,1.53,1.76,2.00,2.24,2.48,2.72,2.95,3.18,3.41,3.67,3.95,4.18,4.41,4.65,4.88,5.11,5.36,5.60,5.83,6.06,6.29,6.52,6.76,6.99,7.22,7.45,7.68,7.92,8.17,8.40,8.63,8.87,9.10,9.39,9.65,10.05,10.67,11.56,12.48,13.40,14.30,15.18,15.97,16.68,17.37,18.08,18.76,19.38,19.75,19.87,19.87,19.86,19.82,19.74,19.60,19.64,19.59,19.50,19.37,19.10,18.85,18.62,18.34,17.91,17.35,16.74,16.16,15.61,14.99,14.39,13.91,13.58,13.43,13.56,13.81,14.12,14.41,14.55,14.27,13.88,13.52,13.23,13.18,13.14,13.08,13.03,13.18,12.89,12.51,12.27,12.25,12.19,12.12,12.08,12.08,12.30,12.53,12.79,13.11,13.49,13.82,14.17,14.54,14.85,15.17,15.51,15.82,16.03,16.18,16.34,16.50,16.67,16.83,16.98,17.13,17.31,17.54,17.83
e,e,e,e,e,e,e,e,e,e,e,e,e,e,e,e,e,e,e,e,e,e,e,e,e,e,e,e,e,e,e,e,e,e,e,e,e,e,e,e,e,e,e,e,e,e,e,e,e,e,e,e,e,e,e,e,0.06,0.14,0.22,0.29,0.37,0.40,0.47,0.54,0.63,0.73,0.89,1.04,1.20,1.35,1.51,1.66,1.81,1.97,2.12,2.28,2.40,2.52,2.64,2.80,2.85,2.80,2.64,2.49,2.33,2.18,2.02,1.87,1.71,1.56,1.43,1.36,1.33,1.32,1.30,1.26,1.26,1.23,1.22,1.21,1.16,1.13,1.09,1.02,0.93,0.96,1.03,1.10,1.18,1.26,1.33,1.37,1.34,1.23,1.08,0.90,0.71,0.52,0.36,e,e,e,e,e,e,e,e,e,e,e,e,e,e,0.21,0.44,0.68,0.96,1.20,1.43,1.66,1.89,2.13,2.36,2.59,2.82,3.05,3.28,3.53,3.81,4.04,4.27,4.52,4.77,5.01,5.24,5.47,5.70,5.93,6.16,6.40,6.63,6.86,7.09,7.32,7.56,7.79,8.02,8.25,8.48,8.71,8.95,9.23,9.49,9.89,10.51,11.47,12.40,13.23,14.06,15.02,15.85,16.54,17.20,17.87,18.57,19.04,19.25,19.30,19.33,19.39,19.38,19.35,19.32,19.42,19.43,19.40,19.33,19.17,19.02,18.89,18.73,18.47,18.07,17.65,17.23,16.82,16.26,15.65,15.08,14.58,14.20,14.03,14.12,14.37,14.67,14.86,14.61,14.24,13.90,13.73,13.71,13.66,13.59,13.51,13.64,13.36,13.04,12.89,12.86,12.79,12.71,12.64,12.59,12.70,12.87,13.11,13.42,13.78,14.12,14.47,14.82,15.16,15.47,15.81,16.14,16.40,16.58,16.75,16.90,17.05,17.21,17.36,17.52,17.70,17.96,18.24
e,e,e,e,e,e,e,e,e,e,e,e,e,e,e,e,e,e,e,e,e,e,e,e,e,e,e,e,e,e,e,e,e,e,e,e,e,e,e,e,e,e,e,e,e,e,e,e,e,e,e,e,e,e,e,e,e,e,0.15,0.23,0.31,0.39,0.47,0.55,0.64,0.80,0.95,1.11,1.26,1.41,1.57,1.72,1.88,2.03,2.19,2.34,2.50,2.63,2.71,2.86,2.85,2.73,2.58,2.43,2.27,2.12,1.96,1.81,1.65,1.50,1.37,1.29,1.21,1.20,1.20,1.19,1.19,1.13,1.10,1.10,1.09,1.02,1.00,0.93,0.81,0.88,0.96,1.04,1.12,1.19,1.27,1.24,1.13,0.98,0.82,0.61,e,e,e,e,e,e,e,e,e,e,e,e,e,e,e,e,e,0.15,0.38,0.62,0.85,1.08,1.31,1.55,1.78,2.01,2.24,2.47,2.70,2.94,3.17,3.40,3.63,3.86,4.09,4.37,4.65,4.88,5.12,5.35,5.58,5.81,6.04,6.27,6.51,6.74,6.97,7.20,7.43,7.66,7.89,8.13,8.36,8.59,8.82,9.05,9.35,9.82,10.51,11.50,12.43,13.12,13.83,14.83,15.76,16.51,17.18,17.81,18.49,18.71,18.78,18.80,18.88,19.03,19.03,18.99,19.00,19.15,19.25,19.29,19.26,19.11,18.96,18.80,18.67,18.59,18.43,18.28,18.13,17.93,17.47,16.89,16.33,15.78,15.17,14.63,14.49,14.64,14.93,15.17,14.97,14.62,14.31,14.23,14.22,14.18,14.10,14.02,14.10,13.84,13.59,13.51,13.44,13.36,13.29,13.23,13.23,13.15,13.22,13.43,13.74,14.05,14.42,14.76,15.09,15.47,15.79,16.10,16.41,16.72,16.95,17.13,17.28,17.44,17.59,17.75,17.90,18.10,18.40,18.64
e,e,e,e,e,e,e,e,e,e,e,e,e,e,e,e,e,e,e,e,e,e,e,e,e,e,e,e,e,e,e,e,e,e,e,e,e,e,e,e,e,e,e,e,e,e,e,e,e,e,e,e,e,e,e,e,e,e,0.09,0.17,0.25,0.38,0.51,0.64,0.76,0.86,1.01,1.17,1.32,1.48,1.63,1.79,1.94,2.10,2.25,2.41,2.56,2.71,2.83,2.94,2.87,2.73,2.58,2.43,2.27,2.12,1.96,1.81,1.65,1.50,1.35,1.23,1.15,1.13,1.11,1.07,1.07,1.04,1.03,1.02,0.97,0.94,0.90,0.82,0.74,0.82,0.90,0.97,1.05,1.13,1.11,0.98,0.81,0.66,0.50,0.29,e,e,e,e,e,e,e,e,e,e,e,e,e,e,e,e,e,0.25,0.47,0.75,0.98,1.21,1.44,1.68,1.97,2.20,2.44,2.65,2.83,3.06,3.30,3.53,3.76,3.99,4.22,4.47,4.71,4.89,5.12,5.35,5.58,5.81,6.04,6.27,6.51,6.73,6.91,7.13,7.37,7.60,7.83,8.06,8.29,8.50,8.69,8.92,9.34,9.83,10.38,11.08,11.94,12.77,13.64,14.64,15.56,16.40,17.14,17.76,18.15,18.29,18.36,18.43,18.56,18.67,18.68,18.67,18.68,18.84,19.01,19.10,19.09,19.04,18.89,18.74,18.59,18.46,18.31,18.19,18.06,17.89,17.64,17.34,17.07,16.81,16.45,15.86,15.44,15.21,15.19,15.48,15.29,15.02,14.83,14.80,14.75,14.69,14.61,14.53,14.51,14.33,14.17,14.10,14.07,14.00,13.92,13.85,13.80,13.73,13.70,13.80,14.06,14.37,14.70,15.04,15.40,15.73,16.09,16.42,16.73,17.04,17.32,17.51,17.67,17.83,18.03,18.20,18.35,18.53,18.79,19.02
e,e,e,e,e,e,e,e,e,e,e,e,e,e,e,e,e,e,e,e,e,e,e,e,e,e,e,e,e,e,e,e,e,e,e,e,e,e,e,e,e,e,e,e,e,e,e,e,e,e,e,e,e,e,e,e,e,e,0.06,0.14,0.25,0.41,0.56,0.72,0.86,0.96,1.09,1.23,1.39,1.54,1.70,1.85,2.01,2.16,2.31,2.47,2.62,2.78,2.93,2.96,2.86,2.70,2.55,2.39,2.24,2.09,1.93,1.78,1.62,1.47,1.31,1.16,1.06,1.04,1.01,0.97,0.97,0.95,0.94,0.92,0.87,0.85,0.78,0.72,0.68,0.76,0.83,0.91,0.97,0.98,0.88,0.70,0.49,e,e,e,e,e,e,e,e,e,e,e,e,e,e,e,e,e,0.10,0.16,0.23,0.36,0.56,0.84,1.08,1.31,1.54,1.78,2.06,2.30,2.55,2.78,2.96,3.21,3.45,3.69,3.92,4.18,4.41,4.63,4.83,5.01,5.24,5.47,5.70,5.93,6.17,6.38,6.60,6.82,7.00,7.22,7.46,7.69,7.92,8.15,8.37,8.56,8.75,8.98,9.36,9.77,10.19,10.71,11.58,12.49,13.44,14.45,15.37,16.28,17.04,17.58,17.79,17.88,17.96,18.06,18.21,18.29,18.33,18.35,18.36,18.52,18.73,18.87,18.91,18.91,18.79,18.66,18.52,18.36,18.21,18.09,17.98,17.85,17.69,17.54,17.41,17.29,17.11,16.64,16.20,15.86,15.68,15.80,15.63,15.45,15.35,15.35,15.27,15.20,15.12,15.04,14.97,14.85,14.74,14.67,14.65,14.58,14.50,14.43,14.35,14.27,14.19,14.20,14.35,14.68,15.00,15.33,15.69,16.02,16.38,16.72,17.05,17.36,17.67,17.88,18.05,18.22,18.45,18.61,18.77,18.94,19.17,19.43
e,e,e,e,e,e,e,e,e,e,e,e,e,e,e,e,e,e,e,e,e,e,e,e,e,e,e,e,e,e,e,e,e,e,e,e,e,e,e,e,e,e,e,e,e,e,e,e,e,e,e,e,e,e,e,e,e,e,0.06,0.16,0.32,0.47,0.62,0.78,0.93,1.08,1.17,1.30,1.45,1.61,1.76,1.92,2.07,2.22,2.38,2.53,2.69,2.84,2.99,2.92,2.79,2.64,2.49,2.33,2.18,2.02,1.87,1.71,1.56,1.40,1.25,1.10,0.94,0.91,0.91,0.91,0.91,0.84,0.81,0.81,0.80,0.73,0.66,0.61,0.62,0.69,0.77,0.85,0.87,0.73,0.58,0.38,0.17,e,e,e,e,e,e,e,e,e,e,e,e,e,e,e,e,e,0.28,0.29,0.36,0.49,0.67,0.91,1.14,1.37,1.60,1.83,2.07,2.30,2.58,2.86,3.09,3.39,3.65,3.88,4.12,4.42,4.67,4.86,5.03,5.26,5.49,5.73,5.96,6.19,6.42,6.60,6.79,7.02,7.25,7.48,7.71,7.94,8.17,8.41,8.59,8.77,9.00,9.23,9.42,9.63,9.92,10.39,11.35,12.30,13.25,14.25,15.18,16.16,16.89,17.25,17.41,17.50,17.58,17.67,17.83,17.91,17.98,18.03,18.04,18.20,18.41,18.60,18.72,18.72,18.64,18.56,18.45,18.30,18.15,17.99,17.87,17.78,17.63,17.47,17.32,17.19,17.10,16.93,16.75,16.58,16.41,16.14,16.01,15.92,15.86,15.86,15.79,15.71,15.63,15.55,15.48,15.40,15.32,15.24,15.17,15.09,15.01,14.94,14.86,14.78,14.70,14.63,14.61,14.99,15.32,15.63,15.95,16.34,16.66,17.01,17.37,17.68,17.99,18.24,18.43,18.60,18.83,19.00,19.15,19.33,19.56,19.86
e,e,e,e,e,e,e,e,e,e,e,e,e,e,e,e,e,e,e,e,e,e,e,e,e,e,e,e,e,e,e,e,e,e,e,e,e,e,e,e,e,e,e,e,e,e,e,e,e,e,e,e,e,e,e,e,e,e,e,0.17,0.32,0.48,0.67,0.84,1.00,1.15,1.28,1.39,1.52,1.67,1.82,1.98,2.13,2.29,2.44,2.60,2.75,2.91,3.06,2.93,2.79,2.63,2.48,2.33,2.17,2.02,1.86,1.71,1.55,1.40,1.24,1.09,0.93,0.87,0.82,0.78,0.78,0.75,0.74,0.73,0.68,0.61,0.53,0.50,0.55,0.63,0.71,0.69,0.57,0.42,0.26,e,e,e,e,e,e,e,e,e,e,e,e,e,e,e,e,e,0.06,0.18,0.32,0.41,0.49,0.59,0.74,0.97,1.20,1.43,1.69,1.96,2.19,2.42,2.67,2.93,3.16,3.42,3.66,3.91,4.19,4.45,4.69,4.93,5.17,5.40,5.67,5.92,6.15,6.39,6.62,6.83,7.04,7.27,7.50,7.74,7.97,8.19,8.37,8.60,8.81,9.03,9.26,9.49,9.66,9.85,10.13,10.54,11.46,12.40,13.34,14.30,15.22,16.11,16.70,16.92,17.03,17.12,17.22,17.34,17.45,17.57,17.63,17.67,17.73,17.93,18.12,18.31,18.49,18.58,18.55,18.47,18.35,18.24,18.08,17.93,17.79,17.67,17.56,17.41,17.25,17.11,16.99,16.88,16.77,16.66,16.55,16.42,16.40,16.39,16.36,16.31,16.24,16.16,16.08,16.01,15.98,15.91,15.83,15.76,15.68,15.60,15.52,15.45,15.37,15.29,15.19,15.06,14.97,15.27,15.61,15.94,16.26,16.60,16.95,17.30,17.64,18.00,18.31,18.56,18.78,18.98,19.16,19.36,19.53,19.72,20.00,20.30
e,e,e,e,e,e,e,e,e,e,e,e,e,e,e,e,e,e,e,e,e,e,e,e,e,e,e,e,e,e,e,e,e,e,e,e,e,e,e,e,e,e,e,e,e,e,e,e,e,e,e,e,e,e,e,e,e,e,e,e,0.28,0.45,0.66,0.85,1.02,1.17,1.33,1.45,1.58,1.73,1.89,2.04,2.20,2.35,2.51,2.66,2.82,2.96,3.08,2.92,2.77,2.61,2.46,2.30,2.15,1.99,1.84,1.69,1.53,1.38,1.22,1.07,0.91,0.80,0.73,0.68,0.68,0.66,0.66,0.63,0.55,0.48,0.41,0.41,0.49,0.55,0.58,e,e,e,e,e,e,e,e,e,e,e,e,e,e,e,e,e,e,e,e,e,e,0.19,0.37,0.56,0.62,0.69,0.83,1.06,1.29,1.52,1.78,2.06,2.29,2.53,2.76,2.99,3.22,3.45,3.70,3.96,4.25,4.48,4.71,4.97,5.25,5.48,5.79,6.05,6.29,6.53,6.77,7.01,7.25,7.49,7.73,7.97,8.20,8.42,8.59,8.82,9.05,9.28,9.51,9.74,9.93,10.14,10.42,10.80,11.64,12.55,13.48,14.40,15.31,15.99,16.41,16.58,16.66,16.75,16.87,16.99,17.06,17.22,17.28,17.33,17.43,17.65,17.83,18.02,18.22,18.40,18.43,18.36,18.25,18.15,18.00,17.85,17.72,17.59,17.51,17.38,17.25,17.11,16.97,16.89,16.83,16.76,16.69,16.69,16.76,16.82,16.82,16.76,16.69,16.61,16.53,16.46,16.46,16.41,16.34,16.27,16.19,16.11,16.04,15.96,15.88,15.80,15.68,15.51,15.37,15.57,15.90,16.25,16.57,16.88,17.24,17.59,17.93,18.30,18.60,18.88,19.13,19.35,19.51,19.73,19.93,20.13,20.42,20.73
e,e,e,e,e,e,e,e,e,e,e,e,e,e,e,e,e,e,e,e,e,e,e,e,e,e,e,e,e,e,e,e,e,e,e,e,e,e,e,e,e,e,e,e,e,e,e,e,e,e,e,e,e,e,e,e,e,e,e,e,0.16,0.38,0.55,0.75,0.95,1.11,1.26,1.45,1.64,1.80,1.95,2.11,2.26,2.42,2.57,2.72,2.88,2.99,3.01,2.86,2.70,2.55,2.39,2.24,2.08,1.93,1.78,1.62,1.47,1.31,1.16,1.00,0.85,0.70,0.62,0.61,0.61,0.55,0.53,0.50,0.43,0.35,0.32,0.35,0.42,0.43,0.33,e,e,e,e,e,e,e,e,e,e,e,e,e,e,e,e,e,e,e,e,e,e,0.22,0.45,0.74,0.77,0.82,0.95,1.19,1.42,1.65,1.89,2.13,2.36,2.59,2.82,3.05,3.28,3.52,3.79,4.07,4.31,4.54,4.77,5.01,5.25,5.48,5.79,6.05,6.30,6.60,6.83,7.11,7.38,7.62,7.92,8.16,8.39,8.62,8.84,9.07,9.31,9.54,9.77,10.00,10.22,10.48,10.80,11.19,11.89,12.74,13.67,14.59,15.45,15.75,15.94,16.19,16.27,16.41,16.52,16.60,16.68,16.83,16.93,17.02,17.17,17.34,17.55,17.74,17.92,18.14,18.22,18.23,18.17,18.02,17.87,17.76,17.67,17.59,17.51,17.42,17.34,17.25,17.16,17.08,17.05,17.02,16.94,16.94,17.06,17.16,17.22,17.20,17.13,17.06,16.98,16.90,16.90,16.90,16.86,16.78,16.70,16.62,16.55,16.47,16.39,16.32,16.19,16.01,15.81,15.91,16.18,16.53,16.89,17.20,17.52,17.87,18.23,18.55,18.86,19.21,19.52,19.74,19.89,20.11,20.34,20.56,20.81,21.11
e,e,e,e,e,e,e,e,e,e,e,e,e,e,e,e,e,e,e,e,e,e,e,e,e,e,e,e,e,e,e,e,e,e,e,e,e,e,e,e,e,e,e,e,e,e,e,e,e,e,e,e,e,e,e,e,e,e,e,e,0.08,0.27,0.46,0.66,0.84,0.99,1.19,1.38,1.57,1.76,1.92,2.10,2.28,2.43,2.58,2.77,2.94,3.04,3.00,2.84,2.69,2.53,2.38,2.23,2.07,1.92,1.76,1.61,1.45,1.30,1.14,0.99,0.83,0.68,0.56,0.50,0.50,0.47,0.43,0.39,0.35,0.27,0.25,0.25,e,e,e,e,e,e,e,e,e,e,e,e,e,e,e,e,e,e,e,e,e,e,e,e,e,0.29,0.69,0.84,0.89,0.95,1.07,1.26,1.49,1.73,1.96,2.19,2.42,2.65,2.91,3.17,3.40,3.63,3.89,4.14,4.38,4.61,4.84,5.07,5.30,5.53,5.84,6.10,6.34,6.61,6.84,7.13,7.41,7.65,7.96,8.20,8.46,8.72,8.95,9.18,9.44,9.72,10.03,10.34,10.59,10.86,11.19,11.57,12.14,12.93,13.86,14.77,15.19,15.30,15.44,15.73,15.92,16.05,16.14,16.23,16.35,16.50,16.60,16.71,16.86,17.02,17.23,17.43,17.60,17.83,17.96,18.05,18.09,18.05,17.97,17.89,17.82,17.74,17.66,17.58,17.51,17.44,17.40,17.33,17.27,17.24,17.20,17.24,17.34,17.46,17.56,17.60,17.57,17.50,17.43,17.35,17.35,17.35,17.33,17.29,17.21,17.14,17.06,16.98,16.90,16.79,16.65,16.46,16.25,16.25,16.49,16.82,17.17,17.52,17.83,18.16,18.51,18.86,19.17,19.53,19.88,20.18,20.37,20.56,20.76,20.96,21.19,21.50
e,e,e,e,e,e,e,e,e,e,e,e,e,e,e,e,e,e,e,e,e,e,e,e,e,e,e,e,e,e,e,e,e,e,e,e,e,e,e,e,e,e,e,e,e,e,e,e,e,e,e,e,e,e,e,e,e,e,e,e,e,e,0.37,0.56,0.71,0.88,1.10,1.28,1.47,1.68,1.85,2.06,2.25,2.40,2.57,2.78,2.97,3.07,3.01,2.85,2.69,2.53,2.38,2.21,2.06,1.90,1.75,1.59,1.44,1.28,1.13,0.98,0.82,0.67,0.51,0.39,0.39,0.38,0.33,0.28,0.27,0.19,e,e,e,e,e,e,e,e,e,e,e,e,e,e,e,e,e,e,e,e,e,e,e,e,e,e,e,0.40,0.84,0.90,0.99,1.08,1.18,1.33,1.56,1.80,2.04,2.27,2.50,2.73,3.00,3.28,3.51,3.74,3.98,4.21,4.44,4.67,4.91,5.15,5.38,5.61,5.91,6.16,6.39,6.62,6.86,7.14,7.41,7.65,7.96,8.20,8.48,8.76,9.00,9.24,9.52,9.85,10.24,10.66,10.96,11.24,11.57,11.94,12.40,13.14,14.01,14.79,14.79,14.79,14.93,15.24,15.57,15.68,15.77,15.87,16.01,16.17,16.28,16.39,16.55,16.71,16.92,17.11,17.29,17.51,17.69,17.88,18.05,18.14,18.14,18.08,18.01,17.93,17.85,17.79,17.71,17.65,17.64,17.57,17.50,17.46,17.46,17.54,17.62,17.73,17.87,17.96,17.98,17.94,17.87,17.80,17.80,17.81,17.81,17.79,17.71,17.63,17.56,17.48,17.40,17.25,17.09,16.91,16.69,16.59,16.81,17.12,17.44,17.82,18.14,18.46,18.79,19.18,19.48,19.86,20.25,20.63,20.87,21.04,21.20,21.37,21.59,21.88
e,e,e,e,e,e,e,e,e,e,e,e,e,e,e,e,e,e,e,e,e,e,e,e,e,e,e,e,e,e,e,e,e,e,e,e,e,e,e,e,e,e,e,e,e,e,e,e,e,e,e,e,e,e,e,e,e,e,e,e,e,e,0.27,0.43,0.60,0.81,0.99,1.19,1.39,1.56,1.78,1.96,2.12,2.29,2.50,2.68,2.87,3.04,3.07,2.86,2.69,2.53,2.37,2.16,1.99,1.84,1.68,1.53,1.37,1.22,1.07,0.91,0.76,0.60,0.45,0.32,0.32,0.27,0.23,0.20,0.14,0.07,e,e,e,e,e,e,e,e,e,e,e,e,e,e,e,e,e,e,e,e,e,e,e,e,e,e,e,0.53,0.58,0.88,1.09,1.21,1.29,1.39,1.62,1.90,2.16,2.40,2.63,2.86,3.10,3.34,3.58,3.81,4.04,4.27,4.50,4.73,5.02,5.28,5.51,5.74,5.99,6.23,6.46,6.69,6.92,7.17,7.41,7.65,7.96,8.20,8.48,8.76,9.00,9.29,9.55,9.85,10.26,10.82,11.27,11.63,11.94,12.26,12.72,13.40,14.02,14.28,14.28,14.28,14.42,14.74,15.17,15.30,15.41,15.54,15.63,15.78,15.93,16.07,16.23,16.45,16.63,16.82,17.02,17.20,17.46,17.81,18.14,18.33,18.33,18.28,18.20,18.12,18.04,18.02,17.97,17.90,17.84,17.76,17.72,17.71,17.72,17.80,17.87,17.99,18.14,18.28,18.34,18.36,18.32,18.25,18.25,18.29,18.30,18.23,18.16,18.08,18.00,17.93,17.85,17.70,17.54,17.36,17.13,16.93,17.13,17.44,17.75,18.08,18.44,18.78,19.11,19.50,19.80,20.21,20.66,21.08,21.38,21.55,21.71,21.87,22.04,22.28
e,e,e,e,e,e,e,e,e,e,e,e,e,e,e,e,e,e,e,e,e,e,e,e,e,e,e,e,e,e,e,e,e,e,e,e,e,e,e,e,e,e,e,e,e,e,e,e,e,e,e,e,e,e,e,e,e,e,e,e,e,e,e,0.32,0.51,0.71,0.90,1.09,1.27,1.43,1.67,1.84,2.01,2.20,2.40,2.58,2.78,2.95,3.06,2.92,2.75,2.58,2.42,2.22,2.03,1.86,1.70,1.51,1.35,1.20,1.04,0.89,0.73,0.58,0.43,0.29,0.22,0.18,0.14,e,e,e,e,e,e,e,e,e,e,e,e,e,e,e,e,e,e,e,e,e,e,e,e,e,e,e,e,e,e,0.49,0.46,0.87,1.18,1.33,1.41,1.50,1.73,1.99,2.25,2.48,2.71,2.94,3.18,3.41,3.64,3.90,4.15,4.38,4.61,4.84,5.11,5.36,5.59,5.83,6.06,6.29,6.52,6.75,7.02,7.26,7.49,7.73,8.01,8.24,8.50,8.76,9.00,9.30,9.56,9.87,10.29,10.82,11.32,11.77,12.15,12.46,12.85,13.34,13.72,13.77,13.77,13.77,13.92,14.27,14.71,14.89,15.04,15.17,15.25,15.43,15.60,15.75,15.91,16.14,16.31,16.51,16.72,16.88,17.26,17.70,18.12,18.44,18.51,18.47,18.41,18.36,18.28,18.24,18.18,18.10,18.03,17.95,17.95,17.98,18.02,18.09,18.17,18.27,18.40,18.55,18.67,18.73,18.74,18.69,18.69,18.75,18.77,18.72,18.65,18.57,18.49,18.41,18.34,18.19,18.01,17.81,17.57,17.34,17.46,17.73,18.07,18.38,18.76,19.10,19.43,19.82,20.19,20.63,21.09,21.54,21.88,22.06,22.22,22.37,22.53,22.73
e,e,e,e,e,e,e,e,e,e,e,e,e,e,e,e,e,e,e,e,e,e,e,e,e,e,e,e,e,e,e,e,e,e,e,e,e,e,e,e,e,e,e,e,e,e,e,e,e,e,e,e,e,e,e,e,e,e,e,e,e,e,e,0.22,0.43,0.59,0.81,0.99,1.15,1.31,1.54,1.71,1.90,2.12,2.27,2.50,2.68,2.84,2.99,3.00,2.84,2.64,2.49,2.33,2.11,1.92,1.75,1.52,1.36,1.20,1.05,0.89,0.74,0.58,0.43,0.27,0.11,e,e,e,e,e,e,e,e,e,e,e,e,e,e,e,e,e,e,e,e,e,e,e,e,e,e,e,e,e,e,e,e,e,0.41,0.87,1.26,1.46,1.54,1.62,1.85,2.08,2.31,2.55,2.78,3.01,3.25,3.48,3.71,4.01,4.27,4.50,4.73,4.96,5.19,5.43,5.66,5.90,6.13,6.36,6.59,6.83,7.13,7.38,7.61,7.84,8.08,8.31,8.54,8.77,9.01,9.31,9.57,9.88,10.33,10.72,11.22,11.75,12.23,12.54,12.84,13.10,13.25,13.25,13.25,13.25,13.43,13.81,14.20,14.47,14.66,14.79,14.86,15.09,15.27,15.43,15.60,15.83,16.00,16.19,16.41,16.57,17.08,17.58,18.04,18.49,18.66,18.66,18.62,18.61,18.53,18.45,18.37,18.30,18.22,18.15,18.18,18.26,18.33,18.41,18.48,18.56,18.66,18.81,18.96,19.07,19.13,19.13,19.14,19.20,19.24,19.23,19.16,19.08,19.00,18.92,18.84,18.69,18.48,18.25,18.02,17.79,17.80,18.02,18.39,18.70,19.08,19.42,19.76,20.15,20.61,21.08,21.54,21.99,22.38,22.58,22.73,22.88,23.04,23.19
e,e,e,e,e,e,e,e,e,e,e,e,e,e,e,e,e,e,e,e,e,e,e,e,e,e,e,e,e,e,e,e,e,e,e,e,e,e,e,e,e,e,e,e,e,e,e,e,e,e,e,e,e,e,e,e,e,e,e,e,e,e,e,0.13,0.31,0.52,0.70,0.86,1.04,1.24,1.42,1.62,1.82,1.99,2.15,2.37,2.55,2.71,2.86,3.02,2.94,2.75,2.55,2.39,2.18,1.99,1.83,1.65,1.44,1.27,1.11,0.96,0.75,0.58,0.43,0.26,0.05,e,e,e,e,e,e,e,e,e,e,e,e,e,e,e,e,e,e,e,e,e,e,e,e,e,e,e,e,e,e,e,e,e,0.41,0.87,1.26,1.52,1.65,1.68,1.91,2.15,2.38,2.61,2.84,3.12,3.37,3.61,3.84,4.09,4.33,4.56,4.79,5.03,5.26,5.49,5.73,6.02,6.25,6.49,6.72,6.95,7.21,7.44,7.68,7.91,8.14,8.37,8.60,8.85,9.14,9.39,9.63,9.89,10.21,10.65,11.04,11.42,11.78,12.09,12.35,12.56,12.69,12.74,12.74,12.74,12.92,13.30,13.69,14.08,14.31,14.40,14.48,14.71,14.92,15.13,15.34,15.52,15.72,15.91,16.12,16.43,16.96,17.45,17.91,18.37,18.69,18.83,18.85,18.80,18.72,18.64,18.57,18.50,18.48,18.46,18.50,18.56,18.59,18.66,18.74,18.84,18.97,19.07,19.22,19.36,19.47,19.52,19.57,19.68,19.73,19.68,19.66,19.59,19.51,19.42,19.29,19.14,18.93,18.70,18.47,18.29,18.19,18.34,18.71,19.02,19.40,19.77,20.16,20.60,21.06,21.52,21.99,22.45,22.89,23.09,23.24,23.40,23.55,23.70
e,e,e,e,e,e,e,e,e,e,e,e,e,e,e,e,e,e,e,e,e,e,e,e,e,e,e,e,e,e,e,e,e,e,e,e,e,e,e,e,e,e,e,e,e,e,e,e,e,e,e,e,e,e,e,e,e,e,e,e,e,e,e,e,0.22,0.42,0.58,0.75,0.94,1.15,1.33,1.53,1.71,1.87,2.05,2.25,2.43,2.59,2.77,2.98,2.98,2.85,2.64,2.46,2.26,2.07,1.90,1.74,1.54,1.35,1.17,0.98,0.70,0.47,e,e,e,e,e,e,e,e,e,e,e,e,e,e,e,e,e,e,e,e,e,e,e,e,e,e,e,e,e,e,e,e,e,e,e,e,0.41,0.87,1.26,1.58,1.78,1.81,1.99,2.23,2.47,2.71,2.94,3.22,3.47,3.70,3.93,4.16,4.40,4.63,4.86,5.12,5.36,5.59,5.83,6.11,6.35,6.58,6.81,7.04,7.28,7.51,7.75,8.00,8.24,8.47,8.70,8.94,9.20,9.38,9.54,9.76,10.08,10.49,10.79,11.06,11.33,11.64,11.83,11.98,12.10,12.20,12.23,12.23,12.41,12.80,13.21,13.64,13.91,14.03,14.13,14.36,14.59,14.82,15.05,15.20,15.42,15.64,15.89,16.33,16.84,17.32,17.78,18.25,18.69,18.95,19.04,18.99,18.91,18.86,18.79,18.73,18.73,18.76,18.80,18.84,18.87,18.95,19.03,19.13,19.25,19.36,19.48,19.63,19.78,19.94,20.07,20.23,20.32,20.30,20.27,20.20,20.11,19.99,19.81,19.63,19.41,19.18,18.96,18.80,18.61,18.68,19.03,19.34,19.72,20.13,20.58,21.04,21.51,21.97,22.43,22.90,23.36,23.59,23.75,23.91,24.06,24.22
e,e,e,e,e,e,e,e,e,e,e,e,e,e,e,e,e,e,e,e,e,e,e,e,e,e,e,e,e,e,e,e,e,e,e,e,e,e,e,e,e,e,e,e,e,e,e,e,e,e,e,e,e,e,e,e,e,e,e,e,e,e,e,e,0.14,0.30,0.45,0.66,0.86,1.02,1.25,1.42,1.58,1.75,1.98,2.14,2.30,2.48,2.70,2.86,2.96,2.93,2.76,2.54,2.37,2.17,1.96,1.80,1.65,1.44,1.21,0.97,0.59,0.27,e,e,e,e,e,e,e,e,e,e,e,e,e,e,e,e,e,e,e,e,e,e,e,e,e,e,e,e,e,e,e,e,e,e,e,e,0.41,0.87,1.26,1.65,1.92,2.00,2.08,2.33,2.60,2.83,3.07,3.30,3.53,3.76,4.00,4.23,4.46,4.69,4.93,5.24,5.48,5.72,5.95,6.18,6.41,6.64,6.88,7.11,7.34,7.57,7.84,8.13,8.36,8.60,8.83,9.04,9.20,9.28,9.31,9.49,9.94,10.25,10.50,10.69,10.89,11.19,11.29,11.37,11.48,11.63,11.70,11.72,11.90,12.29,12.75,13.15,13.45,13.66,13.81,14.04,14.27,14.50,14.73,14.88,15.10,15.37,15.72,16.26,16.73,17.19,17.66,18.12,18.66,19.03,19.19,19.18,19.10,19.09,19.05,18.99,18.99,19.06,19.09,19.12,19.19,19.27,19.35,19.43,19.52,19.67,19.76,19.88,20.09,20.39,20.62,20.84,21.01,21.06,20.98,20.91,20.79,20.61,20.38,20.15,19.92,19.69,19.47,19.31,19.04,19.04,19.35,19.66,20.04,20.51,21.03,21.49,21.95,22.42,22.88,23.34,23.81,24.07,24.26,24.42,24.57,24.73
e,e,e,e,e,e,e,e,e,e,e,e,e,e,e,e,e,e,e,e,e,e,e,e,e,e,e,e,e,e,e,e,e,e,e,e,e,e,e,e,e,e,e,e,e,e,e,e,e,e,e,e,e,e,e,e,e,e,e,e,e,e,e,e,e,e,0.37,0.56,0.75,0.95,1.14,1.30,1.48,1.67,1.86,2.02,2.17,2.35,2.58,2.73,2.87,2.91,2.83,2.60,2.43,2.18,1.88,1.63,1.33,1.02,0.71,e,e,e,e,e,e,e,e,e,e,e,e,e,e,e,e,e,e,e,e,e,e,e,e,e,e,e,e,e,e,e,e,e,e,e,e,e,e,0.21,0.50,0.82,1.25,1.65,1.96,2.13,2.20,2.42,2.67,2.90,3.13,3.36,3.60,3.83,4.06,4.34,4.58,4.82,5.05,5.31,5.55,5.78,6.01,6.25,6.48,6.71,6.96,7.23,7.47,7.70,7.94,8.20,8.43,8.58,8.72,8.83,8.89,8.97,8.99,9.16,9.56,9.82,10.10,10.31,10.49,10.75,10.80,10.86,10.95,11.05,11.18,11.25,11.45,11.84,12.25,12.64,13.00,13.27,13.43,13.66,13.92,14.18,14.41,14.61,14.84,15.16,15.59,16.13,16.60,17.07,17.53,18.00,18.54,18.98,19.24,19.33,19.34,19.30,19.24,19.21,19.30,19.34,19.35,19.37,19.45,19.53,19.61,19.71,19.85,20.05,20.18,20.35,20.57,20.83,21.07,21.30,21.50,21.65,21.67,21.61,21.49,21.31,21.08,20.85,20.62,20.37,20.10,19.89,19.57,19.50,19.74,20.09,20.52,20.96,21.41,21.88,22.34,22.84,23.33,23.79,24.26,24.56,24.77,24.93,25.08,25.19
e,e,e,e,e,e,e,e,e,e,e,e,e,e,e,e,e,e,e,e,e,e,e,e,e,e,e,e,e,e,e,e,e,e,e,e,e,e,e,e,e,e,e,e,e,e,e,e,e,e,e,e,e,e,e,e,e,e,e,e,e,e,e,e,e,e,0.28,0.47,0.65,0.86,1.02,1.19,1.38,1.58,1.73,1.89,2.05,2.24,2.45,2.65,2.81,2.86,2.74,2.47,2.25,1.95,1.59,1.26,0.88,e,e,e,e,e,e,e,e,e,e,e,e,e,e,e,e,e,e,e,e,e,e,e,e,e,e,e,e,e,e,e,e,e,e,e,e,e,e,e,e,0.29,0.58,0.81,1.24,1.65,1.99,2.25,2.31,2.50,2.73,2.96,3.20,3.45,3.69,3.92,4.15,4.44,4.69,4.92,5.15,5.38,5.61,5.85,6.08,6.33,6.57,6.80,7.05,7.34,7.57,7.78,7.99,8.18,8.37,8.45,8.52,8.57,8.57,8.65,8.67,8.81,9.14,9.34,9.62,9.87,10.07,10.26,10.29,10.33,10.41,10.50,10.64,10.75,10.97,11.36,11.75,12.15,12.54,12.87,13.05,13.29,13.59,13.87,14.12,14.33,14.61,14.98,15.46,16.00,16.47,16.94,17.41,17.89,18.41,18.89,19.25,19.46,19.54,19.50,19.45,19.46,19.60,19.60,19.61,19.65,19.71,19.76,19.82,19.95,20.15,20.40,20.60,20.83,21.08,21.31,21.54,21.77,22.00,22.22,22.33,22.32,22.22,22.04,21.81,21.56,21.32,21.09,20.87,20.71,20.47,20.37,20.50,20.89,21.33,21.75,22.17,22.64,23.10,23.61,24.10,24.55,24.90,25.11,25.28,25.41,25.55,25.64
e,e,e,e,e,e,e,e,e,e,e,e,e,e,e,e,e,e,e,e,e,e,e,e,e,e,e,e,e,e,e,e,e,e,e,e,e,e,e,e,e,e,e,e,e,e,e,e,e,e,e,e,e,e,e,e,e,e,e,e,e,e,e,e,e,e,0.17,0.37,0.57,0.73,0.89,1.10,1.29,1.45,1.61,1.76,1.96,2.16,2.33,2.62,2.81,2.75,2.41,2.04,1.67,1.34,1.01,0.63,0.24,e,e,e,e,e,e,e,e,e,e,e,e,e,e,e,e,e,e,e,e,e,e,e,e,e,e,e,e,e,e,e,e,e,e,e,e,e,e,e,e,0.35,0.64,0.87,1.26,1.65,2.03,2.38,2.39,2.57,2.80,3.03,3.26,3.55,3.81,4.04,4.28,4.52,4.75,4.98,5.21,5.45,5.68,5.91,6.16,6.46,6.69,6.93,7.16,7.40,7.63,7.81,7.94,8.04,8.13,8.15,8.20,8.25,8.25,8.33,8.35,8.45,8.69,8.78,9.05,9.35,9.60,9.69,9.76,9.79,9.85,9.99,10.08,10.21,10.46,10.85,11.23,11.68,12.10,12.44,12.66,12.96,13.27,13.57,13.86,14.02,14.41,14.86,15.34,15.88,16.35,16.81,17.30,17.83,18.30,18.76,19.21,19.59,19.67,19.67,19.70,19.77,19.85,19.86,19.90,19.95,19.96,19.97,19.97,20.12,20.42,20.72,21.01,21.31,21.59,21.82,22.05,22.28,22.51,22.74,22.96,23.04,22.98,22.81,22.58,22.28,22.02,21.87,21.84,21.88,21.91,21.87,21.85,22.23,22.63,23.06,23.52,23.98,24.44,24.91,25.38,25.79,25.84,25.76,25.76,25.85,25.93,26.07
e,e,e,e,e,e,e,e,e,e,e,e,e,e,e,e,e,e,e,e,e,e,e,e,e,e,e,e,e,e,e,e,e,e,e,e,e,e,e,e,e,e,e,e,e,e,e,e,e,e,e,e,e,e,e,e,e,e,e,e,e,e,e,e,e,e,e,0.27,0.45,0.61,0.80,1.00,1.19,1.40,1.68,1.95,2.25,2.51,2.62,2.56,2.45,2.21,1.83,1.48,1.10,0.73,e,e,e,e,e,e,e,e,e,e,e,e,e,e,e,e,e,e,e,e,e,e,e,e,e,e,e,e,e,e,e,e,e,e,e,e,e,e,e,e,e,e,e,0.42,0.72,0.99,1.29,1.65,2.03,2.40,2.49,2.68,2.91,3.15,3.38,3.64,3.89,4.12,4.35,4.58,4.81,5.05,5.28,5.56,5.79,6.03,6.27,6.53,6.77,7.00,7.20,7.35,7.50,7.60,7.67,7.75,7.83,7.84,7.88,7.95,7.99,8.14,8.31,8.50,8.72,8.88,9.03,9.22,9.42,9.54,9.66,9.70,9.74,9.85,9.88,9.98,10.16,10.43,10.73,11.18,11.60,11.96,12.28,12.58,12.92,13.26,13.56,13.84,14.26,14.73,15.21,15.75,16.22,16.68,17.17,17.71,18.17,18.64,19.10,19.53,19.77,19.84,19.88,19.92,19.95,19.95,19.98,20.02,20.05,20.05,20.15,20.37,20.67,20.98,21.29,21.60,21.90,22.17,22.44,22.72,22.99,23.26,23.49,23.66,23.67,23.52,23.29,23.14,23.05,23.02,23.07,23.14,23.32,23.34,23.31,23.78,24.03,24.39,24.86,25.32,25.78,26.22,26.52,26.62,26.50,26.35,26.27,26.29,26.37,26.52
e,e,e,e,e,e,e,e,e,e,e,e,e,e,e,e,e,e,e,e,e,e,e,e,e,e,e,e,e,e,e,e,e,e,e,e,e,e,e,e,e,e,e,e,e,e,e,e,e,e,e,e,e,e,e,e,e,e,e,e,e,e,e,e,e,e,e,e,0.39,0.59,0.84,1.05,1.28,1.56,1.95,2.29,2.57,2.75,2.73,2.34,1.95,1.57,1.21,0.88,e,e,e,e,e,e,e,e,e,e,e,e,e,e,e,e,e,e,e,e,e,e,e,e,e,e,e,e,e,e,e,e,e,e,e,e,e,e,e,e,e,e,e,e,0.22,0.49,0.79,1.10,1.35,1.67,2.03,2.41,2.59,2.80,3.02,3.26,3.49,3.72,3.95,4.19,4.43,4.66,4.90,5.13,5.37,5.66,5.91,6.14,6.37,6.60,6.80,7.00,7.15,7.22,7.30,7.33,7.37,7.45,7.55,7.60,7.68,7.78,7.90,8.13,8.41,8.69,8.94,9.19,9.32,9.49,9.72,9.94,10.19,10.31,10.35,10.39,10.39,10.52,10.69,10.88,11.14,11.53,11.83,12.06,12.31,12.44,12.66,12.95,13.29,13.69,14.14,14.61,15.10,15.65,16.14,16.62,17.13,17.68,18.16,18.65,19.12,19.55,19.87,19.98,20.02,20.02,20.02,20.02,20.02,20.04,20.10,20.13,20.34,20.62,20.93,21.24,21.55,21.86,22.17,22.48,22.78,23.09,23.40,23.70,23.95,24.19,24.29,24.25,24.12,24.13,24.19,24.27,24.34,24.41,24.65,24.76,24.80,25.35,25.47,25.75,26.18,26.64,27.06,27.38,27.49,27.32,27.09,26.92,26.81,26.76,26.82,26.95
e,e,e,e,e,e,e,e,e,e,e,e,e,e,e,e,e,e,e,e,e,e,e,e,e,e,e,e,e,e,e,e,e,e,e,e,e,e,e,e,e,e,e,e,e,e,e,e,e,e,e,e,e,e,e,e,e,e,e,e,e,e,e,e,e,e,e,e,0.51,0.85,1.21,1.55,1.90,2.26,2.65,2.81,2.72,2.45,2.09,1.70,1.31,0.95,0.62,0.25,e,e,e,e,e,e,e,e,e,e,e,e,e,e,e,e,e,e,e,e,e,e,e,e,e,e,e,e,e,e,e,e,e,e,e,e,e,e,e,e,e,e,e,e,0.35,0.59,0.85,1.16,1.46,1.73,2.03,2.42,2.69,2.89,3.09,3.32,3.55,3.78,4.02,4.27,4.56,4.79,5.02,5.26,5.49,5.74,5.97,6.20,6.43,6.66,6.72,6.81,6.88,6.90,6.98,7.04,7.11,7.21,7.41,7.60,7.80,8.02,8.28,8.51,8.75,9.05,9.40,9.69,10.15,10.66,11.18,11.64,12.28,12.64,12.73,12.63,12.63,13.01,13.42,13.71,14.07,14.30,14.15,13.78,13.54,12.98,12.64,12.67,13.10,13.55,14.01,14.50,15.05,15.65,16.18,16.75,17.34,17.94,18.47,19.04,19.54,19.90,19.97,20.05,20.08,20.08,20.08,20.08,20.08,20.09,20.11,20.24,20.54,20.88,21.19,21.50,21.80,22.11,22.42,22.73,23.04,23.35,23.66,23.96,24.26,24.55,24.81,25.06,25.32,25.39,25.47,25.54,25.62,25.63,25.83,26.03,26.28,26.88,27.01,27.17,27.46,27.92,28.13,28.16,28.06,27.90,27.66,27.50,27.38,27.31,27.27,27.35
e,e,e,e,e,e,e,e,e,e,e,e,e,e,e,e,e,e,e,e,e,e,e,e,e,e,e,e,e,e,e,e,e,e,e,e,e,e,e,e,e,e,e,e,e,e,e,e,e,e,e,e,e,e,e,e,e,e,e,e,e,e,e,e,e,e,e,e,0.60,1.46,1.81,2.19,2.51,2.71,2.72,2.60,2.30,1.88,1.45,1.10,0.72,e,e,e,e,e,e,e,e,e,e,e,e,e,e,e,e,e,e,e,e,e,e,e,e,e,e,e,e,e,e,e,e,e,e,e,e,e,e,e,e,e,e,e,e,0.12,0.20,0.31,0.50,0.71,0.95,1.23,1.53,1.79,2.07,2.42,2.76,2.96,3.15,3.39,3.66,3.89,4.12,4.37,4.64,4.87,5.11,5.34,5.57,5.80,6.01,6.17,6.30,6.47,6.48,6.53,6.61,6.72,6.86,7.04,7.20,7.36,7.59,7.82,8.08,8.34,8.62,8.85,9.08,9.50,10.20,10.88,11.63,12.42,13.19,13.76,14.55,15.19,15.58,15.68,15.99,16.45,16.86,17.14,17.46,17.66,17.47,16.97,16.41,15.48,14.61,13.81,13.17,13.57,14.07,14.64,15.25,15.87,16.45,17.05,17.67,18.29,18.86,19.42,19.82,20.01,20.04,20.08,20.12,20.14,20.14,20.14,20.14,20.16,20.21,20.43,20.76,21.09,21.40,21.71,22.01,22.32,22.63,22.94,23.25,23.56,23.87,24.17,24.45,24.75,25.10,25.51,26.00,26.25,26.50,26.71,26.85,26.89,27.02,27.32,27.79,28.37,28.56,28.63,28.71,28.92,28.91,28.79,28.62,28.43,28.19,28.06,27.96,27.88,27.81,27.81
e,e,e,e,e,e,e,e,e,e,e,e,e,e,e,e,e,e,e,e,e,e,e,e,e,e,e,e,e,e,e,e,e,e,e,e,e,e,e,e,e,e,e,e,e,e,e,e,e,e,e,e,e,e,e,e,e,e,e,e,e,e,e,e,e,e,e,e,e,2.05,2.54,2.84,2.98,2.92,2.46,2.06,1.63,1.20,e,e,e,e,e,e,e,e,e,e,e,e,e,e,e,e,e,e,e,e,e,e,e,e,e,e,e,e,e,e,e,e,e,e,e,e,e,e,e,e,e,e,e,e,e,e,e,0.26,0.34,0.49,0.65,0.85,1.08,1.31,1.61,1.87,2.12,2.43,2.81,3.03,3.22,3.47,3.77,4.01,4.24,4.48,4.71,4.94,5.17,5.40,5.61,5.83,5.99,6.07,6.10,6.19,6.22,6.28,6.42,6.66,6.89,7.18,7.45,7.68,7.92,8.15,8.43,8.71,8.94,9.18,9.44,10.07,11.22,12.40,13.38,14.39,15.38,16.04,16.92,17.91,18.75,19.22,19.91,20.37,20.69,20.93,21.20,21.49,21.46,21.07,20.30,19.02,17.55,15.71,13.65,13.69,14.18,14.83,15.51,16.13,16.75,17.37,17.99,18.62,19.28,19.76,20.00,20.02,20.09,20.11,20.15,20.20,20.20,20.21,20.21,20.25,20.36,20.67,20.98,21.29,21.60,21.91,22.22,22.52,22.83,23.13,23.44,23.75,24.05,24.35,24.58,24.88,25.29,25.79,26.40,26.89,27.35,27.74,27.98,28.09,28.20,28.59,29.25,29.80,30.06,30.05,29.91,29.81,29.57,29.38,29.18,28.95,28.71,28.61,28.53,28.45,28.38,28.30
e,e,e,e,e,e,e,e,e,e,e,e,e,e,e,e,e,e,e,e,e,e,e,e,e,e,e,e,e,e,e,e,e,e,e,e,e,e,e,e,e,e,e,e,e,e,e,e,e,e,e,e,e,e,e,e,e,e,e,e,e,e,e,e,e,e,e,e,e,1.51,3.33,3.12,2.56,2.22,1.82,1.38,0.96,0.57,e,e,e,e,e,e,e,e,e,e,e,e,e,e,e,e,e,e,e,e,e,e,e,e,e,e,e,e,e,e,e,e,e,e,e,e,e,e,e,e,e,e,e,e,e,e,e,0.45,0.53,0.63,0.82,1.04,1.27,1.50,1.75,1.99,2.23,2.49,2.82,3.10,3.35,3.59,3.84,4.08,4.31,4.54,4.77,5.00,5.23,5.42,5.53,5.60,5.69,5.83,6.00,6.19,6.36,6.54,6.76,7.05,7.28,7.53,7.77,8.01,8.30,8.54,8.78,9.03,9.26,9.55,10.07,11.09,12.71,14.09,15.10,16.11,17.18,18.19,19.46,21.09,22.64,23.62,24.26,24.71,25.06,25.39,25.96,26.62,26.99,26.90,26.18,23.94,21.31,18.58,16.01,14.09,14.10,14.68,15.32,16.00,16.62,17.24,17.89,18.63,19.59,19.93,20.02,20.08,20.10,20.15,20.18,20.20,20.20,20.25,20.27,20.37,20.62,20.93,21.23,21.54,21.85,22.16,22.47,22.78,23.07,23.33,23.63,23.90,24.18,24.48,24.71,25.05,25.50,26.04,26.60,27.17,27.67,28.11,28.51,28.87,29.22,29.72,30.35,30.95,31.21,31.14,30.88,30.64,30.35,30.08,29.80,29.52,29.29,29.19,29.08,28.97,28.95,28.88
e,e,e,e,e,e,e,e,e,e,e,e,e,e,e,e,e,e,e,e,e,e,e,e,e,e,e,e,e,e,e,e,e,e,e,e,e,e,e,e,e,e,e,e,e,e,e,e,e,e,e,e,e,e,e,e,e,e,e,e,e,e,e,e,e,e,e,e,e,e,e,3.47,3.09,2.21,1.24,e,e,e,e,e,e,e,e,e,e,e,e,e,e,e,e,e,e,e,e,e,e,e,e,e,e,e,e,e,e,e,e,e,e,e,e,e,e,e,e,e,e,e,e,e,e,e,e,e,e,0.51,0.68,0.79,1.00,1.23,1.46,1.66,1.89,2.12,2.35,2.59,2.87,3.17,3.44,3.68,3.91,4.14,4.37,4.59,4.80,4.97,5.17,5.34,5.47,5.56,5.70,5.90,6.13,6.37,6.60,6.85,7.10,7.36,7.59,7.82,8.05,8.29,8.57,8.81,9.04,9.27,9.47,9.75,10.80,12.36,14.16,15.71,16.80,17.94,19.29,20.93,22.95,25.25,27.33,28.65,29.33,29.81,30.21,30.64,31.28,32.03,32.52,32.48,31.59,28.57,25.12,21.61,18.32,15.32,14.53,14.61,15.05,15.69,16.44,17.22,18.04,18.92,19.78,20.02,20.06,20.10,20.13,20.18,20.22,20.24,20.24,20.28,20.36,20.53,20.84,21.15,21.45,21.76,22.07,22.35,22.65,22.96,23.25,23.48,23.79,24.04,24.31,24.61,24.84,25.25,25.74,26.29,26.83,27.41,27.96,28.47,28.96,29.42,29.93,30.51,31.15,31.80,32.20,32.14,31.82,31.54,31.20,30.89,30.58,30.28,30.05,29.90,29.74,29.59,29.53,29.45
e,e,e,e,e,e,e,e,e,e,e,e,e,e,e,e,e,e,e,e,e,e,e,e,e,e,e,e,e,e,e,e,e,e,e,e,e,e,e,e,e,e,e,e,e,e,e,e,e,e,e,e,e,e,e,e,e,e,e,e,e,e,e,e,e,e,e,e,e,e,e,e,e,e,e,e,e,e,e,e,e,e,e,e,e,e,e,e,e,e,e,e,e,e,e,e,e,e,e,e,e,e,e,e,e,e,e,e,e,e,e,e,e,e,e,e,e,e,e,e,e,e,e,e,e,0.46,0.82,0.97,1.19,1.42,1.64,1.79,2.02,2.25,2.48,2.71,2.94,3.24,3.51,3.74,3.97,4.20,4.43,4.64,4.80,4.88,5.01,5.19,5.43,5.66,5.95,6.22,6.45,6.68,6.92,7.20,7.45,7.61,7.84,8.07,8.31,8.54,8.77,9.00,9.23,9.44,9.60,9.83,11.61,13.81,15.58,17.28,18.48,19.84,21.65,24.13,27.17,30.17,32.64,34.15,34.93,35.47,35.97,36.51,37.05,37.66,38.06,37.88,36.64,32.99,28.96,24.76,20.59,17.19,15.33,14.61,14.72,15.25,16.22,17.27,18.35,19.42,19.88,20.06,20.10,20.11,20.19,20.20,20.24,20.30,20.30,20.30,20.46,20.72,21.03,21.34,21.65,21.95,22.25,22.48,22.78,23.09,23.37,23.61,23.92,24.17,24.44,24.73,24.97,25.46,26.00,26.54,27.08,27.62,28.21,28.80,29.34,29.80,30.39,31.04,31.74,32.43,33.06,33.07,32.73,32.50,32.11,31.78,31.47,31.17,30.94,30.71,30.48,30.27,30.11,30.03
e,e,e,e,e,e,e,e,e,e,e,e,e,e,e,e,e,e,e,e,e,e,e,e,e,e,e,e,e,e,e,e,e,e,e,e,e,e,e,e,e,e,e,e,e,e,e,e,e,e,e,e,e,e,e,e,e,e,e,e,e,e,e,e,e,e,e,e,e,e,e,e,e,e,e,e,e,e,e,e,e,e,e,e,e,e,e,e,e,e,e,e,e,e,e,e,e,e,e,e,e,e,e,e,e,e,e,e,e,e,e,e,e,e,e,e,e,e,e,e,e,e,e,e,e,0.35,0.77,1.07,1.32,1.55,1.78,1.98,2.21,2.44,2.66,2.84,3.07,3.33,3.60,3.86,4.04,4.22,4.46,4.72,4.93,5.10,5.26,5.45,5.68,5.91,6.17,6.41,6.64,6.88,7.06,7.29,7.53,7.74,7.97,8.20,8.43,8.67,8.90,9.09,9.30,9.52,9.73,10.74,12.87,15.35,17.55,19.10,20.91,22.96,25.25,27.82,32.16,35.85,38.58,40.30,41.32,42.11,42.92,43.85,44.74,44.88,44.29,42.97,40.94,37.66,32.57,27.23,22.86,19.16,17.29,16.29,15.70,15.15,16.07,17.24,18.50,19.79,19.96,20.06,20.10,20.11,20.19,20.24,20.28,20.31,20.36,20.46,20.68,20.96,21.22,21.53,21.80,22.08,22.38,22.61,22.91,23.22,23.50,23.74,24.05,24.30,24.56,24.88,25.21,25.71,26.26,26.78,27.27,27.81,28.41,29.01,29.61,30.22,30.87,31.58,32.31,33.01,33.68,33.86,33.67,33.39,33.11,32.80,32.51,32.27,32.14,31.88,31.63,31.42,31.26,31.13
e,e,e,e,e,e,e,e,e,e,e,e,e,e,e,e,e,e,e,e,e,e,e,e,e,e,e,e,e,e,e,e,e,e,e,e,e,e,e,e,e,e,e,e,e,e,e,e,e,e,e,e,e,e,e,e,e,e,e,e,e,e,e,e,e,e,e,e,e,e,e,e,e,e,e,e,e,e,e,e,e,e,e,e,e,e,e,e,e,e,e,e,e,e,e,e,e,e,e,e,e,e,e,e,e,e,e,e,e,e,e,e,e,e,e,e,e,e,e,e,e,e,e,e,e,e,0.69,1.08,1.33,1.57,1.80,2.03,2.26,2.49,2.71,2.89,3.14,3.38,3.65,3.96,4.13,4.31,4.55,4.82,5.05,5.29,5.48,5.67,5.88,6.11,6.34,6.58,6.81,7.04,7.22,7.42,7.64,7.87,8.10,8.33,8.56,8.79,9.03,9.19,9.39,9.70,10.21,12.26,14.83,17.52,19.95,21.53,23.63,26.27,29.43,33.05,37.74,41.54,44.25,45.90,46.93,47.60,48.32,49.25,50.12,49.91,48.87,47.02,44.42,41.28,35.99,30.37,25.85,22.38,19.93,18.19,16.91,15.66,16.06,17.14,18.58,20.00,20.00,20.06,20.10,20.11,20.19,20.27,20.31,20.35,20.43,20.60,20.87,21.14,21.38,21.69,21.94,22.21,22.50,22.74,23.04,23.35,23.63,23.86,24.17,24.43,24.69,25.01,25.42,25.94,26.48,27.01,27.49,28.03,28.61,29.22,29.84,30.56,31.28,32.02,32.78,33.50,34.23,34.63,34.66,34.37,34.14,33.87,33.61,33.42,33.32,33.06,32.79,32.57,32.41,32.26
e,e,e,e,e,e,e,e,e,e,e,e,e,e,e,e,e,e,e,e,e,e,e,e,e,e,e,e,e,e,e,e,e,e,e,e,e,e,e,e,e,e,e,e,e,e,e,e,e,e,e,e,e,e,e,e,e,e,e,e,e,e,e,e,e,e,e,e,e,e,e,e,e,e,e,e,e,e,e,e,e,e,e,e,e,e,e,e,e,e,e,e,e,e,e,e,e,e,e,e,e,e,e,e,e,e,e,e,e,e,e,e,e,e,e,e,e,e,e,e,e,e,e,e,e,e,0.56,0.95,1.21,1.44,1.67,1.90,2.13,2.37,2.59,2.82,3.13,3.38,3.68,4.03,4.26,4.48,4.71,4.95,5.18,5.41,5.64,5.84,6.01,6.24,6.47,6.70,6.94,7.17,7.39,7.58,7.76,7.99,8.23,8.46,8.69,8.92,9.15,9.32,9.52,10.01,11.16,14.59,17.72,20.50,22.91,24.74,26.73,29.83,34.33,40.22,44.08,47.23,49.54,50.81,51.54,51.62,51.74,52.18,52.55,52.15,51.32,49.75,46.86,43.56,39.18,34.33,29.77,27.19,23.46,20.39,18.40,16.96,16.20,16.98,18.58,20.00,20.00,20.06,20.10,20.11,20.19,20.27,20.34,20.41,20.49,20.71,20.99,21.27,21.51,21.82,22.07,22.34,22.63,22.86,23.16,23.47,23.76,23.99,24.30,24.55,24.82,25.15,25.61,26.13,26.67,27.21,27.75,28.29,28.83,29.41,30.04,30.80,31.57,32.34,33.11,33.88,34.71,35.38,35.70,35.46,35.23,34.99,34.79,34.63,34.48,34.25,33.98,33.72,33.56,33.41
e,e,e,e,e,e,e,e,e,e,e,e,e,e,e,e,e,e,e,e,e,e,e,e,e,e,e,e,e,e,e,e,e,e,e,e,e,e,e,e,e,e,e,e,e,e,e,e,e,e,e,e,e,e,e,e,e,e,e,e,e,e,e,e,e,e,e,e,e,e,e,e,e,e,e,e,e,e,e,e,e,e,e,e,e,e,e,e,e,e,e,e,e,e,e,e,e,e,e,e,e,e,e,e,e,e,e,e,e,e,e,e,e,e,e,e,e,e,e,e,e,e,e,e,e,e,0.43,0.82,1.08,1.31,1.54,1.77,2.01,2.24,2.48,2.76,3.02,3.33,3.68,4.06,4.42,4.63,4.85,5.08,5.31,5.54,5.77,5.99,6.19,6.42,6.66,6.89,7.12,7.35,7.54,7.74,7.95,8.18,8.41,8.61,8.82,9.05,9.28,9.48,9.78,10.97,14.32,18.25,21.54,24.24,26.45,28.70,32.32,36.35,40.68,45.74,48.93,51.56,53.51,54.54,54.98,54.79,54.59,54.62,54.58,53.48,52.11,50.37,47.82,44.69,41.15,37.37,33.57,30.67,26.86,23.00,19.69,17.88,16.55,16.94,18.36,19.78,19.95,20.06,20.10,20.11,20.19,20.27,20.37,20.46,20.50,20.73,21.04,21.36,21.64,21.95,22.20,22.47,22.76,22.99,23.29,23.60,23.89,24.12,24.43,24.68,24.97,25.34,25.85,26.38,26.92,27.46,28.00,28.54,29.09,29.67,30.34,31.16,31.98,32.79,33.61,34.42,35.27,36.06,36.58,36.60,36.37,36.11,35.90,35.78,35.63,35.41,35.16,34.91,34.71,34.52
e,e,e,e,e,e,e,e,e,e,e,e,e,e,e,e,e,e,e,e,e,e,e,e,e,e,e,e,e,e,e,e,e,e,e,e,e,e,e,e,e,e,e,e,e,e,e,e,e,e,e,e,e,e,e,e,e,e,e,e,e,e,e,e,e,e,e,e,e,e,e,e,e,e,e,e,e,e,e,e,e,e,e,e,e,e,e,e,e,e,e,e,e,e,e,e,e,e,e,e,e,e,e,e,e,e,e,e,e,e,e,e,e,e,e,e,e,e,e,e,e,e,e,e,e,e,0.30,0.67,0.93,1.16,1.40,1.65,1.88,2.12,2.38,2.67,2.92,3.29,3.69,4.10,4.56,4.78,4.99,5.21,5.44,5.67,5.90,6.13,6.36,6.60,6.83,7.06,7.29,7.52,7.70,7.91,8.14,8.37,8.59,8.77,8.97,9.20,9.43,9.75,10.58,12.84,17.83,22.08,25.56,28.48,31.06,33.72,38.20,42.63,46.62,50.77,53.42,55.52,57.02,57.82,58.02,57.70,57.21,56.71,56.09,54.36,52.50,50.53,48.23,45.28,42.36,39.38,36.23,33.02,29.43,25.22,21.00,18.67,17.00,16.98,18.07,19.48,19.89,20.05,20.08,20.09,20.17,20.26,20.38,20.49,20.52,20.73,21.06,21.43,21.77,22.08,22.32,22.59,22.89,23.12,23.42,23.73,24.01,24.25,24.56,24.81,25.12,25.56,26.10,26.64,27.18,27.72,28.26,28.79,29.30,29.89,30.61,31.52,32.42,33.30,34.16,35.01,35.86,36.71,37.38,37.65,37.48,37.22,37.03,36.95,36.80,36.58,36.34,36.10,35.87,35.63
e,e,e,e,e,e,e,e,e,e,e,e,e,e,e,e,e,e,e,e,e,e,e,e,e,e,e,e,e,e,e,e,e,e,e,e,e,e,e,e,e,e,e,e,e,e,e,e,e,e,e,e,e,e,e,e,e,e,e,e,e,e,e,e,e,e,e,e,e,e,e,e,e,e,e,e,e,e,e,e,e,e,e,e,e,e,e,e,e,e,e,e,e,e,e,e,e,e,e,e,e,e,e,e,e,e,e,e,e,e,e,e,e,e,e,e,e,e,e,e,e,e,e,e,e,e,0.17,0.49,0.74,0.97,1.22,1.51,1.75,2.02,2.30,2.55,2.85,3.26,3.71,4.16,4.63,4.93,5.15,5.33,5.57,5.80,6.03,6.26,6.49,6.72,6.96,7.19,7.42,7.65,7.87,8.10,8.33,8.56,8.73,8.93,9.16,9.39,9.62,10.25,12.58,16.52,21.41,25.85,29.70,33.61,37.87,40.87,43.95,47.38,51.20,55.25,57.62,59.11,59.97,60.43,60.54,60.30,59.54,58.21,56.55,54.55,52.51,50.35,47.85,45.04,42.27,39.42,36.37,33.26,30.16,26.47,22.43,19.31,17.62,17.15,17.72,19.04,19.80,20.01,20.02,20.03,20.11,20.24,20.35,20.45,20.58,20.75,21.06,21.47,21.89,22.20,22.45,22.72,23.01,23.25,23.55,23.86,24.14,24.38,24.68,24.94,25.29,25.81,26.35,26.89,27.43,27.97,28.52,28.99,29.43,29.97,30.76,31.86,32.92,33.90,34.80,35.65,36.50,37.35,38.07,38.49,38.51,38.34,38.20,38.17,38.01,37.79,37.53,37.25,37.02,36.78
e,e,e,e,e,e,e,e,e,e,e,e,e,e,e,e,e,e,e,e,e,e,e,e,e,e,e,e,e,e,e,e,e,e,e,e,e,e,e,e,e,e,e,e,e,e,e,e,e,e,e,e,e,e,e,e,e,e,e,e,e,e,e,e,e,e,e,e,e,e,e,e,e,e,e,e,e,e,e,e,e,e,e,e,e,e,e,e,e,e,e,e,e,e,e,e,e,e,e,e,e,e,e,e,e,e,e,e,e,e,e,e,e,e,e,e,e,e,e,e,e,e,e,e,e,e,e,e,0.60,0.85,1.12,1.39,1.66,1.95,2.23,2.47,2.86,3.30,3.76,4.22,4.65,5.04,5.31,5.51,5.74,5.94,6.16,6.39,6.62,6.85,7.08,7.32,7.55,7.78,8.01,8.24,8.47,8.70,8.90,9.12,9.35,9.58,9.81,12.08,15.65,20.04,24.61,29.35,33.88,38.06,41.74,44.72,47.89,51.66,55.71,58.88,60.61,61.70,62.25,62.34,62.42,61.96,60.80,58.90,56.45,54.19,51.96,49.60,46.90,44.12,41.42,38.69,35.85,32.87,29.95,26.74,23.28,20.00,18.34,17.45,17.45,18.50,19.39,19.84,20.00,20.01,20.09,20.23,20.34,20.44,20.60,20.75,21.06,21.48,21.93,22.28,22.56,22.85,23.14,23.37,23.68,23.99,24.27,24.50,24.81,25.12,25.53,26.07,26.61,27.15,27.69,28.21,28.68,29.11,29.51,30.06,30.94,32.09,33.19,34.25,35.27,36.19,37.08,37.94,38.70,39.23,39.41,39.40,39.36,39.33,39.18,38.96,38.69,38.39,38.12,37.85
e,e,e,e,e,e,e,e,e,e,e,e,e,e,e,e,e,e,e,e,e,e,e,e,e,e,e,e,e,e,e,e,e,e,e,e,e,e,e,e,e,e,e,e,e,e,e,e,e,e,e,e,e,e,e,e,e,e,e,e,e,e,e,e,e,e,e,e,e,e,e,e,e,e,e,e,e,e,e,e,e,e,e,e,e,e,e,e,e,e,e,e,e,e,e,e,e,e,e,e,e,e,e,e,e,e,e,e,e,e,e,e,e,e,e,e,e,e,e,e,e,e,e,e,e,e,e,e,0.47,0.75,1.04,1.27,1.58,1.88,2.17,2.44,2.90,3.36,3.82,4.27,4.66,5.12,5.46,5.70,5.93,6.09,6.30,6.52,6.75,6.98,7.21,7.44,7.68,7.91,8.14,8.37,8.60,8.83,9.07,9.30,9.53,9.82,10.40,14.44,18.93,23.33,27.58,32.64,37.73,41.87,44.54,47.52,51.33,55.66,59.77,61.96,63.10,63.92,64.30,64.09,64.10,63.21,61.59,59.29,56.25,53.67,51.19,48.63,45.79,43.01,40.35,37.75,35.12,32.30,29.51,26.76,23.96,20.82,19.14,17.90,17.40,18.03,18.85,19.53,19.92,20.01,20.09,20.22,20.33,20.43,20.57,20.74,21.06,21.48,21.93,22.32,22.65,22.97,23.27,23.50,23.80,24.11,24.40,24.63,24.94,25.32,25.78,26.32,26.86,27.40,27.92,28.41,28.80,29.18,29.57,30.16,31.12,32.27,33.38,34.50,35.62,36.65,37.61,38.50,39.29,39.93,40.29,40.43,40.46,40.44,40.30,40.10,39.84,39.52,39.16,38.79
e,e,e,e,e,e,e,e,e,e,e,e,e,e,e,e,e,e,e,e,e,e,e,e,e,e,e,e,e,e,e,e,e,e,e,e,e,e,e,e,e,e,e,e,e,e,e,e,e,e,e,e,e,e,e,e,e,e,e,e,e,e,e,e,e,e,e,e,e,e,e,e,e,e,e,e,e,e,e,e,e,e,e,e,e,e,e,e,e,e,e,e,e,e,e,e,e,e,e,e,e,e,e,e,e,e,e,e,e,e,e,e,e,e,e,e,e,e,e,e,e,e,e,e,e,e,e,e,0.39,0.69,0.98,1.21,1.51,1.79,2.09,2.50,2.96,3.38,3.82,4.28,4.72,5.18,5.58,5.89,6.12,6.28,6.49,6.70,6.88,7.11,7.34,7.57,7.80,8.03,8.27,8.50,8.73,8.96,9.19,9.43,9.66,10.27,12.83,17.12,21.50,25.77,30.08,35.37,40.00,43.85,47.04,50.71,55.29,59.14,61.89,63.84,65.18,66.06,66.43,66.25,65.86,64.10,61.93,59.65,56.47,53.31,50.36,47.57,44.83,42.05,39.49,37.02,34.50,31.94,29.46,27.11,24.79,22.24,20.21,18.89,18.21,18.01,18.24,18.84,19.51,20.01,20.09,20.18,20.27,20.35,20.45,20.71,21.06,21.48,21.93,22.32,22.69,23.06,23.40,23.63,23.93,24.24,24.52,24.76,25.07,25.52,26.04,26.58,27.12,27.61,28.06,28.48,28.86,29.25,29.63,30.24,31.24,32.40,33.55,34.67,35.77,36.89,38.00,38.98,39.85,40.64,41.24,41.38,41.35,41.35,41.31,41.21,40.99,40.60,40.00,39.29
e,e,e,e,e,e,e,e,e,e,e,e,e,e,e,e,e,e,e,e,e,e,e,e,e,e,e,e,e,e,e,e,e,e,e,e,e,e,e,e,e,e,e,e,e,e,e,e,e,e,e,e,e,e,e,e,e,e,e,e,e,e,e,e,e,e,e,e,e,e,e,e,e,e,e,e,e,e,e,e,e,e,e,e,e,e,e,e,e,e,e,e,e,e,e,e,e,e,e,e,e,e,e,e,e,e,e,e,e,e,e,e,e,e,e,e,e,e,e,e,e,e,e,e,e,e,e,e,0.31,0.61,0.88,1.14,1.45,1.75,2.09,2.53,2.99,3.42,3.85,4.31,4.75,5.21,5.64,6.02,6.32,6.47,6.66,6.85,7.04,7.24,7.47,7.70,7.93,8.16,8.39,8.63,8.86,9.09,9.29,9.51,10.01,11.33,15.29,19.69,23.99,28.22,32.61,37.61,42.00,46.01,49.94,54.39,58.70,61.95,64.10,65.86,67.36,68.32,68.60,68.13,67.34,64.98,62.30,59.75,56.51,53.26,50.28,47.52,44.85,42.13,39.63,37.28,35.00,32.80,30.58,28.44,26.35,24.16,22.07,20.57,19.53,18.74,18.65,18.86,19.18,19.50,19.82,20.03,20.16,20.25,20.36,20.69,21.08,21.50,21.93,22.32,22.71,23.11,23.49,23.75,24.06,24.37,24.65,24.89,25.26,25.75,26.28,26.79,27.27,27.73,28.15,28.54,28.93,29.31,29.74,30.42,31.49,32.65,33.78,34.90,36.02,37.18,38.31,39.36,40.31,41.19,41.94,42.21,42.25,42.25,42.28,42.25,41.99,41.44,40.54,39.60
e,e,e,e,e,e,e,e,e,e,e,e,e,e,e,e,e,e,e,e,e,e,e,e,e,e,e,e,e,e,e,e,e,e,e,e,e,e,e,e,e,e,e,e,e,e,e,e,e,e,e,e,e,e,e,e,e,e,e,e,e,e,e,e,e,e,e,e,e,e,e,e,e,e,e,e,e,e,e,e,e,e,e,e,e,e,e,e,e,e,e,e,e,e,e,e,e,e,e,e,e,e,e,e,e,e,e,e,e,e,e,e,e,e,e,e,e,e,e,e,e,e,e,e,e,e,e,e,e,0.52,0.77,1.08,1.39,1.75,2.14,2.53,2.99,3.45,3.92,4.37,4.76,5.21,5.67,6.11,6.50,6.66,6.82,7.00,7.22,7.38,7.60,7.83,8.06,8.29,8.52,8.75,8.99,9.21,9.37,9.58,10.53,12.85,17.80,22.20,26.43,30.68,35.15,39.57,43.89,48.34,53.11,58.31,61.74,64.32,66.38,68.03,69.67,70.71,70.84,69.88,68.68,65.89,62.72,59.71,56.47,53.45,50.73,48.19,45.58,42.96,40.48,38.23,36.23,34.45,32.43,30.39,28.38,26.39,24.45,22.71,21.22,20.01,19.77,19.39,18.98,18.75,19.41,19.82,20.03,20.14,20.30,20.68,21.11,21.55,21.94,22.32,22.71,23.13,23.56,23.87,24.19,24.50,24.78,25.02,25.48,26.00,26.51,26.96,27.34,27.80,28.22,28.60,28.99,29.38,29.87,30.65,31.81,32.97,34.07,35.19,36.35,37.51,38.59,39.67,40.71,41.63,42.48,42.96,43.14,43.15,43.23,43.24,42.90,42.10,40.85,39.76
e,e,e,e,e,e,e,e,e,e,e,e,e,e,e,e,e,e,e,e,e,e,e,e,e,e,e,e,e,e,e,e,e,e,e,e,e,e,e,e,e,e,e,e,e,e,e,e,e,e,e,e,e,e,e,e,e,e,e,e,e,e,e,e,e,e,e,e,e,e,e,e,e,e,e,e,e,e,e,e,e,e,e,e,e,e,e,e,e,e,e,e,e,e,e,e,e,e,e,e,e,e,e,e,e,e,e,e,e,e,e,e,e,e,e,e,e,e,e,e,e,e,e,e,e,e,e,e,e,0.46,0.70,1.01,1.32,1.71,2.15,2.59,3.06,3.48,3.92,4.37,4.81,5.27,5.74,6.18,6.56,6.82,7.01,7.17,7.36,7.56,7.79,7.99,8.19,8.42,8.65,8.88,9.11,9.34,9.55,9.78,11.65,15.67,20.72,25.14,29.20,33.18,37.45,42.26,47.08,51.92,56.71,60.82,64.04,66.65,68.89,71.24,73.20,74.16,73.97,72.59,70.35,67.26,63.71,60.06,57.02,54.50,52.38,50.41,48.19,45.53,42.97,40.56,38.33,36.45,34.45,32.48,30.63,28.98,26.93,25.17,23.71,22.50,22.01,21.02,20.11,19.60,19.57,19.59,19.76,20.03,20.29,20.68,21.11,21.57,22.00,22.39,22.77,23.17,23.57,23.93,24.30,24.62,24.91,25.15,25.66,26.16,26.61,27.02,27.41,27.86,28.28,28.67,29.05,29.49,30.13,31.04,32.19,33.30,34.43,35.57,36.73,37.89,38.98,40.03,41.03,41.95,42.85,43.63,44.04,44.05,44.13,44.14,43.57,42.39,40.74,39.68
e,e,e,e,e,e,e,e,e,e,e,e,e,e,e,e,e,e,e,e,e,e,e,e,e,e,e,e,e,e,e,e,e,e,e,e,e,e,e,e,e,e,e,e,e,e,e,e,e,e,e,e,e,e,e,e,e,e,e,e,e,e,e,e,e,e,e,e,e,e,e,e,e,e,e,e,e,e,e,e,e,e,e,e,e,e,e,e,e,e,e,e,e,e,e,e,e,e,e,e,e,e,e,e,e,e,e,e,e,e,e,e,e,e,e,e,e,e,e,e,e,e,e,e,e,e,e,e,e,0.37,0.64,0.95,1.30,1.73,2.19,2.65,3.09,3.51,3.95,4.41,4.87,5.32,5.77,6.22,6.63,6.99,7.20,7.36,7.52,7.72,7.95,8.15,8.34,8.55,8.78,9.01,9.24,9.47,9.70,10.73,13.65,18.56,23.71,28.00,31.87,35.67,39.84,44.92,50.02,55.01,59.70,63.23,66.42,69.40,72.25,75.02,76.87,77.59,77.06,75.28,72.38,68.97,65.09,61.06,58.00,55.90,54.18,52.52,50.53,48.05,45.47,42.91,40.49,38.44,36.42,34.51,32.76,31.22,29.16,27.34,25.81,24.51,23.63,22.26,21.04,20.29,19.93,19.71,19.77,20.04,20.32,20.71,21.14,21.60,22.03,22.42,22.81,23.19,23.58,23.99,24.38,24.74,25.05,25.34,25.83,26.28,26.70,27.09,27.50,27.95,28.39,28.79,29.15,29.68,30.46,31.44,32.57,33.68,34.81,35.95,37.11,38.24,39.44,40.49,41.44,42.36,43.29,44.22,44.81,44.94,44.99,44.94,44.13,42.60,40.77,39.64
