e,e,e,e,e,e,e,e,e,e,e,e,e,e,e,e,e,e,e,e,e,e,e,e,e,e,e,e,e,e,e,e,e,e,e,e,e,1.45,2.55,5.57,9.56,16.47,25.39,33.79,39.59,46.59,53.04,57.64,63.44,68.47,72.36,75.32,78.34,81.43,84.79,88.44,92.31,96.45,100.02,102.57,103.98,104.93,105.85,106.15,105.91,105.62,104.77,103.79,102.67,101.39,99.77,97.56,95.10,92.37,88.92,85.07,81.09,76.90,72.38,69.16,66.07,62.76,59.03,54.95,50.35,45.16,39.53,33.89,30.21,27.13,24.35,21.71,19.79,18.26,16.93,15.64,14.02,11.99,10.48,9.48,8.78,8.28,7.91,7.62,7.35,7.03,7.38,7.82,8.18,8.44,8.82,9.27,10.99,15.00,19.55,21.60,22.85,24.02,25.02,25.82,26.69,27.62,28.55,29.32,31.02,33.46,36.33,38.67,42.00,45.79,49.56,52.53,55.27,58.47,61.95,65.46,68.90,70.52,71.50,72.33,72.78,72.30,71.13,68.88,64.95,62.41,59.92,57.44,54.97,52.52,49.97,47.19,44.22,41.26,38.33,35.40,32.47,29.64,28.52,27.10,25.89,25.18,25.16,25.12,25.01,24.84,24.71,24.49,24.33,24.20,24.14,24.68,25.29,25.87,26.41,26.95,27.56,28.04,28.46,28.90,29.27,29.54,29.77,30.01,30.28,30.43,30.54,30.61,30.69,30.75,30.92,31.01,30.89,30.81,30.70,30.70,30.78,30.78,30.78,30.81,30.94,31.21,31.39,31.68,31.98,32.24,32.57,32.73,32.82,32.91,33.08,32.94,32.79,32.67,32.57,32.42,32.23,32.02,31.78,31.51,31.16,30.78,30.36,29.94,29.59,29.28,29.01,28.76,28.55,28.45,28.34,28.22,28.14,28.07,28.10,28.26,28.59,29.52,30.16,30.62,30.97,31.36,31.80,32.22,32.64,33.06,33.28,33.43,33.54,33.63,33.79,33.89,34.02,34.19,34.40,34.58
e,e,e,e,e,e,e,e,e,e,e,e,e,e,e,e,e,e,e,e,e,e,e,e,e,e,e,e,e,e,e,e,e,e,e,e,e,4.29,5.49,8.12,15.41,23.36,30.88,37.55,44.30,51.04,56.95,61.66,68.10,72.02,75.11,78.15,81.62,85.33,89.31,93.83,99.13,102.13,104.85,107.00,108.55,110.19,111.56,112.27,112.38,112.13,111.43,110.30,108.98,107.62,105.61,102.70,99.93,97.33,93.73,89.60,85.59,81.51,77.03,73.28,69.96,66.55,62.69,58.21,53.59,48.45,42.90,37.46,33.50,30.13,27.17,24.46,21.76,19.82,18.36,17.08,15.26,13.20,11.25,9.55,8.21,7.61,7.49,7.57,7.60,7.23,7.12,7.31,7.69,8.05,8.44,8.92,9.65,11.14,18.41,21.06,22.23,23.32,24.32,25.29,26.39,27.55,28.67,29.45,31.15,33.42,35.93,38.12,41.06,44.40,47.85,50.92,53.35,56.81,60.78,64.60,68.78,70.51,71.41,72.13,72.14,71.43,70.37,68.80,66.34,63.86,61.39,58.91,56.45,54.05,51.63,48.97,46.06,43.06,40.12,36.94,33.55,30.13,28.72,27.26,25.81,24.53,24.01,23.82,23.63,23.45,23.36,23.20,23.09,23.18,23.57,24.11,24.71,25.29,25.83,26.37,26.98,27.50,27.93,28.33,28.64,28.90,29.13,29.35,29.53,29.62,29.71,29.78,29.86,29.87,29.86,29.83,29.81,29.73,29.70,29.66,29.63,29.63,29.63,29.63,29.69,29.86,29.89,30.04,30.18,30.30,30.49,30.75,30.99,31.20,31.42,31.28,31.17,31.06,30.91,30.76,30.65,30.48,30.26,30.09,29.85,29.59,29.31,28.98,28.73,28.49,28.22,27.94,27.78,27.68,27.60,27.52,27.44,27.36,27.69,28.26,28.91,29.84,30.36,30.79,31.23,31.61,32.01,32.32,32.54,32.68,32.84,32.95,33.03,33.12,33.28,33.42,33.57,33.73,33.89,34.11
e,e,e,e,e,e,e,e,e,e,e,e,e,e,e,e,e,e,e,e,e,e,e,e,e,e,e,e,e,e,e,e,e,e,e,e,4.23,6.22,8.43,13.80,21.48,28.97,35.80,42.10,48.91,55.64,61.77,66.93,71.79,75.13,78.24,81.68,85.67,90.30,94.84,99.39,104.11,106.93,109.44,111.66,113.65,115.70,117.26,118.21,118.53,118.29,117.31,115.94,114.29,112.44,110.40,107.76,104.92,102.00,98.89,95.25,90.67,85.74,81.39,77.37,73.73,70.10,66.17,61.49,56.45,51.05,45.59,40.70,36.76,33.26,30.10,27.16,24.30,22.10,20.25,18.52,16.59,14.59,12.61,10.72,9.02,8.48,8.24,8.12,7.96,7.57,7.28,7.17,7.27,7.62,8.08,8.62,9.19,10.03,15.40,19.28,21.60,22.66,23.67,24.67,25.84,27.10,28.34,29.39,31.12,33.20,35.37,37.37,39.75,42.47,45.43,48.41,51.25,55.02,59.24,63.36,67.72,69.93,71.10,71.75,71.84,71.14,70.24,68.94,66.82,64.59,62.33,60.02,57.67,55.36,53.01,50.54,47.83,44.70,41.72,38.52,35.07,31.43,29.33,27.71,26.24,24.78,23.37,22.78,22.46,22.30,22.23,22.15,22.24,22.54,23.04,23.58,24.16,24.71,25.26,25.80,26.41,26.93,27.37,27.75,28.02,28.26,28.47,28.66,28.81,28.94,29.03,29.10,29.13,29.21,29.18,29.12,29.08,29.04,29.01,28.95,28.89,28.89,28.89,28.89,28.94,29.09,29.17,29.27,29.37,29.45,29.57,29.78,29.97,30.08,30.07,29.88,29.77,29.68,29.56,29.45,29.36,29.27,29.15,28.99,28.80,28.61,28.41,28.18,27.90,27.66,27.41,27.16,27.01,26.92,26.84,26.82,26.99,27.19,27.67,28.31,29.02,29.82,30.30,30.67,31.00,31.26,31.64,31.93,32.13,32.24,32.36,32.44,32.54,32.66,32.82,32.94,33.07,33.24,33.43,33.62
e,e,e,e,e,e,e,e,e,e,e,e,e,e,e,e,e,e,e,e,e,e,e,e,e,e,e,e,e,e,e,e,e,e,e,e,5.72,8.15,11.78,19.90,27.38,34.32,40.81,47.06,53.74,60.46,66.70,71.97,75.25,78.32,81.68,85.56,90.12,95.45,100.32,104.65,108.50,111.33,113.82,116.26,118.75,121.05,122.72,123.79,124.23,124.01,122.72,121.09,119.08,116.70,114.58,112.27,109.46,106.30,103.61,100.47,95.55,90.00,85.58,81.31,77.30,73.40,69.40,64.67,59.15,53.30,47.72,43.47,39.70,36.26,33.04,29.92,27.02,24.59,22.33,20.13,18.10,16.16,14.21,12.25,10.29,9.59,9.12,8.73,8.35,7.97,7.59,7.24,7.06,7.26,7.76,8.33,8.92,9.59,12.29,17.17,20.73,22.01,23.00,24.03,25.24,26.55,27.88,29.12,30.81,32.68,34.53,36.33,38.22,40.37,42.85,45.68,49.08,53.13,57.50,61.82,66.26,69.15,70.76,71.36,71.61,71.00,70.29,69.21,67.24,65.21,63.14,60.98,58.74,56.49,54.19,51.89,49.38,46.21,43.22,40.12,36.75,33.04,30.24,28.38,26.84,25.22,23.06,21.93,21.40,21.24,21.19,21.23,21.53,21.99,22.53,23.07,23.61,24.15,24.70,25.24,25.84,26.36,26.80,27.16,27.39,27.61,27.80,27.96,28.11,28.27,28.39,28.45,28.45,28.60,28.60,28.53,28.46,28.45,28.39,28.32,28.26,28.26,28.26,28.26,28.31,28.45,28.61,28.71,28.80,28.88,28.96,29.10,29.21,29.19,28.91,28.63,28.48,28.39,28.32,28.24,28.16,28.13,28.11,27.95,27.80,27.65,27.50,27.35,27.06,26.82,26.60,26.38,26.24,26.20,26.20,26.32,26.73,27.20,27.76,28.38,29.04,29.70,30.12,30.42,30.62,30.78,31.12,31.40,31.60,31.78,31.86,31.94,32.05,32.20,32.35,32.45,32.58,32.75,32.97,33.14
e,e,e,e,e,e,e,e,e,e,e,e,e,e,e,e,e,e,e,e,e,e,e,e,e,e,e,e,e,e,e,e,e,e,e,e,7.18,10.76,16.43,24.90,32.56,39.78,46.55,52.75,59.33,65.82,71.34,75.31,78.74,82.11,85.79,90.04,95.30,100.38,104.88,108.84,112.39,115.13,117.74,120.52,123.47,125.66,127.36,128.40,128.79,128.61,127.23,125.33,122.98,120.24,117.69,115.12,112.45,109.64,106.70,103.45,99.39,94.63,89.47,84.81,80.34,76.09,71.99,67.50,61.66,54.93,48.58,44.97,41.71,38.76,35.90,32.91,29.81,27.18,24.68,22.22,20.09,18.14,16.13,14.06,11.95,10.26,9.50,9.11,8.74,8.41,8.03,7.69,7.40,7.15,7.54,8.05,8.60,9.17,10.24,14.93,19.13,21.30,22.24,23.40,24.66,25.99,27.37,28.31,29.78,31.39,32.91,34.51,36.29,38.16,40.27,43.00,46.86,51.06,55.37,59.65,64.24,68.18,70.48,71.05,71.35,70.92,70.43,69.67,68.20,66.07,63.93,61.75,59.50,57.20,54.93,52.68,50.28,47.40,44.57,41.71,38.59,35.01,31.81,29.55,27.57,25.54,23.38,21.52,20.52,20.24,20.29,20.53,20.96,21.48,22.02,22.56,23.10,23.64,24.18,24.72,25.28,25.82,26.25,26.52,26.75,26.93,27.10,27.25,27.41,27.61,27.75,27.81,27.81,27.96,28.00,27.96,27.88,27.82,27.79,27.75,27.69,27.69,27.69,27.69,27.72,27.81,27.97,28.11,28.22,28.31,28.45,28.55,28.63,28.56,28.08,27.61,27.36,27.24,27.17,27.09,27.01,27.00,27.02,26.87,26.71,26.59,26.48,26.33,26.14,25.97,25.77,25.56,25.46,25.64,25.97,26.41,26.92,27.44,27.95,28.45,28.96,29.47,29.79,30.01,30.18,30.33,30.58,30.79,30.99,31.27,31.34,31.47,31.59,31.69,31.84,31.98,32.13,32.29,32.46,32.67
e,e,e,e,e,e,e,e,e,e,e,e,e,e,e,e,e,e,e,e,e,e,e,e,e,e,e,e,e,e,e,e,e,e,3.66,5.97,8.67,13.34,20.57,29.08,37.78,45.68,52.70,59.08,65.09,70.55,75.16,78.79,82.60,86.36,90.24,94.50,99.69,104.65,108.89,112.56,116.01,119.51,122.67,125.66,128.45,130.28,131.88,132.71,132.78,132.36,130.78,128.78,126.31,123.30,120.06,117.14,114.37,111.59,108.61,105.12,101.26,96.95,92.12,87.66,83.01,78.49,74.20,69.73,63.40,56.01,49.20,45.97,43.19,40.63,38.04,35.19,32.15,29.44,26.85,24.37,22.21,20.16,18.10,16.01,13.91,12.07,10.67,9.72,9.16,8.82,8.44,8.09,7.76,7.34,7.37,7.74,8.28,8.82,9.36,12.32,16.33,20.15,21.51,22.76,23.94,25.08,26.21,27.16,28.51,29.96,31.32,32.70,34.35,36.12,38.12,40.75,44.66,48.68,52.69,56.71,61.41,65.96,69.17,70.65,70.96,70.80,70.48,69.81,68.47,66.38,64.21,62.00,59.75,57.50,55.32,53.16,50.92,48.34,45.57,42.86,40.00,36.81,33.52,30.81,28.41,26.15,23.88,21.57,20.22,19.76,19.74,20.01,20.43,20.93,21.47,22.01,22.55,23.09,23.63,24.17,24.71,25.25,25.68,25.88,26.07,26.24,26.39,26.55,26.74,26.94,27.07,27.13,27.17,27.32,27.37,27.35,27.30,27.23,27.21,27.17,27.10,27.07,27.07,27.07,27.10,27.22,27.37,27.53,27.66,27.77,27.89,27.98,27.98,27.79,27.21,26.67,26.30,26.09,26.02,25.94,25.89,25.90,25.94,25.82,25.67,25.54,25.43,25.30,25.15,25.00,24.90,24.89,25.05,25.39,25.84,26.34,26.85,27.39,27.88,28.34,28.80,29.20,29.47,29.66,29.81,29.93,30.12,30.27,30.43,30.67,30.85,30.99,31.10,31.22,31.37,31.50,31.64,31.80,31.99,32.22
e,e,e,e,e,e,e,e,e,e,e,e,e,e,e,e,e,e,e,e,e,e,e,e,e,e,e,e,e,e,e,e,e,2.37,4.68,6.99,10.29,16.01,24.40,32.86,42.92,51.78,59.15,65.57,70.69,74.88,78.63,82.43,86.67,90.79,94.83,98.99,103.78,108.64,112.66,116.15,119.69,124.23,128.03,131.13,133.52,134.94,136.39,136.91,136.51,135.60,133.74,131.69,129.16,125.90,121.92,118.61,115.62,112.73,109.77,106.01,102.07,98.06,94.00,90.01,85.35,80.62,76.14,71.55,64.72,56.89,49.88,46.80,44.45,42.19,39.79,37.10,34.23,31.48,28.91,26.55,24.40,22.24,20.13,18.09,16.12,14.52,12.43,10.67,9.74,9.24,8.83,8.48,8.12,7.66,7.26,7.44,7.96,8.50,9.05,9.81,13.16,18.60,20.65,22.01,23.08,23.95,24.71,25.81,27.12,28.47,29.76,30.91,32.42,34.18,36.23,38.78,42.48,46.16,49.80,53.52,58.27,63.06,67.20,70.07,70.49,70.62,70.41,69.71,68.28,66.29,64.13,61.92,59.72,57.58,55.50,53.46,51.38,49.09,46.38,43.76,41.17,38.45,35.23,32.12,29.34,26.92,24.50,21.88,20.24,19.55,19.37,19.59,19.92,20.37,20.91,21.45,21.99,22.53,23.08,23.62,24.15,24.68,25.08,25.23,25.38,25.54,25.70,25.86,26.09,26.26,26.37,26.45,26.53,26.68,26.73,26.73,26.72,26.65,26.63,26.59,26.52,26.44,26.43,26.43,26.48,26.63,26.79,26.94,27.10,27.24,27.32,27.40,27.29,26.94,26.33,25.78,25.28,24.96,24.86,24.79,24.77,24.81,24.86,24.79,24.64,24.49,24.36,24.29,24.17,24.05,24.08,24.35,24.81,25.27,25.74,26.20,26.66,27.20,27.69,28.15,28.59,28.90,29.15,29.34,29.48,29.56,29.70,29.80,29.91,30.06,30.36,30.50,30.62,30.77,30.92,31.01,31.13,31.31,31.54,31.78
e,e,e,e,e,e,e,e,e,e,e,e,e,e,e,e,e,e,e,e,e,e,e,e,e,e,e,e,e,e,e,e,e,2.82,5.70,7.96,12.91,19.72,27.78,36.64,47.21,57.72,66.43,70.88,74.41,78.34,82.51,86.70,90.84,94.90,99.19,103.78,108.57,112.81,116.59,120.44,124.99,129.38,132.97,135.91,138.29,139.95,141.31,141.39,140.16,138.02,135.73,133.24,130.35,126.83,122.45,118.87,115.70,112.69,109.54,105.80,102.00,98.23,94.52,90.77,86.32,81.75,77.32,72.49,65.58,58.26,51.85,48.24,45.91,43.66,41.33,38.82,35.90,33.03,30.66,28.81,26.75,24.65,22.59,20.70,19.13,17.73,15.83,13.63,11.40,9.86,9.28,8.87,8.44,7.98,7.49,7.38,7.66,8.25,8.79,9.44,11.67,15.47,18.67,20.42,21.55,22.33,23.05,24.30,25.65,26.98,28.22,29.27,30.52,32.36,34.76,37.31,40.32,43.70,47.41,51.40,55.80,59.49,63.81,68.45,69.86,70.15,69.82,68.85,67.13,65.24,63.21,61.20,59.30,57.41,55.45,53.46,51.44,49.40,46.97,44.49,41.98,39.42,36.40,33.41,30.57,27.90,25.23,22.46,20.53,19.50,19.12,19.24,19.54,19.99,20.53,21.07,21.61,22.15,22.69,23.23,23.72,24.14,24.42,24.52,24.68,24.87,25.06,25.22,25.39,25.60,25.73,25.81,25.89,26.04,26.13,26.14,26.09,26.06,26.02,25.98,25.93,25.80,25.79,25.79,25.84,25.99,26.15,26.30,26.46,26.61,26.74,26.83,26.61,26.11,25.49,24.90,24.35,23.94,23.71,23.64,23.62,23.66,23.72,23.69,23.60,23.47,23.36,23.34,23.51,23.69,23.91,24.22,24.62,25.08,25.54,26.01,26.47,27.01,27.50,27.92,28.27,28.58,28.83,29.02,29.16,29.24,29.33,29.42,29.52,29.68,29.88,30.03,30.17,30.32,30.42,30.54,30.69,30.86,31.09,31.43
e,e,e,e,e,e,e,e,e,e,e,e,e,e,e,e,e,e,e,e,e,e,e,e,e,e,e,e,e,e,e,e,1.57,3.52,6.38,9.00,15.30,23.02,31.10,40.65,51.40,62.16,70.92,74.47,77.93,82.17,86.65,90.88,94.94,99.21,103.82,108.70,113.41,117.38,121.26,125.37,129.98,134.36,137.86,140.75,143.18,145.01,145.98,145.30,143.02,139.56,136.76,133.88,130.66,126.89,122.08,118.38,115.16,112.07,108.74,105.07,101.40,97.80,94.33,90.84,86.73,82.41,78.00,72.87,66.55,60.00,54.17,50.55,47.86,45.30,42.75,40.09,37.15,34.53,32.47,30.87,29.03,27.09,25.01,23.09,21.75,20.52,18.89,16.81,14.34,11.90,10.24,9.28,8.79,8.30,7.79,7.44,7.46,7.99,8.51,9.08,10.41,12.72,15.78,17.73,19.17,20.33,21.46,22.80,24.18,25.50,26.73,27.87,29.11,31.20,33.98,36.67,39.62,43.32,47.33,51.18,54.99,58.16,62.11,66.70,68.96,69.04,68.44,67.33,65.67,63.92,62.05,60.27,58.70,57.09,55.22,53.30,51.41,49.53,47.24,44.86,42.46,40.08,37.25,34.42,31.65,28.93,26.10,23.24,20.98,19.52,19.01,18.86,19.12,19.60,20.15,20.69,21.23,21.75,22.27,22.81,23.23,23.56,23.78,23.86,24.01,24.20,24.38,24.54,24.73,24.95,25.08,25.14,25.25,25.40,25.50,25.53,25.48,25.46,25.41,25.39,25.35,25.20,25.19,25.19,25.23,25.36,25.51,25.66,25.82,25.97,26.13,26.24,25.94,25.31,24.66,24.05,23.46,22.96,22.60,22.49,22.49,22.54,22.61,22.61,22.66,22.67,22.69,22.80,23.11,23.42,23.73,24.05,24.44,24.89,25.35,25.81,26.28,26.79,27.27,27.67,27.95,28.23,28.49,28.70,28.84,28.92,28.99,29.07,29.17,29.33,29.48,29.64,29.78,29.90,29.98,30.10,30.25,30.46,30.71,31.07
e,e,e,e,e,e,e,e,e,e,e,e,e,e,e,e,e,e,e,e,e,e,e,e,e,e,e,e,e,e,e,e,2.69,4.43,6.79,10.10,17.48,25.98,34.37,44.86,55.49,65.35,73.09,76.64,81.30,86.31,91.01,94.96,98.98,103.66,108.67,113.72,118.28,122.28,126.54,130.83,134.71,139.19,142.72,145.65,148.18,150.11,150.42,148.75,145.23,140.38,137.01,133.74,130.25,126.21,120.97,117.28,114.11,110.95,107.48,103.93,100.37,96.89,93.57,90.32,86.68,82.69,78.28,72.80,67.62,62.04,56.77,53.60,50.22,47.09,44.05,40.98,38.05,36.00,34.33,32.78,31.23,29.54,27.39,25.29,24.05,22.97,21.66,20.16,18.33,15.10,11.63,9.70,9.16,8.62,8.16,7.60,7.34,7.73,8.20,8.72,9.35,10.27,12.15,14.14,16.09,18.01,19.93,21.32,22.71,24.03,25.29,26.67,28.12,30.56,33.79,36.72,40.15,44.66,49.16,52.54,55.57,58.70,61.81,64.85,67.85,67.42,66.41,65.26,63.94,62.39,60.68,59.15,57.97,56.65,54.83,53.02,51.30,49.52,47.24,44.92,42.66,40.47,37.84,35.21,32.62,30.00,27.07,24.20,21.57,19.63,19.01,18.47,18.68,19.22,19.76,20.30,20.84,21.34,21.83,22.37,22.69,22.96,23.14,23.22,23.37,23.53,23.68,23.85,24.08,24.31,24.41,24.45,24.61,24.76,24.86,24.91,24.90,24.83,24.81,24.81,24.78,24.62,24.61,24.61,24.64,24.72,24.87,25.03,25.18,25.33,25.49,25.64,25.28,24.53,23.83,23.21,22.60,22.01,21.51,21.35,21.38,21.46,21.52,21.52,21.80,22.05,22.31,22.61,22.92,23.23,23.54,23.86,24.24,24.70,25.16,25.62,26.09,26.55,27.01,27.39,27.62,27.86,28.15,28.38,28.52,28.60,28.68,28.75,28.85,29.01,29.16,29.32,29.44,29.52,29.59,29.67,29.83,30.08,30.39,30.70
e,e,e,e,e,e,e,e,e,e,e,e,e,e,e,e,e,e,e,e,e,e,e,e,e,e,e,e,e,e,e,e,3.32,5.39,7.59,12.42,19.97,28.51,37.31,47.82,59.20,68.35,74.73,78.62,84.99,90.46,95.06,99.10,103.65,108.60,113.70,118.62,122.74,126.61,130.37,134.14,138.08,143.14,146.61,149.02,150.64,151.12,150.41,147.88,143.83,139.25,135.88,132.55,128.62,123.73,119.01,115.25,111.84,108.50,105.12,101.32,97.36,93.48,89.98,87.22,84.21,80.70,76.51,71.42,66.81,62.14,57.70,54.29,50.75,47.59,44.62,41.66,39.16,37.26,35.57,33.93,32.28,30.81,29.09,27.33,25.85,24.43,23.20,21.84,20.16,18.42,15.13,11.90,9.56,9.07,8.60,8.10,7.71,7.58,7.76,8.25,8.91,9.78,11.19,13.13,15.12,17.02,18.71,20.19,21.68,23.36,25.32,27.19,29.25,31.92,35.06,38.09,42.18,46.72,50.99,54.33,57.44,59.89,62.40,64.92,65.99,65.19,64.11,63.00,61.84,60.29,58.76,57.41,56.37,55.44,54.29,52.88,51.25,49.52,47.29,44.99,42.71,40.48,37.95,35.42,32.93,30.42,27.63,24.82,22.10,19.95,19.14,18.50,18.37,18.65,19.20,19.84,20.36,20.86,21.36,21.80,22.08,22.32,22.50,22.58,22.68,22.86,23.04,23.20,23.38,23.61,23.74,23.81,23.97,24.12,24.22,24.29,24.33,24.25,24.23,24.23,24.20,24.05,23.99,23.97,24.01,24.14,24.24,24.39,24.54,24.69,24.85,25.05,24.76,24.06,23.32,22.65,21.95,21.27,20.67,20.46,20.64,20.91,21.17,21.42,21.72,21.95,22.16,22.42,22.73,23.04,23.35,23.67,24.05,24.50,24.97,25.43,25.89,26.36,26.72,27.03,27.30,27.54,27.79,28.02,28.20,28.28,28.36,28.46,28.60,28.75,28.86,29.00,29.12,29.19,29.22,29.37,29.60,29.89,30.20,30.51
e,e,e,e,e,e,e,e,e,e,e,e,e,e,e,e,e,e,e,e,e,e,e,e,e,e,e,e,e,e,e,e,3.27,5.79,8.26,14.37,22.00,30.62,40.03,50.64,62.38,70.89,76.37,81.11,88.45,94.21,98.95,103.38,108.31,113.40,118.30,122.79,126.57,130.04,133.39,136.92,140.95,146.13,149.13,150.75,151.38,150.44,148.76,145.69,141.59,137.50,134.08,130.44,126.10,120.88,116.58,112.76,109.06,105.36,101.69,97.73,93.44,89.23,85.62,83.12,80.51,77.44,73.73,69.48,65.49,61.55,57.72,54.21,50.76,47.74,44.92,42.12,39.86,38.13,36.52,34.87,33.25,31.89,30.46,28.95,27.37,25.77,24.46,23.09,21.57,20.70,18.12,14.51,11.05,9.92,9.19,8.64,8.18,7.73,7.59,7.92,8.53,9.35,10.39,12.21,14.16,16.01,17.57,19.30,21.09,23.15,25.55,27.77,30.32,33.19,36.31,39.47,43.98,48.48,52.58,55.98,58.96,60.95,62.87,64.61,64.20,63.06,61.84,60.66,59.54,58.08,56.68,55.49,54.61,54.06,53.41,52.41,50.99,49.23,47.08,44.82,42.55,40.30,37.98,35.57,33.17,30.74,28.08,25.32,22.54,20.25,19.24,18.52,18.08,18.11,18.68,19.33,19.87,20.38,20.87,21.23,21.45,21.68,21.86,21.94,22.01,22.19,22.38,22.53,22.71,22.93,23.08,23.17,23.33,23.48,23.60,23.68,23.73,23.67,23.66,23.66,23.63,23.47,23.37,23.33,23.38,23.54,23.63,23.77,23.92,24.06,24.23,24.46,24.24,23.61,22.83,22.12,21.36,20.65,20.08,19.93,20.21,20.59,20.98,21.37,21.64,21.84,22.02,22.25,22.54,22.85,23.15,23.47,23.86,24.31,24.78,25.24,25.70,26.13,26.42,26.67,26.96,27.21,27.45,27.67,27.86,27.96,28.04,28.16,28.31,28.44,28.54,28.66,28.77,28.85,28.89,29.11,29.38,29.67,29.95,30.24
e,e,e,e,e,e,e,e,e,e,e,e,e,e,e,e,e,e,e,e,e,e,e,e,e,e,e,e,e,e,e,e,2.30,5.43,8.74,15.78,23.37,32.19,42.43,53.28,64.86,72.79,78.05,84.32,91.57,97.41,102.61,107.87,112.95,117.99,122.33,125.95,129.53,132.22,135.34,139.01,143.17,147.81,149.77,150.24,149.79,147.51,144.91,141.76,138.26,134.91,131.38,127.10,122.37,117.58,113.52,109.64,105.60,101.30,96.79,92.78,88.31,83.86,80.25,77.70,75.15,72.45,69.57,66.81,63.51,60.04,56.53,53.12,50.10,47.42,44.88,42.31,40.00,38.49,37.08,35.54,34.12,32.74,31.38,30.00,28.52,26.97,25.36,23.81,22.46,21.54,20.34,17.68,14.06,11.35,9.97,9.21,8.75,8.29,7.80,7.78,8.21,8.98,9.72,11.33,13.14,14.93,16.55,18.72,21.10,23.56,26.01,28.38,31.24,34.31,37.50,40.80,45.41,49.79,53.81,57.42,59.96,61.81,63.12,63.71,62.51,61.10,59.62,58.20,56.98,55.72,54.41,53.33,52.67,52.46,52.08,51.47,50.44,48.53,46.51,44.34,42.10,39.87,37.89,35.64,33.32,30.95,28.39,25.64,22.86,20.52,19.31,18.54,17.81,17.62,18.22,18.78,19.37,19.91,20.34,20.66,20.83,21.04,21.22,21.30,21.37,21.51,21.67,21.84,22.06,22.29,22.44,22.54,22.69,22.84,22.99,23.09,23.09,23.09,23.08,23.08,23.05,22.90,22.75,22.69,22.74,22.90,23.05,23.20,23.32,23.43,23.65,23.88,23.72,23.16,22.39,21.62,20.85,20.22,19.84,19.89,20.21,20.59,20.98,21.37,21.55,21.71,21.89,22.12,22.36,22.65,22.96,23.28,23.67,24.12,24.58,25.05,25.51,25.84,26.10,26.34,26.58,26.88,27.13,27.33,27.48,27.63,27.72,27.84,27.97,28.06,28.21,28.31,28.39,28.47,28.61,28.89,29.16,29.40,29.64,29.88
e,e,e,e,e,e,e,e,e,e,e,e,e,e,e,e,e,e,e,e,e,e,e,e,e,e,e,e,e,e,e,e,3.17,6.11,9.14,16.71,24.39,33.57,44.69,56.34,66.89,73.94,78.95,85.65,93.42,99.94,105.61,110.85,115.74,120.20,124.14,127.59,130.76,133.34,136.26,139.54,143.01,145.42,146.46,146.34,145.20,142.81,140.34,137.62,134.61,131.36,127.34,122.88,118.29,113.87,109.86,105.83,101.41,96.52,91.42,86.72,82.04,77.72,74.29,72.45,70.62,68.62,66.34,63.75,60.90,57.89,54.75,51.48,48.85,46.36,43.92,41.49,39.56,38.06,36.65,35.27,34.22,33.12,31.92,30.61,29.18,27.68,26.01,24.50,23.33,22.23,21.21,19.56,17.24,14.60,12.35,10.52,9.31,8.80,8.17,7.73,7.87,8.60,9.29,10.54,12.17,14.11,16.24,18.52,21.08,23.76,26.42,28.94,32.01,35.22,38.55,42.13,46.61,50.80,54.62,58.01,60.27,61.63,62.26,62.16,60.89,59.15,57.33,55.64,54.32,53.25,52.24,51.48,51.05,50.73,50.25,49.56,48.49,46.73,44.97,43.02,41.03,39.21,37.28,35.21,33.09,30.87,28.28,25.37,22.45,20.08,19.10,18.36,17.60,17.31,17.78,18.36,18.87,19.32,19.72,20.03,20.20,20.40,20.58,20.66,20.73,20.87,21.02,21.19,21.42,21.65,21.80,21.91,22.10,22.26,22.39,22.47,22.50,22.46,22.45,22.48,22.48,22.32,22.17,22.08,22.10,22.26,22.41,22.54,22.67,22.84,23.07,23.27,23.17,22.71,21.94,21.21,20.48,19.91,19.65,19.86,20.21,20.59,20.97,21.31,21.49,21.64,21.81,22.00,22.23,22.49,22.77,23.09,23.48,23.93,24.39,24.83,25.21,25.52,25.78,26.01,26.25,26.52,26.79,27.00,27.15,27.26,27.38,27.52,27.65,27.73,27.88,27.98,28.06,28.16,28.40,28.66,28.91,29.14,29.37,29.60
e,e,e,e,e,e,e,e,e,e,e,e,e,e,e,e,e,e,e,e,e,e,e,e,e,e,e,e,e,e,e,e,4.02,6.69,9.50,17.48,25.18,34.59,46.44,59.03,68.28,74.34,79.04,85.75,94.51,101.85,107.89,112.94,117.41,121.31,124.98,128.43,131.33,133.73,136.23,138.85,141.48,141.95,142.17,141.61,140.04,137.85,135.66,133.28,130.56,127.29,122.96,118.52,114.20,110.16,106.16,101.75,96.88,91.58,86.10,80.77,76.08,72.20,69.18,67.92,66.67,65.20,63.33,60.73,58.18,55.54,52.74,49.76,47.44,45.09,42.72,40.41,38.73,37.20,35.76,34.50,33.75,32.96,31.94,30.76,29.48,28.15,26.59,25.19,24.13,22.91,21.86,20.93,19.76,17.57,14.74,12.07,10.12,9.31,8.61,7.86,7.68,8.22,8.92,9.86,11.33,13.38,15.99,18.38,21.03,23.85,26.74,29.48,32.73,36.09,39.55,43.40,47.66,51.48,54.89,57.98,60.10,61.00,61.05,60.43,59.06,57.08,55.00,53.10,51.67,50.70,49.84,49.24,48.93,48.45,47.85,47.06,45.99,44.47,43.03,41.36,39.70,38.34,36.53,34.67,32.74,30.63,27.95,24.90,21.92,19.63,18.87,18.16,17.42,17.06,17.35,17.94,18.35,18.72,19.08,19.36,19.53,19.77,19.98,20.05,20.13,20.26,20.40,20.57,20.78,21.00,21.16,21.29,21.51,21.67,21.77,21.84,21.91,21.85,21.83,21.86,21.89,21.74,21.59,21.49,21.48,21.62,21.76,21.87,22.03,22.25,22.48,22.66,22.63,22.29,21.53,20.82,20.13,19.65,19.53,19.85,20.21,20.59,20.96,21.24,21.40,21.57,21.73,21.89,22.10,22.32,22.58,22.90,23.29,23.74,24.19,24.60,24.90,25.19,25.45,25.69,25.93,26.16,26.45,26.68,26.82,26.90,27.05,27.20,27.33,27.41,27.56,27.65,27.74,27.88,28.18,28.42,28.65,28.88,29.10,29.33
e,e,e,e,e,e,e,e,e,e,e,e,e,e,e,e,e,e,e,e,e,e,e,e,e,e,e,e,e,e,e,e,4.03,6.56,9.77,18.09,25.56,34.80,46.98,60.66,68.26,73.19,77.48,83.59,94.25,102.50,108.69,113.44,117.07,120.72,124.39,127.95,131.00,132.79,134.29,135.82,137.57,137.55,137.17,136.24,134.73,132.99,130.99,128.57,125.68,122.30,118.36,114.21,110.21,106.58,102.63,97.31,91.83,86.53,81.05,75.54,71.37,68.47,66.43,65.07,63.75,62.28,60.46,57.96,55.48,52.93,50.41,48.07,45.87,43.59,41.30,39.12,37.24,35.59,34.12,32.92,32.27,31.62,30.84,29.98,29.10,28.27,27.13,25.92,24.78,23.61,22.52,21.57,20.56,19.06,16.51,13.89,11.56,9.82,9.12,8.37,7.87,7.84,8.60,9.41,10.76,12.80,15.60,18.24,20.93,23.79,26.85,29.98,33.43,36.91,40.49,44.53,48.44,51.45,54.07,56.84,59.05,59.71,59.45,58.50,56.69,54.69,52.64,50.69,49.11,47.99,46.81,45.90,45.41,44.88,44.23,43.54,42.75,41.57,40.53,39.24,38.00,37.08,35.66,34.05,32.25,30.15,27.27,24.15,21.41,19.45,18.75,17.99,17.26,16.86,16.96,17.45,17.80,18.12,18.42,18.60,18.81,19.16,19.47,19.54,19.62,19.71,19.83,19.98,20.15,20.32,20.51,20.70,20.87,21.03,21.13,21.21,21.27,21.26,21.26,21.26,21.26,21.17,21.02,20.91,20.89,20.98,21.07,21.24,21.43,21.61,21.84,22.06,22.14,21.92,21.21,20.45,19.78,19.42,19.53,19.91,20.24,20.59,20.94,21.12,21.28,21.47,21.67,21.82,21.99,22.16,22.39,22.71,23.09,23.55,23.97,24.33,24.58,24.82,25.10,25.37,25.61,25.84,26.13,26.36,26.50,26.58,26.73,26.88,27.01,27.09,27.25,27.30,27.42,27.69,27.93,28.16,28.40,28.61,28.78,29.01
e,e,e,e,e,e,e,e,e,e,e,e,e,e,e,e,e,e,e,e,e,e,e,e,e,e,e,e,e,e,e,e,4.27,7.11,9.84,18.37,25.75,34.86,46.95,60.36,66.97,71.56,75.87,81.21,91.99,100.86,107.58,112.28,115.64,119.30,122.88,126.14,128.73,130.17,131.17,132.00,132.88,132.61,131.93,130.85,129.42,127.72,125.73,123.42,120.73,117.54,113.81,110.16,106.66,103.19,98.03,92.39,86.92,81.70,76.14,71.61,68.19,65.68,63.73,62.31,60.73,59.00,57.08,54.65,52.30,50.01,47.80,45.74,43.82,41.69,39.50,37.44,35.72,34.10,32.60,31.32,30.67,29.98,29.22,28.48,27.88,27.19,26.37,25.52,24.72,23.92,23.04,22.13,21.12,19.84,17.60,15.23,12.93,10.90,9.67,8.79,8.11,7.75,8.35,9.07,10.18,12.00,14.90,17.71,20.80,24.00,27.21,30.49,33.96,37.44,41.00,44.95,48.71,51.40,53.59,55.96,58.09,58.23,57.57,56.49,54.31,52.21,50.30,48.57,47.02,45.43,43.96,42.76,41.94,41.40,40.79,40.17,39.48,38.54,37.84,36.99,36.13,35.45,34.43,33.06,31.37,29.25,26.17,22.96,20.60,19.18,18.52,17.79,17.08,16.60,16.52,16.91,17.20,17.48,17.75,18.05,18.39,18.72,18.95,19.03,19.11,19.24,19.41,19.59,19.75,19.87,20.01,20.16,20.28,20.40,20.49,20.57,20.64,20.68,20.68,20.68,20.67,20.59,20.44,20.36,20.33,20.34,20.45,20.63,20.82,21.02,21.25,21.45,21.58,21.46,20.84,20.11,19.47,19.23,19.54,19.96,20.29,20.59,20.85,21.04,21.19,21.37,21.56,21.71,21.90,22.07,22.26,22.52,22.90,23.32,23.71,24.03,24.26,24.49,24.75,25.02,25.29,25.52,25.78,26.02,26.18,26.26,26.41,26.56,26.69,26.77,26.89,27.00,27.18,27.45,27.68,27.91,28.12,28.31,28.46,28.69
e,e,e,e,e,e,e,e,e,e,e,e,e,e,e,e,e,e,e,e,e,e,e,e,e,e,e,e,e,e,e,e,4.62,7.76,9.81,18.44,25.82,34.86,46.72,59.45,65.37,69.90,74.35,78.95,88.91,98.11,105.40,110.19,113.61,117.32,120.74,123.60,125.63,126.83,127.53,127.85,127.94,127.50,126.66,125.51,124.11,122.34,120.33,118.19,115.80,112.92,109.46,106.34,103.25,99.69,93.13,87.41,82.14,77.02,71.65,68.40,65.70,63.29,61.12,59.60,57.72,55.69,53.61,51.19,49.01,46.98,45.06,43.16,41.51,39.54,37.44,35.46,33.99,32.48,30.98,29.62,28.93,28.17,27.36,26.66,26.29,25.61,25.04,24.56,24.18,23.84,23.25,22.45,21.45,20.26,18.33,16.24,14.11,12.05,10.18,9.14,8.37,7.79,8.12,8.77,9.63,11.16,14.01,17.10,20.68,24.28,27.62,30.95,34.39,37.82,41.30,45.07,48.76,51.32,53.27,55.23,57.10,56.65,55.59,54.44,52.02,49.87,48.11,46.60,45.09,43.03,41.29,39.82,38.64,38.04,37.48,36.88,36.20,35.46,35.09,34.67,34.18,33.64,32.98,31.88,30.36,28.30,25.07,21.78,19.81,18.92,18.30,17.61,16.93,16.38,16.09,16.35,16.60,16.85,17.15,17.61,18.07,18.33,18.45,18.52,18.62,18.82,19.05,19.27,19.43,19.52,19.59,19.67,19.75,19.82,19.90,19.98,20.05,20.12,20.14,20.14,20.12,20.05,19.92,19.86,19.84,19.77,19.90,20.05,20.23,20.45,20.67,20.83,20.96,20.93,20.41,19.77,19.20,19.06,19.53,19.99,20.33,20.57,20.74,20.96,21.13,21.28,21.44,21.60,21.82,22.00,22.16,22.34,22.71,23.08,23.41,23.70,23.94,24.17,24.40,24.66,24.96,25.20,25.43,25.66,25.86,25.94,26.09,26.24,26.36,26.45,26.54,26.73,26.96,27.19,27.41,27.64,27.83,27.99,28.14,28.37
e,e,e,e,e,e,e,e,e,e,e,e,e,e,e,e,e,e,e,e,e,e,e,e,e,e,e,e,e,e,e,e,5.13,7.52,9.62,18.10,25.70,34.86,46.58,59.21,64.74,69.02,73.34,77.74,85.55,94.02,101.42,106.53,110.60,114.05,117.13,119.85,122.04,123.03,123.48,123.52,123.26,122.53,121.65,120.44,118.88,117.16,115.32,113.32,111.10,108.63,106.03,103.17,99.71,95.28,88.77,83.07,77.70,72.73,68.99,66.35,63.75,61.20,58.88,57.06,55.03,52.88,50.65,48.08,46.00,44.07,42.22,40.47,38.73,36.82,34.78,32.71,31.24,29.89,28.60,27.46,26.82,26.06,25.28,24.64,24.37,23.85,23.31,22.83,22.49,22.45,22.20,21.77,21.13,20.18,18.50,16.53,14.45,12.42,10.46,9.36,8.56,7.92,7.90,8.52,9.26,10.50,12.86,16.89,20.74,24.39,27.82,31.19,34.61,37.98,41.40,45.07,48.67,51.19,53.05,54.74,55.77,54.96,53.67,52.32,50.25,48.45,46.66,44.87,43.11,41.20,39.22,37.48,36.17,35.17,34.54,33.81,32.98,32.38,32.30,32.27,32.08,31.60,31.14,30.42,29.42,27.87,24.74,21.59,19.74,18.91,18.24,17.60,16.96,16.36,15.87,15.78,16.08,16.46,16.83,17.29,17.70,17.92,17.99,18.02,18.27,18.50,18.73,18.95,19.11,19.20,19.27,19.35,19.43,19.50,19.58,19.64,19.66,19.74,19.75,19.75,19.75,19.73,19.69,19.64,19.60,19.58,19.56,19.67,19.81,19.93,20.11,20.17,20.21,20.14,19.77,19.42,19.01,18.95,19.47,19.93,20.27,20.50,20.66,20.84,21.04,21.22,21.38,21.53,21.70,21.91,22.09,22.26,22.54,22.81,23.07,23.33,23.62,23.85,24.08,24.32,24.58,24.87,25.11,25.34,25.54,25.62,25.77,25.89,26.00,26.13,26.27,26.47,26.70,26.93,27.10,27.32,27.51,27.67,27.82,28.05
e,e,e,e,e,e,e,e,e,e,e,e,e,e,e,e,e,e,e,e,e,e,e,e,e,e,e,e,e,e,e,e,4.63,6.87,9.27,17.54,25.40,34.78,46.45,59.04,64.41,68.55,72.75,76.99,83.13,90.06,96.67,102.08,106.38,109.72,112.77,115.59,117.59,118.64,119.10,119.03,118.52,117.64,116.47,115.10,113.61,112.03,110.49,108.71,106.71,104.60,102.19,99.26,95.47,90.54,84.23,78.66,73.73,69.57,66.78,64.41,61.93,59.42,57.05,54.98,52.77,50.43,47.92,45.24,43.11,41.21,39.42,37.67,35.89,33.99,32.02,30.08,28.73,27.47,26.28,25.25,24.63,23.93,23.22,22.65,22.41,22.01,21.63,21.33,21.16,21.20,21.13,20.87,20.34,19.46,17.99,16.28,14.44,12.54,10.59,9.49,8.69,8.02,7.72,8.27,8.94,10.01,12.06,16.75,20.83,24.50,27.97,31.37,34.67,37.90,41.16,44.70,48.22,50.78,52.65,54.18,54.55,53.54,52.15,50.71,48.78,47.11,45.38,43.53,41.59,39.35,37.25,35.39,33.83,32.61,31.90,31.20,30.46,29.92,29.92,30.02,29.97,29.60,29.21,28.76,28.18,27.17,24.61,21.77,19.97,19.06,18.36,17.74,17.13,16.46,15.76,15.38,15.68,16.12,16.55,17.01,17.30,17.44,17.52,17.62,17.90,18.14,18.38,18.60,18.78,18.88,18.95,19.03,19.11,19.18,19.26,19.31,19.31,19.36,19.37,19.39,19.42,19.44,19.45,19.42,19.38,19.35,19.30,19.36,19.46,19.57,19.69,19.71,19.69,19.60,19.35,19.12,18.79,18.78,19.37,19.89,20.22,20.44,20.59,20.75,20.95,21.12,21.28,21.47,21.62,21.81,21.99,22.15,22.32,22.54,22.78,23.02,23.30,23.53,23.76,24.01,24.27,24.55,24.79,25.02,25.22,25.30,25.45,25.56,25.66,25.81,26.00,26.19,26.41,26.63,26.78,27.00,27.19,27.36,27.54,27.74
e,e,e,e,e,e,e,e,e,e,e,e,e,e,e,e,e,e,e,e,e,e,e,e,e,e,e,e,e,e,e,e,3.47,5.97,8.82,16.84,25.00,34.65,46.32,58.91,64.27,68.36,72.45,76.53,81.34,86.24,91.47,97.06,101.27,104.63,107.88,110.92,112.52,113.76,114.36,114.28,113.57,112.66,111.09,109.53,108.30,106.92,105.75,104.27,102.48,100.70,98.03,94.82,90.74,85.56,79.55,74.24,70.11,67.19,64.87,62.55,60.18,57.81,55.49,53.16,50.75,48.15,45.31,42.55,40.31,38.40,36.66,34.80,33.02,31.09,29.20,27.54,26.38,25.16,24.00,23.01,22.39,21.77,21.16,20.66,20.43,20.12,19.98,19.96,20.03,20.03,20.04,19.79,19.22,18.30,17.01,15.66,14.16,12.46,10.61,9.54,8.76,8.10,7.58,8.05,8.65,9.62,11.48,16.66,20.92,24.63,28.09,31.49,34.63,37.63,40.68,44.08,47.54,50.17,52.12,53.56,53.40,52.32,50.93,49.44,47.50,45.84,44.21,42.46,40.37,37.52,35.34,33.45,31.60,30.30,29.49,28.91,28.43,27.89,27.84,27.89,27.86,27.62,27.23,26.96,26.73,26.27,24.61,22.20,20.41,19.31,18.62,17.99,17.37,16.62,15.73,15.11,15.36,15.83,16.29,16.75,16.85,16.93,17.06,17.30,17.53,17.76,17.99,18.23,18.46,18.56,18.63,18.71,18.79,18.87,18.94,18.99,18.99,18.99,18.99,19.03,19.11,19.18,19.19,19.19,19.17,19.09,19.09,19.09,19.16,19.30,19.38,19.39,19.35,19.25,19.09,18.86,18.53,18.56,19.24,19.87,20.18,20.37,20.53,20.68,20.84,20.99,21.17,21.40,21.55,21.71,21.86,22.00,22.08,22.29,22.52,22.75,22.98,23.22,23.45,23.71,24.01,24.24,24.47,24.70,24.90,24.98,25.13,25.24,25.34,25.50,25.73,25.90,26.09,26.31,26.47,26.69,26.88,27.05,27.28,27.45
e,e,e,e,e,e,e,e,e,e,e,e,e,e,e,e,e,e,e,e,e,e,e,e,e,e,e,e,e,e,e,e,3.31,5.81,8.55,16.23,24.62,34.50,46.13,58.78,64.02,67.99,71.90,75.59,79.43,83.67,87.73,91.15,94.28,98.18,101.91,104.77,105.68,106.01,105.73,105.02,104.18,103.66,103.03,102.44,101.90,100.97,100.58,99.39,97.42,95.34,92.76,89.57,85.38,79.97,74.46,70.60,67.63,65.13,62.76,60.35,57.91,55.49,53.12,50.29,47.04,43.93,41.32,39.41,37.67,35.97,34.21,32.25,30.37,28.54,26.79,25.17,23.96,22.77,21.66,20.71,20.09,19.47,18.95,18.54,18.25,18.00,17.87,17.85,17.93,18.04,18.10,17.95,17.52,16.69,15.65,14.47,13.14,11.65,10.10,9.16,8.42,7.83,8.01,8.08,8.17,8.82,10.77,16.36,20.83,24.63,28.08,31.32,34.32,37.25,40.28,43.63,47.00,49.60,51.42,52.54,52.38,51.48,50.11,48.39,46.30,44.58,42.94,41.17,39.03,36.07,33.39,31.28,29.91,28.90,28.15,27.55,27.01,26.42,26.10,26.03,25.97,25.64,25.30,25.01,24.82,24.69,24.32,22.58,20.87,19.57,18.87,18.10,17.26,16.37,15.47,14.85,15.07,15.51,15.94,16.25,16.34,16.48,16.68,16.92,17.20,17.44,17.67,17.91,18.14,18.24,18.31,18.39,18.47,18.55,18.62,18.67,18.67,18.67,18.71,18.75,18.79,18.86,18.87,18.90,18.93,18.90,18.90,18.86,18.88,18.99,19.12,19.09,19.00,18.86,18.71,18.53,18.31,18.38,18.93,19.65,20.03,20.24,20.41,20.62,20.77,20.93,21.09,21.27,21.43,21.58,21.71,21.82,21.95,22.08,22.26,22.50,22.73,22.96,23.23,23.50,23.75,23.99,24.22,24.42,24.59,24.66,24.81,24.92,25.03,25.24,25.42,25.62,25.81,26.00,26.20,26.43,26.62,26.81,27.09,27.40
e,e,e,e,e,e,e,e,e,e,e,e,e,e,e,e,e,e,e,e,e,e,e,e,e,e,e,e,e,e,e,e,3.43,5.76,8.38,15.66,24.29,34.42,45.95,58.04,63.35,67.31,71.01,74.37,77.63,81.23,84.43,86.67,88.92,92.21,95.26,97.37,97.89,97.60,96.80,95.82,95.09,94.90,94.99,95.15,95.18,94.74,94.61,93.47,91.47,89.49,87.16,83.97,79.77,74.65,70.32,67.49,65.17,62.89,60.45,58.00,55.54,52.99,50.23,46.73,43.27,40.31,38.09,36.58,35.10,33.51,31.70,29.53,27.65,25.94,24.32,22.75,21.61,20.51,19.46,18.51,17.83,17.22,16.74,16.37,16.08,15.85,15.74,15.74,15.84,16.04,16.12,16.04,15.74,15.09,14.20,13.17,12.00,10.69,9.46,8.64,8.04,7.75,8.40,8.38,8.39,9.12,11.36,16.55,20.82,24.52,27.92,31.09,34.00,36.89,39.89,43.19,46.29,48.78,50.57,51.57,51.39,50.55,49.13,47.24,45.15,43.32,41.53,39.57,37.18,34.22,31.55,29.56,28.44,27.59,26.85,26.21,25.63,24.99,24.44,24.24,24.08,23.66,23.35,23.09,22.97,23.04,23.32,22.47,21.10,19.72,18.95,18.06,17.10,16.13,15.21,14.57,14.78,15.21,15.59,15.78,15.90,16.10,16.33,16.56,16.85,17.09,17.34,17.59,17.82,17.92,17.99,18.07,18.15,18.23,18.29,18.32,18.32,18.35,18.41,18.45,18.47,18.54,18.55,18.60,18.65,18.65,18.67,18.64,18.63,18.70,18.83,18.78,18.65,18.48,18.32,18.22,18.09,18.16,18.59,19.36,19.86,20.15,20.31,20.52,20.68,20.84,20.99,21.14,21.30,21.44,21.55,21.66,21.79,21.86,22.01,22.25,22.50,22.73,23.00,23.27,23.50,23.73,23.94,24.13,24.27,24.34,24.49,24.61,24.75,24.98,25.14,25.35,25.55,25.71,25.94,26.17,26.40,26.66,27.01,27.42
e,e,e,e,e,e,e,e,e,e,e,e,e,e,e,e,e,e,e,e,e,e,e,e,e,e,e,e,e,e,e,e,3.86,5.84,8.30,15.14,24.01,34.42,45.77,56.63,62.22,66.27,69.73,72.84,75.95,78.94,81.62,83.80,85.41,86.77,87.82,88.54,89.01,88.45,87.53,86.68,86.34,86.39,86.98,87.65,88.10,88.20,87.74,86.38,84.51,83.07,81.19,77.96,73.86,69.62,67.27,64.99,62.74,60.44,57.90,55.49,53.05,50.26,46.77,42.37,39.45,37.39,35.72,34.10,32.61,31.02,29.12,26.60,24.85,23.29,21.78,20.27,19.33,18.39,17.41,16.44,15.61,15.03,14.53,14.14,13.91,13.67,13.60,13.63,13.74,14.04,14.09,14.05,13.89,13.48,12.65,11.73,10.71,9.56,8.67,7.93,7.61,7.85,8.76,8.98,9.41,10.67,13.40,17.31,20.89,24.29,27.60,30.77,33.68,36.54,39.49,42.74,45.38,47.70,49.53,50.67,50.45,49.52,47.98,45.99,44.04,42.06,39.99,37.64,34.75,31.89,29.83,28.35,27.22,26.37,25.59,24.90,24.27,23.58,22.90,22.52,22.20,21.68,21.37,21.22,21.20,21.30,21.54,21.80,21.06,19.74,18.83,17.83,16.88,15.92,14.95,14.26,14.50,14.93,15.25,15.34,15.55,15.78,16.01,16.24,16.48,16.71,16.97,17.27,17.50,17.60,17.67,17.75,17.83,17.91,17.93,17.94,17.94,18.02,18.09,18.13,18.15,18.22,18.23,18.28,18.33,18.33,18.41,18.42,18.42,18.44,18.52,18.46,18.30,18.10,17.94,17.93,17.87,17.91,18.20,18.98,19.67,20.08,20.24,20.40,20.55,20.71,20.86,21.02,21.17,21.27,21.38,21.52,21.61,21.62,21.75,22.00,22.31,22.54,22.78,23.01,23.24,23.47,23.65,23.81,23.95,24.02,24.17,24.32,24.50,24.73,24.88,25.09,25.29,25.46,25.69,25.92,26.23,26.62,27.07,27.53
e,e,e,e,e,e,e,e,e,e,e,e,e,e,e,e,e,e,e,e,e,e,e,e,e,e,e,e,e,e,e,e,3.92,6.02,8.27,14.36,24.05,35.31,46.58,55.80,60.95,64.63,67.61,70.34,73.16,75.76,78.20,80.48,82.25,83.23,83.79,84.01,83.72,82.70,81.56,80.64,80.31,80.79,81.99,83.25,84.13,84.28,83.60,81.92,79.56,77.23,74.85,72.26,69.52,66.77,64.70,62.53,60.18,57.65,55.01,52.43,49.41,46.01,42.47,39.33,37.03,35.18,33.52,31.85,29.94,28.05,26.08,23.71,22.11,20.81,19.65,18.46,17.36,16.39,15.43,14.43,13.50,12.83,12.33,11.96,11.73,11.50,11.43,11.52,11.75,12.06,12.07,12.03,11.94,11.64,10.90,9.95,8.93,8.02,7.53,7.02,6.99,7.62,8.77,9.47,10.01,11.07,13.54,17.10,20.55,23.92,27.22,30.39,33.45,36.37,39.14,41.76,44.14,46.38,48.31,49.71,49.30,48.36,46.82,44.83,42.90,40.78,38.45,35.85,32.96,30.41,28.64,27.31,26.17,25.18,24.34,23.60,22.93,22.23,21.54,21.05,20.69,20.33,20.02,19.82,19.83,20.05,20.32,20.62,20.21,19.32,18.52,17.57,16.63,15.67,14.69,13.95,14.19,14.54,14.77,14.94,15.17,15.40,15.65,15.92,16.15,16.38,16.63,16.89,17.12,17.26,17.38,17.48,17.51,17.59,17.61,17.63,17.67,17.70,17.77,17.81,17.83,17.90,17.91,17.96,18.01,18.01,18.09,18.11,18.13,18.17,18.21,18.11,17.97,17.85,17.79,17.74,17.67,17.68,17.87,18.60,19.30,19.82,20.12,20.27,20.42,20.58,20.73,20.89,21.00,21.08,21.19,21.34,21.41,21.46,21.59,21.79,22.06,22.29,22.52,22.76,22.99,23.22,23.36,23.49,23.63,23.70,23.85,24.03,24.23,24.41,24.61,24.80,25.00,25.21,25.53,25.89,26.29,26.72,27.14,27.60
e,e,e,e,e,e,e,e,e,e,e,e,e,e,e,e,e,e,e,e,e,e,e,e,e,e,e,e,e,e,e,e,3.86,6.08,8.24,13.25,23.75,35.99,47.28,54.92,59.48,62.74,65.32,67.69,70.06,72.20,74.29,76.45,78.28,79.12,79.49,79.48,78.75,77.27,75.96,75.06,74.74,75.71,77.44,79.18,80.39,80.62,79.80,77.91,75.17,72.04,69.47,67.51,65.84,64.13,62.04,59.81,57.36,54.66,51.81,48.76,45.35,41.86,38.74,36.63,34.77,33.00,31.21,29.34,27.11,25.00,23.05,21.08,19.70,18.63,17.69,16.71,15.47,14.45,13.46,12.46,11.54,10.88,10.39,10.06,9.84,9.64,9.58,9.66,9.89,10.18,10.10,10.03,9.94,9.59,8.84,7.94,7.11,6.53,6.35,6.08,6.30,7.20,8.53,9.70,10.37,11.25,13.48,16.84,20.18,23.50,26.77,29.94,33.11,36.09,38.78,41.06,43.19,45.29,47.23,48.80,48.13,47.12,45.62,43.68,41.75,39.44,36.88,34.15,31.34,29.15,27.52,26.23,25.09,24.01,23.10,22.32,21.62,21.00,20.40,19.91,19.55,19.31,19.02,18.76,18.75,19.03,19.34,19.55,19.32,18.73,18.05,17.21,16.34,15.41,14.43,13.64,13.84,14.14,14.32,14.57,14.81,15.04,15.29,15.58,15.81,16.05,16.30,16.53,16.76,16.92,17.08,17.19,17.19,17.25,17.28,17.32,17.39,17.39,17.45,17.49,17.51,17.58,17.59,17.64,17.69,17.69,17.77,17.80,17.84,17.89,17.91,17.80,17.70,17.65,17.64,17.56,17.49,17.49,17.62,18.31,18.97,19.53,19.95,20.14,20.30,20.44,20.58,20.74,20.81,20.90,21.02,21.15,21.22,21.30,21.41,21.57,21.80,22.04,22.27,22.50,22.73,22.95,23.05,23.17,23.31,23.40,23.55,23.75,23.96,24.12,24.35,24.55,24.77,25.05,25.46,25.90,26.34,26.78,27.18,27.63
e,e,e,e,e,e,e,e,e,e,e,e,e,e,e,e,e,e,e,e,e,e,e,e,e,e,e,e,e,e,e,e,3.63,5.89,8.20,11.57,22.77,36.08,47.59,53.85,57.61,60.48,62.87,64.95,66.60,68.06,69.52,71.12,72.65,73.51,73.96,74.06,73.67,71.78,70.42,69.72,69.51,71.08,73.15,75.09,76.46,76.94,76.11,74.23,71.43,67.96,66.04,64.54,63.11,61.42,59.09,56.57,54.04,51.38,48.08,44.01,40.70,38.22,36.32,34.35,32.57,30.72,28.65,26.29,24.02,21.91,20.11,18.93,17.92,16.96,15.99,14.92,13.68,12.58,11.52,10.52,9.85,9.39,8.99,8.67,8.50,8.40,8.33,8.28,8.29,8.53,8.23,8.04,7.88,7.18,6.17,5.58,5.31,5.20,5.17,5.12,5.51,6.50,7.88,9.46,10.34,11.24,13.41,16.68,19.85,23.01,26.20,29.36,32.53,35.56,38.41,41.04,42.87,44.68,46.47,48.01,46.94,45.76,44.30,42.53,40.60,37.99,35.29,32.59,29.93,28.14,26.45,25.03,23.94,22.86,21.91,21.08,20.39,19.96,19.65,19.33,19.04,18.80,18.56,18.28,18.20,18.39,18.70,18.83,18.52,17.91,17.28,16.68,16.00,15.16,14.17,13.33,13.44,13.71,13.95,14.25,14.49,14.72,14.95,15.20,15.43,15.71,15.98,16.21,16.44,16.60,16.76,16.87,16.87,16.88,16.93,17.00,17.07,17.07,17.13,17.17,17.19,17.27,17.27,17.32,17.37,17.37,17.45,17.52,17.56,17.58,17.65,17.58,17.54,17.51,17.44,17.37,17.34,17.36,17.49,18.18,18.72,19.24,19.72,20.00,20.17,20.28,20.39,20.55,20.62,20.75,20.87,20.95,21.03,21.11,21.19,21.32,21.55,21.78,22.01,22.24,22.47,22.64,22.73,22.85,23.00,23.14,23.30,23.50,23.71,23.86,24.09,24.37,24.69,25.06,25.51,25.92,26.32,26.73,27.18,27.58
e,e,e,e,e,e,e,e,e,e,e,e,e,e,e,e,e,e,e,e,e,e,e,e,e,e,e,e,e,e,e,e,3.53,5.89,8.01,10.18,19.59,31.78,43.40,50.42,54.20,57.02,59.41,61.46,62.94,64.10,65.14,66.19,66.85,67.42,67.82,68.02,67.95,66.54,65.60,65.24,65.31,67.05,69.15,71.08,72.48,73.25,72.72,70.87,67.93,64.41,62.68,61.38,59.96,57.99,55.64,52.92,49.90,46.66,43.41,40.23,37.68,35.70,34.04,32.14,30.12,27.93,25.60,23.13,21.23,19.56,18.11,17.11,16.18,15.25,14.25,13.13,11.89,10.92,10.09,9.35,8.77,8.29,7.88,7.53,7.26,7.18,7.08,6.98,6.91,6.95,6.61,6.35,6.17,5.78,5.24,4.98,4.90,4.90,4.90,4.90,5.12,5.77,7.28,9.23,10.53,11.74,13.95,16.81,19.86,22.95,25.97,28.76,31.57,34.70,37.98,40.87,42.65,44.32,45.90,47.18,45.83,44.51,43.05,41.33,39.13,36.49,33.88,31.30,28.68,27.05,25.45,23.99,22.74,21.70,20.85,20.17,19.68,19.33,19.09,18.83,18.56,18.29,18.06,17.80,17.65,17.71,18.01,18.06,17.70,17.08,16.46,15.88,15.25,14.55,13.78,13.04,13.12,13.37,13.61,13.88,14.12,14.37,14.63,14.86,15.09,15.35,15.61,15.84,16.11,16.32,16.47,16.55,16.55,16.59,16.63,16.68,16.75,16.75,16.81,16.85,16.87,16.95,16.99,17.05,17.10,17.10,17.18,17.26,17.32,17.36,17.40,17.37,17.33,17.29,17.25,17.18,17.15,17.20,17.36,17.97,18.47,18.93,19.37,19.72,19.96,20.12,20.24,20.35,20.47,20.59,20.68,20.77,20.88,20.97,21.00,21.06,21.29,21.53,21.76,21.97,22.16,22.32,22.41,22.53,22.68,22.84,23.03,23.24,23.45,23.61,23.92,24.28,24.67,25.06,25.48,25.88,26.28,26.71,27.13,27.52
e,e,e,e,e,e,e,e,e,e,e,e,e,e,e,e,e,e,e,e,e,e,e,e,e,e,e,e,e,e,e,e,3.41,5.70,7.52,8.91,15.57,25.65,37.11,45.39,49.66,52.72,55.24,57.41,58.92,59.89,60.56,61.09,60.96,61.18,61.45,61.64,61.69,60.91,60.47,60.54,61.15,63.14,65.31,67.20,68.57,69.50,69.19,67.38,64.41,61.05,59.35,58.11,56.61,54.32,51.60,48.62,45.27,41.76,38.89,36.88,35.09,33.39,31.69,29.80,27.49,24.99,22.49,20.12,18.69,17.50,16.39,15.38,14.45,13.53,12.54,11.41,10.27,9.48,8.89,8.40,7.87,7.33,6.87,6.47,6.11,6.04,5.93,5.82,5.75,5.61,5.31,5.05,4.90,4.89,4.89,4.89,4.89,4.89,4.89,4.89,4.90,5.17,6.70,8.99,10.78,12.41,14.65,17.08,19.95,22.93,25.73,28.12,30.61,33.85,37.57,40.68,42.45,44.04,45.40,46.27,44.74,43.31,41.83,40.12,37.66,35.09,32.61,30.14,27.50,25.89,24.39,22.93,21.53,20.61,19.91,19.44,19.14,18.83,18.59,18.35,18.09,17.79,17.55,17.32,17.12,17.03,17.33,17.26,16.86,16.25,15.63,15.02,14.40,13.83,13.31,12.74,12.82,13.05,13.28,13.51,13.75,14.02,14.30,14.53,14.77,15.01,15.24,15.48,15.78,16.02,16.17,16.23,16.23,16.31,16.33,16.36,16.43,16.44,16.51,16.55,16.57,16.64,16.72,16.79,16.85,16.86,16.94,17.02,17.09,17.15,17.16,17.15,17.11,17.06,17.06,16.98,16.96,17.03,17.23,17.75,18.22,18.64,19.02,19.41,19.72,19.93,20.08,20.18,20.32,20.42,20.50,20.59,20.74,20.82,20.82,20.83,21.04,21.27,21.50,21.70,21.84,22.00,22.09,22.21,22.38,22.53,22.76,22.99,23.22,23.41,23.79,24.23,24.65,25.04,25.44,25.82,26.25,26.68,27.07,27.47
e,e,e,e,e,e,e,e,e,e,e,e,e,e,e,e,e,e,e,e,e,e,e,e,e,e,e,e,e,e,e,e,3.15,4.65,5.99,7.78,10.78,17.39,27.83,36.90,42.59,46.57,49.52,52.09,53.71,54.55,54.88,54.96,54.93,54.94,54.84,54.57,54.13,53.57,53.43,54.10,55.99,59.02,61.69,63.70,64.94,65.53,64.83,63.09,60.58,57.76,56.09,54.68,53.01,50.53,45.88,42.37,39.74,37.74,35.90,34.09,32.34,30.65,28.94,26.85,24.48,22.05,19.74,17.81,16.74,15.74,14.66,13.66,12.73,11.84,10.93,9.97,9.27,8.62,8.01,7.45,6.97,6.43,5.91,5.48,5.22,5.20,5.17,5.14,5.12,5.09,5.01,4.94,4.89,4.83,4.82,4.82,4.82,4.82,4.82,4.87,4.90,5.09,6.18,8.72,11.03,13.11,15.35,17.58,20.05,22.58,25.03,27.42,30.03,33.44,37.34,40.55,42.23,43.78,44.90,45.13,43.64,42.18,40.66,38.92,36.50,34.11,31.69,29.17,26.48,24.57,23.01,21.61,20.29,19.77,19.35,19.00,18.69,18.38,18.14,17.87,17.60,17.34,17.05,16.81,16.58,16.44,16.69,16.45,16.00,15.42,14.80,14.18,13.61,13.10,12.69,12.37,12.50,12.73,12.96,13.20,13.43,13.67,13.91,14.15,14.44,14.69,14.92,15.15,15.40,15.64,15.81,15.91,15.91,15.99,16.01,16.04,16.12,16.18,16.25,16.32,16.37,16.39,16.46,16.54,16.61,16.67,16.75,16.82,16.88,16.90,16.96,16.92,16.88,16.87,16.87,16.79,16.77,16.87,17.16,17.58,17.99,18.38,18.77,19.16,19.42,19.64,19.85,20.05,20.14,20.22,20.33,20.46,20.55,20.63,20.66,20.67,20.79,21.01,21.25,21.43,21.53,21.68,21.77,21.92,22.12,22.28,22.50,22.77,23.07,23.41,23.79,24.19,24.59,24.98,25.43,25.82,26.22,26.62,27.01,27.45
e,e,e,e,e,e,e,e,e,e,e,e,e,e,e,e,e,e,e,e,e,e,e,e,e,e,e,e,e,e,e,e,e,2.81,4.42,6.35,7.82,11.63,18.75,26.60,32.67,37.34,40.95,44.07,46.12,47.03,47.27,47.25,47.19,47.09,46.92,46.66,46.27,45.55,45.51,46.73,49.68,53.75,56.79,58.91,60.18,60.58,59.60,58.09,56.31,54.39,52.54,50.53,48.11,45.07,41.02,38.05,35.97,34.49,32.99,31.33,29.64,27.93,26.19,23.90,21.59,19.33,17.22,15.64,14.73,13.86,12.90,11.93,11.12,10.37,9.65,8.92,8.38,7.78,7.17,6.57,6.07,5.65,5.30,5.03,4.90,4.87,4.86,4.86,4.86,4.86,4.86,4.86,4.85,4.80,4.77,4.76,4.76,4.76,4.79,4.86,4.90,5.05,5.92,8.51,11.01,13.25,15.39,17.46,19.65,22.07,24.75,27.24,29.90,33.38,37.33,40.54,42.16,43.65,44.48,44.02,42.68,41.32,39.76,37.88,35.51,33.16,30.72,28.16,25.46,23.35,21.74,20.51,19.57,19.18,18.86,18.55,18.24,17.93,17.69,17.41,17.12,16.86,16.58,16.31,16.06,15.89,16.03,15.65,15.13,14.57,14.05,13.53,13.02,12.56,12.20,12.06,12.20,12.41,12.64,12.88,13.14,13.38,13.61,13.85,14.12,14.37,14.60,14.83,15.06,15.29,15.48,15.60,15.63,15.71,15.76,15.81,15.88,15.93,16.00,16.07,16.14,16.17,16.25,16.32,16.39,16.44,16.51,16.59,16.65,16.69,16.76,16.71,16.66,16.63,16.63,16.59,16.62,16.79,17.13,17.52,17.88,18.22,18.54,18.86,19.10,19.34,19.56,19.76,19.90,20.04,20.17,20.29,20.36,20.47,20.50,20.49,20.53,20.79,20.99,21.12,21.21,21.36,21.48,21.65,21.86,22.02,22.30,22.62,22.98,23.37,23.78,24.18,24.57,24.96,25.39,25.78,26.17,26.56,26.94,27.40
e,e,e,e,e,e,e,e,e,e,e,e,e,e,e,e,e,e,e,e,e,e,e,e,e,e,e,e,e,e,e,e,e,e,e,e,e,7.42,10.31,15.79,21.51,26.59,30.89,34.53,37.10,38.20,38.46,38.52,38.38,38.23,38.15,38.12,38.05,37.02,36.97,38.60,42.43,47.54,50.94,53.21,54.64,54.95,53.82,52.63,51.62,50.64,48.56,45.86,42.59,38.96,36.74,34.81,33.16,31.68,30.15,28.60,26.96,25.23,23.43,20.98,18.80,16.74,14.83,13.54,12.69,11.93,11.13,10.25,9.62,9.06,8.56,8.09,7.55,6.95,6.34,5.75,5.24,4.99,4.90,4.89,4.89,4.82,4.80,4.79,4.79,4.79,4.79,4.79,4.79,4.79,4.73,4.70,4.70,4.70,4.78,4.86,4.90,5.04,5.82,8.36,10.85,13.05,15.05,16.97,18.95,21.45,24.60,27.25,30.01,33.52,37.46,40.61,42.17,43.55,44.05,42.98,41.83,40.59,38.98,36.92,34.62,32.23,29.74,27.13,24.43,22.18,20.57,19.58,19.12,18.73,18.41,18.10,17.79,17.48,17.24,16.96,16.66,16.35,16.12,15.83,15.56,15.36,15.34,14.88,14.30,13.75,13.37,12.98,12.55,12.12,11.77,11.77,11.90,12.10,12.33,12.56,12.86,13.12,13.35,13.58,13.81,14.05,14.28,14.51,14.75,14.98,15.17,15.30,15.38,15.46,15.53,15.61,15.68,15.68,15.75,15.82,15.90,15.97,16.05,16.13,16.18,16.19,16.26,16.34,16.42,16.50,16.57,16.52,16.44,16.38,16.38,16.39,16.50,16.75,17.12,17.50,17.82,18.09,18.33,18.56,18.79,19.02,19.23,19.39,19.62,19.85,20.01,20.09,20.17,20.32,20.34,20.29,20.28,20.57,20.73,20.80,20.89,21.04,21.20,21.39,21.61,21.78,22.15,22.53,22.92,23.31,23.76,24.17,24.55,24.94,25.32,25.71,26.10,26.49,26.87,27.33
e,e,e,e,e,e,e,e,e,e,e,e,e,e,e,e,e,e,e,e,e,e,e,e,e,e,e,e,e,e,e,e,e,e,e,e,e,5.37,7.72,10.28,13.67,17.60,21.48,24.33,26.73,27.78,28.03,28.05,28.05,28.06,27.93,27.71,27.69,26.98,26.60,27.81,31.91,38.00,42.17,45.22,47.41,47.67,47.28,46.39,45.05,43.38,41.80,40.00,37.96,35.72,33.75,31.95,30.39,29.02,27.58,26.04,24.34,22.49,20.55,18.40,16.34,14.32,12.44,11.45,10.73,10.06,9.46,9.07,8.52,8.04,7.63,7.26,6.72,6.12,5.58,5.18,5.01,4.93,4.87,4.83,4.83,4.81,4.76,4.73,4.73,4.73,4.73,4.73,4.73,4.73,4.71,4.70,4.70,4.70,4.78,4.86,4.90,5.06,5.94,8.35,10.61,12.56,14.41,16.23,18.15,20.48,23.35,26.25,29.86,33.82,37.68,40.68,42.05,43.01,43.23,42.34,41.19,39.72,37.96,35.92,33.77,31.35,28.75,26.05,23.34,21.05,19.79,19.13,18.67,18.29,17.96,17.65,17.35,17.04,16.75,16.48,16.21,15.90,15.67,15.38,15.11,14.88,14.67,14.26,13.78,13.31,12.92,12.53,12.13,11.73,11.39,11.44,11.62,11.84,12.07,12.31,12.56,12.80,13.03,13.26,13.49,13.73,13.96,14.20,14.48,14.72,14.91,15.06,15.19,15.22,15.28,15.35,15.43,15.48,15.55,15.63,15.70,15.72,15.79,15.87,15.94,15.99,16.07,16.15,16.23,16.30,16.32,16.30,16.25,16.18,16.12,16.23,16.47,16.76,16.99,17.27,17.53,17.80,18.07,18.30,18.53,18.80,19.04,19.20,19.38,19.55,19.71,19.84,19.97,20.12,20.18,20.15,20.09,20.29,20.41,20.48,20.57,20.72,20.92,21.14,21.40,21.76,22.15,22.53,22.92,23.31,23.66,24.00,24.36,24.74,25.13,25.56,25.97,26.36,26.74,27.21
e,e,e,e,e,e,e,e,e,e,e,e,e,e,e,e,e,e,e,e,e,e,e,e,e,e,e,e,e,e,e,e,e,e,e,e,e,3.10,4.71,6.07,8.22,10.85,13.51,15.52,17.18,17.93,18.06,17.88,17.70,17.48,17.36,17.46,17.98,17.91,18.03,19.33,22.91,28.42,33.65,37.84,40.49,41.00,41.06,40.50,39.33,37.71,36.41,35.07,33.68,32.22,30.60,29.11,27.73,26.41,25.05,23.50,21.68,19.67,17.61,15.63,13.68,11.87,10.34,9.59,8.95,8.41,8.00,7.84,7.40,7.00,6.67,6.37,5.88,5.45,5.11,4.90,4.87,4.87,4.84,4.79,4.77,4.77,4.73,4.69,4.67,4.67,4.67,4.67,4.67,4.67,4.67,4.67,4.68,4.70,4.78,4.86,4.90,5.08,6.11,8.39,10.49,12.32,14.10,15.85,17.62,19.58,21.88,24.82,29.33,33.81,37.64,40.55,41.75,42.40,42.43,41.70,40.49,38.83,36.93,34.92,32.86,30.41,27.74,24.95,22.22,20.21,19.21,18.67,18.20,17.83,17.52,17.21,16.90,16.59,16.28,16.02,15.76,15.46,15.20,14.92,14.65,14.39,14.10,13.71,13.30,12.89,12.51,12.10,11.70,11.35,11.08,11.15,11.33,11.55,11.78,12.02,12.25,12.48,12.71,12.94,13.18,13.41,13.66,13.95,14.26,14.46,14.64,14.81,14.96,14.99,15.05,15.12,15.17,15.25,15.33,15.41,15.47,15.50,15.57,15.65,15.72,15.77,15.85,15.92,16.00,16.07,16.10,16.10,16.06,15.98,15.90,16.10,16.39,16.67,16.86,17.11,17.35,17.61,17.88,18.08,18.31,18.56,18.78,18.94,19.09,19.25,19.41,19.59,19.74,19.90,19.97,19.95,19.90,20.00,20.09,20.17,20.28,20.46,20.70,20.97,21.29,21.72,22.09,22.45,22.81,23.14,23.48,23.81,24.18,24.59,24.97,25.40,25.83,26.23,26.62,27.05
e,e,e,e,e,e,e,e,e,e,e,e,e,e,e,e,e,e,e,e,e,e,e,e,e,e,e,e,e,e,e,e,e,e,e,e,e,0.62,1.31,3.07,4.99,6.17,6.88,8.01,8.40,8.63,8.53,7.99,7.32,6.53,6.48,7.37,8.87,9.74,11.10,13.00,15.32,18.81,25.35,31.05,33.85,34.91,35.14,34.94,34.41,33.53,32.30,31.01,29.72,28.48,27.30,26.30,25.18,23.86,22.55,20.96,18.97,16.76,14.61,12.68,10.85,9.42,8.51,7.96,7.36,6.94,6.72,6.57,6.26,5.94,5.66,5.42,5.03,4.92,4.91,4.89,4.81,4.80,4.80,4.78,4.70,4.70,4.70,4.67,4.60,4.60,4.60,4.60,4.60,4.60,4.60,4.60,4.63,4.70,4.78,4.86,4.90,5.12,6.35,8.48,10.49,12.32,14.10,15.80,17.35,18.75,20.20,22.99,28.45,33.51,37.38,40.24,41.29,41.73,41.65,41.06,39.75,37.92,35.91,33.90,31.89,29.41,26.69,23.85,21.07,19.65,18.79,18.20,17.69,17.38,17.07,16.76,16.45,16.14,15.83,15.57,15.31,15.01,14.70,14.45,14.18,13.89,13.65,13.22,12.84,12.51,12.12,11.66,11.25,10.96,10.82,10.90,11.04,11.23,11.47,11.70,11.93,12.16,12.39,12.62,12.86,13.09,13.39,13.76,14.07,14.18,14.34,14.55,14.71,14.79,14.86,14.91,14.92,15.00,15.07,15.15,15.23,15.30,15.38,15.46,15.51,15.51,15.59,15.67,15.75,15.82,15.90,15.91,15.87,15.79,15.71,16.00,16.26,16.50,16.73,17.04,17.29,17.52,17.74,17.89,18.12,18.31,18.46,18.62,18.77,18.93,19.11,19.33,19.49,19.64,19.71,19.71,19.71,19.71,19.77,19.87,20.03,20.26,20.55,20.89,21.28,21.66,21.98,22.30,22.58,22.82,23.21,23.59,24.01,24.46,24.84,25.23,25.66,26.10,26.49,26.88
e,e,e,e,e,e,e,e,e,e,e,e,e,e,e,e,e,e,e,e,e,e,e,e,e,e,e,e,e,e,e,e,e,e,e,e,e,e,e,e,e,e,3.00,4.12,5.23,5.64,5.53,5.16,5.17,4.84,4.82,5.30,6.14,6.99,8.23,9.84,11.74,14.99,19.57,24.09,27.59,29.29,30.06,30.24,29.99,29.42,28.48,27.51,26.41,25.15,24.13,23.19,22.14,20.89,19.29,17.50,15.49,13.41,11.49,10.08,8.71,7.58,6.79,6.29,5.89,5.67,5.59,5.53,5.41,5.29,5.18,5.08,4.93,4.90,4.88,4.83,4.80,4.76,4.74,4.73,4.70,4.65,4.64,4.63,4.59,4.55,4.54,4.54,4.54,4.54,4.54,4.57,4.63,4.70,4.78,4.82,4.86,5.12,6.36,8.44,10.43,12.21,13.79,15.26,16.63,17.91,19.25,21.37,27.39,32.70,36.43,39.48,40.63,41.12,41.03,40.35,38.94,37.19,35.28,33.32,31.35,28.80,25.94,23.02,20.29,19.22,18.40,17.75,17.24,16.93,16.62,16.31,16.00,15.69,15.39,15.10,14.82,14.56,14.25,14.00,13.73,13.43,13.15,12.79,12.40,12.02,11.68,11.26,10.87,10.59,10.51,10.63,10.78,10.95,11.15,11.38,11.61,11.84,12.09,12.37,12.60,12.90,13.25,13.60,13.77,13.90,14.09,14.30,14.45,14.53,14.61,14.67,14.72,14.80,14.88,14.93,14.97,15.05,15.13,15.20,15.27,15.32,15.40,15.47,15.55,15.62,15.65,15.66,15.64,15.62,15.64,15.89,16.17,16.43,16.66,16.87,17.06,17.25,17.44,17.64,17.82,17.99,18.16,18.36,18.51,18.67,18.86,19.08,19.23,19.39,19.48,19.52,19.52,19.52,19.54,19.61,19.78,20.06,20.40,20.77,21.14,21.48,21.71,21.98,22.30,22.62,23.01,23.43,23.86,24.28,24.71,25.10,25.51,25.93,26.36,26.75
e,e,e,e,e,e,e,e,e,e,e,e,e,e,e,e,e,e,e,e,e,e,e,e,e,e,e,e,e,e,e,e,e,e,e,e,e,e,e,e,e,e,e,e,e,3.19,3.31,3.37,3.85,3.83,3.83,4.02,4.39,5.09,6.07,7.37,9.04,11.80,14.80,18.25,21.94,24.20,25.47,25.92,25.78,25.39,24.71,23.96,23.01,21.77,20.73,19.70,18.62,17.37,15.61,13.83,11.99,10.18,8.59,7.64,6.79,6.08,5.53,5.18,4.98,4.90,4.90,4.90,4.88,4.88,4.88,4.88,4.88,4.88,4.85,4.80,4.80,4.73,4.70,4.69,4.67,4.62,4.59,4.58,4.57,4.51,4.50,4.50,4.50,4.50,4.50,4.55,4.63,4.70,4.78,4.80,4.84,5.13,6.40,8.44,10.35,11.98,13.38,14.67,15.91,17.13,18.41,19.99,25.78,31.21,35.19,38.14,39.47,40.14,40.16,39.50,38.03,36.37,34.59,32.73,30.86,28.27,25.35,22.40,19.77,18.91,18.14,17.51,17.03,16.58,16.20,15.86,15.56,15.25,14.94,14.63,14.35,14.11,13.80,13.54,13.26,12.95,12.66,12.36,11.96,11.53,11.21,10.82,10.47,10.25,10.21,10.35,10.52,10.68,10.85,11.08,11.31,11.55,11.80,12.09,12.38,12.74,13.10,13.39,13.46,13.63,13.83,14.04,14.20,14.28,14.35,14.43,14.51,14.58,14.66,14.71,14.74,14.82,14.90,14.96,15.03,15.10,15.18,15.26,15.33,15.40,15.42,15.43,15.41,15.44,15.57,15.78,16.03,16.29,16.51,16.67,16.82,16.98,17.15,17.38,17.54,17.70,17.87,18.10,18.26,18.41,18.60,18.82,18.98,19.13,19.25,19.32,19.30,19.30,19.30,19.35,19.50,19.83,20.22,20.59,20.91,21.22,21.42,21.70,22.05,22.46,22.84,23.27,23.70,24.11,24.55,24.97,25.36,25.76,26.21,26.59
e,e,e,e,e,e,e,e,e,e,e,e,e,e,e,e,e,e,e,e,e,e,e,e,e,e,e,e,e,e,e,e,e,e,e,e,e,e,e,e,e,e,e,e,e,1.13,1.84,2.67,3.20,3.19,3.19,3.37,3.69,4.12,4.71,5.72,7.42,9.14,11.43,14.18,17.21,19.91,21.58,22.13,21.88,21.49,21.00,20.32,19.42,18.30,16.96,15.68,14.40,13.03,11.32,9.91,8.51,7.19,6.04,5.44,5.18,5.07,4.99,4.94,4.91,4.90,4.90,4.90,4.83,4.81,4.81,4.81,4.81,4.81,4.81,4.80,4.80,4.73,4.70,4.68,4.61,4.60,4.55,4.51,4.51,4.50,4.50,4.50,4.50,4.50,4.50,4.55,4.63,4.70,4.78,4.80,4.84,5.14,6.52,8.53,10.24,11.61,12.80,14.04,15.23,16.43,17.67,18.96,23.36,28.69,33.53,35.94,37.56,38.57,38.89,38.41,36.94,35.40,33.78,32.12,30.39,27.87,24.97,22.07,19.64,18.78,18.08,17.56,17.18,16.39,15.83,15.42,15.11,14.80,14.49,14.18,13.90,13.66,13.35,13.05,12.75,12.45,12.21,11.91,11.51,11.07,10.69,10.31,10.06,9.95,9.95,10.04,10.24,10.42,10.60,10.83,11.06,11.29,11.52,11.77,12.21,12.61,12.90,13.07,13.15,13.35,13.58,13.79,13.94,14.02,14.10,14.17,14.25,14.33,14.41,14.48,14.55,14.63,14.70,14.74,14.77,14.85,14.92,15.00,15.08,15.15,15.22,15.23,15.19,15.22,15.50,15.67,15.84,16.03,16.26,16.41,16.57,16.72,16.89,17.12,17.29,17.44,17.62,17.85,18.00,18.16,18.35,18.57,18.72,18.88,19.03,19.12,19.05,19.04,19.04,19.08,19.19,19.56,20.00,20.32,20.53,20.84,21.13,21.47,21.88,22.33,22.72,23.11,23.53,23.98,24.37,24.82,25.23,25.62,26.02,26.40
e,e,e,e,e,e,e,e,e,e,e,e,e,e,e,e,e,e,e,e,e,e,e,e,e,e,e,e,e,e,e,e,e,e,e,e,e,e,e,e,e,e,e,e,e,e,1.01,2.01,2.51,2.50,2.54,2.77,3.00,3.44,4.00,4.78,5.92,7.30,8.91,10.83,13.05,15.43,16.96,17.62,17.56,17.17,16.79,16.18,15.39,14.47,13.08,11.91,10.82,9.70,8.37,7.17,6.32,5.73,5.23,4.93,4.85,4.85,4.85,4.85,4.85,4.85,4.84,4.80,4.80,4.80,4.80,4.80,4.80,4.80,4.80,4.79,4.75,4.71,4.68,4.64,4.60,4.56,4.52,4.48,4.45,4.45,4.45,4.45,4.46,4.50,4.54,4.58,4.63,4.70,4.78,4.83,4.87,5.16,6.63,8.65,10.30,11.59,12.75,13.99,15.17,16.24,17.19,18.14,20.54,23.97,28.32,33.53,35.34,36.42,36.95,36.87,35.81,34.38,32.84,31.30,29.76,27.23,24.44,21.77,19.62,18.88,18.40,18.03,17.63,16.83,16.10,15.48,14.92,14.37,14.00,13.71,13.44,13.16,12.85,12.58,12.29,11.99,11.76,11.46,11.09,10.66,10.24,10.01,9.86,9.79,9.80,9.88,10.02,10.15,10.29,10.52,10.75,11.01,11.31,11.66,12.09,12.42,12.64,12.75,12.83,13.04,13.27,13.49,13.68,13.76,13.84,13.92,14.00,14.12,14.20,14.26,14.31,14.38,14.46,14.51,14.57,14.64,14.72,14.80,14.88,14.95,14.98,14.99,14.99,15.05,15.28,15.44,15.59,15.78,16.00,16.16,16.31,16.47,16.64,16.87,17.03,17.18,17.36,17.59,17.75,17.90,18.09,18.31,18.47,18.62,18.77,18.88,18.84,18.84,18.84,18.87,18.97,19.31,19.69,19.98,20.20,20.55,20.90,21.30,21.73,22.15,22.58,22.97,23.39,23.85,24.23,24.65,25.05,25.44,25.83,26.25
e,e,e,e,e,e,e,e,e,e,e,e,e,e,e,e,e,e,e,e,e,e,e,e,e,e,e,e,e,e,e,e,e,e,e,e,e,e,e,e,e,e,e,e,e,e,e,1.42,1.84,1.81,1.87,2.13,2.30,2.82,3.40,4.01,4.64,5.75,6.75,7.89,9.32,11.09,12.29,12.96,13.13,12.86,12.54,12.01,11.38,10.72,9.44,8.50,7.71,6.97,6.15,5.26,4.89,4.88,4.88,4.80,4.78,4.78,4.78,4.78,4.78,4.78,4.75,4.70,4.75,4.78,4.78,4.78,4.78,4.78,4.78,4.77,4.71,4.69,4.64,4.60,4.60,4.52,4.50,4.47,4.40,4.40,4.40,4.40,4.42,4.50,4.57,4.61,4.64,4.70,4.78,4.86,4.92,5.23,6.80,8.78,10.39,11.65,12.77,13.91,15.01,15.93,16.63,17.33,18.10,19.70,23.02,29.70,32.66,34.19,34.89,35.18,34.58,33.34,31.89,30.48,29.18,26.71,24.13,21.77,19.88,19.16,18.83,18.58,18.16,17.38,16.55,15.75,14.96,14.12,13.59,13.24,12.98,12.67,12.36,12.10,11.83,11.54,11.30,11.01,10.67,10.29,9.89,9.81,9.73,9.68,9.67,9.75,9.83,9.91,10.01,10.22,10.46,10.76,11.13,11.58,11.95,12.20,12.35,12.43,12.52,12.73,12.96,13.19,13.41,13.50,13.59,13.66,13.75,13.90,13.99,14.04,14.07,14.14,14.22,14.29,14.36,14.44,14.51,14.59,14.67,14.74,14.75,14.75,14.80,14.91,15.06,15.20,15.35,15.53,15.75,15.90,16.06,16.21,16.38,16.61,16.77,16.93,17.11,17.34,17.49,17.65,17.83,18.06,18.21,18.36,18.52,18.64,18.65,18.65,18.65,18.68,18.78,19.10,19.41,19.69,19.96,20.33,20.73,21.16,21.59,21.98,22.44,22.85,23.26,23.70,24.07,24.44,24.81,25.20,25.60,26.05
e,e,e,e,e,e,e,e,e,e,e,e,e,e,e,e,e,e,e,e,e,e,e,e,e,e,e,e,e,e,e,e,e,e,e,e,e,e,e,e,e,e,e,e,e,e,e,0.96,1.24,1.17,1.18,1.38,1.59,2.16,2.73,3.31,3.93,4.54,5.08,5.70,6.45,7.27,7.86,8.32,8.64,8.81,8.46,8.08,7.72,7.36,6.53,5.92,5.52,5.32,5.18,4.98,4.86,4.82,4.82,4.74,4.72,4.72,4.72,4.72,4.72,4.69,4.65,4.70,4.65,4.68,4.72,4.72,4.72,4.72,4.72,4.72,4.70,4.64,4.61,4.60,4.60,4.52,4.50,4.47,4.40,4.40,4.40,4.40,4.42,4.50,4.57,4.64,4.69,4.70,4.78,4.86,4.99,5.44,7.11,8.93,10.45,11.67,12.64,13.44,14.23,14.98,15.67,16.37,16.98,17.99,19.59,21.97,28.89,32.08,32.89,33.35,33.09,32.23,31.05,29.77,28.81,26.65,24.54,22.65,20.90,19.84,19.37,19.11,18.73,17.90,17.10,16.32,15.48,14.40,13.38,12.83,12.53,12.22,11.91,11.61,11.34,11.09,10.79,10.54,10.25,9.97,9.82,9.74,9.67,9.59,9.55,9.62,9.70,9.78,9.86,9.97,10.25,10.63,11.05,11.45,11.78,11.94,12.03,12.12,12.26,12.48,12.71,12.92,13.09,13.23,13.33,13.41,13.49,13.65,13.74,13.81,13.87,13.95,14.03,14.07,14.10,14.18,14.26,14.33,14.41,14.49,14.55,14.56,14.64,14.78,14.93,15.03,15.16,15.32,15.49,15.65,15.80,15.95,16.12,16.36,16.52,16.67,16.85,17.08,17.24,17.39,17.58,17.80,17.95,18.11,18.26,18.39,18.46,18.46,18.46,18.49,18.59,18.96,19.28,19.58,19.88,20.21,20.64,21.06,21.46,21.85,22.31,22.72,23.11,23.50,23.83,24.10,24.43,24.83,25.28,25.68
e,e,e,e,e,e,e,e,e,e,e,e,e,e,e,e,e,e,e,e,e,e,e,e,e,e,e,e,e,e,e,e,e,e,e,e,e,e,e,e,e,e,e,e,e,e,e,e,e,e,e,e,e,1.44,2.02,2.60,3.22,3.68,4.09,4.51,4.97,5.30,5.53,5.77,6.00,6.21,5.98,5.78,5.65,5.57,5.15,4.83,4.66,4.64,4.71,4.75,4.76,4.76,4.75,4.71,4.68,4.66,4.66,4.66,4.66,4.61,4.57,4.61,4.57,4.58,4.61,4.61,4.65,4.66,4.66,4.66,4.66,4.62,4.60,4.59,4.56,4.51,4.50,4.48,4.44,4.44,4.44,4.44,4.45,4.50,4.57,4.65,4.71,4.75,4.79,4.86,5.12,5.81,7.47,9.15,10.63,11.85,12.78,13.54,14.33,15.13,15.92,16.69,16.93,17.18,17.65,18.49,23.39,25.85,27.85,31.52,31.03,29.63,28.11,27.00,26.84,26.00,25.06,23.89,22.19,21.13,20.41,19.85,19.27,18.45,17.56,16.54,15.38,14.05,12.97,12.41,12.13,11.82,11.47,11.16,10.87,10.60,10.32,10.12,9.95,9.83,9.76,9.68,9.60,9.52,9.46,9.50,9.57,9.65,9.74,9.85,10.14,10.53,10.95,11.36,11.57,11.68,11.76,11.84,11.96,12.18,12.41,12.63,12.82,12.97,13.07,13.15,13.24,13.39,13.48,13.56,13.64,13.72,13.79,13.84,13.89,13.97,14.05,14.12,14.20,14.27,14.32,14.35,14.45,14.61,14.76,14.87,14.99,15.13,15.28,15.43,15.56,15.70,15.87,16.10,16.26,16.42,16.60,16.83,16.98,17.13,17.32,17.54,17.70,17.85,18.01,18.15,18.26,18.27,18.27,18.31,18.44,18.79,19.14,19.46,19.77,20.08,20.53,20.95,21.33,21.72,22.15,22.52,22.87,23.22,23.53,23.77,24.07,24.45,24.91,25.34
e,e,e,e,e,e,e,e,e,e,e,e,e,e,e,e,e,e,e,e,e,e,e,e,e,e,e,e,e,e,e,e,e,e,e,e,e,e,e,e,e,e,e,e,e,e,e,e,e,e,e,e,e,e,1.29,1.91,2.53,3.00,3.43,3.82,4.13,4.21,4.23,4.27,4.34,4.43,4.36,4.35,4.43,4.56,4.48,4.41,4.37,4.39,4.47,4.54,4.62,4.68,4.68,4.69,4.64,4.59,4.59,4.59,4.59,4.54,4.49,4.49,4.49,4.49,4.49,4.50,4.57,4.59,4.59,4.59,4.59,4.59,4.60,4.58,4.51,4.51,4.51,4.51,4.50,4.50,4.51,4.51,4.51,4.51,4.58,4.65,4.73,4.80,4.81,4.86,5.29,6.25,7.86,9.41,10.87,12.16,13.14,14.01,14.92,15.84,16.76,17.60,17.46,17.01,16.70,17.12,17.87,18.69,21.86,28.92,28.14,26.08,24.24,23.42,24.14,24.86,25.23,24.86,23.28,22.40,21.46,20.56,19.74,18.92,17.85,16.51,14.97,13.42,12.47,12.00,11.75,11.44,11.05,10.72,10.41,10.11,9.88,9.72,9.70,9.74,9.68,9.61,9.54,9.46,9.39,9.38,9.44,9.52,9.62,9.76,10.05,10.41,10.82,11.26,11.34,11.42,11.49,11.57,11.65,11.87,12.10,12.33,12.56,12.72,12.82,12.90,12.98,13.14,13.23,13.31,13.38,13.46,13.54,13.62,13.69,13.77,13.85,13.92,14.00,14.07,14.07,14.14,14.26,14.41,14.56,14.72,14.82,14.93,15.09,15.24,15.34,15.46,15.63,15.85,16.01,16.16,16.34,16.57,16.72,16.88,17.07,17.29,17.44,17.60,17.75,17.91,18.07,18.07,18.07,18.13,18.31,18.62,18.98,19.33,19.64,19.95,20.40,20.81,21.19,21.57,21.96,22.28,22.59,22.90,23.20,23.44,23.72,24.07,24.53,24.99
e,e,e,e,e,e,e,e,e,e,e,e,e,e,e,e,e,e,e,e,e,e,e,e,e,e,e,e,e,e,e,e,e,e,e,e,e,e,e,e,e,e,e,e,e,e,e,e,e,e,e,e,e,e,0.65,1.29,1.96,2.42,3.03,3.46,3.56,3.64,3.70,3.73,3.78,3.92,3.85,4.01,4.22,4.30,4.23,4.15,4.14,4.20,4.27,4.35,4.43,4.50,4.56,4.61,4.57,4.53,4.53,4.53,4.48,4.44,4.43,4.43,4.43,4.43,4.43,4.43,4.45,4.50,4.53,4.53,4.53,4.53,4.56,4.59,4.57,4.57,4.57,4.55,4.50,4.50,4.55,4.57,4.57,4.57,4.59,4.65,4.73,4.80,4.86,4.89,5.45,6.68,8.19,9.73,11.28,12.78,14.16,15.18,16.13,17.06,17.96,18.70,18.79,18.48,17.97,17.56,17.14,17.16,18.36,21.18,21.48,20.62,20.09,20.44,21.31,22.22,22.84,22.95,22.32,21.78,21.19,20.57,19.89,18.73,17.36,15.87,14.33,12.78,11.97,11.58,11.38,11.12,10.73,10.36,10.02,9.73,9.50,9.38,9.38,9.45,9.48,9.52,9.47,9.40,9.32,9.27,9.27,9.35,9.48,9.58,9.82,10.15,10.55,10.94,11.02,11.10,11.17,11.26,11.39,11.61,11.84,12.07,12.31,12.46,12.56,12.64,12.72,12.88,12.97,13.05,13.13,13.20,13.33,13.40,13.44,13.51,13.59,13.67,13.74,13.82,13.87,13.95,14.04,14.15,14.31,14.46,14.60,14.74,14.90,15.05,15.19,15.33,15.48,15.60,15.75,15.91,16.08,16.31,16.47,16.62,16.81,17.03,17.19,17.34,17.50,17.66,17.88,17.88,17.88,17.96,18.18,18.49,18.81,19.13,19.45,19.82,20.27,20.66,20.99,21.32,21.70,21.99,22.27,22.57,22.83,23.06,23.33,23.68,24.15,24.61
e,e,e,e,e,e,e,e,e,e,e,e,e,e,e,e,e,e,e,e,e,e,e,e,e,e,e,e,e,e,e,e,e,e,e,e,e,e,e,e,e,e,e,e,e,e,e,e,e,e,e,e,e,e,e,0.77,1.46,2.03,2.65,3.01,3.02,3.07,3.14,3.22,3.31,3.41,3.50,3.77,4.00,4.01,3.94,3.90,3.93,4.01,4.08,4.16,4.24,4.31,4.39,4.47,4.48,4.46,4.46,4.46,4.40,4.36,4.36,4.36,4.34,4.35,4.36,4.36,4.36,4.42,4.46,4.47,4.50,4.53,4.57,4.61,4.64,4.61,4.60,4.58,4.54,4.54,4.58,4.60,4.60,4.60,4.63,4.67,4.73,4.80,4.88,4.99,5.68,7.04,8.48,10.01,11.62,13.24,14.82,16.12,17.20,18.21,19.25,20.31,20.77,20.66,20.01,18.90,17.98,17.43,17.29,17.56,17.77,17.48,17.63,18.46,19.36,20.23,20.82,21.07,20.96,20.65,20.30,19.81,19.11,18.02,16.72,15.27,13.72,12.14,11.49,11.18,11.00,10.76,10.41,10.03,9.66,9.35,9.14,9.05,9.06,9.14,9.22,9.29,9.30,9.28,9.26,9.18,9.14,9.19,9.31,9.42,9.64,9.92,10.22,10.52,10.68,10.78,10.85,10.94,11.10,11.34,11.59,11.81,12.01,12.20,12.31,12.40,12.50,12.63,12.72,12.79,12.87,12.95,13.10,13.17,13.22,13.29,13.37,13.45,13.53,13.60,13.68,13.76,13.83,13.93,14.09,14.24,14.40,14.55,14.70,14.86,15.01,15.17,15.31,15.38,15.53,15.69,15.86,16.06,16.21,16.37,16.54,16.74,16.93,17.09,17.24,17.41,17.65,17.65,17.65,17.75,18.02,18.32,18.66,18.99,19.33,19.69,20.07,20.42,20.75,21.06,21.39,21.67,21.94,22.22,22.48,22.71,22.97,23.30,23.76,24.23
e,e,e,e,e,e,e,e,e,e,e,e,e,e,e,e,e,e,e,e,e,e,e,e,e,e,e,e,e,e,e,e,e,e,e,e,e,e,e,e,e,e,e,e,e,e,e,e,e,e,e,e,e,e,e,e,1.02,1.79,2.28,2.50,2.50,2.50,2.56,2.73,2.90,2.90,3.27,3.60,3.77,3.69,3.62,3.66,3.74,3.81,3.89,3.97,4.05,4.12,4.20,4.28,4.35,4.40,4.40,4.40,4.34,4.30,4.30,4.30,4.23,4.25,4.30,4.30,4.30,4.36,4.40,4.41,4.49,4.57,4.60,4.62,4.70,4.62,4.60,4.60,4.60,4.60,4.60,4.60,4.60,4.60,4.67,4.70,4.73,4.81,4.88,5.14,5.96,7.35,8.74,10.27,11.90,13.58,15.20,16.90,18.17,19.31,20.61,22.31,23.25,23.37,22.62,20.92,20.02,19.07,18.06,17.07,16.29,16.11,16.46,17.24,18.09,18.74,19.08,19.22,19.29,19.14,18.93,18.45,17.62,16.92,15.98,14.69,13.13,11.51,11.04,10.80,10.62,10.38,10.07,9.71,9.32,8.97,8.82,8.73,8.74,8.82,8.90,8.97,9.05,9.13,9.19,9.11,9.04,9.04,9.13,9.29,9.51,9.70,9.85,10.01,10.32,10.46,10.53,10.62,10.78,11.07,11.33,11.54,11.70,11.93,12.05,12.16,12.31,12.38,12.46,12.54,12.62,12.69,12.84,12.95,13.02,13.10,13.18,13.26,13.33,13.41,13.49,13.57,13.64,13.74,13.89,14.05,14.20,14.36,14.51,14.67,14.82,14.98,15.11,15.19,15.34,15.49,15.65,15.80,15.96,16.11,16.27,16.43,16.66,16.83,16.98,17.16,17.39,17.40,17.40,17.52,17.82,18.13,18.50,18.89,19.26,19.57,19.81,20.13,20.50,20.80,21.03,21.32,21.60,21.84,22.15,22.39,22.62,22.91,23.38,23.84
e,e,e,e,e,e,e,e,e,e,e,e,e,e,e,e,e,e,e,e,e,e,e,e,e,e,e,e,e,e,e,e,e,e,e,e,e,e,e,e,e,e,e,e,e,e,e,e,e,e,e,e,e,e,e,e,0.82,1.55,1.88,1.96,1.93,1.98,2.22,2.36,2.46,2.76,3.19,3.41,3.45,3.38,3.40,3.47,3.54,3.62,3.70,3.78,3.85,3.93,4.01,4.04,4.10,4.16,4.21,4.26,4.29,4.27,4.22,4.17,4.15,4.19,4.24,4.24,4.29,4.36,4.40,4.41,4.49,4.57,4.60,4.62,4.70,4.67,4.66,4.66,4.66,4.66,4.66,4.66,4.66,4.66,4.69,4.73,4.79,4.87,4.89,5.44,6.47,7.86,9.25,10.82,12.45,14.09,15.71,17.31,18.83,20.45,22.30,24.24,25.59,26.26,26.19,25.29,24.43,22.81,20.77,18.79,18.02,17.46,17.07,16.87,17.02,17.54,17.90,18.08,18.21,18.05,17.78,17.36,16.74,15.60,14.61,13.58,12.40,10.92,10.55,10.35,10.17,9.94,9.68,9.32,8.94,8.59,8.43,8.39,8.42,8.50,8.58,8.66,8.73,8.81,8.88,8.90,8.93,8.95,9.01,9.16,9.34,9.50,9.66,9.81,9.97,10.07,10.17,10.31,10.51,10.77,11.01,11.23,11.44,11.62,11.77,11.90,12.05,12.13,12.20,12.28,12.37,12.50,12.69,12.79,12.83,12.91,12.99,13.06,13.14,13.22,13.30,13.37,13.42,13.48,13.64,13.79,13.95,14.10,14.26,14.41,14.57,14.72,14.87,15.00,15.15,15.30,15.46,15.61,15.77,15.92,16.05,16.18,16.41,16.57,16.73,16.90,17.13,17.19,17.21,17.34,17.70,18.01,18.38,18.71,19.00,19.31,19.60,19.88,20.18,20.48,20.71,21.00,21.28,21.51,21.77,22.01,22.24,22.53,22.99,23.46
e,e,e,e,e,e,e,e,e,e,e,e,e,e,e,e,e,e,e,e,e,e,e,e,e,e,e,e,e,e,e,e,e,e,e,e,e,e,e,e,e,e,e,e,e,e,e,e,e,e,e,e,e,e,e,e,0.60,1.25,1.44,1.41,1.37,1.56,1.84,2.02,2.19,2.65,3.05,3.17,3.15,3.12,3.20,3.28,3.35,3.43,3.48,3.56,3.63,3.71,3.79,3.81,3.87,3.95,4.03,4.10,4.18,4.20,4.16,4.10,4.10,4.15,4.20,4.21,4.28,4.36,4.41,4.44,4.49,4.57,4.61,4.64,4.70,4.72,4.73,4.73,4.73,4.73,4.73,4.73,4.73,4.73,4.73,4.76,4.83,4.90,4.97,5.80,7.01,8.41,9.84,11.44,13.08,14.72,16.34,17.90,19.64,21.63,23.87,26.07,27.76,28.83,29.26,29.04,28.35,26.74,24.56,22.27,20.56,19.07,17.91,17.13,16.71,16.88,17.00,17.04,17.15,16.93,16.60,16.21,15.73,14.54,13.44,12.42,11.43,10.32,10.05,9.88,9.70,9.49,9.24,8.93,8.58,8.23,8.05,8.05,8.10,8.18,8.26,8.34,8.41,8.49,8.57,8.64,8.72,8.78,8.85,9.00,9.16,9.31,9.47,9.62,9.72,9.80,9.90,10.05,10.26,10.49,10.72,10.94,11.15,11.33,11.49,11.65,11.80,11.90,11.99,12.09,12.20,12.36,12.54,12.62,12.64,12.72,12.80,12.87,12.95,13.03,13.10,13.18,13.22,13.26,13.41,13.57,13.72,13.87,14.03,14.18,14.34,14.49,14.65,14.80,14.96,15.11,15.27,15.42,15.57,15.73,15.85,15.95,16.16,16.32,16.47,16.65,16.88,16.98,17.03,17.18,17.54,17.87,18.21,18.51,18.78,19.09,19.37,19.63,19.88,20.16,20.40,20.67,20.93,21.16,21.39,21.63,21.86,22.15,22.61,23.07
e,e,e,e,e,e,e,e,e,e,e,e,e,e,e,e,e,e,e,e,e,e,e,e,e,e,e,e,e,e,e,e,e,e,e,e,e,e,e,e,e,e,e,e,e,e,e,e,e,e,e,e,e,e,e,e,0.34,0.90,0.95,0.84,0.83,1.26,1.42,1.69,2.13,2.59,2.85,2.88,2.86,2.93,3.01,3.08,3.16,3.22,3.23,3.30,3.38,3.46,3.53,3.60,3.68,3.76,3.83,3.91,3.99,4.06,4.11,4.10,4.10,4.15,4.20,4.21,4.28,4.36,4.43,4.49,4.50,4.57,4.64,4.69,4.70,4.77,4.79,4.79,4.79,4.79,4.79,4.79,4.79,4.79,4.79,4.80,4.83,4.91,5.13,6.21,7.59,9.00,10.53,12.15,13.81,15.48,17.10,18.72,20.65,22.86,25.31,27.75,29.68,30.98,31.69,32.01,31.63,30.89,29.72,27.97,24.14,21.01,19.06,18.21,17.34,16.89,16.45,16.11,16.13,15.76,15.38,14.99,14.57,13.82,12.52,11.21,10.17,9.70,9.52,9.37,9.21,9.04,8.74,8.53,8.26,7.90,7.68,7.71,7.78,7.86,7.94,8.02,8.09,8.17,8.25,8.32,8.40,8.51,8.66,8.81,8.97,9.12,9.28,9.43,9.58,9.67,9.75,9.85,10.01,10.23,10.46,10.68,10.84,11.06,11.24,11.39,11.55,11.69,11.84,11.99,12.14,12.30,12.39,12.42,12.45,12.53,12.60,12.68,12.76,12.84,12.91,12.99,13.02,13.06,13.22,13.37,13.53,13.68,13.84,13.99,14.15,14.30,14.46,14.61,14.76,14.92,15.07,15.23,15.38,15.54,15.66,15.75,15.91,16.06,16.22,16.39,16.62,16.77,16.87,17.03,17.35,17.73,18.01,18.28,18.58,18.89,19.14,19.37,19.61,19.84,20.08,20.31,20.55,20.78,21.01,21.24,21.47,21.76,22.23,22.69
e,e,e,e,e,e,e,e,e,e,e,e,e,e,e,e,e,e,e,e,e,e,e,e,e,e,e,e,e,e,e,e,e,e,e,e,e,e,e,e,e,e,e,e,e,e,e,e,e,e,e,e,e,e,e,e,e,e,e,e,0.48,0.90,1.21,1.60,2.06,2.53,2.60,2.63,2.64,2.68,2.76,2.84,2.91,2.98,3.03,3.10,3.18,3.26,3.33,3.41,3.49,3.56,3.64,3.72,3.80,3.87,3.94,3.99,4.03,4.09,4.16,4.21,4.28,4.36,4.44,4.50,4.50,4.57,4.65,4.71,4.76,4.79,4.83,4.84,4.81,4.85,4.86,4.86,4.86,4.86,4.86,4.86,4.88,5.00,5.71,6.94,8.33,9.75,11.34,12.96,14.60,16.25,17.87,19.58,21.71,24.06,26.50,28.97,31.07,32.66,33.72,34.32,34.16,33.59,32.65,31.32,28.39,25.21,22.24,19.84,18.48,17.90,17.32,16.79,16.62,15.80,14.95,14.11,13.32,12.80,11.68,10.53,9.61,9.18,9.01,8.83,8.64,8.49,8.26,8.12,7.89,7.53,7.29,7.33,7.41,7.49,7.56,7.64,7.75,7.85,7.93,8.01,8.15,8.31,8.47,8.62,8.77,8.93,9.08,9.24,9.39,9.52,9.64,9.77,9.97,10.16,10.35,10.53,10.68,10.91,11.09,11.25,11.40,11.56,11.71,11.84,11.96,12.07,12.15,12.20,12.26,12.33,12.41,12.49,12.57,12.64,12.72,12.76,12.80,12.87,13.03,13.18,13.31,13.44,13.59,13.74,13.90,14.05,14.21,14.36,14.52,14.67,14.83,14.98,15.13,15.29,15.43,15.55,15.71,15.86,16.02,16.18,16.37,16.52,16.66,16.85,17.16,17.50,17.79,18.06,18.34,18.65,18.92,19.15,19.35,19.58,19.77,19.99,20.22,20.45,20.68,20.91,21.15,21.43,21.85,22.31
e,e,e,e,e,e,e,e,e,e,e,e,e,e,e,e,e,e,e,e,e,e,e,e,e,e,e,e,e,e,e,e,e,e,e,e,e,e,e,e,e,e,e,e,e,e,e,e,e,e,e,e,e,e,e,e,e,e,e,e,0.22,0.62,1.08,1.55,2.00,2.40,2.35,2.37,2.43,2.45,2.52,2.60,2.68,2.76,2.83,2.91,2.99,3.06,3.14,3.22,3.30,3.37,3.45,3.53,3.60,3.69,3.78,3.86,3.95,4.03,4.11,4.21,4.28,4.36,4.44,4.50,4.50,4.57,4.65,4.72,4.80,4.80,4.86,4.87,4.84,4.96,5.01,5.00,4.98,4.96,4.97,5.03,5.13,5.33,6.44,7.73,9.12,10.59,12.21,13.83,15.45,17.08,18.72,20.48,22.72,25.14,27.55,30.05,32.29,34.16,35.58,36.43,36.58,36.18,35.35,34.18,32.11,29.20,25.70,22.15,20.15,19.19,18.40,17.70,17.22,16.05,14.85,13.65,12.54,12.00,10.98,9.99,9.21,8.70,8.49,8.28,8.08,7.91,7.79,7.70,7.49,7.14,6.93,6.97,7.04,7.12,7.20,7.28,7.41,7.54,7.63,7.74,7.93,8.12,8.27,8.43,8.58,8.74,8.89,9.05,9.20,9.37,9.54,9.71,9.93,10.11,10.27,10.42,10.58,10.78,10.95,11.10,11.26,11.43,11.57,11.68,11.76,11.83,11.91,11.99,12.07,12.14,12.22,12.30,12.37,12.45,12.51,12.53,12.58,12.68,12.82,12.97,13.08,13.20,13.35,13.51,13.66,13.82,13.97,14.13,14.28,14.44,14.59,14.74,14.90,15.05,15.21,15.36,15.52,15.67,15.83,15.98,16.13,16.29,16.44,16.66,16.96,17.26,17.56,17.84,18.10,18.39,18.70,18.92,19.11,19.32,19.49,19.70,19.91,20.13,20.35,20.58,20.81,21.08,21.46,21.92
e,e,e,e,e,e,e,e,e,e,e,e,e,e,e,e,e,e,e,e,e,e,e,e,e,e,e,e,e,e,e,e,e,e,e,e,e,e,e,e,e,e,e,e,e,e,e,e,e,e,e,e,e,e,e,e,e,e,e,e,0.09,0.55,1.06,1.55,1.95,2.16,2.09,2.12,2.19,2.25,2.33,2.41,2.49,2.56,2.64,2.72,2.80,2.87,2.95,3.03,3.10,3.18,3.26,3.34,3.41,3.53,3.65,3.73,3.87,3.97,4.07,4.21,4.28,4.36,4.44,4.50,4.50,4.57,4.65,4.72,4.80,4.80,4.86,4.89,4.92,5.19,5.34,5.33,5.22,5.16,5.21,5.45,5.77,6.16,7.38,8.58,9.96,11.55,13.17,14.79,16.41,18.05,19.74,21.45,23.61,25.97,28.39,30.99,33.29,35.39,37.17,38.26,38.99,38.99,38.23,36.73,34.46,32.03,29.13,25.82,22.82,20.80,19.52,18.63,17.61,16.39,15.20,14.01,12.81,11.77,10.54,9.58,8.92,8.26,7.95,7.74,7.55,7.34,7.32,7.25,7.07,6.77,6.60,6.65,6.73,6.80,6.88,6.96,7.09,7.24,7.39,7.59,7.77,7.93,8.08,8.24,8.39,8.55,8.70,8.85,9.01,9.21,9.43,9.64,9.81,10.02,10.20,10.36,10.51,10.62,10.75,10.91,11.07,11.29,11.40,11.49,11.56,11.64,11.72,11.80,11.87,11.95,12.03,12.11,12.18,12.25,12.26,12.32,12.39,12.47,12.56,12.71,12.86,13.01,13.16,13.32,13.47,13.63,13.78,13.93,14.09,14.24,14.40,14.55,14.71,14.86,15.02,15.17,15.32,15.48,15.63,15.79,15.94,16.10,16.25,16.46,16.77,17.01,17.31,17.61,17.90,18.14,18.44,18.70,18.90,19.07,19.29,19.47,19.64,19.80,19.97,20.19,20.42,20.69,21.08,21.54
e,e,e,e,e,e,e,e,e,e,e,e,e,e,e,e,e,e,e,e,e,e,e,e,e,e,e,e,e,e,e,e,e,e,e,e,e,e,e,e,e,e,e,e,e,e,e,e,e,e,e,e,e,e,e,e,e,e,e,e,0.06,0.53,1.02,1.49,1.82,1.86,1.86,1.91,1.99,2.06,2.14,2.22,2.29,2.37,2.45,2.53,2.60,2.68,2.76,2.83,2.91,3.01,3.12,3.23,3.32,3.44,3.57,3.65,3.80,3.90,4.01,4.16,4.23,4.34,4.44,4.50,4.50,4.57,4.65,4.72,4.80,4.84,4.88,4.96,5.14,5.52,5.78,5.82,5.72,5.68,5.82,6.15,6.56,6.98,8.00,9.21,10.77,12.60,14.22,15.85,17.47,19.10,20.76,22.43,24.47,26.74,29.14,31.84,34.34,36.69,38.69,39.92,40.51,40.61,40.04,38.66,36.23,33.80,31.11,28.12,25.06,22.56,20.73,19.38,18.19,16.88,15.60,14.31,13.00,11.74,10.43,9.46,8.79,8.05,7.51,7.20,7.00,6.82,6.78,6.71,6.60,6.44,6.28,6.33,6.41,6.48,6.56,6.67,6.84,7.02,7.18,7.41,7.58,7.74,7.89,8.04,8.20,8.35,8.52,8.71,8.87,9.08,9.29,9.49,9.68,9.90,10.09,10.25,10.40,10.48,10.61,10.76,10.92,11.08,11.17,11.25,11.33,11.45,11.53,11.60,11.68,11.76,11.84,11.91,11.99,12.06,12.06,12.12,12.20,12.28,12.35,12.51,12.66,12.82,12.97,13.12,13.28,13.43,13.59,13.74,13.86,14.00,14.16,14.31,14.47,14.62,14.78,14.93,15.09,15.24,15.39,15.56,15.75,15.91,16.08,16.29,16.53,16.80,17.07,17.36,17.66,17.93,18.20,18.45,18.66,18.81,19.04,19.22,19.39,19.58,19.73,19.92,20.12,20.35,20.70,21.16
e,e,e,e,e,e,e,e,e,e,e,e,e,e,e,e,e,e,e,e,e,e,e,e,e,e,e,e,e,e,e,e,e,e,e,e,e,e,e,e,e,e,e,e,e,e,e,e,e,e,e,e,e,e,e,e,e,e,e,e,e,e,0.98,1.38,1.63,1.57,1.64,1.72,1.79,1.87,1.95,2.03,2.10,2.18,2.26,2.33,2.42,2.50,2.58,2.66,2.74,2.85,3.01,3.15,3.25,3.37,3.50,3.58,3.73,3.83,3.94,4.08,4.17,4.30,4.42,4.49,4.50,4.57,4.65,4.72,4.80,4.88,4.90,5.04,5.38,5.85,6.21,6.34,6.32,6.31,6.55,6.94,7.38,7.80,8.52,9.80,11.59,13.68,15.31,16.93,18.55,20.18,21.80,23.42,25.36,27.53,29.91,32.70,35.43,37.94,40.03,41.26,41.54,41.62,41.23,40.05,37.52,34.97,32.36,29.64,26.84,24.17,21.88,20.04,18.70,17.23,15.83,14.46,13.09,11.71,10.40,9.41,8.69,7.92,7.14,6.68,6.45,6.29,6.20,6.13,6.11,6.11,5.96,6.01,6.09,6.18,6.26,6.42,6.62,6.83,6.99,7.22,7.40,7.55,7.70,7.85,8.01,8.17,8.35,8.57,8.73,8.94,9.14,9.31,9.53,9.76,9.95,10.11,10.26,10.35,10.48,10.62,10.77,10.85,10.93,11.00,11.10,11.24,11.32,11.41,11.49,11.57,11.64,11.72,11.79,11.86,11.86,11.93,12.01,12.09,12.16,12.31,12.46,12.61,12.77,12.92,13.08,13.23,13.38,13.54,13.63,13.76,13.91,14.07,14.22,14.38,14.53,14.69,14.84,15.00,15.16,15.33,15.56,15.71,15.92,16.12,16.29,16.59,16.84,17.11,17.41,17.72,17.96,18.19,18.40,18.56,18.79,18.97,19.15,19.37,19.53,19.68,19.84,20.03,20.33,20.77
e,e,e,e,e,e,e,e,e,e,e,e,e,e,e,e,e,e,e,e,e,e,e,e,e,e,e,e,e,e,e,e,e,e,e,e,e,e,e,e,e,e,e,e,e,e,e,e,e,e,e,e,e,e,e,e,e,e,e,e,e,e,0.92,1.21,1.33,1.37,1.45,1.52,1.60,1.68,1.76,1.83,1.91,1.99,2.07,2.14,2.25,2.37,2.45,2.59,2.68,2.79,2.94,3.03,3.16,3.28,3.38,3.52,3.62,3.74,3.86,3.96,4.09,4.20,4.31,4.44,4.49,4.57,4.65,4.72,4.80,4.88,4.90,5.08,5.52,6.04,6.48,6.79,6.94,6.88,7.27,7.71,8.17,8.61,9.09,10.54,12.54,14.71,16.39,18.02,19.64,21.26,22.89,24.51,26.37,28.51,30.94,33.78,36.56,38.94,40.69,41.48,41.69,41.71,41.26,39.99,37.56,35.04,32.44,29.82,27.32,24.94,22.69,20.58,18.64,16.72,15.30,14.06,12.78,11.44,10.22,9.26,8.50,7.73,6.90,6.30,5.92,5.71,5.58,5.53,5.60,5.73,5.63,5.69,5.80,5.94,6.07,6.23,6.43,6.63,6.80,7.03,7.24,7.40,7.51,7.66,7.82,8.01,8.21,8.38,8.59,8.78,8.97,9.18,9.35,9.57,9.76,9.92,10.07,10.21,10.31,10.43,10.58,10.66,10.73,10.81,10.89,10.99,11.07,11.18,11.30,11.38,11.45,11.49,11.56,11.67,11.67,11.74,11.82,11.89,11.97,12.07,12.20,12.36,12.51,12.67,12.82,12.97,13.13,13.28,13.42,13.57,13.72,13.88,14.03,14.19,14.34,14.50,14.65,14.85,15.03,15.19,15.37,15.52,15.73,15.93,16.09,16.34,16.63,16.90,17.16,17.47,17.71,17.94,18.15,18.30,18.53,18.71,18.90,19.12,19.27,19.43,19.58,19.76,20.01,20.35
e,e,e,e,e,e,e,e,e,e,e,e,e,e,e,e,e,e,e,e,e,e,e,e,e,e,e,e,e,e,e,e,e,e,e,e,e,e,e,e,e,e,e,e,e,e,e,e,e,e,e,e,e,e,e,e,e,e,e,e,e,e,0.80,1.02,1.10,1.18,1.26,1.33,1.41,1.49,1.56,1.64,1.73,1.84,1.91,2.02,2.14,2.25,2.36,2.49,2.60,2.71,2.83,2.94,3.06,3.18,3.29,3.41,3.52,3.66,3.79,3.87,4.03,4.12,4.23,4.37,4.45,4.56,4.65,4.72,4.80,4.88,4.90,5.09,5.57,6.11,6.63,7.09,7.42,7.53,7.94,8.38,8.80,9.21,9.81,11.40,13.49,15.71,17.47,19.11,20.73,22.35,23.97,25.56,27.35,29.51,32.13,35.05,37.83,39.94,41.21,41.61,41.70,41.67,41.10,39.57,37.18,34.71,32.20,29.71,27.44,25.25,23.05,20.86,18.69,16.64,15.02,13.54,12.03,10.81,9.82,8.96,8.20,7.45,6.64,5.96,5.48,5.26,5.16,5.14,5.21,5.32,5.30,5.40,5.53,5.69,5.88,6.06,6.26,6.45,6.64,6.84,7.07,7.22,7.32,7.47,7.65,7.85,8.04,8.23,8.43,8.62,8.81,9.01,9.20,9.39,9.57,9.72,9.88,10.03,10.13,10.24,10.39,10.47,10.54,10.60,10.66,10.77,10.85,10.96,11.08,11.18,11.23,11.26,11.34,11.45,11.48,11.55,11.62,11.69,11.74,11.85,11.99,12.14,12.29,12.45,12.60,12.76,12.91,13.07,13.22,13.38,13.53,13.69,13.84,13.99,14.15,14.31,14.49,14.69,14.88,15.06,15.22,15.37,15.56,15.75,15.94,16.14,16.40,16.67,16.94,17.21,17.48,17.70,17.89,18.05,18.28,18.45,18.64,18.86,19.02,19.17,19.34,19.54,19.77,20.05
e,e,e,e,e,e,e,e,e,e,e,e,e,e,e,e,e,e,e,e,e,e,e,e,e,e,e,e,e,e,e,e,e,e,e,e,e,e,e,e,e,e,e,e,e,e,e,e,e,e,e,e,e,e,e,e,e,e,e,e,e,e,0.65,0.83,0.91,0.99,1.06,1.14,1.22,1.30,1.38,1.46,1.57,1.71,1.79,1.94,2.04,2.14,2.30,2.37,2.51,2.63,2.72,2.87,2.96,3.08,3.22,3.29,3.44,3.60,3.72,3.81,3.96,4.05,4.17,4.31,4.39,4.53,4.64,4.72,4.80,4.88,4.90,5.09,5.57,6.11,6.71,7.29,7.80,8.19,8.58,8.97,9.33,9.68,10.65,12.35,14.46,16.69,18.54,20.19,21.81,23.43,25.06,26.60,28.31,30.54,33.41,36.42,39.16,40.90,41.61,41.69,41.62,41.52,40.81,38.93,36.55,34.16,31.77,29.43,27.34,25.26,23.13,20.97,18.81,16.80,14.89,12.98,11.07,9.98,9.27,8.57,7.82,7.12,6.36,5.64,5.11,4.90,4.90,4.90,4.90,4.91,4.99,5.13,5.28,5.46,5.69,5.92,6.10,6.28,6.51,6.66,6.88,7.03,7.13,7.28,7.50,7.69,7.87,8.10,8.25,8.47,8.66,8.83,9.06,9.22,9.38,9.53,9.69,9.84,9.94,10.05,10.19,10.27,10.35,10.39,10.42,10.57,10.66,10.74,10.84,10.99,10.99,11.05,11.12,11.20,11.28,11.36,11.43,11.49,11.49,11.64,11.79,11.95,12.10,12.25,12.41,12.56,12.72,12.87,13.03,13.18,13.34,13.49,13.65,13.80,13.96,14.13,14.36,14.52,14.72,14.93,15.08,15.24,15.39,15.58,15.80,15.96,16.17,16.44,16.73,16.97,17.27,17.48,17.64,17.79,18.02,18.20,18.39,18.61,18.76,18.92,19.12,19.35,19.58,19.81
e,e,e,e,e,e,e,e,e,e,e,e,e,e,e,e,e,e,e,e,e,e,e,e,e,e,e,e,e,e,e,e,e,e,e,e,e,e,e,e,e,e,e,e,e,e,e,e,e,e,e,e,e,e,e,e,e,e,e,e,e,e,0.53,0.64,0.72,0.79,0.87,0.95,1.05,1.17,1.25,1.37,1.48,1.59,1.72,1.87,1.98,2.08,2.23,2.31,2.44,2.57,2.65,2.81,2.90,3.02,3.15,3.23,3.38,3.50,3.61,3.74,3.84,3.97,4.08,4.19,4.32,4.42,4.54,4.66,4.73,4.86,4.90,5.09,5.57,6.11,6.71,7.32,7.90,8.44,8.83,9.22,9.62,10.11,11.76,13.67,15.69,17.72,19.62,21.28,22.87,24.46,26.08,27.68,29.44,31.67,34.50,37.51,39.80,41.10,41.53,41.50,41.43,41.05,40.06,38.24,36.11,33.78,31.41,29.12,27.08,25.00,22.90,20.79,18.68,16.67,14.70,12.72,10.80,9.56,8.78,8.09,7.37,6.68,5.91,5.32,4.97,4.90,4.90,4.90,4.90,4.90,4.93,4.98,5.12,5.32,5.50,5.73,5.90,6.09,6.32,6.53,6.71,6.86,7.00,7.15,7.33,7.53,7.74,7.97,8.13,8.34,8.53,8.69,8.87,9.03,9.19,9.34,9.49,9.65,9.75,9.84,9.94,10.01,10.09,10.16,10.22,10.32,10.40,10.51,10.63,10.73,10.78,10.85,10.93,11.01,11.09,11.16,11.21,11.24,11.30,11.45,11.57,11.69,11.84,12.00,12.15,12.31,12.46,12.62,12.77,12.93,13.08,13.24,13.44,13.61,13.79,14.00,14.23,14.40,14.56,14.74,14.89,15.05,15.24,15.43,15.61,15.82,16.01,16.22,16.49,16.77,17.03,17.22,17.39,17.60,17.78,17.98,18.17,18.35,18.51,18.70,18.95,19.22,19.46,19.69
e,e,e,e,e,e,e,e,e,e,e,e,e,e,e,e,e,e,e,e,e,e,e,e,e,e,e,e,e,e,e,e,e,e,e,e,e,e,e,e,e,e,e,e,e,e,e,e,e,e,e,e,e,e,e,e,e,e,e,e,e,e,0.37,0.46,0.56,0.63,0.73,0.82,0.93,1.07,1.15,1.29,1.41,1.50,1.65,1.79,1.90,2.01,2.14,2.24,2.36,2.48,2.59,2.72,2.82,2.94,3.06,3.16,3.29,3.40,3.52,3.64,3.75,3.89,4.01,4.10,4.25,4.34,4.46,4.59,4.67,4.82,4.89,5.10,5.60,6.17,6.77,7.39,8.01,8.63,9.10,9.52,10.07,10.91,12.75,14.72,16.70,18.65,20.58,22.28,23.89,25.47,27.07,28.72,30.61,32.86,35.52,38.53,40.35,41.22,41.39,41.31,41.21,40.58,39.35,37.51,35.51,33.31,31.06,28.83,26.79,24.72,22.63,20.55,18.49,16.48,14.47,12.46,10.54,9.27,8.41,7.64,6.90,6.23,5.51,5.07,4.90,4.90,4.90,4.90,4.90,4.90,4.90,4.90,4.99,5.15,5.30,5.53,5.73,5.93,6.16,6.37,6.53,6.69,6.84,7.02,7.18,7.38,7.61,7.81,7.99,8.19,8.38,8.53,8.68,8.84,9.01,9.18,9.33,9.46,9.56,9.65,9.74,9.80,9.87,9.94,10.02,10.10,10.18,10.29,10.41,10.51,10.59,10.66,10.74,10.82,10.89,10.95,10.99,11.03,11.10,11.23,11.34,11.46,11.62,11.77,11.93,12.08,12.24,12.39,12.55,12.70,12.86,13.04,13.25,13.44,13.64,13.87,14.07,14.24,14.39,14.55,14.70,14.85,15.06,15.27,15.45,15.66,15.85,16.04,16.26,16.55,16.78,16.97,17.15,17.41,17.59,17.82,18.05,18.23,18.43,18.66,18.92,19.19,19.42,19.65
e,e,e,e,e,e,e,e,e,e,e,e,e,e,e,e,e,e,e,e,e,e,e,e,e,e,e,e,e,e,e,e,e,e,e,e,e,e,e,e,e,e,e,e,e,e,e,e,e,e,e,e,e,e,e,e,e,e,e,e,e,e,0.18,0.30,0.43,0.51,0.65,0.76,0.86,1.01,1.09,1.23,1.34,1.43,1.59,1.68,1.80,1.93,2.01,2.16,2.26,2.37,2.52,2.60,2.74,2.85,2.95,3.10,3.18,3.31,3.43,3.52,3.67,3.82,3.94,4.03,4.19,4.27,4.40,4.53,4.61,4.76,4.86,5.12,5.67,6.29,6.90,7.52,8.14,8.76,9.36,9.88,10.68,12.10,13.60,15.48,17.49,19.48,21.41,23.20,24.88,26.48,28.03,29.72,31.84,34.13,36.48,39.49,40.83,41.26,41.20,41.12,40.97,40.14,38.68,36.75,34.74,32.77,30.72,28.56,26.48,24.40,22.31,20.25,18.23,16.22,14.22,12.21,10.29,9.13,8.16,7.25,6.40,5.78,5.15,4.91,4.90,4.90,4.90,4.90,4.90,4.90,4.90,4.90,4.91,4.96,5.11,5.34,5.57,5.80,6.03,6.18,6.34,6.49,6.66,6.89,7.05,7.26,7.46,7.62,7.85,8.03,8.18,8.34,8.49,8.65,8.84,9.05,9.21,9.29,9.37,9.47,9.61,9.61,9.68,9.75,9.83,9.91,9.98,10.06,10.17,10.32,10.39,10.47,10.55,10.63,10.70,10.72,10.76,10.83,10.91,10.99,11.12,11.27,11.43,11.58,11.74,11.89,12.05,12.20,12.35,12.51,12.69,12.91,13.07,13.28,13.51,13.73,13.89,14.05,14.20,14.35,14.51,14.66,14.87,15.10,15.32,15.48,15.69,15.89,16.06,16.30,16.53,16.71,16.91,17.22,17.45,17.73,18.00,18.24,18.54,18.79,19.02,19.25,19.49,19.72
e,e,e,e,e,e,e,e,e,e,e,e,e,e,e,e,e,e,e,e,e,e,e,e,e,e,e,e,e,e,e,e,e,e,e,e,e,e,e,e,e,e,e,e,e,e,e,e,e,e,e,e,e,e,e,e,e,e,e,e,e,e,0.17,0.28,0.42,0.50,0.60,0.72,0.84,0.95,1.07,1.18,1.30,1.42,1.53,1.65,1.79,1.92,2.00,2.16,2.26,2.37,2.51,2.59,2.73,2.84,2.94,3.09,3.17,3.30,3.43,3.51,3.67,3.78,3.90,4.02,4.13,4.25,4.39,4.52,4.60,4.76,4.86,5.13,5.68,6.35,6.97,7.61,8.27,8.88,9.55,10.47,11.69,13.20,14.71,16.36,18.18,20.14,22.12,24.00,25.78,27.46,29.05,31.02,33.24,35.52,37.76,39.95,40.87,41.12,40.99,40.87,40.20,39.19,37.87,36.29,34.61,32.66,30.57,28.39,26.13,24.02,21.96,19.93,17.92,15.82,13.75,11.73,9.87,8.80,7.85,6.95,6.09,5.34,5.01,4.90,4.90,4.90,4.90,4.90,4.90,4.90,4.90,4.90,4.90,4.92,4.98,5.21,5.44,5.67,5.90,6.05,6.21,6.36,6.52,6.71,6.91,7.13,7.33,7.49,7.68,7.84,7.99,8.15,8.35,8.51,8.69,8.86,9.02,9.10,9.21,9.32,9.42,9.42,9.48,9.56,9.64,9.72,9.79,9.87,9.97,10.12,10.20,10.28,10.36,10.43,10.51,10.52,10.57,10.64,10.72,10.80,10.93,11.08,11.24,11.39,11.54,11.70,11.85,12.01,12.16,12.35,12.56,12.79,12.94,13.15,13.36,13.55,13.75,13.91,14.04,14.16,14.32,14.52,14.71,14.91,15.13,15.29,15.50,15.70,15.87,16.10,16.46,16.75,17.02,17.32,17.55,17.84,18.12,18.36,18.67,18.91,19.14,19.38,19.61,19.84
e,e,e,e,e,e,e,e,e,e,e,e,e,e,e,e,e,e,e,e,e,e,e,e,e,e,e,e,e,e,e,e,e,e,e,e,e,e,e,e,e,e,e,e,e,e,e,e,e,e,e,e,e,e,e,e,e,e,e,e,e,e,0.17,0.28,0.42,0.50,0.59,0.71,0.84,0.93,1.07,1.17,1.29,1.42,1.51,1.65,1.79,1.92,2.00,2.16,2.26,2.37,2.51,2.59,2.73,2.84,2.94,3.09,3.17,3.30,3.43,3.51,3.67,3.76,3.87,4.01,4.09,4.24,4.38,4.51,4.60,4.74,4.84,5.14,5.74,6.47,7.12,7.79,8.46,9.08,9.84,11.05,12.52,14.03,15.54,17.05,18.73,20.66,22.74,24.72,26.60,28.37,30.05,32.10,34.25,36.43,38.52,40.16,40.82,40.96,40.78,40.44,39.32,38.17,36.98,35.70,34.28,32.46,30.42,28.24,25.85,23.66,21.55,19.48,17.44,15.27,13.17,11.19,9.45,8.47,7.51,6.60,5.75,5.03,4.92,4.90,4.90,4.90,4.90,4.90,4.90,4.90,4.90,4.90,4.90,4.90,4.90,5.08,5.29,5.52,5.75,5.90,6.07,6.23,6.39,6.54,6.75,6.98,7.18,7.34,7.49,7.66,7.82,7.99,8.20,8.36,8.52,8.67,8.83,8.91,9.04,9.16,9.23,9.23,9.29,9.38,9.47,9.55,9.62,9.70,9.80,9.93,10.01,10.09,10.16,10.24,10.30,10.32,10.37,10.45,10.53,10.61,10.72,10.87,11.02,11.18,11.33,11.49,11.67,11.84,11.99,12.20,12.42,12.64,12.81,13.02,13.22,13.38,13.60,13.76,13.88,13.99,14.13,14.35,14.53,14.72,14.94,15.10,15.30,15.49,15.68,15.93,16.37,16.76,17.10,17.43,17.68,17.96,18.23,18.49,18.78,19.03,19.27,19.50,19.74,20.04
e,e,e,e,e,e,e,e,e,e,e,e,e,e,e,e,e,e,e,e,e,e,e,e,e,e,e,e,e,e,e,e,e,e,e,e,e,e,e,e,e,e,e,e,e,e,e,e,e,e,e,e,e,e,e,e,e,e,e,e,e,e,0.17,0.28,0.42,0.50,0.64,0.75,0.85,0.99,1.08,1.21,1.33,1.43,1.57,1.67,1.79,1.92,2.00,2.16,2.26,2.37,2.51,2.59,2.73,2.84,2.94,3.09,3.17,3.30,3.43,3.51,3.67,3.76,3.87,4.01,4.09,4.24,4.35,4.46,4.60,4.69,4.82,5.18,5.88,6.71,7.42,8.11,8.78,9.40,10.35,11.60,13.00,14.41,15.82,17.38,19.07,20.95,23.23,25.32,27.30,29.18,31.01,32.77,34.59,36.46,38.34,40.02,40.65,40.79,40.53,39.71,38.32,37.12,36.00,34.81,33.55,32.01,30.21,28.12,25.72,23.36,21.05,18.81,16.67,14.51,12.40,10.54,9.08,8.14,7.15,6.17,5.32,4.94,4.90,4.90,4.90,4.90,4.90,4.90,4.90,4.90,4.90,4.90,4.90,4.90,4.90,4.93,5.10,5.33,5.55,5.71,5.92,6.11,6.26,6.41,6.58,6.78,6.99,7.14,7.30,7.50,7.70,7.85,8.02,8.17,8.33,8.48,8.64,8.71,8.84,8.97,9.04,9.04,9.10,9.21,9.34,9.42,9.50,9.57,9.65,9.74,9.82,9.90,9.97,10.04,10.05,10.11,10.18,10.26,10.34,10.41,10.50,10.61,10.77,10.92,11.07,11.26,11.48,11.71,11.87,12.07,12.28,12.44,12.67,12.90,13.09,13.25,13.41,13.57,13.72,13.85,13.94,14.16,14.34,14.53,14.75,14.91,15.07,15.26,15.50,15.80,16.24,16.70,17.12,17.49,17.79,18.05,18.32,18.61,18.85,19.14,19.40,19.63,19.86,20.35
e,e,e,e,e,e,e,e,e,e,e,e,e,e,e,e,e,e,e,e,e,e,e,e,e,e,e,e,e,e,e,e,e,e,e,e,e,e,e,e,e,e,e,e,e,e,e,e,e,e,e,e,e,e,e,e,e,e,e,e,e,e,0.20,0.31,0.43,0.55,0.66,0.78,0.89,1.01,1.13,1.24,1.34,1.43,1.58,1.67,1.79,1.92,2.00,2.16,2.26,2.37,2.51,2.59,2.73,2.84,2.94,3.09,3.17,3.30,3.43,3.51,3.67,3.76,3.87,4.01,4.09,4.24,4.35,4.45,4.60,4.68,4.81,5.17,5.86,6.75,7.57,8.35,9.06,9.72,10.89,12.19,13.55,14.94,16.29,17.67,19.13,20.84,23.36,25.60,27.76,29.74,31.35,33.01,34.67,36.35,38.02,39.52,40.17,40.19,39.63,38.55,37.18,35.96,34.85,33.77,32.61,31.31,29.60,27.42,24.99,22.59,20.26,18.03,15.90,13.74,11.63,9.91,8.74,7.77,6.68,5.72,5.06,4.91,4.90,4.90,4.90,4.90,4.90,4.90,4.90,4.90,4.90,4.90,4.90,4.90,4.90,4.90,4.98,5.14,5.36,5.52,5.73,5.93,6.09,6.28,6.44,6.62,6.81,7.00,7.16,7.34,7.52,7.68,7.87,8.03,8.16,8.29,8.44,8.56,8.68,8.78,8.85,8.89,8.96,9.06,9.16,9.24,9.32,9.40,9.47,9.55,9.67,9.76,9.81,9.85,9.85,9.91,9.99,10.07,10.14,10.22,10.30,10.41,10.56,10.72,10.90,11.11,11.34,11.53,11.72,11.94,12.15,12.30,12.54,12.74,12.91,13.07,13.22,13.38,13.53,13.67,13.74,13.93,14.13,14.32,14.51,14.66,14.85,15.04,15.26,15.61,16.10,16.58,17.03,17.46,17.80,18.12,18.43,18.73,18.97,19.26,19.53,19.79,20.14,20.67
e,e,e,e,e,e,e,e,e,e,e,e,e,e,e,e,e,e,e,e,e,e,e,e,e,e,e,e,e,e,e,e,e,e,e,e,e,e,e,e,e,e,e,e,e,e,e,e,e,e,e,e,e,e,e,e,e,e,e,e,0.01,0.10,0.24,0.34,0.44,0.59,0.67,0.80,0.93,1.01,1.17,1.26,1.34,1.44,1.59,1.68,1.80,1.93,2.02,2.16,2.26,2.38,2.51,2.60,2.73,2.84,2.94,3.09,3.17,3.30,3.43,3.51,3.67,3.76,3.87,4.01,4.09,4.24,4.35,4.45,4.60,4.68,4.81,5.15,5.80,6.73,7.65,8.51,9.29,10.03,11.36,12.67,13.98,15.33,16.62,17.82,19.05,20.58,23.24,25.65,28.03,30.12,31.48,33.04,34.56,36.09,37.61,38.84,39.36,39.18,38.39,37.19,35.94,34.76,33.65,32.64,31.57,30.39,28.72,26.49,24.06,21.68,19.39,17.21,15.12,12.96,10.91,9.32,8.34,7.31,6.15,5.31,4.90,4.90,4.90,4.90,4.90,4.90,4.90,4.90,4.90,4.90,4.90,4.90,4.90,4.90,4.90,4.90,4.90,4.98,5.17,5.34,5.55,5.74,5.92,6.14,6.31,6.47,6.64,6.86,7.02,7.18,7.34,7.50,7.72,7.89,8.00,8.10,8.27,8.41,8.51,8.59,8.66,8.74,8.82,8.89,8.97,9.06,9.14,9.22,9.30,9.37,9.52,9.61,9.66,9.66,9.67,9.73,9.79,9.86,9.94,10.02,10.09,10.20,10.37,10.54,10.75,10.99,11.20,11.36,11.58,11.81,12.01,12.18,12.41,12.58,12.74,12.89,13.03,13.19,13.33,13.46,13.55,13.70,13.90,14.10,14.25,14.42,14.63,14.82,15.03,15.43,15.95,16.44,16.90,17.36,17.77,18.17,18.53,18.83,19.08,19.37,19.65,19.97,20.45,20.99
e,e,e,e,e,e,e,e,e,e,e,e,e,e,e,e,e,e,e,e,e,e,e,e,e,e,e,e,e,e,e,e,e,e,e,e,e,e,e,e,e,e,e,e,e,e,e,e,e,e,e,e,e,e,e,e,e,e,e,e,0.02,0.16,0.26,0.34,0.44,0.59,0.67,0.80,0.93,1.01,1.17,1.26,1.37,1.50,1.59,1.72,1.84,1.94,2.08,2.17,2.30,2.42,2.52,2.66,2.76,2.84,2.94,3.09,3.17,3.30,3.43,3.51,3.67,3.76,3.87,4.01,4.09,4.24,4.35,4.45,4.60,4.68,4.81,5.13,5.74,6.66,7.59,8.50,9.40,10.34,11.54,12.73,13.93,15.14,16.33,17.54,18.75,20.16,22.62,25.23,27.89,30.15,31.42,32.68,34.01,35.47,36.99,37.88,37.73,37.25,36.57,35.51,34.56,33.48,32.37,31.37,30.35,28.99,27.28,25.24,23.01,20.75,18.53,16.38,14.29,12.13,10.32,8.85,7.69,6.56,5.55,5.00,4.90,4.90,4.90,4.90,4.90,4.90,4.90,4.90,4.90,4.90,4.90,4.90,4.90,4.90,4.90,4.90,4.90,4.92,4.99,5.20,5.38,5.57,5.78,5.95,6.16,6.34,6.50,6.67,6.82,7.02,7.21,7.37,7.54,7.70,7.81,7.92,8.14,8.23,8.32,8.39,8.47,8.55,8.63,8.70,8.79,8.93,9.01,9.09,9.17,9.25,9.34,9.42,9.46,9.47,9.53,9.56,9.57,9.61,9.68,9.76,9.84,9.97,10.18,10.40,10.63,10.86,11.07,11.23,11.45,11.65,11.83,12.05,12.28,12.46,12.61,12.76,12.85,12.99,13.12,13.22,13.36,13.51,13.68,13.84,14.00,14.22,14.40,14.59,14.85,15.30,15.78,16.25,16.71,17.17,17.68,18.14,18.53,18.84,19.13,19.44,19.77,20.18,20.77,21.31
e,e,e,e,e,e,e,e,e,e,e,e,e,e,e,e,e,e,e,e,e,e,e,e,e,e,e,e,e,e,e,e,e,e,e,e,e,e,e,e,e,e,e,e,e,e,e,e,e,e,e,e,e,e,e,e,e,e,e,e,0.02,0.18,0.27,0.36,0.47,0.60,0.71,0.82,0.94,1.05,1.17,1.29,1.40,1.51,1.59,1.74,1.85,1.95,2.10,2.18,2.31,2.43,2.52,2.67,2.76,2.86,2.97,3.09,3.21,3.32,3.44,3.55,3.67,3.76,3.87,4.01,4.09,4.24,4.35,4.45,4.60,4.68,4.81,5.14,5.76,6.72,7.68,8.64,9.61,10.62,11.70,12.80,13.89,14.98,16.07,17.25,18.43,19.78,21.97,24.65,27.43,29.84,31.27,32.46,33.69,35.00,36.25,36.39,35.91,35.31,34.69,33.88,33.00,32.03,30.98,29.91,28.70,27.29,25.66,23.81,21.72,19.61,17.49,15.37,13.29,11.19,9.57,8.23,7.00,5.81,5.15,4.90,4.90,4.90,4.90,4.90,4.90,4.90,4.90,4.90,4.90,4.90,4.90,4.90,4.90,4.90,4.90,4.90,4.90,4.90,4.91,5.05,5.22,5.43,5.65,5.80,6.00,6.17,6.33,6.52,6.68,6.86,7.06,7.24,7.39,7.52,7.63,7.77,7.97,8.05,8.12,8.20,8.28,8.36,8.46,8.55,8.64,8.76,8.84,8.92,9.00,9.08,9.19,9.25,9.29,9.32,9.37,9.37,9.37,9.39,9.47,9.55,9.65,9.79,9.99,10.22,10.43,10.64,10.87,11.05,11.28,11.49,11.69,11.92,12.12,12.28,12.42,12.54,12.65,12.77,12.89,13.00,13.12,13.28,13.43,13.60,13.79,13.99,14.18,14.39,14.66,15.13,15.62,16.10,16.56,17.02,17.53,18.01,18.45,18.84,19.15,19.49,19.87,20.35,21.00,21.58
e,e,e,e,e,e,e,e,e,e,e,e,e,e,e,e,e,e,e,e,e,e,e,e,e,e,e,e,e,e,e,e,e,e,e,e,e,e,e,e,e,e,e,e,e,e,e,e,e,e,e,e,e,e,e,e,e,e,e,e,0.02,0.18,0.27,0.38,0.52,0.60,0.75,0.85,0.96,1.11,1.18,1.32,1.44,1.51,1.59,1.74,1.85,1.95,2.10,2.18,2.31,2.43,2.52,2.67,2.76,2.88,3.02,3.10,3.25,3.35,3.46,3.61,3.68,3.76,3.87,4.01,4.09,4.24,4.35,4.45,4.60,4.68,4.81,5.16,5.82,6.83,7.84,8.85,9.85,10.86,11.86,12.87,13.87,14.88,15.89,17.00,18.15,19.42,21.32,24.00,26.81,29.32,31.03,32.26,33.45,34.54,35.34,34.64,34.01,33.39,32.78,32.23,31.33,30.45,29.49,28.32,26.86,25.44,23.95,22.27,20.28,18.35,16.33,14.26,12.18,10.22,8.76,7.53,6.30,5.12,4.90,4.90,4.90,4.90,4.90,4.90,4.90,4.90,4.90,4.90,4.90,4.90,4.90,4.90,4.90,4.90,4.90,4.90,4.90,4.90,4.90,4.90,5.08,5.31,5.52,5.67,5.83,5.98,6.16,6.39,6.55,6.70,6.89,7.10,7.26,7.35,7.47,7.63,7.78,7.86,7.93,8.01,8.09,8.17,8.31,8.42,8.50,8.58,8.66,8.73,8.81,8.89,9.04,9.08,9.12,9.18,9.18,9.18,9.19,9.21,9.28,9.37,9.50,9.66,9.82,10.05,10.22,10.42,10.65,10.88,11.11,11.34,11.57,11.79,11.94,12.09,12.21,12.30,12.45,12.54,12.67,12.80,12.88,13.03,13.18,13.36,13.59,13.75,13.96,14.19,14.48,14.94,15.47,15.96,16.43,16.90,17.36,17.82,18.32,18.82,19.14,19.52,19.95,20.47,21.17,21.79
e,e,e,e,e,e,e,e,e,e,e,e,e,e,e,e,e,e,e,e,e,e,e,e,e,e,e,e,e,e,e,e,e,e,e,e,e,e,e,e,e,e,e,e,e,e,e,e,e,e,e,e,e,e,e,e,e,e,e,e,0.02,0.18,0.27,0.38,0.52,0.60,0.75,0.85,0.96,1.11,1.18,1.32,1.44,1.51,1.59,1.74,1.85,1.95,2.10,2.18,2.31,2.43,2.52,2.67,2.76,2.88,3.02,3.10,3.25,3.35,3.46,3.61,3.68,3.76,3.87,4.01,4.09,4.24,4.35,4.45,4.60,4.68,4.81,5.14,5.76,6.82,7.88,8.94,9.98,10.99,11.99,12.99,14.00,15.01,16.07,17.12,18.14,19.23,20.78,23.42,26.12,28.53,30.39,31.57,32.78,33.58,33.68,32.93,32.28,31.64,30.97,30.32,29.41,28.50,27.52,26.40,24.99,23.55,22.08,20.52,18.73,16.81,14.85,12.88,10.90,9.38,8.06,6.82,5.65,5.02,4.90,4.90,4.90,4.90,4.90,4.90,4.90,4.90,4.90,4.90,4.90,4.90,4.90,4.90,4.90,4.90,4.90,4.90,4.90,4.90,4.90,4.90,5.00,5.18,5.39,5.55,5.70,5.86,6.02,6.20,6.41,6.57,6.74,6.91,7.07,7.20,7.35,7.49,7.59,7.66,7.74,7.82,7.90,8.03,8.14,8.23,8.32,8.45,8.53,8.61,8.68,8.76,8.86,8.93,8.97,8.99,8.99,9.03,9.06,9.08,9.16,9.29,9.47,9.66,9.82,9.99,10.20,10.42,10.65,10.88,11.11,11.31,11.49,11.66,11.76,11.86,11.97,12.10,12.20,12.33,12.47,12.61,12.69,12.84,12.99,13.15,13.33,13.54,13.73,13.98,14.35,14.81,15.30,15.77,16.25,16.77,17.23,17.69,18.17,18.64,19.06,19.50,19.95,20.47,21.17,21.79
e,e,e,e,e,e,e,e,e,e,e,e,e,e,e,e,e,e,e,e,e,e,e,e,e,e,e,e,e,e,e,e,e,e,e,e,e,e,e,e,e,e,e,e,e,e,e,e,e,e,e,e,e,e,e,e,e,e,e,e,0.05,0.18,0.29,0.40,0.52,0.60,0.75,0.85,0.96,1.11,1.18,1.32,1.44,1.52,1.62,1.75,1.86,1.97,2.10,2.18,2.31,2.43,2.52,2.67,2.76,2.88,3.02,3.10,3.25,3.35,3.45,3.57,3.68,3.76,3.87,4.01,4.09,4.24,4.35,4.45,4.60,4.68,4.81,5.13,5.73,6.81,7.90,8.98,10.04,11.05,12.05,13.05,14.06,15.06,16.09,17.10,18.08,19.09,20.38,22.80,25.27,27.57,29.58,30.90,32.05,32.49,31.97,31.17,30.48,29.78,29.06,28.34,27.45,26.53,25.54,24.42,23.06,21.63,20.18,18.68,17.04,15.21,13.31,11.45,9.76,8.50,7.25,6.11,5.20,4.95,4.90,4.90,4.90,4.90,4.90,4.90,4.90,4.90,4.90,4.90,4.90,4.90,4.90,4.90,4.90,4.90,4.90,4.90,4.90,4.90,4.90,4.90,4.94,5.06,5.23,5.38,5.54,5.71,5.88,6.04,6.24,6.43,6.59,6.72,6.87,7.03,7.20,7.34,7.40,7.47,7.57,7.66,7.74,7.87,7.96,8.05,8.16,8.29,8.37,8.44,8.52,8.60,8.70,8.77,8.80,8.80,8.83,8.87,8.91,8.96,9.06,9.24,9.44,9.62,9.78,9.96,10.18,10.42,10.64,10.85,11.03,11.19,11.35,11.50,11.58,11.65,11.75,11.88,11.98,12.13,12.27,12.38,12.46,12.61,12.77,12.93,13.11,13.32,13.48,13.76,14.19,14.68,15.15,15.61,16.09,16.60,17.07,17.53,18.01,18.49,18.96,19.42,19.90,20.44,21.14,21.76
e,e,e,e,e,e,e,e,e,e,e,e,e,e,e,e,e,e,e,e,e,e,e,e,e,e,e,e,e,e,e,e,e,e,e,e,e,e,e,e,e,e,e,e,e,e,e,e,e,e,e,e,e,e,e,e,e,e,e,e,0.11,0.19,0.33,0.44,0.52,0.60,0.75,0.85,0.96,1.11,1.18,1.32,1.44,1.53,1.68,1.77,1.89,2.02,2.10,2.18,2.31,2.43,2.52,2.67,2.76,2.88,3.02,3.10,3.25,3.35,3.43,3.51,3.67,3.76,3.87,4.01,4.09,4.24,4.35,4.45,4.60,4.68,4.81,5.13,5.73,6.81,7.90,8.98,10.04,11.05,12.05,13.05,14.06,15.06,15.99,16.97,17.98,18.99,20.08,22.13,24.30,26.46,28.62,30.24,31.26,31.28,30.24,29.39,28.61,27.84,27.07,26.30,25.45,24.55,23.54,22.38,21.06,19.69,18.26,16.78,15.23,13.55,11.71,9.98,8.73,7.57,6.36,5.40,4.91,4.90,4.90,4.90,4.90,4.90,4.90,4.90,4.90,4.90,4.90,4.90,4.90,4.90,4.90,4.90,4.90,4.90,4.90,4.90,4.90,4.90,4.90,4.90,4.90,4.94,5.04,5.19,5.35,5.55,5.75,5.91,6.06,6.28,6.44,6.53,6.68,6.84,7.04,7.20,7.20,7.28,7.41,7.53,7.61,7.69,7.77,7.88,8.02,8.10,8.18,8.25,8.33,8.41,8.56,8.60,8.60,8.62,8.69,8.70,8.75,8.84,9.00,9.23,9.41,9.56,9.72,9.95,10.18,10.42,10.63,10.79,10.87,11.00,11.15,11.31,11.38,11.46,11.54,11.63,11.78,11.94,12.05,12.13,12.20,12.35,12.51,12.69,12.92,13.07,13.23,13.53,14.01,14.55,15.02,15.48,15.95,16.41,16.88,17.34,17.84,18.37,18.83,19.29,19.80,20.38,21.07,21.69
e,e,e,e,e,e,e,e,e,e,e,e,e,e,e,e,e,e,e,e,e,e,e,e,e,e,e,e,e,e,e,e,e,e,e,e,e,e,e,e,e,e,e,e,e,e,e,e,e,e,e,e,e,e,e,e,e,e,e,e,0.11,0.19,0.33,0.44,0.53,0.66,0.76,0.88,1.00,1.11,1.18,1.32,1.44,1.53,1.68,1.77,1.89,2.02,2.10,2.23,2.34,2.45,2.58,2.68,2.76,2.88,3.02,3.10,3.25,3.35,3.45,3.57,3.68,3.80,3.91,4.01,4.09,4.24,4.35,4.45,4.60,4.68,4.81,5.11,5.67,6.75,7.83,8.92,9.98,10.98,11.94,12.93,13.92,14.87,15.85,16.81,17.76,18.79,20.11,21.88,23.84,25.92,28.04,29.47,29.96,29.55,28.44,27.44,26.59,25.79,25.02,24.25,23.45,22.54,21.51,20.40,19.13,17.70,16.24,14.80,13.26,11.66,10.23,8.97,7.83,6.68,5.70,5.08,4.90,4.90,4.90,4.90,4.90,4.90,4.90,4.90,4.90,4.90,4.90,4.90,4.90,4.90,4.90,4.90,4.90,4.90,4.90,4.90,4.90,4.90,4.90,4.90,4.90,4.91,4.96,5.07,5.22,5.39,5.58,5.78,5.94,6.11,6.27,6.40,6.55,6.71,6.88,7.03,7.07,7.15,7.25,7.34,7.42,7.55,7.64,7.73,7.83,7.91,8.03,8.12,8.20,8.28,8.38,8.41,8.43,8.48,8.51,8.55,8.65,8.79,8.99,9.18,9.34,9.52,9.72,9.90,10.08,10.27,10.44,10.60,10.73,10.84,10.96,11.11,11.19,11.27,11.35,11.43,11.59,11.70,11.82,11.93,12.01,12.16,12.32,12.48,12.66,12.82,13.05,13.40,13.87,14.36,14.83,15.29,15.77,16.28,16.75,17.21,17.69,18.18,18.69,19.21,19.73,20.30,20.95,21.57
e,e,e,e,e,e,e,e,e,e,e,e,e,e,e,e,e,e,e,e,e,e,e,e,e,e,e,e,e,e,e,e,e,e,e,e,e,e,e,e,e,e,e,e,e,e,e,e,e,e,e,e,e,e,e,e,e,e,e,e,0.11,0.19,0.33,0.44,0.54,0.69,0.77,0.90,1.03,1.11,1.21,1.33,1.44,1.53,1.68,1.77,1.89,2.02,2.10,2.26,2.36,2.47,2.61,2.69,2.76,2.88,3.02,3.10,3.25,3.35,3.46,3.61,3.68,3.82,3.94,4.01,4.09,4.24,4.35,4.45,4.60,4.68,4.81,5.09,5.63,6.69,7.77,8.83,9.86,10.84,11.79,12.76,13.72,14.66,15.66,16.61,17.57,18.67,20.20,21.81,23.60,25.53,27.49,28.48,28.45,27.71,26.58,25.50,24.59,23.78,23.00,22.23,21.48,20.55,19.50,18.42,17.18,15.72,14.25,12.84,11.39,10.04,8.94,7.97,6.91,5.88,5.21,4.90,4.90,4.90,4.90,4.90,4.90,4.90,4.90,4.90,4.90,4.90,4.90,4.90,4.90,4.90,4.90,4.90,4.90,4.90,4.90,4.90,4.90,4.90,4.90,4.90,4.90,4.90,4.91,4.97,5.10,5.24,5.42,5.63,5.78,5.94,6.09,6.25,6.42,6.58,6.72,6.84,6.92,7.00,7.07,7.16,7.26,7.39,7.48,7.57,7.66,7.74,7.87,7.97,8.05,8.12,8.20,8.24,8.27,8.32,8.34,8.45,8.59,8.76,8.97,9.12,9.28,9.45,9.66,9.82,9.97,10.12,10.27,10.41,10.56,10.68,10.79,10.92,11.00,11.08,11.15,11.24,11.37,11.48,11.60,11.71,11.79,11.94,12.10,12.25,12.41,12.58,12.86,13.25,13.72,14.20,14.67,15.13,15.61,16.13,16.59,17.06,17.53,18.02,18.56,19.10,19.63,20.18,20.79,21.41
