e,e,e,e,e,e,e,e,e,e,e,e,e,e,e,e,e,e,e,e,e,e,e,e,e,e,e,e,e,e,e,e,e,e,e,e,e,e,e,e,e,e,e,e,e,e,e,e,e,e,e,0.14,0.44,0.68,0.77,0.77,0.77,0.77,0.77,0.77,0.78,0.86,0.94,1.02,1.07,1.07,1.15,1.19,1.22,1.28,1.36,1.39,1.43,1.49,1.57,1.57,1.62,1.68,1.70,1.76,1.83,1.87,1.88,1.96,1.99,2.03,2.09,2.17,2.17,2.22,2.28,2.30,2.36,2.43,2.48,2.51,2.57,2.59,2.63,2.70,2.77,2.79,2.84,2.91,2.97,2.97,3.04,3.08,3.11,3.17,3.19,3.24,3.28,3.30,3.36,3.39,3.43,3.48,3.50,3.55,3.62,3.67,3.67,3.69,3.74,3.77,3.77,3.77,3.77,3.77,3.78,3.80,3.85,3.89,3.90,3.90,3.96,3.99,4.03,4.08,4.10,4.15,4.17,4.18,4.20,4.26,4.29,4.32,4.38,4.40,4.45,4.47,4.48,4.50,4.55,4.57,4.55,4.50,4.50,4.50,4.50,4.50,4.50,4.50,4.46,4.40,4.40,4.40,4.35,4.30,4.30,4.28,4.23,4.20,4.18,4.11,4.10,4.10,4.10,4.10,4.10,4.10,4.10,4.10,4.10,4.10,4.10,4.11,4.13,4.13,4.13,4.15,4.20,4.20,4.20,4.20,4.20,4.20,4.20,4.20,4.20,4.20,4.22,4.23,4.23,4.23,4.29,4.30,4.30,4.30,4.30,4.30,4.30,4.30,4.30,4.24,4.21,4.20,4.19,4.13,4.11,4.06,4.02,4.00,4.00,3.96,3.92,3.89,3.83,3.81,3.77,3.72,3.70,3.63,3.56,3.52,3.50,3.44,3.41,3.37,3.33,3.33,3.40,3.47,3.55,3.63,3.78,3.92,4.04,4.15,4.30,4.39,4.48,4.57,4.65,4.73
e,e,e,e,e,e,e,e,e,e,e,e,e,e,e,e,e,e,e,e,e,e,e,e,e,e,e,e,e,e,e,e,e,e,e,e,e,e,e,e,e,e,e,e,e,e,e,e,e,e,e,0.19,0.47,0.74,0.86,0.88,0.88,0.88,0.88,0.88,0.88,0.93,0.98,1.04,1.11,1.14,1.21,1.24,1.27,1.34,1.39,1.42,1.48,1.55,1.60,1.63,1.67,1.71,1.74,1.82,1.87,1.91,1.95,2.02,2.04,2.08,2.15,2.20,2.23,2.29,2.34,2.34,2.42,2.47,2.51,2.55,2.63,2.64,2.68,2.75,2.80,2.83,2.89,2.96,3.00,3.03,3.08,3.12,3.16,3.23,3.24,3.29,3.34,3.34,3.42,3.44,3.47,3.54,3.54,3.61,3.67,3.71,3.74,3.74,3.77,3.81,3.84,3.84,3.81,3.80,3.81,3.84,3.88,3.92,3.94,3.94,3.99,4.02,4.06,4.10,4.13,4.18,4.22,4.24,4.24,4.29,4.32,4.36,4.40,4.43,4.48,4.50,4.51,4.54,4.58,4.60,4.58,4.54,4.51,4.50,4.50,4.50,4.50,4.50,4.46,4.40,4.40,4.40,4.35,4.30,4.30,4.30,4.24,4.20,4.18,4.11,4.10,4.10,4.09,4.06,4.06,4.06,4.08,4.10,4.10,4.10,4.10,4.10,4.10,4.10,4.10,4.12,4.16,4.16,4.16,4.18,4.20,4.20,4.20,4.20,4.20,4.20,4.20,4.20,4.20,4.21,4.26,4.26,4.28,4.30,4.30,4.30,4.30,4.29,4.26,4.21,4.20,4.19,4.15,4.10,4.10,4.05,4.00,4.00,3.97,3.93,3.90,3.89,3.81,3.78,3.74,3.69,3.66,3.62,3.55,3.49,3.46,3.41,3.38,3.34,3.29,3.27,3.33,3.41,3.49,3.57,3.72,3.87,4.00,4.08,4.20,4.29,4.37,4.44,4.52,4.63
e,e,e,e,e,e,e,e,e,e,e,e,e,e,e,e,e,e,e,e,e,e,e,e,e,e,e,e,e,e,e,e,e,e,e,e,e,e,e,e,e,e,e,e,e,e,e,e,e,e,e,0.25,0.48,0.78,0.95,1.00,1.00,1.00,1.00,1.00,1.00,1.00,1.00,1.04,1.12,1.20,1.27,1.30,1.33,1.40,1.40,1.46,1.54,1.60,1.60,1.67,1.70,1.73,1.80,1.88,1.90,1.93,2.01,2.09,2.10,2.14,2.20,2.20,2.28,2.35,2.40,2.41,2.48,2.50,2.54,2.62,2.69,2.70,2.75,2.80,2.80,2.88,2.96,3.00,3.01,3.09,3.10,3.14,3.22,3.30,3.30,3.35,3.40,3.41,3.48,3.50,3.54,3.60,3.60,3.67,3.70,3.72,3.80,3.80,3.80,3.83,3.90,3.90,3.84,3.80,3.82,3.90,3.90,3.95,4.00,4.00,4.00,4.06,4.10,4.11,4.19,4.20,4.25,4.30,4.30,4.30,4.35,4.40,4.41,4.49,4.50,4.50,4.52,4.59,4.60,4.60,4.60,4.60,4.52,4.50,4.50,4.50,4.50,4.50,4.46,4.40,4.40,4.40,4.35,4.30,4.30,4.30,4.24,4.20,4.18,4.11,4.10,4.10,4.07,4.00,4.00,4.00,4.03,4.10,4.10,4.10,4.10,4.10,4.10,4.10,4.10,4.10,4.10,4.10,4.10,4.14,4.20,4.20,4.20,4.20,4.20,4.20,4.20,4.20,4.20,4.20,4.20,4.20,4.24,4.30,4.30,4.30,4.30,4.27,4.20,4.20,4.20,4.16,4.10,4.10,4.10,4.05,4.00,4.00,3.92,3.90,3.90,3.89,3.81,3.73,3.70,3.68,3.60,3.60,3.55,3.47,3.40,3.40,3.34,3.30,3.28,3.21,3.27,3.35,3.42,3.50,3.66,3.81,3.93,4.01,4.08,4.16,4.24,4.32,4.40,4.55
e,e,e,e,e,e,e,e,e,e,e,e,e,e,e,e,e,e,e,e,e,e,e,e,e,e,e,e,e,e,e,e,e,e,e,e,e,e,e,e,e,e,e,e,e,e,e,e,e,e,e,0.26,0.54,0.85,1.01,1.07,1.07,1.07,1.07,1.07,1.07,1.07,1.07,1.08,1.13,1.26,1.29,1.33,1.39,1.47,1.47,1.53,1.58,1.61,1.66,1.73,1.77,1.79,1.87,1.89,1.94,2.00,2.07,2.10,2.14,2.21,2.27,2.27,2.34,2.38,2.42,2.47,2.55,2.57,2.60,2.67,2.70,2.75,2.81,2.87,2.87,2.94,2.98,3.02,3.08,3.15,3.17,3.21,3.27,3.30,3.35,3.38,3.42,3.47,3.49,3.54,3.58,3.61,3.66,3.69,3.73,3.77,3.80,3.85,3.87,3.88,3.90,3.90,3.88,3.87,3.87,3.90,3.95,3.98,4.00,4.00,4.05,4.09,4.12,4.17,4.20,4.24,4.28,4.30,4.30,4.35,4.38,4.42,4.47,4.50,4.54,4.57,4.57,4.60,4.60,4.60,4.60,4.60,4.57,4.53,4.50,4.50,4.50,4.50,4.48,4.45,4.40,4.40,4.35,4.30,4.30,4.30,4.24,4.20,4.19,4.17,4.12,4.10,4.07,4.00,4.00,4.00,4.01,4.03,4.03,4.03,4.06,4.10,4.10,4.10,4.10,4.10,4.10,4.10,4.10,4.11,4.13,4.13,4.13,4.17,4.20,4.20,4.20,4.20,4.20,4.20,4.20,4.20,4.21,4.23,4.23,4.23,4.23,4.22,4.20,4.20,4.16,4.12,4.10,4.10,4.05,4.02,4.00,4.00,3.92,3.90,3.88,3.83,3.80,3.73,3.67,3.63,3.60,3.55,3.52,3.47,3.40,3.35,3.31,3.28,3.23,3.20,3.22,3.28,3.37,3.50,3.61,3.71,3.80,3.88,3.96,4.03,4.14,4.25,4.33,4.43
e,e,e,e,e,e,e,e,e,e,e,e,e,e,e,e,e,e,e,e,e,e,e,e,e,e,e,e,e,e,e,e,e,e,e,e,e,e,e,e,e,e,e,e,e,e,e,e,e,e,e,0.29,0.60,0.91,1.08,1.13,1.13,1.13,1.13,1.14,1.16,1.16,1.16,1.16,1.19,1.30,1.32,1.38,1.45,1.50,1.52,1.59,1.63,1.64,1.72,1.78,1.81,1.85,1.93,1.93,1.99,2.05,2.10,2.13,2.19,2.26,2.31,2.33,2.38,2.41,2.46,2.53,2.59,2.62,2.67,2.73,2.73,2.80,2.86,2.91,2.93,3.01,3.03,3.06,3.14,3.19,3.22,3.26,3.31,3.33,3.38,3.41,3.45,3.50,3.52,3.57,3.61,3.64,3.69,3.72,3.77,3.83,3.83,3.88,3.92,3.93,3.93,3.93,3.93,3.93,3.93,3.93,3.98,4.01,4.03,4.03,4.09,4.12,4.15,4.20,4.23,4.28,4.31,4.33,4.33,4.38,4.42,4.45,4.50,4.53,4.57,4.60,4.60,4.60,4.60,4.60,4.60,4.60,4.60,4.54,4.50,4.50,4.50,4.50,4.50,4.48,4.40,4.40,4.36,4.32,4.30,4.30,4.24,4.20,4.20,4.20,4.13,4.10,4.08,4.03,4.01,4.00,4.00,4.00,4.00,4.00,4.03,4.07,4.07,4.09,4.10,4.10,4.10,4.10,4.10,4.10,4.10,4.10,4.10,4.13,4.17,4.17,4.17,4.19,4.20,4.20,4.20,4.20,4.20,4.20,4.20,4.20,4.20,4.20,4.20,4.18,4.13,4.10,4.10,4.07,4.02,4.00,3.99,3.97,3.91,3.88,3.85,3.80,3.77,3.72,3.66,3.59,3.57,3.52,3.48,3.45,3.39,3.32,3.28,3.24,3.20,3.17,3.17,3.22,3.31,3.44,3.52,3.60,3.68,3.78,3.86,3.94,4.04,4.17,4.27,4.34
e,e,e,e,e,e,e,e,e,e,e,e,e,e,e,e,e,e,e,e,e,e,e,e,e,e,e,e,e,e,e,e,e,e,e,e,e,e,e,e,e,e,e,e,e,e,e,e,e,e,e,0.36,0.66,0.97,1.14,1.19,1.19,1.19,1.19,1.22,1.29,1.29,1.29,1.29,1.29,1.30,1.37,1.44,1.50,1.51,1.58,1.65,1.69,1.71,1.79,1.80,1.84,1.92,1.99,1.99,2.05,2.10,2.11,2.18,2.26,2.30,2.32,2.39,2.40,2.45,2.52,2.59,2.60,2.66,2.73,2.79,2.79,2.86,2.90,2.92,2.99,3.07,3.09,3.13,3.19,3.20,3.26,3.30,3.32,3.39,3.40,3.45,3.50,3.50,3.58,3.60,3.63,3.69,3.70,3.76,3.84,3.89,3.89,3.90,3.95,3.99,3.99,3.99,3.99,3.99,3.99,3.99,4.00,4.05,4.09,4.09,4.10,4.15,4.20,4.21,4.28,4.30,4.34,4.39,4.39,4.40,4.45,4.50,4.51,4.58,4.60,4.60,4.60,4.60,4.60,4.60,4.60,4.60,4.60,4.54,4.50,4.50,4.50,4.50,4.50,4.48,4.40,4.40,4.40,4.36,4.30,4.30,4.24,4.20,4.20,4.20,4.13,4.10,4.10,4.09,4.02,4.00,4.00,4.00,4.00,4.00,4.00,4.01,4.01,4.08,4.10,4.10,4.10,4.10,4.10,4.10,4.10,4.10,4.10,4.10,4.11,4.11,4.11,4.16,4.20,4.20,4.20,4.20,4.20,4.20,4.20,4.20,4.20,4.20,4.19,4.12,4.10,4.10,4.09,4.01,4.00,4.00,3.98,3.91,3.90,3.85,3.80,3.79,3.72,3.70,3.66,3.58,3.51,3.50,3.45,3.40,3.39,3.32,3.24,3.20,3.19,3.11,3.11,3.15,3.23,3.31,3.39,3.47,3.58,3.72,3.79,3.87,3.95,4.05,4.20,4.28
e,e,e,e,e,e,e,e,e,e,e,e,e,e,e,e,e,e,e,e,e,e,e,e,e,e,e,e,e,e,e,e,e,e,e,e,e,e,e,e,e,e,e,e,e,e,e,e,e,e,e,0.36,0.67,0.98,1.20,1.31,1.31,1.31,1.31,1.33,1.36,1.36,1.36,1.36,1.36,1.36,1.39,1.45,1.52,1.56,1.64,1.68,1.72,1.77,1.85,1.86,1.90,1.97,2.00,2.04,2.11,2.16,2.17,2.24,2.28,2.32,2.38,2.45,2.46,2.51,2.57,2.60,2.65,2.72,2.77,2.81,2.85,2.93,2.96,2.98,3.06,3.09,3.13,3.17,3.21,3.25,3.28,3.32,3.38,3.45,3.46,3.51,3.56,3.56,3.64,3.66,3.69,3.76,3.76,3.83,3.88,3.91,3.96,3.96,3.98,4.00,4.01,4.05,4.06,4.03,4.00,4.00,4.04,4.08,4.10,4.10,4.15,4.18,4.22,4.26,4.30,4.34,4.38,4.40,4.40,4.44,4.48,4.52,4.56,4.59,4.60,4.60,4.60,4.60,4.60,4.60,4.60,4.60,4.60,4.58,4.56,4.56,4.56,4.52,4.50,4.48,4.40,4.40,4.40,4.37,4.30,4.30,4.27,4.23,4.20,4.20,4.13,4.10,4.10,4.10,4.02,4.00,4.00,4.00,4.00,4.00,4.00,4.00,4.00,4.03,4.04,4.04,4.05,4.09,4.10,4.10,4.10,4.10,4.10,4.10,4.10,4.10,4.10,4.12,4.14,4.14,4.14,4.18,4.20,4.20,4.20,4.20,4.20,4.18,4.14,4.11,4.10,4.08,4.04,4.00,4.00,3.97,3.93,3.90,3.85,3.82,3.78,3.74,3.71,3.66,3.62,3.58,3.50,3.46,3.42,3.38,3.34,3.31,3.24,3.18,3.14,3.10,3.06,3.09,3.17,3.24,3.32,3.40,3.51,3.65,3.73,3.81,3.88,3.97,4.08,4.20
e,e,e,e,e,e,e,e,e,e,e,e,e,e,e,e,e,e,e,e,e,e,e,e,e,e,e,e,e,e,e,e,e,e,e,e,e,e,e,e,e,e,e,e,e,e,e,e,e,e,e,0.38,0.69,1.00,1.26,1.42,1.42,1.42,1.42,1.42,1.42,1.42,1.42,1.42,1.42,1.42,1.44,1.48,1.55,1.63,1.69,1.71,1.76,1.83,1.89,1.91,1.97,2.02,2.02,2.10,2.17,2.21,2.23,2.31,2.32,2.36,2.44,2.50,2.52,2.57,2.62,2.63,2.70,2.77,2.81,2.84,2.91,2.98,3.01,3.04,3.10,3.12,3.18,3.22,3.23,3.31,3.32,3.36,3.44,3.50,3.52,3.56,3.61,3.63,3.69,3.71,3.75,3.80,3.82,3.87,3.91,3.94,4.00,4.00,4.01,4.02,4.03,4.09,4.10,4.07,4.02,4.02,4.08,4.11,4.12,4.12,4.19,4.21,4.25,4.30,4.32,4.37,4.41,4.42,4.42,4.48,4.51,4.55,4.60,4.62,4.62,4.62,4.62,4.60,4.60,4.60,4.60,4.60,4.60,4.60,4.60,4.60,4.60,4.53,4.50,4.48,4.40,4.40,4.40,4.37,4.30,4.30,4.30,4.26,4.20,4.20,4.13,4.10,4.10,4.10,4.02,4.00,4.00,4.00,4.00,4.00,4.00,4.00,4.00,4.00,4.00,4.00,4.01,4.07,4.08,4.08,4.08,4.10,4.10,4.10,4.10,4.10,4.10,4.10,4.10,4.10,4.10,4.15,4.18,4.18,4.20,4.20,4.19,4.16,4.10,4.10,4.09,4.05,4.00,4.00,3.99,3.94,3.90,3.90,3.82,3.79,3.75,3.70,3.68,3.63,3.59,3.56,3.50,3.43,3.39,3.36,3.30,3.28,3.23,3.16,3.10,3.08,3.02,3.03,3.09,3.18,3.26,3.33,3.44,3.57,3.66,3.74,3.82,3.90,3.98,4.11
e,e,e,e,e,e,e,e,e,e,e,e,e,e,e,e,e,e,e,e,e,e,e,e,e,e,e,e,e,e,e,e,e,e,e,e,e,e,e,e,e,e,e,e,e,e,e,e,e,e,e,0.45,0.76,1.06,1.33,1.49,1.49,1.49,1.49,1.49,1.49,1.49,1.49,1.49,1.49,1.49,1.55,1.58,1.61,1.69,1.70,1.75,1.82,1.89,1.90,1.96,2.03,2.09,2.09,2.16,2.19,2.23,2.30,2.37,2.39,2.43,2.49,2.50,2.56,2.64,2.69,2.69,2.77,2.79,2.83,2.90,2.98,3.00,3.04,3.09,3.10,3.17,3.24,3.29,3.29,3.37,3.39,3.43,3.49,3.50,3.56,3.59,3.62,3.69,3.70,3.75,3.79,3.81,3.88,3.90,3.94,3.99,4.00,4.00,4.05,4.09,4.09,4.10,4.10,4.09,4.09,4.09,4.10,4.14,4.19,4.19,4.20,4.25,4.29,4.31,4.38,4.40,4.44,4.49,4.49,4.50,4.55,4.59,4.61,4.67,4.69,4.69,4.67,4.60,4.60,4.60,4.60,4.60,4.60,4.60,4.60,4.60,4.60,4.53,4.50,4.48,4.40,4.40,4.40,4.37,4.30,4.30,4.30,4.26,4.20,4.20,4.13,4.10,4.10,4.10,4.02,4.00,4.00,4.00,4.00,4.00,4.00,4.00,4.00,4.00,4.00,4.00,4.00,4.01,4.01,4.01,4.03,4.09,4.10,4.10,4.10,4.10,4.10,4.10,4.10,4.10,4.10,4.11,4.11,4.13,4.20,4.20,4.16,4.11,4.10,4.10,4.05,4.01,4.00,4.00,3.94,3.91,3.90,3.90,3.82,3.75,3.71,3.69,3.62,3.61,3.56,3.51,3.50,3.43,3.36,3.31,3.29,3.23,3.21,3.16,3.09,3.02,3.00,2.97,2.97,3.12,3.19,3.27,3.35,3.45,3.59,3.68,3.76,3.83,3.91,4.00
e,e,e,e,e,e,e,e,e,e,e,e,e,e,e,e,e,e,e,e,e,e,e,e,e,e,e,e,e,e,e,e,e,e,e,e,e,e,e,e,e,e,e,e,e,e,e,e,e,e,0.15,0.47,0.82,1.13,1.41,1.60,1.60,1.60,1.60,1.60,1.60,1.60,1.60,1.60,1.60,1.60,1.64,1.65,1.66,1.70,1.74,1.81,1.87,1.91,1.95,2.02,2.07,2.11,2.15,2.19,2.23,2.28,2.35,2.39,2.43,2.49,2.55,2.55,2.62,2.67,2.71,2.75,2.83,2.85,2.89,2.96,3.00,3.03,3.10,3.15,3.15,3.23,3.28,3.32,3.35,3.39,3.43,3.47,3.51,3.55,3.59,3.62,3.66,3.70,3.74,3.78,3.82,3.86,3.90,3.93,3.97,4.01,4.05,4.05,4.08,4.12,4.15,4.15,4.15,4.15,4.14,4.10,4.14,4.17,4.21,4.25,4.25,4.28,4.32,4.36,4.40,4.43,4.47,4.50,4.50,4.54,4.58,4.62,4.65,4.69,4.70,4.70,4.69,4.65,4.65,4.62,4.60,4.60,4.60,4.60,4.60,4.60,4.60,4.53,4.50,4.49,4.45,4.41,4.40,4.37,4.30,4.30,4.30,4.26,4.20,4.20,4.16,4.13,4.10,4.10,4.02,4.00,4.00,3.99,3.96,3.95,3.95,3.96,4.00,4.00,4.00,4.00,4.00,4.00,4.00,4.00,4.01,4.05,4.05,4.05,4.06,4.10,4.10,4.10,4.10,4.10,4.10,4.10,4.10,4.11,4.15,4.15,4.12,4.10,4.10,4.06,4.02,4.00,3.99,3.95,3.92,3.90,3.89,3.85,3.81,3.74,3.68,3.65,3.61,3.57,3.53,3.49,3.45,3.41,3.35,3.29,3.25,3.21,3.17,3.13,3.08,3.01,2.97,2.93,2.94,3.05,3.13,3.21,3.28,3.37,3.48,3.60,3.69,3.77,3.85,3.92
e,e,e,e,e,e,e,e,e,e,e,e,e,e,e,e,e,e,e,e,e,e,e,e,e,e,e,e,e,e,e,e,e,e,e,e,e,e,e,e,e,e,e,e,e,e,e,e,e,e,0.17,0.49,0.86,1.18,1.49,1.71,1.71,1.71,1.71,1.71,1.71,1.71,1.71,1.71,1.71,1.71,1.71,1.71,1.71,1.72,1.79,1.86,1.90,1.93,2.01,2.07,2.11,2.14,2.21,2.21,2.27,2.34,2.40,2.41,2.48,2.55,2.60,2.61,2.69,2.71,2.74,2.82,2.88,2.91,2.95,3.01,3.01,3.08,3.15,3.20,3.21,3.28,3.31,3.34,3.40,3.41,3.47,3.51,3.53,3.60,3.61,3.66,3.71,3.72,3.80,3.81,3.85,3.91,3.91,3.98,4.01,4.04,4.11,4.11,4.11,4.14,4.20,4.20,4.21,4.21,4.18,4.12,4.18,4.21,4.24,4.30,4.30,4.31,4.34,4.40,4.41,4.47,4.51,4.51,4.51,4.58,4.61,4.64,4.70,4.70,4.70,4.70,4.70,4.70,4.70,4.65,4.60,4.60,4.60,4.60,4.60,4.60,4.60,4.53,4.50,4.50,4.50,4.42,4.40,4.37,4.31,4.30,4.30,4.26,4.20,4.20,4.20,4.15,4.10,4.10,4.03,4.01,4.00,3.99,3.91,3.90,3.90,3.92,3.99,3.99,3.99,4.00,4.00,4.00,4.00,4.00,4.00,4.00,4.00,4.00,4.02,4.09,4.09,4.09,4.09,4.10,4.10,4.10,4.10,4.10,4.10,4.10,4.10,4.10,4.08,4.01,4.00,3.99,3.97,3.91,3.90,3.89,3.87,3.80,3.79,3.74,3.67,3.60,3.59,3.53,3.49,3.47,3.40,3.39,3.34,3.27,3.20,3.19,3.13,3.10,3.07,3.01,2.93,2.90,2.92,2.98,3.06,3.14,3.22,3.30,3.37,3.52,3.63,3.71,3.78,3.86
e,e,e,e,e,e,e,e,e,e,e,e,e,e,e,e,e,e,e,e,e,e,e,e,e,e,e,e,e,e,e,e,e,e,e,e,e,e,e,e,e,e,e,e,e,e,e,e,e,e,0.23,0.54,0.87,1.18,1.52,1.78,1.78,1.78,1.78,1.78,1.78,1.78,1.78,1.78,1.78,1.78,1.78,1.78,1.78,1.78,1.80,1.86,1.93,1.99,2.07,2.09,2.14,2.20,2.28,2.28,2.33,2.38,2.41,2.47,2.54,2.59,2.61,2.67,2.75,2.78,2.81,2.88,2.90,2.95,3.01,3.08,3.08,3.15,3.19,3.22,3.28,3.29,3.34,3.38,3.41,3.47,3.49,3.53,3.58,3.60,3.66,3.73,3.78,3.78,3.86,3.88,3.91,3.98,3.98,4.05,4.08,4.10,4.18,4.18,4.18,4.18,4.20,4.20,4.25,4.25,4.20,4.18,4.19,4.24,4.28,4.30,4.30,4.35,4.39,4.41,4.47,4.49,4.53,4.58,4.58,4.59,4.64,4.68,4.70,4.70,4.70,4.70,4.70,4.70,4.70,4.65,4.60,4.60,4.60,4.60,4.60,4.60,4.60,4.53,4.50,4.50,4.50,4.42,4.40,4.39,4.37,4.31,4.30,4.26,4.20,4.20,4.20,4.15,4.10,4.10,4.08,4.03,4.00,3.99,3.91,3.90,3.90,3.90,3.92,3.92,3.96,4.00,4.00,4.00,4.00,4.00,4.00,4.00,4.00,4.00,4.01,4.02,4.02,4.02,4.05,4.10,4.10,4.10,4.10,4.10,4.10,4.10,4.10,4.08,4.02,4.00,4.00,3.97,3.92,3.90,3.90,3.86,3.82,3.80,3.74,3.71,3.67,3.59,3.53,3.51,3.47,3.42,3.40,3.34,3.31,3.27,3.20,3.14,3.11,3.07,3.02,3.00,2.93,2.90,2.89,2.85,2.99,3.08,3.16,3.23,3.31,3.45,3.57,3.64,3.72,3.80
e,e,e,e,e,e,e,e,e,e,e,e,e,e,e,e,e,e,e,e,e,e,e,e,e,e,e,e,e,e,e,e,e,e,e,e,e,e,e,e,e,e,e,e,e,e,e,e,e,e,0.29,0.60,0.91,1.22,1.56,1.82,1.88,1.88,1.88,1.88,1.88,1.88,1.88,1.88,1.88,1.88,1.88,1.88,1.88,1.88,1.88,1.92,1.98,2.06,2.13,2.14,2.19,2.26,2.30,2.33,2.40,2.44,2.45,2.53,2.58,2.62,2.66,2.74,2.78,2.82,2.86,2.90,2.93,3.00,3.06,3.11,3.14,3.18,3.22,3.26,3.34,3.34,3.40,3.44,3.45,3.53,3.54,3.58,3.64,3.64,3.71,3.77,3.81,3.84,3.89,3.92,3.96,4.01,4.04,4.08,4.12,4.15,4.20,4.20,4.22,4.24,4.24,4.24,4.28,4.28,4.24,4.24,4.24,4.27,4.31,4.34,4.34,4.38,4.41,4.45,4.49,4.53,4.57,4.60,4.60,4.63,4.67,4.70,4.70,4.70,4.70,4.70,4.70,4.70,4.70,4.67,4.63,4.60,4.60,4.60,4.60,4.60,4.60,4.56,4.52,4.50,4.50,4.42,4.40,4.40,4.39,4.31,4.30,4.28,4.23,4.20,4.20,4.15,4.10,4.10,4.10,4.04,4.00,3.99,3.95,3.91,3.90,3.90,3.90,3.90,3.93,3.96,3.96,3.96,3.98,4.00,4.00,4.00,4.00,4.00,4.00,4.00,4.00,4.00,4.02,4.06,4.06,4.06,4.08,4.10,4.10,4.10,4.08,4.04,4.00,4.00,3.97,3.94,3.90,3.90,3.87,3.83,3.79,3.76,3.71,3.68,3.64,3.59,3.51,3.47,3.43,3.39,3.36,3.32,3.28,3.24,3.19,3.12,3.08,3.04,2.99,2.96,2.92,2.88,2.84,2.80,2.89,3.00,3.09,3.17,3.25,3.36,3.48,3.58,3.66,3.73
e,e,e,e,e,e,e,e,e,e,e,e,e,e,e,e,e,e,e,e,e,e,e,e,e,e,e,e,e,e,e,e,e,e,e,e,e,e,e,e,e,e,e,e,e,e,e,e,e,e,0.36,0.67,0.98,1.28,1.59,1.84,1.99,2.00,2.00,2.00,2.00,2.00,2.00,2.00,2.00,2.00,2.00,2.00,2.00,2.00,2.00,2.00,2.04,2.11,2.19,2.20,2.25,2.30,2.31,2.38,2.46,2.50,2.51,2.59,2.60,2.65,2.72,2.80,2.80,2.86,2.90,2.91,2.99,3.06,3.10,3.12,3.20,3.20,3.25,3.33,3.40,3.40,3.46,3.50,3.51,3.59,3.60,3.64,3.70,3.70,3.77,3.80,3.83,3.90,3.90,3.96,4.00,4.02,4.09,4.10,4.15,4.20,4.20,4.20,4.26,4.30,4.30,4.30,4.30,4.30,4.30,4.30,4.30,4.30,4.33,4.40,4.40,4.40,4.44,4.50,4.50,4.57,4.60,4.60,4.60,4.68,4.70,4.70,4.70,4.70,4.70,4.70,4.70,4.70,4.70,4.70,4.67,4.60,4.60,4.60,4.60,4.60,4.60,4.60,4.56,4.50,4.50,4.43,4.40,4.40,4.39,4.31,4.30,4.30,4.28,4.21,4.20,4.15,4.10,4.10,4.10,4.04,4.00,4.00,4.00,3.93,3.90,3.90,3.90,3.90,3.90,3.90,3.90,3.90,3.96,4.00,4.00,4.00,4.00,4.00,4.00,4.00,4.00,4.00,4.00,4.00,4.00,4.00,4.04,4.10,4.10,4.10,4.05,4.00,4.00,4.00,3.94,3.90,3.90,3.90,3.83,3.80,3.78,3.70,3.70,3.64,3.60,3.58,3.51,3.43,3.40,3.38,3.30,3.30,3.25,3.20,3.19,3.12,3.04,3.00,2.98,2.91,2.90,2.85,2.80,2.80,2.80,2.91,3.03,3.11,3.18,3.26,3.38,3.51,3.59,3.67
e,e,e,e,e,e,e,e,e,e,e,e,e,e,e,e,e,e,e,e,e,e,e,e,e,e,e,e,e,e,e,e,e,e,e,e,e,e,e,e,e,e,e,e,e,e,e,e,e,e,0.42,0.73,1.04,1.35,1.59,1.76,1.86,1.97,2.04,2.07,2.07,2.07,2.07,2.07,2.07,2.07,2.07,2.07,2.07,2.07,2.07,2.07,2.08,2.11,2.19,2.25,2.32,2.37,2.37,2.45,2.49,2.52,2.58,2.66,2.67,2.71,2.77,2.80,2.85,2.92,2.97,2.97,3.05,3.09,3.13,3.18,3.26,3.27,3.31,3.38,3.40,3.45,3.49,3.52,3.57,3.60,3.64,3.68,3.71,3.77,3.79,3.83,3.88,3.90,3.96,3.99,4.03,4.07,4.10,4.15,4.18,4.22,4.27,4.27,4.29,4.32,4.37,4.37,4.37,4.37,4.36,4.30,4.30,4.33,4.38,4.40,4.40,4.44,4.48,4.51,4.56,4.59,4.63,4.67,4.67,4.69,4.70,4.70,4.70,4.70,4.70,4.70,4.70,4.70,4.70,4.70,4.69,4.67,4.61,4.60,4.60,4.60,4.60,4.60,4.56,4.50,4.50,4.48,4.43,4.40,4.39,4.31,4.30,4.30,4.28,4.21,4.20,4.15,4.10,4.10,4.10,4.04,4.00,4.00,4.00,3.93,3.90,3.90,3.90,3.90,3.90,3.90,3.90,3.90,3.92,3.93,3.93,3.93,3.98,4.00,4.00,4.00,4.00,4.00,4.00,4.00,4.00,4.00,4.01,4.03,4.03,4.03,4.01,4.00,4.00,3.94,3.91,3.90,3.89,3.84,3.81,3.80,3.78,3.70,3.65,3.61,3.58,3.53,3.50,3.43,3.37,3.32,3.30,3.25,3.22,3.18,3.13,3.11,3.04,2.97,2.93,2.90,2.85,2.82,2.78,2.73,2.73,2.84,2.96,3.04,3.12,3.20,3.32,3.45,3.53,3.61
e,e,e,e,e,e,e,e,e,e,e,e,e,e,e,e,e,e,e,e,e,e,e,e,e,e,e,e,e,e,e,e,e,e,e,e,e,e,e,e,e,e,e,e,e,e,e,e,e,e,0.49,0.79,1.10,1.34,1.53,1.66,1.74,1.89,1.99,2.06,2.10,2.13,2.15,2.17,2.17,2.17,2.17,2.17,2.17,2.17,2.17,2.17,2.17,2.18,2.23,2.30,2.36,2.41,2.43,2.51,2.53,2.57,2.64,2.69,2.72,2.77,2.83,2.83,2.91,2.97,3.01,3.04,3.12,3.13,3.17,3.24,3.29,3.32,3.36,3.41,3.43,3.49,3.52,3.55,3.60,3.63,3.68,3.71,3.75,3.80,3.82,3.88,3.93,3.94,4.01,4.03,4.07,4.13,4.13,4.20,4.23,4.25,4.30,4.30,4.32,4.35,4.40,4.40,4.40,4.40,4.39,4.34,4.33,4.37,4.41,4.43,4.43,4.47,4.51,4.54,4.59,4.62,4.66,4.71,4.73,4.73,4.73,4.73,4.73,4.70,4.70,4.70,4.70,4.70,4.70,4.70,4.70,4.70,4.65,4.63,4.62,4.60,4.60,4.60,4.56,4.50,4.50,4.50,4.45,4.40,4.39,4.31,4.30,4.30,4.28,4.21,4.20,4.17,4.12,4.10,4.10,4.04,4.00,4.00,4.00,3.93,3.90,3.90,3.90,3.90,3.90,3.90,3.90,3.90,3.90,3.90,3.90,3.90,3.95,3.97,3.97,3.97,3.99,4.00,4.00,4.00,4.00,4.00,4.00,4.00,4.00,4.00,4.00,3.99,3.96,3.91,3.90,3.89,3.86,3.80,3.80,3.78,3.75,3.70,3.62,3.58,3.54,3.50,3.47,3.42,3.36,3.29,3.27,3.22,3.18,3.15,3.10,3.07,3.03,2.96,2.90,2.87,2.82,2.78,2.75,2.70,2.67,2.76,2.88,2.98,3.05,3.13,3.24,3.36,3.46,3.54
e,e,e,e,e,e,e,e,e,e,e,e,e,e,e,e,e,e,e,e,e,e,e,e,e,e,e,e,e,e,e,e,e,e,e,e,e,e,e,e,e,e,e,e,e,e,e,e,e,e,0.55,0.86,1.17,1.27,1.40,1.53,1.61,1.76,1.86,1.97,2.11,2.18,2.26,2.29,2.29,2.29,2.29,2.29,2.29,2.29,2.29,2.29,2.29,2.29,2.30,2.37,2.40,2.42,2.50,2.58,2.60,2.63,2.70,2.70,2.76,2.84,2.90,2.90,2.97,3.00,3.03,3.10,3.18,3.20,3.23,3.30,3.30,3.37,3.40,3.42,3.50,3.50,3.55,3.60,3.61,3.68,3.70,3.74,3.80,3.80,3.87,3.95,4.00,4.00,4.08,4.10,4.13,4.20,4.20,4.26,4.30,4.30,4.30,4.30,4.35,4.40,4.40,4.40,4.40,4.40,4.40,4.40,4.40,4.40,4.43,4.50,4.50,4.50,4.53,4.60,4.60,4.67,4.70,4.72,4.80,4.80,4.80,4.80,4.79,4.71,4.70,4.70,4.70,4.70,4.70,4.70,4.70,4.70,4.70,4.70,4.66,4.60,4.60,4.60,4.56,4.50,4.50,4.50,4.45,4.40,4.39,4.31,4.30,4.30,4.28,4.21,4.20,4.20,4.17,4.10,4.10,4.04,4.00,4.00,4.00,3.93,3.90,3.90,3.90,3.90,3.90,3.90,3.90,3.90,3.90,3.90,3.90,3.90,3.90,3.90,3.90,3.91,3.98,4.00,4.00,4.00,4.00,4.00,4.00,4.00,4.00,4.00,4.00,3.97,3.90,3.90,3.90,3.86,3.80,3.80,3.80,3.75,3.70,3.70,3.62,3.55,3.50,3.49,3.41,3.40,3.36,3.28,3.21,3.20,3.15,3.10,3.09,3.02,3.00,2.96,2.89,2.81,2.80,2.75,2.70,2.70,2.62,2.66,2.77,2.91,2.99,3.07,3.15,3.24,3.40,3.48
e,e,e,e,e,e,e,e,e,e,e,e,e,e,e,e,e,e,e,e,e,e,e,e,e,e,e,e,e,e,e,e,e,e,e,e,e,e,e,e,e,e,e,e,e,e,e,e,e,0.30,0.59,0.83,1.00,1.13,1.24,1.36,1.48,1.59,1.71,1.83,1.94,2.06,2.18,2.27,2.31,2.36,2.36,2.36,2.36,2.36,2.36,2.36,2.36,2.36,2.36,2.39,2.43,2.48,2.56,2.59,2.63,2.67,2.71,2.75,2.83,2.88,2.91,2.96,3.03,3.06,3.09,3.16,3.19,3.24,3.28,3.31,3.36,3.39,3.43,3.48,3.56,3.56,3.62,3.66,3.67,3.75,3.76,3.80,3.86,3.86,3.93,3.98,4.02,4.06,4.09,4.14,4.17,4.21,4.26,4.29,4.33,4.36,4.36,4.36,4.42,4.46,4.46,4.46,4.46,4.46,4.46,4.46,4.42,4.43,4.47,4.50,4.50,4.54,4.57,4.61,4.65,4.69,4.73,4.77,4.80,4.80,4.80,4.80,4.80,4.77,4.76,4.74,4.70,4.70,4.70,4.70,4.70,4.70,4.70,4.70,4.69,4.65,4.61,4.60,4.56,4.50,4.50,4.50,4.45,4.40,4.40,4.37,4.32,4.30,4.28,4.21,4.20,4.20,4.17,4.10,4.10,4.08,4.04,4.00,4.00,3.93,3.90,3.90,3.90,3.85,3.84,3.86,3.90,3.90,3.90,3.90,3.90,3.90,3.90,3.90,3.90,3.90,3.93,3.94,3.94,3.95,3.99,4.00,4.00,4.00,4.00,4.00,3.97,3.93,3.90,3.90,3.86,3.82,3.80,3.80,3.76,3.72,3.68,3.64,3.61,3.54,3.48,3.44,3.40,3.36,3.32,3.28,3.20,3.15,3.12,3.08,3.04,3.01,2.96,2.92,2.88,2.81,2.76,2.72,2.69,2.64,2.61,2.62,2.69,2.80,2.92,3.00,3.08,3.17,3.27,3.40
e,e,e,e,e,e,e,e,e,e,e,e,e,e,e,e,e,e,e,e,e,e,e,e,e,e,e,e,e,e,e,e,e,e,e,e,e,e,e,e,e,e,e,e,e,e,e,e,e,0.34,0.58,0.77,0.84,0.99,1.10,1.20,1.35,1.43,1.56,1.68,1.77,1.93,2.07,2.18,2.27,2.35,2.39,2.41,2.43,2.45,2.45,2.45,2.45,2.45,2.45,2.45,2.48,2.54,2.60,2.62,2.68,2.72,2.73,2.81,2.87,2.91,2.94,3.02,3.08,3.11,3.15,3.22,3.22,3.28,3.32,3.34,3.42,3.42,3.47,3.54,3.60,3.62,3.67,3.71,3.73,3.79,3.82,3.86,3.90,3.92,3.98,4.01,4.05,4.10,4.12,4.17,4.21,4.23,4.29,4.32,4.36,4.40,4.40,4.42,4.47,4.51,4.52,4.52,4.52,4.52,4.52,4.50,4.45,4.46,4.51,4.52,4.52,4.57,4.61,4.63,4.69,4.72,4.76,4.80,4.80,4.80,4.80,4.80,4.80,4.80,4.80,4.77,4.72,4.70,4.70,4.70,4.70,4.70,4.70,4.70,4.70,4.69,4.61,4.60,4.57,4.52,4.50,4.50,4.45,4.40,4.40,4.40,4.34,4.30,4.29,4.23,4.21,4.20,4.17,4.10,4.10,4.10,4.07,4.00,4.00,3.95,3.91,3.90,3.90,3.82,3.80,3.82,3.88,3.88,3.88,3.89,3.90,3.90,3.90,3.90,3.90,3.90,3.90,3.90,3.90,3.91,3.97,3.98,3.98,3.98,4.00,4.00,3.95,3.90,3.90,3.88,3.83,3.80,3.80,3.78,3.72,3.69,3.66,3.60,3.58,3.53,3.47,3.40,3.38,3.33,3.29,3.26,3.20,3.13,3.09,3.05,3.00,2.98,2.93,2.89,2.86,2.81,2.73,2.69,2.66,2.60,2.58,2.58,2.61,2.69,2.83,2.93,3.02,3.09,3.17,3.32
e,e,e,e,e,e,e,e,e,e,e,e,e,e,e,e,e,e,e,e,e,e,e,e,e,e,e,e,e,e,e,e,e,e,e,e,e,e,e,e,e,e,e,e,e,e,e,e,e,0.32,0.49,0.64,0.72,0.86,0.97,1.07,1.22,1.30,1.44,1.56,1.64,1.80,1.90,2.01,2.14,2.22,2.35,2.45,2.51,2.58,2.58,2.58,2.58,2.58,2.58,2.58,2.58,2.59,2.60,2.67,2.74,2.79,2.80,2.88,2.90,2.94,3.01,3.08,3.10,3.14,3.22,3.29,3.29,3.35,3.39,3.40,3.48,3.49,3.53,3.59,3.60,3.67,3.69,3.73,3.79,3.80,3.86,3.89,3.92,3.98,4.00,4.04,4.09,4.10,4.17,4.20,4.23,4.29,4.30,4.36,4.39,4.40,4.40,4.47,4.49,4.53,4.59,4.59,4.59,4.59,4.57,4.50,4.49,4.49,4.52,4.59,4.59,4.60,4.63,4.69,4.70,4.76,4.79,4.80,4.80,4.80,4.80,4.80,4.80,4.80,4.80,4.80,4.77,4.70,4.70,4.70,4.70,4.70,4.70,4.70,4.70,4.69,4.61,4.60,4.59,4.57,4.50,4.50,4.45,4.40,4.40,4.40,4.34,4.30,4.30,4.29,4.23,4.20,4.17,4.10,4.10,4.10,4.07,4.00,4.00,3.99,3.95,3.90,3.90,3.82,3.80,3.80,3.81,3.81,3.81,3.85,3.90,3.90,3.90,3.90,3.90,3.90,3.90,3.90,3.90,3.90,3.91,3.91,3.91,3.93,4.00,4.00,3.95,3.90,3.89,3.83,3.80,3.80,3.79,3.72,3.70,3.66,3.61,3.60,3.53,3.51,3.47,3.39,3.32,3.30,3.26,3.21,3.20,3.13,3.05,3.01,2.99,2.93,2.90,2.87,2.81,2.80,2.73,2.66,2.61,2.60,2.53,2.51,2.54,2.62,2.71,2.85,2.95,3.03,3.11,3.26
e,e,e,e,e,e,e,e,e,e,e,e,e,e,e,e,e,e,e,e,e,e,e,e,e,e,e,e,e,e,e,e,e,e,e,e,e,e,e,e,e,e,e,e,e,e,e,e,e,0.24,0.35,0.47,0.58,0.70,0.81,0.93,1.05,1.16,1.31,1.43,1.52,1.67,1.76,1.88,2.01,2.09,2.24,2.35,2.44,2.55,2.59,2.63,2.65,2.65,2.65,2.65,2.65,2.65,2.65,2.73,2.78,2.82,2.86,2.94,2.95,2.99,3.06,3.10,3.14,3.20,3.27,3.30,3.34,3.38,3.42,3.46,3.50,3.54,3.57,3.61,3.65,3.69,3.73,3.77,3.80,3.85,3.88,3.92,3.96,4.00,4.04,4.08,4.11,4.16,4.23,4.25,4.29,4.35,4.35,4.42,4.45,4.45,4.45,4.49,4.53,4.57,4.60,4.60,4.60,4.60,4.59,4.55,4.55,4.55,4.57,4.60,4.60,4.63,4.67,4.71,4.75,4.78,4.80,4.80,4.80,4.80,4.80,4.80,4.80,4.80,4.80,4.80,4.78,4.71,4.70,4.70,4.70,4.70,4.70,4.70,4.70,4.69,4.61,4.60,4.60,4.58,4.50,4.50,4.47,4.44,4.40,4.40,4.34,4.30,4.30,4.30,4.23,4.20,4.17,4.10,4.10,4.10,4.07,4.00,4.00,4.00,3.96,3.90,3.90,3.82,3.80,3.80,3.80,3.80,3.80,3.82,3.85,3.85,3.85,3.87,3.90,3.90,3.90,3.90,3.90,3.90,3.90,3.90,3.90,3.91,3.95,3.95,3.92,3.90,3.89,3.82,3.80,3.78,3.74,3.70,3.66,3.62,3.59,3.55,3.51,3.47,3.43,3.39,3.31,3.27,3.23,3.19,3.15,3.11,3.05,2.98,2.94,2.91,2.87,2.83,2.79,2.75,2.71,2.65,2.59,2.55,2.51,2.47,2.48,2.56,2.64,2.78,2.89,2.97,3.04,3.20
e,e,e,e,e,e,e,e,e,e,e,e,e,e,e,e,e,e,e,e,e,e,e,e,e,e,e,e,e,e,e,e,e,e,e,e,e,e,e,e,e,e,e,e,e,e,e,e,e,0.16,0.24,0.33,0.47,0.55,0.68,0.81,0.89,1.03,1.17,1.29,1.39,1.53,1.63,1.75,1.87,1.96,2.10,2.21,2.32,2.46,2.55,2.64,2.69,2.70,2.72,2.73,2.73,2.73,2.73,2.80,2.82,2.85,2.92,2.99,3.01,3.06,3.12,3.12,3.19,3.26,3.30,3.32,3.39,3.41,3.45,3.50,3.51,3.57,3.61,3.64,3.70,3.71,3.77,3.82,3.83,3.90,3.92,3.96,4.02,4.02,4.09,4.12,4.14,4.22,4.28,4.31,4.35,4.40,4.41,4.47,4.51,4.52,4.52,4.52,4.56,4.61,4.62,4.62,4.62,4.62,4.62,4.62,4.60,4.60,4.60,4.62,4.62,4.67,4.71,4.73,4.79,4.80,4.80,4.80,4.80,4.80,4.80,4.80,4.80,4.80,4.80,4.80,4.79,4.72,4.70,4.70,4.70,4.70,4.70,4.70,4.70,4.69,4.62,4.61,4.60,4.58,4.50,4.50,4.50,4.47,4.40,4.40,4.34,4.30,4.30,4.30,4.23,4.20,4.18,4.12,4.10,4.10,4.07,4.00,4.00,4.00,3.96,3.90,3.90,3.84,3.81,3.80,3.80,3.80,3.80,3.80,3.80,3.80,3.80,3.84,3.88,3.88,3.88,3.89,3.90,3.90,3.90,3.90,3.90,3.90,3.90,3.90,3.90,3.90,3.88,3.81,3.80,3.76,3.70,3.70,3.63,3.59,3.56,3.50,3.49,3.44,3.39,3.37,3.31,3.23,3.19,3.17,3.10,3.09,3.04,2.97,2.90,2.90,2.84,2.79,2.77,2.71,2.69,2.64,2.58,2.50,2.49,2.44,2.43,2.49,2.57,2.70,2.82,2.90,2.98,3.13
e,e,e,e,e,e,e,e,e,e,e,e,e,e,e,e,e,e,e,e,e,e,e,e,e,e,e,e,e,e,e,e,e,e,e,e,e,e,e,e,e,e,e,e,e,e,e,e,e,0.16,0.24,0.32,0.41,0.49,0.61,0.74,0.82,0.91,1.01,1.12,1.25,1.34,1.48,1.59,1.69,1.83,1.93,2.05,2.17,2.27,2.41,2.55,2.65,2.71,2.77,2.84,2.86,2.86,2.86,2.88,2.88,2.91,2.98,3.00,3.05,3.12,3.18,3.18,3.25,3.29,3.32,3.38,3.40,3.45,3.49,3.51,3.57,3.59,3.64,3.68,3.70,3.76,3.84,3.88,3.89,3.97,3.98,4.02,4.08,4.08,4.15,4.18,4.21,4.28,4.30,4.35,4.39,4.41,4.47,4.49,4.54,4.58,4.58,4.58,4.59,4.63,4.68,4.68,4.68,4.68,4.68,4.68,4.62,4.60,4.62,4.68,4.68,4.69,4.73,4.78,4.80,4.80,4.80,4.80,4.80,4.80,4.80,4.80,4.80,4.80,4.80,4.80,4.80,4.78,4.72,4.70,4.70,4.70,4.70,4.70,4.70,4.70,4.68,4.63,4.60,4.58,4.50,4.50,4.50,4.47,4.40,4.40,4.34,4.30,4.30,4.30,4.23,4.20,4.19,4.18,4.12,4.10,4.07,4.00,4.00,4.00,3.96,3.90,3.90,3.89,3.84,3.80,3.80,3.80,3.80,3.80,3.80,3.80,3.80,3.81,3.82,3.82,3.82,3.87,3.90,3.90,3.90,3.90,3.90,3.90,3.90,3.90,3.90,3.88,3.82,3.80,3.80,3.76,3.70,3.70,3.63,3.56,3.51,3.50,3.44,3.41,3.37,3.32,3.30,3.23,3.17,3.12,3.10,3.04,3.01,2.97,2.90,2.90,2.84,2.77,2.72,2.70,2.64,2.61,2.58,2.50,2.44,2.41,2.41,2.43,2.51,2.60,2.72,2.84,2.92,3.07
e,e,e,e,e,e,e,e,e,e,e,e,e,e,e,e,e,e,e,e,e,e,e,e,e,e,e,e,e,e,e,e,e,e,e,e,e,e,e,e,e,e,e,e,e,e,e,0.01,0.08,0.16,0.24,0.32,0.43,0.51,0.62,0.72,0.80,0.88,0.96,1.05,1.17,1.24,1.39,1.50,1.59,1.71,1.79,1.91,2.04,2.12,2.28,2.41,2.52,2.63,2.70,2.81,2.88,2.91,2.94,2.94,2.94,2.98,3.04,3.04,3.11,3.17,3.21,3.24,3.29,3.32,3.37,3.44,3.44,3.50,3.54,3.56,3.64,3.64,3.69,3.74,3.74,3.82,3.87,3.91,3.95,3.99,4.03,4.07,4.11,4.14,4.18,4.22,4.26,4.30,4.34,4.38,4.42,4.45,4.49,4.53,4.57,4.60,4.60,4.63,4.64,4.66,4.70,4.74,4.74,4.74,4.74,4.74,4.67,4.64,4.66,4.70,4.74,4.74,4.76,4.81,4.84,4.84,4.84,4.84,4.84,4.81,4.80,4.80,4.80,4.80,4.80,4.80,4.80,4.80,4.76,4.72,4.70,4.70,4.70,4.70,4.70,4.70,4.70,4.63,4.60,4.58,4.50,4.50,4.50,4.47,4.40,4.40,4.37,4.33,4.30,4.30,4.23,4.20,4.20,4.20,4.12,4.10,4.08,4.04,4.00,4.00,3.96,3.90,3.90,3.90,3.85,3.80,3.80,3.80,3.80,3.80,3.80,3.80,3.80,3.80,3.80,3.80,3.80,3.83,3.86,3.86,3.86,3.88,3.90,3.90,3.90,3.90,3.88,3.84,3.80,3.80,3.77,3.73,3.69,3.66,3.62,3.55,3.49,3.45,3.41,3.38,3.34,3.30,3.26,3.22,3.16,3.09,3.06,3.01,2.98,2.94,2.90,2.86,2.82,2.76,2.69,2.66,2.62,2.58,2.54,2.50,2.42,2.38,2.36,2.37,2.44,2.52,2.62,2.74,2.85,3.00
e,e,e,e,e,e,e,e,e,e,e,e,e,e,e,e,e,e,e,e,e,e,e,e,e,e,e,e,e,e,e,e,e,e,e,e,e,e,e,e,e,e,e,e,e,e,e,0.01,0.09,0.17,0.25,0.34,0.49,0.57,0.65,0.72,0.80,0.88,0.96,1.04,1.12,1.20,1.33,1.44,1.52,1.60,1.67,1.80,1.92,2.01,2.16,2.25,2.36,2.50,2.58,2.72,2.83,2.91,2.99,3.00,3.01,3.05,3.11,3.11,3.17,3.20,3.23,3.30,3.31,3.36,3.43,3.50,3.51,3.56,3.60,3.62,3.69,3.71,3.75,3.80,3.81,3.88,3.90,3.94,4.00,4.01,4.07,4.10,4.13,4.20,4.21,4.25,4.30,4.31,4.39,4.41,4.44,4.51,4.51,4.58,4.61,4.61,4.61,4.68,4.70,4.71,4.72,4.79,4.80,4.80,4.80,4.80,4.73,4.71,4.71,4.71,4.78,4.80,4.80,4.82,4.89,4.90,4.90,4.90,4.90,4.83,4.81,4.81,4.80,4.80,4.80,4.80,4.80,4.80,4.80,4.75,4.71,4.70,4.70,4.70,4.70,4.70,4.70,4.63,4.60,4.58,4.51,4.50,4.50,4.47,4.40,4.40,4.40,4.36,4.30,4.30,4.23,4.20,4.20,4.20,4.12,4.10,4.10,4.09,4.01,4.00,3.96,3.91,3.90,3.90,3.85,3.80,3.80,3.80,3.79,3.79,3.79,3.80,3.80,3.80,3.80,3.80,3.80,3.80,3.80,3.80,3.80,3.86,3.89,3.89,3.89,3.89,3.84,3.80,3.80,3.79,3.74,3.70,3.68,3.61,3.59,3.55,3.48,3.40,3.39,3.34,3.30,3.28,3.21,3.19,3.15,3.08,3.00,2.99,2.94,2.90,2.89,2.82,2.80,2.76,2.68,2.61,2.59,2.55,2.50,2.49,2.42,2.34,2.30,2.30,2.38,2.46,2.53,2.63,2.79,2.94
e,e,e,e,e,e,e,e,e,e,e,e,e,e,e,e,e,e,e,e,e,e,e,e,e,e,e,e,e,e,e,e,e,e,e,e,e,e,e,e,e,e,e,e,e,e,e,0.01,0.14,0.23,0.31,0.39,0.49,0.57,0.65,0.72,0.80,0.88,1.00,1.11,1.18,1.26,1.36,1.44,1.52,1.60,1.67,1.77,1.88,2.01,2.11,2.19,2.28,2.37,2.45,2.59,2.70,2.80,2.93,2.98,3.08,3.15,3.17,3.17,3.19,3.23,3.29,3.37,3.37,3.42,3.48,3.50,3.56,3.59,3.63,3.68,3.70,3.75,3.78,3.82,3.87,3.89,3.94,3.98,4.01,4.06,4.09,4.13,4.18,4.20,4.25,4.29,4.32,4.38,4.45,4.47,4.51,4.57,4.57,4.64,4.67,4.67,4.67,4.69,4.74,4.77,4.77,4.80,4.80,4.80,4.80,4.80,4.78,4.77,4.77,4.77,4.79,4.80,4.83,4.88,4.90,4.90,4.90,4.90,4.90,4.88,4.87,4.85,4.80,4.80,4.80,4.80,4.80,4.80,4.80,4.79,4.75,4.70,4.70,4.70,4.70,4.70,4.70,4.63,4.60,4.59,4.57,4.52,4.50,4.47,4.40,4.40,4.40,4.36,4.30,4.30,4.28,4.24,4.20,4.20,4.12,4.10,4.10,4.09,4.01,4.00,3.99,3.96,3.90,3.90,3.85,3.80,3.80,3.80,3.76,3.73,3.74,3.80,3.80,3.80,3.80,3.80,3.80,3.80,3.80,3.80,3.80,3.82,3.83,3.83,3.83,3.83,3.81,3.80,3.80,3.74,3.71,3.67,3.62,3.60,3.55,3.51,3.48,3.40,3.34,3.31,3.28,3.22,3.20,3.15,3.12,3.08,3.00,2.95,2.91,2.88,2.83,2.80,2.76,2.72,2.68,2.61,2.55,2.51,2.48,2.43,2.41,2.34,2.28,2.24,2.32,2.39,2.47,2.57,2.72,2.88
e,e,e,e,e,e,e,e,e,e,e,e,e,e,e,e,e,e,e,e,e,e,e,e,e,e,e,e,e,e,e,e,e,e,e,e,e,e,e,e,e,e,e,e,e,e,e,0.05,0.17,0.26,0.34,0.42,0.49,0.57,0.66,0.76,0.84,0.91,1.03,1.13,1.21,1.29,1.37,1.44,1.53,1.63,1.71,1.79,1.88,2.01,2.08,2.16,2.24,2.31,2.39,2.54,2.65,2.74,2.87,2.94,3.06,3.14,3.17,3.23,3.24,3.28,3.35,3.40,3.43,3.47,3.51,3.54,3.59,3.62,3.66,3.71,3.73,3.78,3.82,3.85,3.90,3.93,3.99,4.04,4.05,4.12,4.14,4.18,4.24,4.24,4.31,4.34,4.36,4.44,4.49,4.52,4.56,4.60,4.63,4.68,4.70,4.70,4.70,4.73,4.77,4.81,4.84,4.84,4.84,4.84,4.84,4.84,4.84,4.82,4.80,4.80,4.83,4.84,4.86,4.90,4.90,4.90,4.90,4.90,4.90,4.90,4.90,4.88,4.83,4.81,4.80,4.80,4.80,4.80,4.80,4.80,4.78,4.74,4.74,4.74,4.72,4.70,4.70,4.63,4.60,4.60,4.60,4.52,4.50,4.48,4.43,4.41,4.40,4.36,4.30,4.30,4.30,4.25,4.20,4.20,4.15,4.12,4.10,4.09,4.01,4.00,4.00,3.98,3.90,3.90,3.85,3.80,3.80,3.80,3.74,3.70,3.71,3.76,3.76,3.76,3.77,3.80,3.80,3.80,3.80,3.80,3.80,3.80,3.80,3.80,3.80,3.80,3.80,3.79,3.76,3.71,3.70,3.66,3.59,3.57,3.52,3.48,3.45,3.40,3.32,3.28,3.24,3.20,3.17,3.12,3.08,3.05,3.00,2.93,2.88,2.85,2.80,2.77,2.73,2.69,2.65,2.60,2.53,2.48,2.45,2.40,2.37,2.33,2.27,2.21,2.26,2.33,2.41,2.50,2.66,2.81
e,e,e,e,e,e,e,e,e,e,e,e,e,e,e,e,e,e,e,e,e,e,e,e,e,e,e,e,e,e,e,e,e,e,e,e,e,e,e,e,e,e,e,e,e,e,e,0.11,0.18,0.26,0.34,0.42,0.49,0.57,0.69,0.82,0.90,0.98,1.06,1.13,1.21,1.29,1.37,1.44,1.54,1.69,1.77,1.85,1.93,2.01,2.08,2.16,2.24,2.31,2.39,2.54,2.65,2.72,2.80,2.88,2.96,3.03,3.12,3.27,3.30,3.34,3.40,3.40,3.47,3.50,3.53,3.60,3.60,3.66,3.70,3.71,3.79,3.80,3.85,3.90,3.90,3.98,4.05,4.10,4.11,4.19,4.20,4.24,4.30,4.30,4.37,4.40,4.43,4.50,4.50,4.56,4.60,4.61,4.69,4.70,4.70,4.70,4.70,4.78,4.80,4.83,4.90,4.90,4.90,4.90,4.90,4.90,4.90,4.85,4.80,4.80,4.88,4.90,4.90,4.90,4.90,4.90,4.90,4.90,4.90,4.90,4.90,4.90,4.89,4.81,4.80,4.80,4.80,4.80,4.80,4.80,4.80,4.80,4.80,4.80,4.76,4.70,4.70,4.63,4.60,4.60,4.60,4.52,4.50,4.50,4.49,4.41,4.40,4.36,4.30,4.30,4.30,4.25,4.20,4.20,4.20,4.14,4.10,4.09,4.01,4.00,4.00,3.98,3.90,3.90,3.85,3.80,3.80,3.80,3.74,3.70,3.70,3.70,3.70,3.70,3.73,3.80,3.80,3.80,3.80,3.80,3.80,3.80,3.80,3.80,3.80,3.80,3.80,3.77,3.70,3.70,3.70,3.66,3.58,3.51,3.50,3.45,3.40,3.40,3.32,3.24,3.20,3.19,3.11,3.10,3.06,3.00,3.00,2.93,2.85,2.80,2.79,2.72,2.70,2.66,2.60,2.60,2.53,2.45,2.40,2.40,2.32,2.30,2.27,2.20,2.20,2.26,2.34,2.44,2.59,2.75
e,e,e,e,e,e,e,e,e,e,e,e,e,e,e,e,e,e,e,e,e,e,e,e,e,e,e,e,e,e,e,e,e,e,e,e,e,e,e,e,e,e,e,e,e,e,0.03,0.11,0.18,0.26,0.36,0.48,0.56,0.63,0.73,0.82,0.90,0.98,1.06,1.13,1.22,1.34,1.43,1.51,1.59,1.70,1.77,1.85,1.93,2.01,2.08,2.16,2.26,2.38,2.46,2.56,2.65,2.72,2.80,2.88,2.96,3.03,3.12,3.27,3.30,3.34,3.41,3.46,3.49,3.53,3.59,3.66,3.66,3.72,3.76,3.78,3.86,3.86,3.91,3.96,3.96,4.04,4.08,4.12,4.17,4.20,4.24,4.28,4.31,4.36,4.39,4.43,4.47,4.50,4.55,4.59,4.62,4.67,4.70,4.74,4.76,4.76,4.76,4.79,4.83,4.88,4.90,4.90,4.98,5.05,5.07,4.97,4.92,4.88,4.86,4.87,4.89,4.90,4.90,4.90,4.90,4.90,4.90,4.90,4.90,4.90,4.90,4.90,4.90,4.87,4.82,4.80,4.80,4.80,4.80,4.80,4.80,4.80,4.80,4.80,4.76,4.70,4.70,4.68,4.64,4.60,4.60,4.52,4.50,4.50,4.49,4.41,4.40,4.36,4.30,4.30,4.30,4.25,4.20,4.20,4.20,4.14,4.10,4.09,4.01,4.00,4.00,3.98,3.90,3.90,3.88,3.84,3.80,3.80,3.74,3.70,3.70,3.70,3.70,3.70,3.71,3.74,3.74,3.74,3.76,3.80,3.80,3.80,3.80,3.80,3.80,3.80,3.77,3.73,3.70,3.70,3.66,3.62,3.58,3.51,3.46,3.42,3.38,3.34,3.31,3.24,3.18,3.13,3.10,3.06,3.02,2.99,2.94,2.91,2.85,2.78,2.73,2.71,2.66,2.62,2.59,2.54,2.51,2.45,2.38,2.34,2.31,2.26,2.22,2.19,2.14,2.20,2.28,2.37,2.53,2.68
e,e,e,e,e,e,e,e,e,e,e,e,e,e,e,e,e,e,e,e,e,e,e,e,e,e,e,e,e,e,e,e,e,e,e,e,e,e,e,e,e,e,e,e,e,e,0.04,0.13,0.21,0.29,0.39,0.52,0.59,0.67,0.75,0.82,0.90,0.98,1.07,1.16,1.25,1.38,1.47,1.54,1.62,1.70,1.77,1.85,1.94,2.03,2.11,2.19,2.29,2.41,2.49,2.57,2.65,2.72,2.80,2.88,2.97,3.06,3.15,3.28,3.30,3.34,3.42,3.50,3.52,3.56,3.63,3.70,3.70,3.76,3.81,3.84,3.89,3.92,3.96,4.01,4.03,4.08,4.12,4.15,4.20,4.22,4.27,4.31,4.34,4.40,4.42,4.46,4.51,4.53,4.61,4.63,4.66,4.73,4.73,4.80,4.83,4.83,4.83,4.83,4.93,5.05,5.13,5.19,5.35,5.49,5.54,5.42,5.34,5.23,5.14,5.09,5.00,4.93,4.90,4.90,4.90,4.90,4.90,4.90,4.90,4.90,4.90,4.90,4.90,4.90,4.85,4.82,4.80,4.80,4.80,4.80,4.80,4.80,4.80,4.80,4.76,4.70,4.70,4.70,4.66,4.60,4.60,4.52,4.50,4.50,4.49,4.41,4.40,4.37,4.32,4.30,4.30,4.25,4.20,4.20,4.20,4.14,4.10,4.09,4.04,4.01,4.00,3.98,3.90,3.90,3.90,3.87,3.80,3.80,3.76,3.72,3.70,3.70,3.70,3.70,3.70,3.70,3.70,3.70,3.72,3.77,3.77,3.77,3.78,3.80,3.80,3.78,3.73,3.70,3.70,3.68,3.63,3.59,3.56,3.51,3.43,3.39,3.35,3.30,3.28,3.23,3.17,3.10,3.08,3.02,2.99,2.96,2.90,2.88,2.83,2.77,2.70,2.68,2.63,2.59,2.56,2.51,2.48,2.44,2.38,2.30,2.28,2.23,2.19,2.16,2.11,2.13,2.20,2.31,2.47,2.60
e,e,e,e,e,e,e,e,e,e,e,e,e,e,e,e,e,e,e,e,e,e,e,e,e,e,e,e,e,e,e,e,e,e,e,e,e,e,e,e,e,e,e,e,e,e,0.06,0.20,0.28,0.35,0.43,0.52,0.59,0.67,0.75,0.82,0.90,0.98,1.11,1.23,1.30,1.39,1.47,1.54,1.62,1.70,1.77,1.85,1.95,2.10,2.17,2.25,2.33,2.41,2.49,2.57,2.65,2.72,2.80,2.88,3.01,3.12,3.20,3.29,3.30,3.34,3.42,3.50,3.57,3.60,3.63,3.70,3.70,3.76,3.83,3.89,3.90,3.96,4.00,4.02,4.09,4.10,4.15,4.19,4.21,4.28,4.30,4.34,4.39,4.40,4.47,4.50,4.53,4.60,4.67,4.69,4.73,4.79,4.79,4.86,4.89,4.89,4.89,4.89,5.10,5.38,5.66,5.87,6.09,6.28,6.39,6.38,6.30,6.00,5.68,5.53,5.24,5.01,4.90,4.90,4.90,4.90,4.90,4.90,4.90,4.90,4.90,4.90,4.90,4.90,4.89,4.85,4.80,4.80,4.80,4.80,4.80,4.80,4.80,4.80,4.76,4.70,4.70,4.70,4.66,4.60,4.60,4.52,4.50,4.50,4.49,4.41,4.40,4.40,4.38,4.31,4.30,4.25,4.20,4.20,4.20,4.14,4.10,4.10,4.09,4.03,4.00,3.98,3.90,3.90,3.90,3.87,3.80,3.80,3.79,3.76,3.70,3.70,3.70,3.70,3.70,3.70,3.70,3.70,3.70,3.71,3.71,3.71,3.75,3.80,3.80,3.73,3.70,3.70,3.69,3.62,3.60,3.56,3.51,3.50,3.43,3.36,3.31,3.30,3.23,3.20,3.17,3.09,3.02,3.00,2.96,2.91,2.90,2.83,2.80,2.77,2.69,2.62,2.60,2.57,2.51,2.50,2.44,2.40,2.38,2.30,2.23,2.20,2.17,2.11,2.10,2.05,2.10,2.25,2.40,2.49
e,e,e,e,e,e,e,e,e,e,e,e,e,e,e,e,e,e,e,e,e,e,e,e,e,e,e,e,e,e,e,e,e,e,e,e,e,e,e,e,e,e,e,e,e,e,0.10,0.21,0.28,0.36,0.44,0.52,0.59,0.67,0.77,0.88,0.96,1.03,1.14,1.23,1.31,1.39,1.47,1.54,1.63,1.75,1.83,1.91,2.00,2.11,2.18,2.26,2.34,2.41,2.49,2.57,2.65,2.74,2.86,2.93,3.04,3.13,3.21,3.29,3.34,3.37,3.42,3.50,3.57,3.60,3.63,3.70,3.70,3.76,3.84,3.90,3.90,3.97,4.03,4.08,4.16,4.16,4.21,4.26,4.27,4.34,4.36,4.40,4.46,4.46,4.53,4.56,4.58,4.66,4.69,4.73,4.77,4.81,4.85,4.89,4.90,4.95,5.12,5.34,5.62,5.95,6.29,6.56,6.80,7.02,7.19,7.27,7.29,7.05,6.79,6.76,6.53,6.27,5.92,5.49,5.06,4.94,4.90,4.90,4.90,4.90,4.90,4.90,4.90,4.90,4.90,4.86,4.80,4.80,4.80,4.80,4.80,4.80,4.80,4.80,4.76,4.70,4.70,4.70,4.66,4.60,4.60,4.57,4.53,4.50,4.49,4.41,4.40,4.40,4.38,4.31,4.30,4.28,4.24,4.20,4.20,4.14,4.10,4.10,4.10,4.03,4.00,3.99,3.96,3.91,3.90,3.87,3.80,3.80,3.80,3.76,3.70,3.70,3.70,3.70,3.70,3.70,3.70,3.70,3.70,3.70,3.70,3.70,3.72,3.74,3.74,3.71,3.70,3.68,3.64,3.61,3.57,3.53,3.49,3.45,3.41,3.35,3.29,3.24,3.21,3.17,3.13,3.09,3.01,3.00,2.96,2.89,2.85,2.81,2.77,2.73,2.69,2.62,2.57,2.53,2.49,2.45,2.41,2.37,2.33,2.30,2.22,2.17,2.13,2.09,2.05,2.02,2.06,2.17,2.28,2.40
e,e,e,e,e,e,e,e,e,e,e,e,e,e,e,e,e,e,e,e,e,e,e,e,e,e,e,e,e,e,e,e,e,e,e,e,e,e,e,e,e,e,e,e,e,0.05,0.13,0.21,0.28,0.36,0.45,0.54,0.61,0.69,0.80,0.92,1.00,1.08,1.16,1.23,1.31,1.39,1.48,1.56,1.66,1.79,1.87,1.95,2.03,2.11,2.18,2.26,2.34,2.41,2.49,2.58,2.67,2.76,2.90,2.98,3.06,3.13,3.21,3.29,3.36,3.40,3.42,3.50,3.57,3.61,3.64,3.70,3.72,3.77,3.84,3.90,3.90,3.97,4.05,4.12,4.18,4.20,4.26,4.31,4.33,4.39,4.41,4.46,4.52,4.52,4.59,4.62,4.65,4.72,4.72,4.78,4.82,4.84,4.93,4.98,5.02,5.15,5.48,5.86,6.21,6.55,6.91,7.24,7.51,7.75,7.96,8.16,8.26,8.14,8.02,8.09,7.96,7.73,7.26,6.54,5.78,5.39,5.12,4.95,4.90,4.90,4.90,4.90,4.90,4.90,4.90,4.87,4.82,4.80,4.80,4.80,4.80,4.80,4.80,4.80,4.77,4.72,4.70,4.70,4.66,4.60,4.60,4.60,4.55,4.50,4.49,4.43,4.41,4.40,4.38,4.31,4.30,4.30,4.27,4.20,4.20,4.15,4.11,4.10,4.10,4.03,4.00,4.00,4.00,3.92,3.90,3.88,3.82,3.80,3.80,3.76,3.70,3.70,3.70,3.69,3.68,3.68,3.70,3.70,3.70,3.70,3.70,3.70,3.70,3.70,3.70,3.70,3.69,3.66,3.60,3.58,3.53,3.49,3.47,3.41,3.39,3.34,3.28,3.20,3.18,3.13,3.09,3.07,3.01,2.99,2.95,2.88,2.80,2.79,2.74,2.69,2.68,2.61,2.54,2.49,2.47,2.41,2.39,2.34,2.30,2.28,2.22,2.14,2.10,2.09,2.03,2.03,2.07,2.14,2.20,2.33
e,e,e,e,e,e,e,e,e,e,e,e,e,e,e,e,e,e,e,e,e,e,e,e,e,e,e,e,e,e,e,e,e,e,e,e,e,e,e,e,e,e,e,e,e,0.05,0.13,0.21,0.28,0.36,0.47,0.60,0.68,0.75,0.84,0.92,1.00,1.08,1.16,1.23,1.31,1.39,1.52,1.63,1.71,1.80,1.87,1.95,2.03,2.11,2.18,2.26,2.34,2.41,2.49,2.63,2.73,2.81,2.90,2.98,3.06,3.13,3.21,3.29,3.36,3.40,3.42,3.50,3.57,3.64,3.69,3.70,3.77,3.79,3.84,3.90,3.90,3.97,4.05,4.10,4.12,4.18,4.26,4.33,4.39,4.40,4.45,4.52,4.58,4.58,4.66,4.68,4.71,4.78,4.78,4.84,4.88,4.91,5.05,5.24,5.43,5.68,6.05,6.44,6.82,7.17,7.50,7.87,8.23,8.49,8.70,9.05,9.20,9.26,9.30,9.37,9.34,9.25,8.95,8.40,7.69,6.79,5.84,5.10,4.90,4.90,4.90,4.90,4.90,4.90,4.90,4.89,4.87,4.80,4.80,4.80,4.80,4.80,4.80,4.80,4.79,4.77,4.71,4.70,4.66,4.60,4.60,4.60,4.55,4.50,4.50,4.49,4.43,4.40,4.38,4.31,4.30,4.30,4.27,4.20,4.20,4.19,4.15,4.10,4.10,4.03,4.00,4.00,4.00,3.92,3.90,3.90,3.88,3.81,3.80,3.76,3.70,3.70,3.70,3.66,3.62,3.62,3.68,3.70,3.70,3.70,3.70,3.70,3.70,3.70,3.70,3.70,3.66,3.61,3.59,3.53,3.51,3.47,3.41,3.40,3.34,3.31,3.28,3.20,3.13,3.11,3.07,3.01,3.00,2.95,2.91,2.88,2.80,2.74,2.71,2.68,2.62,2.60,2.54,2.47,2.41,2.40,2.34,2.31,2.28,2.22,2.20,2.14,2.10,2.10,2.09,2.14,2.17,2.19,2.20,2.29
e,e,e,e,e,e,e,e,e,e,e,e,e,e,e,e,e,e,e,e,e,e,e,e,e,e,e,e,e,e,e,e,e,e,e,e,e,e,e,e,e,e,e,e,e,0.05,0.13,0.21,0.32,0.41,0.51,0.62,0.69,0.77,0.85,0.92,1.00,1.08,1.16,1.25,1.36,1.44,1.55,1.64,1.72,1.80,1.87,1.95,2.03,2.11,2.18,2.26,2.36,2.46,2.54,2.65,2.75,2.82,2.90,2.98,3.06,3.13,3.21,3.29,3.36,3.42,3.46,3.50,3.57,3.65,3.70,3.71,3.78,3.83,3.87,3.91,3.94,3.98,4.02,4.06,4.10,4.18,4.26,4.32,4.36,4.39,4.46,4.52,4.56,4.60,4.67,4.72,4.76,4.80,4.84,4.91,5.03,5.23,5.45,5.68,5.92,6.19,6.58,6.97,7.35,7.72,8.07,8.46,8.84,9.17,9.52,10.16,10.69,11.05,11.27,11.43,11.72,11.73,11.56,11.15,10.13,8.73,7.43,6.38,5.71,5.09,4.90,4.90,4.90,4.90,4.90,4.90,4.88,4.81,4.80,4.80,4.80,4.80,4.80,4.80,4.80,4.79,4.71,4.70,4.68,4.64,4.60,4.60,4.55,4.50,4.50,4.50,4.44,4.40,4.39,4.35,4.31,4.30,4.27,4.20,4.20,4.20,4.17,4.10,4.10,4.03,4.00,4.00,4.00,3.92,3.90,3.90,3.89,3.82,3.80,3.76,3.70,3.70,3.70,3.65,3.60,3.60,3.64,3.65,3.65,3.66,3.69,3.70,3.70,3.70,3.70,3.66,3.63,3.60,3.59,3.52,3.47,3.43,3.39,3.36,3.32,3.28,3.24,3.20,3.12,3.07,3.03,2.99,2.96,2.92,2.88,2.84,2.80,2.73,2.68,2.64,2.60,2.56,2.52,2.46,2.39,2.36,2.32,2.28,2.25,2.25,2.25,2.22,2.21,2.24,2.24,2.28,2.32,2.34,2.34,2.38
e,e,e,e,e,e,e,e,e,e,e,e,e,e,e,e,e,e,e,e,e,e,e,e,e,e,e,e,e,e,e,e,e,e,e,e,e,e,e,e,e,e,e,e,e,0.06,0.14,0.22,0.37,0.46,0.54,0.62,0.69,0.77,0.85,0.92,1.00,1.09,1.17,1.27,1.41,1.49,1.57,1.64,1.72,1.80,1.87,1.95,2.03,2.11,2.19,2.27,2.38,2.51,2.59,2.67,2.75,2.82,2.90,2.98,3.06,3.13,3.21,3.29,3.36,3.44,3.50,3.50,3.57,3.65,3.70,3.72,3.78,3.86,3.90,3.91,3.99,4.01,4.01,4.03,4.10,4.18,4.25,4.29,4.31,4.39,4.46,4.50,4.52,4.60,4.67,4.74,4.79,4.80,4.88,4.97,5.21,5.59,5.93,6.19,6.43,6.71,7.09,7.47,7.85,8.24,8.64,9.02,9.47,9.94,10.51,11.45,12.39,13.08,13.51,13.77,14.40,14.55,14.51,14.23,12.93,11.11,9.50,8.13,6.86,5.54,5.01,4.90,4.90,4.90,4.90,4.90,4.88,4.82,4.81,4.81,4.81,4.81,4.81,4.80,4.80,4.79,4.71,4.70,4.70,4.68,4.60,4.60,4.55,4.50,4.50,4.50,4.44,4.40,4.40,4.40,4.33,4.30,4.27,4.20,4.20,4.20,4.17,4.10,4.10,4.04,4.01,4.00,4.00,3.92,3.90,3.90,3.89,3.82,3.80,3.77,3.71,3.70,3.70,3.65,3.60,3.60,3.60,3.60,3.60,3.61,3.68,3.69,3.69,3.69,3.69,3.62,3.60,3.60,3.58,3.51,3.44,3.40,3.37,3.31,3.29,3.25,3.20,3.19,3.12,3.04,3.00,2.98,2.91,2.89,2.85,2.80,2.79,2.72,2.65,2.60,2.58,2.51,2.49,2.45,2.39,2.32,2.32,2.28,2.26,2.32,2.32,2.33,2.36,2.42,2.42,2.43,2.47,2.52,2.52,2.53
e,e,e,e,e,e,e,e,e,e,e,e,e,e,e,e,e,e,e,e,e,e,e,e,e,e,e,e,e,e,e,e,e,e,e,e,e,e,e,e,e,e,e,e,e,0.13,0.20,0.28,0.38,0.46,0.54,0.62,0.69,0.77,0.85,0.92,1.00,1.14,1.23,1.32,1.41,1.49,1.57,1.64,1.72,1.80,1.87,1.95,2.03,2.11,2.25,2.34,2.42,2.51,2.59,2.67,2.75,2.82,2.90,2.98,3.06,3.13,3.21,3.29,3.36,3.44,3.50,3.50,3.57,3.65,3.72,3.78,3.80,3.86,3.90,3.91,3.99,4.05,4.08,4.08,4.10,4.18,4.21,4.25,4.31,4.39,4.46,4.50,4.52,4.60,4.67,4.71,4.75,4.80,4.88,5.05,5.36,5.81,6.30,6.66,6.94,7.22,7.60,7.93,8.30,8.71,9.15,9.53,10.35,11.26,12.19,13.17,14.21,15.18,15.89,16.20,16.88,17.38,17.58,17.39,16.64,14.67,12.37,10.13,8.27,6.90,5.63,4.90,4.90,4.90,4.90,4.90,4.90,4.88,4.88,4.88,4.88,4.88,4.88,4.83,4.80,4.79,4.71,4.70,4.70,4.68,4.60,4.60,4.55,4.50,4.50,4.50,4.44,4.40,4.40,4.40,4.33,4.30,4.27,4.20,4.20,4.20,4.17,4.10,4.10,4.08,4.04,4.00,4.00,3.92,3.90,3.90,3.89,3.82,3.80,3.79,3.76,3.70,3.70,3.65,3.60,3.60,3.60,3.60,3.60,3.60,3.62,3.62,3.62,3.62,3.62,3.61,3.60,3.58,3.52,3.50,3.44,3.37,3.32,3.30,3.25,3.21,3.18,3.12,3.11,3.04,2.97,2.92,2.90,2.85,2.81,2.78,2.73,2.71,2.65,2.58,2.52,2.50,2.45,2.42,2.40,2.38,2.43,2.44,2.43,2.45,2.45,2.49,2.53,2.55,2.55,2.60,2.64,2.65,2.65,2.71
e,e,e,e,e,e,e,e,e,e,e,e,e,e,e,e,e,e,e,e,e,e,e,e,e,e,e,e,e,e,e,e,e,e,e,e,e,e,e,e,e,e,e,e,e,0.15,0.23,0.31,0.38,0.46,0.54,0.62,0.69,0.77,0.87,0.96,1.04,1.17,1.26,1.33,1.41,1.49,1.57,1.64,1.72,1.80,1.87,1.97,2.07,2.15,2.27,2.36,2.44,2.51,2.59,2.67,2.75,2.82,2.90,2.98,3.06,3.13,3.21,3.29,3.36,3.44,3.51,3.54,3.58,3.65,3.73,3.80,3.83,3.88,3.91,3.95,3.99,4.07,4.12,4.14,4.14,4.19,4.22,4.26,4.31,4.39,4.44,4.48,4.52,4.60,4.64,4.68,4.73,4.80,4.88,5.08,5.42,5.90,6.44,6.89,7.30,7.69,8.08,8.41,8.79,9.20,9.69,10.38,11.45,12.64,13.83,14.90,15.98,17.06,18.09,19.03,19.88,20.62,20.98,20.81,20.02,18.10,15.57,12.76,10.04,8.16,6.41,5.25,4.90,4.90,4.90,4.90,4.90,4.90,4.90,4.90,4.90,4.90,4.90,4.84,4.80,4.79,4.71,4.70,4.70,4.68,4.60,4.60,4.57,4.53,4.50,4.50,4.44,4.40,4.40,4.40,4.33,4.30,4.28,4.24,4.21,4.20,4.17,4.10,4.10,4.10,4.06,4.00,4.00,3.95,3.92,3.90,3.89,3.82,3.80,3.80,3.78,3.71,3.70,3.67,3.63,3.60,3.60,3.60,3.60,3.60,3.60,3.60,3.60,3.60,3.60,3.60,3.58,3.54,3.50,3.47,3.42,3.36,3.29,3.26,3.22,3.18,3.15,3.10,3.07,3.03,2.97,2.90,2.87,2.82,2.78,2.75,2.70,2.67,2.63,2.57,2.50,2.53,2.50,2.48,2.48,2.51,2.56,2.58,2.59,2.62,2.62,2.65,2.69,2.72,2.72,2.76,2.78,2.79,2.82,2.86
e,e,e,e,e,e,e,e,e,e,e,e,e,e,e,e,e,e,e,e,e,e,e,e,e,e,e,e,e,e,e,e,e,e,e,e,e,e,e,e,e,e,e,e,0.07,0.15,0.23,0.31,0.38,0.46,0.54,0.62,0.70,0.77,0.90,1.02,1.10,1.18,1.26,1.33,1.41,1.49,1.57,1.64,1.72,1.80,1.88,2.00,2.13,2.21,2.28,2.36,2.44,2.51,2.59,2.67,2.75,2.82,2.90,2.98,3.06,3.13,3.21,3.29,3.36,3.44,3.52,3.60,3.60,3.65,3.73,3.81,3.88,3.90,3.94,4.00,4.00,4.07,4.15,4.20,4.20,4.20,4.26,4.30,4.31,4.39,4.40,4.44,4.52,4.60,4.60,4.65,4.73,4.80,4.88,5.08,5.42,5.90,6.44,6.99,7.58,8.13,8.52,8.90,9.29,9.72,10.29,11.46,12.68,14.03,15.43,16.60,17.72,18.84,20.26,22.16,23.26,24.15,24.58,24.36,23.18,21.40,18.91,15.76,12.04,9.34,7.29,5.82,4.90,4.90,4.90,4.90,4.90,4.90,4.90,4.90,4.90,4.90,4.90,4.84,4.80,4.79,4.71,4.70,4.70,4.68,4.60,4.60,4.60,4.57,4.50,4.50,4.44,4.40,4.40,4.40,4.33,4.30,4.30,4.30,4.22,4.20,4.17,4.10,4.10,4.10,4.06,4.00,4.00,4.00,3.95,3.90,3.89,3.82,3.80,3.80,3.78,3.71,3.70,3.70,3.67,3.60,3.60,3.60,3.60,3.60,3.60,3.60,3.60,3.60,3.60,3.60,3.55,3.50,3.49,3.42,3.40,3.36,3.28,3.21,3.20,3.15,3.10,3.09,3.02,3.00,2.96,2.89,2.81,2.80,2.76,2.70,2.70,2.63,2.60,2.58,2.52,2.59,2.61,2.61,2.62,2.70,2.71,2.71,2.73,2.81,2.81,2.81,2.84,2.91,2.91,2.91,2.91,2.93,3.00,3.01
e,e,e,e,e,e,e,e,e,e,e,e,e,e,e,e,e,e,e,e,e,e,e,e,e,e,e,e,e,e,e,e,e,e,e,e,e,e,e,e,e,e,e,e,0.07,0.15,0.23,0.31,0.38,0.46,0.54,0.63,0.75,0.84,0.93,1.02,1.10,1.18,1.26,1.33,1.41,1.49,1.57,1.64,1.73,1.86,1.94,2.04,2.13,2.21,2.28,2.36,2.44,2.51,2.59,2.67,2.75,2.82,2.90,2.98,3.06,3.13,3.21,3.29,3.36,3.44,3.52,3.60,3.60,3.65,3.73,3.81,3.88,3.94,3.98,4.00,4.00,4.07,4.15,4.20,4.20,4.25,4.29,4.32,4.37,4.40,4.40,4.44,4.52,4.60,4.60,4.65,4.73,4.80,4.83,5.05,5.42,5.91,6.50,7.14,7.80,8.40,8.84,9.22,9.68,10.40,11.46,12.72,13.96,15.24,16.58,18.05,19.74,21.71,23.90,26.14,27.53,28.16,28.12,27.41,25.79,23.78,21.33,18.25,14.28,10.36,7.97,6.32,4.96,4.91,4.90,4.90,4.90,4.90,4.90,4.90,4.90,4.90,4.90,4.84,4.80,4.80,4.77,4.72,4.70,4.68,4.60,4.60,4.60,4.57,4.50,4.50,4.48,4.44,4.40,4.40,4.33,4.30,4.30,4.30,4.22,4.20,4.19,4.16,4.11,4.10,4.06,4.00,4.00,4.00,3.95,3.90,3.90,3.87,3.83,3.80,3.78,3.71,3.70,3.70,3.67,3.60,3.60,3.60,3.60,3.60,3.60,3.60,3.60,3.60,3.60,3.55,3.52,3.48,3.43,3.41,3.36,3.32,3.28,3.21,3.15,3.12,3.08,3.03,3.01,2.96,2.92,2.89,2.81,2.76,2.72,2.70,2.70,2.68,2.70,2.72,2.70,2.73,2.78,2.80,2.81,2.83,2.83,2.87,2.91,2.93,2.93,2.97,3.01,3.03,3.03,3.08,3.10,3.11,3.13,3.18
e,e,e,e,e,e,e,e,e,e,e,e,e,e,e,e,e,e,e,e,e,e,e,e,e,e,e,e,e,e,e,e,e,e,e,e,e,e,e,e,e,e,e,e,0.07,0.15,0.23,0.31,0.38,0.48,0.57,0.66,0.79,0.87,0.95,1.02,1.10,1.18,1.26,1.33,1.41,1.49,1.59,1.67,1.76,1.89,1.97,2.05,2.13,2.21,2.28,2.36,2.44,2.51,2.59,2.67,2.75,2.82,2.90,2.98,3.06,3.13,3.21,3.29,3.36,3.44,3.52,3.60,3.62,3.67,3.73,3.81,3.88,3.96,4.00,4.00,4.03,4.08,4.15,4.21,4.23,4.28,4.32,4.35,4.40,4.43,4.43,4.46,4.51,4.57,4.59,4.65,4.73,4.80,4.80,5.04,5.45,6.00,6.62,7.31,8.00,8.64,9.12,9.51,10.14,11.10,12.40,13.76,15.10,16.41,17.80,19.54,21.94,24.62,27.31,29.71,31.25,31.76,31.42,30.30,28.35,26.09,23.50,20.32,16.18,11.29,8.59,6.86,5.30,4.96,4.90,4.90,4.90,4.90,4.90,4.90,4.90,4.90,4.90,4.84,4.80,4.80,4.80,4.73,4.70,4.69,4.63,4.61,4.60,4.57,4.50,4.50,4.50,4.46,4.40,4.40,4.35,4.32,4.30,4.30,4.22,4.20,4.20,4.19,4.11,4.10,4.06,4.00,4.00,4.00,3.95,3.90,3.90,3.90,3.84,3.80,3.78,3.71,3.70,3.70,3.67,3.60,3.60,3.60,3.59,3.57,3.57,3.59,3.60,3.59,3.57,3.52,3.50,3.47,3.40,3.37,3.33,3.29,3.26,3.20,3.13,3.09,3.05,3.00,2.98,2.93,2.89,2.86,2.81,2.78,2.76,2.76,2.76,2.79,2.83,2.86,2.86,2.89,2.94,2.96,2.97,2.99,2.99,3.03,3.07,3.09,3.09,3.13,3.17,3.19,3.19,3.24,3.26,3.27,3.29,3.34
e,e,e,e,e,e,e,e,e,e,e,e,e,e,e,e,e,e,e,e,e,e,e,e,e,e,e,e,e,e,e,e,e,e,e,e,e,e,e,e,e,e,e,e,0.07,0.15,0.23,0.31,0.38,0.52,0.63,0.71,0.79,0.87,0.95,1.02,1.10,1.18,1.26,1.33,1.41,1.49,1.63,1.74,1.82,1.90,1.97,2.05,2.13,2.21,2.28,2.36,2.44,2.51,2.59,2.67,2.75,2.82,2.90,2.98,3.06,3.13,3.21,3.29,3.36,3.44,3.52,3.60,3.67,3.70,3.73,3.81,3.88,3.96,4.00,4.01,4.09,4.10,4.15,4.22,4.30,4.30,4.35,4.40,4.41,4.48,4.50,4.50,4.50,4.50,4.57,4.65,4.73,4.80,4.80,5.04,5.52,6.20,6.81,7.50,8.19,8.84,9.38,9.77,10.68,11.85,13.12,14.58,16.09,17.54,19.07,21.06,24.30,27.56,30.49,32.84,34.39,34.93,34.45,33.02,30.87,28.33,25.41,21.95,17.71,12.14,9.16,7.43,5.95,5.06,4.90,4.90,4.90,4.90,4.90,4.90,4.90,4.90,4.90,4.84,4.80,4.80,4.80,4.73,4.70,4.70,4.70,4.62,4.60,4.57,4.50,4.50,4.50,4.46,4.40,4.40,4.40,4.35,4.30,4.30,4.22,4.20,4.20,4.19,4.11,4.10,4.06,4.00,4.00,4.00,3.95,3.90,3.90,3.90,3.84,3.80,3.78,3.71,3.70,3.70,3.67,3.60,3.60,3.60,3.57,3.50,3.50,3.57,3.60,3.58,3.51,3.50,3.50,3.47,3.39,3.32,3.30,3.26,3.20,3.20,3.13,3.05,3.00,3.00,2.92,2.90,2.87,2.80,2.80,2.86,2.89,2.89,2.89,2.96,2.99,2.99,3.00,3.07,3.09,3.09,3.10,3.18,3.19,3.19,3.21,3.29,3.29,3.29,3.32,3.39,3.39,3.39,3.39,3.41,3.48,3.49
e,e,e,e,e,e,e,e,e,e,e,e,e,e,e,e,e,e,e,e,e,e,e,e,e,e,e,e,e,e,e,e,e,e,e,e,e,e,e,e,e,e,e,e,0.07,0.15,0.25,0.37,0.44,0.54,0.64,0.72,0.79,0.87,0.95,1.02,1.10,1.18,1.26,1.35,1.47,1.55,1.65,1.74,1.82,1.90,1.97,2.05,2.13,2.21,2.28,2.36,2.44,2.51,2.59,2.67,2.75,2.82,2.90,2.98,3.06,3.13,3.21,3.29,3.36,3.44,3.52,3.60,3.67,3.70,3.73,3.81,3.88,3.96,4.02,4.06,4.10,4.14,4.18,4.22,4.30,4.30,4.36,4.42,4.46,4.49,4.54,4.56,4.56,4.56,4.59,4.65,4.71,4.74,4.79,5.11,5.62,6.29,6.99,7.69,8.39,9.05,9.64,10.39,11.46,12.64,13.81,15.19,16.59,18.01,19.80,22.77,26.48,29.76,32.66,35.29,37.24,37.96,37.39,35.66,33.22,30.30,26.94,23.11,18.78,13.69,10.25,8.06,6.70,5.73,5.14,4.90,4.90,4.90,4.90,4.90,4.90,4.90,4.90,4.88,4.84,4.80,4.80,4.73,4.70,4.70,4.70,4.62,4.60,4.57,4.50,4.50,4.50,4.46,4.40,4.40,4.40,4.35,4.30,4.30,4.22,4.20,4.20,4.19,4.11,4.10,4.08,4.05,4.00,4.00,3.95,3.90,3.90,3.90,3.84,3.80,3.79,3.76,3.72,3.70,3.67,3.60,3.60,3.60,3.57,3.50,3.50,3.53,3.54,3.53,3.50,3.50,3.47,3.43,3.39,3.32,3.26,3.23,3.19,3.15,3.11,3.05,3.00,3.00,2.97,2.96,2.97,2.98,2.98,3.00,3.04,3.08,3.08,3.11,3.15,3.18,3.18,3.21,3.22,3.24,3.28,3.31,3.32,3.35,3.39,3.42,3.42,3.45,3.49,3.52,3.52,3.56,3.58,3.58,3.62,3.66
e,e,e,e,e,e,e,e,e,e,e,e,e,e,e,e,e,e,e,e,e,e,e,e,e,e,e,e,e,e,e,e,e,e,e,e,e,e,e,e,e,e,e,e,0.09,0.17,0.27,0.41,0.48,0.56,0.64,0.72,0.79,0.87,0.95,1.02,1.10,1.20,1.28,1.38,1.51,1.59,1.67,1.74,1.82,1.90,1.97,2.05,2.13,2.21,2.28,2.36,2.44,2.51,2.59,2.67,2.75,2.82,2.90,2.98,3.06,3.13,3.21,3.29,3.36,3.44,3.52,3.60,3.67,3.71,3.74,3.81,3.88,3.96,4.04,4.10,4.12,4.18,4.21,4.24,4.30,4.30,4.36,4.43,4.50,4.50,4.56,4.61,4.62,4.62,4.62,4.66,4.71,4.73,4.80,5.18,5.76,6.48,7.31,8.00,8.68,9.36,10.05,11.11,12.32,13.51,14.61,15.83,17.10,18.50,20.54,24.35,28.35,31.68,34.61,37.47,39.43,40.16,39.63,37.89,35.19,31.89,28.12,23.97,19.55,14.99,11.25,8.71,7.47,6.48,5.62,5.14,4.99,4.91,4.90,4.90,4.90,4.90,4.90,4.90,4.86,4.80,4.80,4.73,4.70,4.70,4.70,4.62,4.60,4.58,4.52,4.50,4.50,4.46,4.40,4.40,4.40,4.35,4.30,4.30,4.24,4.21,4.20,4.19,4.11,4.10,4.10,4.08,4.00,4.00,3.96,3.92,3.90,3.90,3.84,3.80,3.80,3.80,3.73,3.70,3.68,3.62,3.60,3.60,3.57,3.50,3.50,3.50,3.50,3.50,3.50,3.48,3.44,3.39,3.37,3.31,3.24,3.19,3.16,3.11,3.12,3.09,3.05,3.05,3.06,3.07,3.09,3.15,3.15,3.16,3.20,3.25,3.25,3.26,3.31,3.35,3.35,3.36,3.37,3.40,3.45,3.47,3.47,3.50,3.55,3.57,3.57,3.61,3.65,3.65,3.67,3.72,3.75,3.75,3.77,3.83
e,e,e,e,e,e,e,e,e,e,e,e,e,e,e,e,e,e,e,e,e,e,e,e,e,e,e,e,e,e,e,e,e,e,e,e,e,e,e,e,e,e,e,e,0.14,0.24,0.32,0.41,0.48,0.56,0.64,0.72,0.79,0.87,0.95,1.02,1.10,1.25,1.34,1.42,1.51,1.59,1.67,1.74,1.82,1.90,1.97,2.05,2.13,2.21,2.28,2.36,2.44,2.51,2.59,2.67,2.75,2.82,2.90,2.98,3.06,3.13,3.21,3.29,3.36,3.44,3.52,3.60,3.67,3.74,3.79,3.81,3.88,3.96,4.04,4.11,4.18,4.20,4.24,4.29,4.30,4.30,4.36,4.43,4.50,4.50,4.56,4.64,4.69,4.69,4.69,4.69,4.72,4.79,4.87,5.24,5.94,6.89,7.87,8.54,9.16,9.87,10.76,11.96,13.28,14.53,15.60,16.58,17.72,19.13,21.36,25.66,29.69,33.18,36.33,39.28,40.45,40.92,40.63,39.39,36.49,32.82,28.72,24.34,19.87,15.76,12.01,9.39,8.24,7.30,6.49,5.80,5.26,4.92,4.90,4.90,4.90,4.90,4.90,4.90,4.86,4.80,4.80,4.73,4.70,4.70,4.70,4.62,4.60,4.60,4.58,4.51,4.50,4.46,4.40,4.40,4.40,4.35,4.30,4.30,4.29,4.24,4.20,4.19,4.11,4.10,4.10,4.08,4.00,4.00,3.99,3.96,3.90,3.90,3.84,3.80,3.80,3.80,3.73,3.70,3.70,3.68,3.62,3.60,3.57,3.50,3.50,3.50,3.50,3.50,3.50,3.43,3.41,3.37,3.31,3.30,3.24,3.17,3.11,3.10,3.16,3.18,3.17,3.18,3.24,3.26,3.26,3.27,3.27,3.33,3.37,3.37,3.37,3.44,3.47,3.47,3.48,3.55,3.56,3.57,3.59,3.65,3.66,3.67,3.69,3.76,3.76,3.77,3.77,3.78,3.85,3.87,3.87,3.89,3.96,3.97
e,e,e,e,e,e,e,e,e,e,e,e,e,e,e,e,e,e,e,e,e,e,e,e,e,e,e,e,e,e,e,e,e,e,e,e,e,e,e,e,e,e,e,e,0.16,0.25,0.33,0.41,0.48,0.56,0.64,0.72,0.79,0.87,0.97,1.08,1.15,1.27,1.36,1.43,1.51,1.59,1.67,1.74,1.82,1.90,1.97,2.05,2.13,2.21,2.28,2.36,2.44,2.51,2.59,2.67,2.75,2.82,2.90,2.98,3.06,3.13,3.21,3.29,3.36,3.44,3.52,3.60,3.67,3.75,3.80,3.81,3.88,3.96,4.04,4.11,4.19,4.23,4.27,4.30,4.30,4.34,4.38,4.43,4.50,4.54,4.58,4.64,4.71,4.75,4.75,4.75,4.78,4.85,4.89,5.29,6.03,7.04,8.08,9.02,9.91,10.81,11.81,13.01,14.29,15.55,16.72,17.61,18.62,20.17,22.71,26.95,30.76,34.27,37.43,40.11,41.12,41.44,41.07,39.80,36.86,33.05,28.88,24.51,20.03,16.25,12.95,10.52,9.11,8.18,7.41,6.74,6.16,5.69,5.44,5.21,5.01,4.90,4.90,4.90,4.86,4.80,4.80,4.77,4.73,4.70,4.70,4.62,4.60,4.60,4.59,4.51,4.50,4.48,4.44,4.40,4.40,4.35,4.30,4.30,4.30,4.24,4.20,4.19,4.16,4.12,4.10,4.08,4.00,4.00,4.00,3.97,3.90,3.90,3.87,3.83,3.80,3.80,3.73,3.70,3.70,3.70,3.62,3.60,3.58,3.54,3.51,3.50,3.50,3.49,3.45,3.41,3.37,3.33,3.30,3.30,3.27,3.23,3.21,3.25,3.29,3.30,3.31,3.35,3.39,3.40,3.42,3.45,3.45,3.48,3.52,3.55,3.55,3.59,3.60,3.62,3.66,3.69,3.70,3.72,3.76,3.80,3.80,3.83,3.86,3.90,3.90,3.93,3.95,3.96,4.00,4.03,4.05,4.06,4.10,4.14
e,e,e,e,e,e,e,e,e,e,e,e,e,e,e,e,e,e,e,e,e,e,e,e,e,e,e,e,e,e,e,e,e,e,e,e,e,e,e,e,e,e,0.02,0.10,0.17,0.25,0.33,0.41,0.48,0.56,0.64,0.72,0.81,0.88,1.00,1.12,1.20,1.28,1.36,1.43,1.51,1.59,1.67,1.74,1.82,1.90,1.97,2.05,2.13,2.21,2.28,2.36,2.44,2.51,2.59,2.67,2.75,2.82,2.90,2.98,3.06,3.13,3.21,3.29,3.36,3.44,3.52,3.60,3.67,3.75,3.80,3.81,3.88,3.96,4.04,4.11,4.19,4.27,4.30,4.30,4.32,4.38,4.41,4.44,4.51,4.59,4.60,4.64,4.72,4.80,4.80,4.81,4.84,4.90,4.90,5.38,6.21,7.28,8.39,9.60,10.75,11.85,12.95,14.12,15.34,16.60,17.87,18.76,19.69,21.35,24.04,28.01,31.60,35.14,38.30,40.72,41.76,41.89,41.30,39.85,36.83,32.94,28.81,24.55,20.22,16.77,14.03,11.86,10.17,9.18,8.41,7.79,7.26,6.74,6.28,5.81,5.38,5.07,4.93,4.90,4.87,4.81,4.80,4.80,4.76,4.71,4.70,4.64,4.61,4.60,4.59,4.53,4.51,4.50,4.48,4.41,4.40,4.36,4.31,4.30,4.30,4.25,4.21,4.20,4.20,4.13,4.10,4.08,4.02,4.00,4.00,3.97,3.90,3.90,3.90,3.86,3.80,3.80,3.73,3.70,3.70,3.70,3.62,3.60,3.60,3.59,3.51,3.50,3.50,3.48,3.40,3.40,3.36,3.33,3.33,3.33,3.34,3.34,3.36,3.42,3.44,3.44,3.47,3.53,3.53,3.54,3.57,3.63,3.63,3.63,3.67,3.73,3.73,3.73,3.73,3.76,3.83,3.83,3.83,3.86,3.92,3.93,3.93,3.97,4.01,4.01,4.03,4.08,4.11,4.11,4.11,4.18,4.21,4.21,4.21,4.28
e,e,e,e,e,e,e,e,e,e,e,e,e,e,e,e,e,e,e,e,e,e,e,e,e,e,e,e,e,e,e,e,e,e,e,e,e,e,e,e,e,e,0.02,0.10,0.17,0.25,0.33,0.41,0.48,0.56,0.64,0.73,0.87,0.95,1.04,1.12,1.20,1.28,1.36,1.43,1.51,1.59,1.67,1.74,1.82,1.90,1.97,2.05,2.13,2.21,2.28,2.36,2.44,2.51,2.59,2.67,2.75,2.82,2.90,2.98,3.06,3.13,3.21,3.29,3.36,3.44,3.52,3.60,3.67,3.75,3.80,3.81,3.88,3.96,4.04,4.11,4.19,4.27,4.30,4.32,4.38,4.40,4.44,4.49,4.51,4.59,4.60,4.64,4.72,4.80,4.80,4.84,4.88,4.90,4.90,5.69,6.82,8.07,9.33,10.52,11.67,12.83,14.04,15.26,16.49,17.76,19.04,20.14,21.14,22.62,24.88,28.30,31.91,35.59,38.91,41.43,42.62,42.30,41.29,39.66,36.24,32.35,28.29,24.29,20.60,17.65,15.36,13.47,11.80,10.51,9.61,8.97,8.50,8.08,7.62,7.12,6.53,5.81,5.08,4.90,4.89,4.87,4.81,4.80,4.79,4.76,4.70,4.68,4.64,4.60,4.60,4.58,4.53,4.50,4.48,4.41,4.40,4.39,4.36,4.30,4.30,4.29,4.25,4.20,4.20,4.13,4.10,4.10,4.08,4.02,4.00,3.97,3.90,3.90,3.90,3.86,3.80,3.80,3.73,3.70,3.70,3.70,3.62,3.60,3.60,3.59,3.51,3.50,3.50,3.48,3.40,3.40,3.43,3.46,3.46,3.46,3.51,3.54,3.54,3.56,3.61,3.64,3.64,3.66,3.66,3.70,3.74,3.76,3.76,3.76,3.80,3.86,3.86,3.86,3.86,3.89,3.96,3.96,3.96,3.97,3.99,4.05,4.06,4.07,4.08,4.08,4.14,4.17,4.18,4.18,4.18,4.24,4.28,4.28,4.28,4.29
e,e,e,e,e,e,e,e,e,e,e,e,e,e,e,e,e,e,e,e,e,e,e,e,e,e,e,e,e,e,e,e,e,e,e,e,e,e,e,e,e,e,0.02,0.10,0.17,0.25,0.33,0.41,0.48,0.59,0.68,0.77,0.89,0.97,1.05,1.12,1.20,1.28,1.36,1.43,1.51,1.59,1.67,1.74,1.82,1.90,1.97,2.05,2.13,2.21,2.28,2.36,2.44,2.51,2.59,2.67,2.75,2.82,2.90,2.98,3.06,3.13,3.21,3.29,3.36,3.44,3.52,3.60,3.67,3.75,3.81,3.85,3.89,3.96,4.04,4.11,4.19,4.27,4.32,4.36,4.40,4.43,4.47,4.50,4.51,4.59,4.60,4.64,4.72,4.80,4.80,4.85,5.02,5.34,5.61,6.43,7.57,8.88,10.12,11.29,12.49,13.72,14.95,16.19,17.50,18.82,20.13,21.39,22.57,24.02,25.95,28.57,32.13,36.16,39.73,41.98,43.44,42.76,41.28,39.33,35.75,31.88,28.11,24.62,21.57,18.92,16.90,15.18,13.53,12.08,11.03,10.34,9.89,9.51,8.93,8.30,7.56,6.61,5.58,5.08,4.90,4.89,4.85,4.81,4.80,4.78,4.70,4.70,4.67,4.63,4.60,4.60,4.56,4.53,4.49,4.45,4.41,4.40,4.39,4.34,4.31,4.30,4.27,4.20,4.20,4.16,4.12,4.10,4.10,4.06,4.02,3.98,3.94,3.91,3.90,3.88,3.84,3.80,3.76,3.72,3.70,3.70,3.65,3.62,3.60,3.59,3.51,3.50,3.48,3.45,3.44,3.44,3.47,3.50,3.50,3.54,3.58,3.60,3.60,3.60,3.67,3.70,3.70,3.70,3.70,3.73,3.77,3.80,3.80,3.80,3.82,3.87,3.90,3.90,3.90,3.92,3.96,3.99,4.00,4.00,4.01,4.05,4.09,4.10,4.10,4.10,4.15,4.18,4.20,4.20,4.20,4.24,4.28,4.30,4.30,4.30
e,e,e,e,e,e,e,e,e,e,e,e,e,e,e,e,e,e,e,e,e,e,e,e,e,e,e,e,e,e,e,e,e,e,e,e,e,e,e,e,e,e,0.02,0.10,0.17,0.25,0.33,0.41,0.49,0.62,0.74,0.82,0.89,0.97,1.05,1.12,1.20,1.28,1.36,1.43,1.51,1.59,1.67,1.74,1.82,1.90,1.97,2.05,2.13,2.21,2.28,2.36,2.44,2.51,2.59,2.67,2.75,2.82,2.90,2.98,3.06,3.13,3.21,3.29,3.36,3.44,3.52,3.60,3.67,3.75,3.83,3.90,3.90,3.96,4.04,4.11,4.19,4.27,4.35,4.40,4.41,4.48,4.50,4.50,4.52,4.59,4.60,4.64,4.72,4.80,4.80,4.85,5.18,5.97,6.63,7.37,8.40,9.68,10.84,12.00,13.25,14.54,15.77,17.01,18.41,19.82,21.17,22.57,23.97,25.47,27.11,28.86,32.43,36.83,40.60,42.46,44.23,43.24,41.31,39.04,35.48,31.71,28.32,25.41,22.95,20.46,18.56,16.92,15.31,13.76,12.59,11.83,11.39,11.02,10.28,9.48,8.58,7.48,6.32,5.43,4.96,4.90,4.90,4.84,4.80,4.78,4.71,4.70,4.70,4.67,4.61,4.60,4.60,4.56,4.50,4.50,4.43,4.40,4.40,4.40,4.32,4.30,4.27,4.21,4.20,4.20,4.16,4.11,4.10,4.10,4.05,4.00,3.99,3.92,3.90,3.90,3.88,3.81,3.80,3.76,3.70,3.70,3.70,3.64,3.60,3.59,3.51,3.50,3.46,3.42,3.49,3.50,3.50,3.50,3.51,3.58,3.60,3.60,3.60,3.60,3.67,3.70,3.70,3.70,3.70,3.70,3.73,3.80,3.80,3.80,3.80,3.82,3.90,3.90,3.90,3.90,3.91,3.98,4.00,4.00,4.00,4.00,4.07,4.10,4.10,4.10,4.10,4.15,4.20,4.20,4.20,4.20,4.24,4.29,4.30,4.30
e,e,e,e,e,e,e,e,e,e,e,e,e,e,e,e,e,e,e,e,e,e,e,e,e,e,e,e,e,e,e,e,e,e,e,e,e,e,e,e,e,e,0.02,0.10,0.17,0.25,0.35,0.48,0.55,0.65,0.74,0.82,0.89,0.97,1.05,1.12,1.20,1.28,1.36,1.43,1.51,1.59,1.67,1.74,1.82,1.90,1.97,2.05,2.13,2.21,2.28,2.36,2.44,2.51,2.59,2.67,2.75,2.82,2.90,2.98,3.06,3.13,3.21,3.29,3.36,3.44,3.52,3.60,3.67,3.75,3.83,3.90,3.90,3.96,4.04,4.11,4.19,4.27,4.35,4.42,4.47,4.49,4.50,4.52,4.57,4.60,4.60,4.64,4.72,4.80,4.85,4.89,5.27,6.31,7.31,8.18,9.21,10.44,11.55,12.70,13.95,15.24,16.47,17.77,19.14,20.65,22.27,23.77,25.18,26.58,28.02,29.58,33.69,37.83,41.15,43.10,44.76,43.71,41.76,39.60,36.73,33.57,30.46,27.62,25.25,22.51,20.40,18.65,17.03,15.43,14.25,13.49,13.09,12.93,12.19,11.21,10.05,8.75,7.60,6.48,5.54,4.90,4.90,4.88,4.84,4.79,4.77,4.72,4.70,4.69,4.66,4.61,4.60,4.56,4.50,4.50,4.48,4.44,4.40,4.40,4.38,4.33,4.29,4.26,4.21,4.20,4.19,4.16,4.10,4.10,4.05,4.00,4.00,3.98,3.93,3.90,3.88,3.81,3.80,3.79,3.75,3.70,3.70,3.64,3.60,3.59,3.51,3.50,3.46,3.41,3.43,3.48,3.50,3.50,3.50,3.52,3.57,3.60,3.60,3.60,3.62,3.66,3.70,3.70,3.70,3.70,3.73,3.80,3.80,3.80,3.80,3.82,3.90,3.90,3.90,3.90,3.90,3.92,3.97,4.00,4.00,4.00,4.02,4.06,4.10,4.10,4.10,4.12,4.15,4.20,4.20,4.20,4.21,4.24,4.30,4.30
e,e,e,e,e,e,e,e,e,e,e,e,e,e,e,e,e,e,e,e,e,e,e,e,e,e,e,e,e,e,e,e,e,e,e,e,e,e,e,e,e,e,0.02,0.10,0.20,0.29,0.38,0.51,0.58,0.66,0.74,0.82,0.89,0.97,1.05,1.12,1.20,1.28,1.36,1.43,1.51,1.59,1.67,1.74,1.82,1.90,1.97,2.05,2.13,2.21,2.28,2.36,2.44,2.51,2.59,2.67,2.75,2.82,2.90,2.98,3.06,3.13,3.21,3.29,3.36,3.44,3.52,3.60,3.67,3.75,3.83,3.90,3.93,3.97,4.04,4.11,4.19,4.27,4.35,4.42,4.50,4.50,4.52,4.56,4.60,4.63,4.63,4.66,4.72,4.80,4.87,5.02,5.58,6.82,7.97,8.98,10.03,11.17,12.22,13.37,14.62,15.90,17.11,18.40,19.79,21.40,23.20,24.86,26.36,27.80,29.40,31.58,35.72,39.15,41.76,43.70,45.43,44.36,42.49,40.67,38.60,36.10,33.25,30.28,27.46,24.55,22.32,20.47,18.75,17.10,15.89,15.17,14.89,14.84,14.16,13.13,11.83,10.37,9.02,7.72,6.38,5.17,4.93,4.90,4.86,4.80,4.80,4.75,4.72,4.70,4.69,4.64,4.61,4.57,4.53,4.50,4.50,4.47,4.43,4.40,4.40,4.34,4.30,4.29,4.24,4.21,4.20,4.18,4.10,4.10,4.07,4.02,4.00,4.00,3.94,3.90,3.89,3.84,3.81,3.80,3.77,3.70,3.70,3.64,3.60,3.59,3.51,3.50,3.46,3.40,3.40,3.45,3.48,3.50,3.50,3.50,3.54,3.58,3.60,3.60,3.60,3.63,3.67,3.70,3.70,3.70,3.72,3.77,3.80,3.80,3.80,3.81,3.86,3.89,3.90,3.90,3.90,3.90,3.96,4.00,4.00,4.00,4.00,4.05,4.10,4.10,4.10,4.10,4.12,4.17,4.20,4.20,4.20,4.21,4.26,4.29
e,e,e,e,e,e,e,e,e,e,e,e,e,e,e,e,e,e,e,e,e,e,e,e,e,e,e,e,e,e,e,e,e,e,e,e,e,e,e,e,e,e,0.02,0.10,0.25,0.35,0.43,0.51,0.58,0.66,0.74,0.82,0.89,0.97,1.05,1.12,1.20,1.28,1.36,1.43,1.51,1.59,1.67,1.74,1.82,1.90,1.97,2.05,2.13,2.21,2.28,2.36,2.44,2.51,2.59,2.67,2.75,2.82,2.90,2.98,3.06,3.13,3.21,3.29,3.36,3.44,3.52,3.60,3.67,3.75,3.83,3.91,3.98,4.00,4.04,4.11,4.19,4.27,4.35,4.42,4.50,4.50,4.55,4.60,4.61,4.69,4.70,4.70,4.72,4.80,4.87,5.25,6.08,7.45,8.61,9.77,10.85,11.86,12.87,14.01,15.26,16.52,17.68,18.92,20.37,22.08,23.99,25.84,27.50,29.12,31.18,34.70,38.41,40.75,42.43,44.29,46.22,45.15,43.46,42.16,40.98,39.19,36.61,33.33,29.57,26.56,24.30,22.37,20.47,18.77,17.51,16.88,16.75,16.75,16.17,15.21,13.89,12.27,10.58,9.12,7.45,5.67,4.99,4.90,4.86,4.80,4.80,4.80,4.75,4.70,4.70,4.70,4.64,4.60,4.58,4.51,4.50,4.50,4.47,4.40,4.40,4.34,4.30,4.30,4.30,4.23,4.20,4.18,4.10,4.10,4.10,4.07,4.00,4.00,3.94,3.90,3.90,3.90,3.83,3.80,3.77,3.70,3.70,3.64,3.60,3.59,3.51,3.50,3.46,3.40,3.40,3.40,3.45,3.50,3.50,3.50,3.50,3.54,3.60,3.60,3.60,3.60,3.63,3.70,3.70,3.70,3.70,3.71,3.79,3.80,3.80,3.80,3.80,3.87,3.90,3.90,3.90,3.90,3.96,4.00,4.00,4.00,4.00,4.05,4.10,4.10,4.10,4.10,4.10,4.11,4.19,4.20,4.20,4.20,4.20,4.27
e,e,e,e,e,e,e,e,e,e,e,e,e,e,e,e,e,e,e,e,e,e,e,e,e,e,e,e,e,e,e,e,e,e,e,e,e,e,e,e,e,e,0.08,0.16,0.27,0.35,0.43,0.51,0.58,0.66,0.74,0.82,0.89,0.97,1.05,1.14,1.26,1.29,1.36,1.43,1.51,1.59,1.67,1.74,1.82,1.90,1.97,2.05,2.13,2.21,2.28,2.36,2.44,2.51,2.59,2.67,2.75,2.82,2.90,2.98,3.06,3.13,3.21,3.29,3.36,3.44,3.52,3.60,3.67,3.75,3.83,3.91,3.98,4.00,4.04,4.11,4.19,4.27,4.35,4.42,4.50,4.55,4.58,4.62,4.67,4.70,4.74,4.76,4.77,4.80,4.87,5.60,6.87,8.46,9.58,10.65,11.68,12.70,13.75,14.81,15.88,16.96,18.07,19.26,20.84,22.67,24.64,26.55,28.38,30.77,33.92,37.81,40.27,42.07,43.61,45.23,46.92,46.20,44.82,43.57,42.41,40.98,39.27,36.73,32.56,28.82,26.34,24.41,22.49,20.65,19.32,18.74,18.73,18.73,18.20,17.29,16.00,14.37,12.57,10.87,9.01,7.00,5.20,4.92,4.88,4.85,4.80,4.80,4.78,4.74,4.70,4.70,4.64,4.60,4.59,4.56,4.52,4.50,4.47,4.40,4.40,4.38,4.34,4.30,4.30,4.23,4.20,4.19,4.16,4.12,4.10,4.07,4.00,4.00,3.94,3.90,3.90,3.90,3.83,3.80,3.77,3.70,3.70,3.64,3.60,3.59,3.51,3.50,3.46,3.40,3.40,3.40,3.42,3.46,3.50,3.50,3.50,3.51,3.55,3.60,3.60,3.60,3.61,3.64,3.69,3.70,3.70,3.70,3.73,3.78,3.80,3.80,3.80,3.83,3.87,3.90,3.90,3.90,3.92,3.96,4.00,4.00,4.00,4.02,4.05,4.10,4.10,4.10,4.10,4.11,4.19,4.20,4.20,4.20,4.20,4.27
e,e,e,e,e,e,e,e,e,e,e,e,e,e,e,e,e,e,e,e,e,e,e,e,e,e,e,e,e,e,e,e,e,e,e,e,e,e,e,e,e,e,0.12,0.20,0.27,0.35,0.43,0.51,0.58,0.66,0.74,0.82,0.89,0.99,1.07,1.17,1.30,1.32,1.37,1.43,1.51,1.59,1.67,1.74,1.82,1.90,1.97,2.05,2.13,2.21,2.28,2.36,2.44,2.51,2.59,2.67,2.75,2.82,2.90,2.98,3.06,3.13,3.21,3.29,3.36,3.44,3.52,3.60,3.67,3.75,3.83,3.91,3.98,4.02,4.05,4.11,4.19,4.27,4.35,4.42,4.50,4.58,4.61,4.65,4.70,4.72,4.77,4.80,4.80,4.83,4.94,5.98,7.62,9.41,10.49,11.54,12.57,13.58,14.64,15.67,16.65,17.62,18.64,20.06,21.80,23.65,25.47,27.36,29.51,32.48,36.16,39.93,41.67,43.20,44.68,46.15,47.63,47.29,46.23,45.00,43.85,42.67,41.47,39.54,35.82,31.39,28.38,26.17,24.24,22.26,21.24,20.96,21.14,21.16,20.62,19.64,18.23,16.42,14.57,12.70,10.69,8.48,6.05,5.17,4.90,4.88,4.83,4.81,4.80,4.77,4.70,4.70,4.65,4.62,4.60,4.60,4.53,4.50,4.48,4.43,4.41,4.40,4.37,4.30,4.30,4.25,4.21,4.20,4.20,4.12,4.10,4.07,4.00,4.00,3.95,3.92,3.90,3.90,3.83,3.80,3.77,3.70,3.70,3.64,3.59,3.57,3.51,3.48,3.44,3.39,3.37,3.39,3.40,3.42,3.48,3.50,3.50,3.50,3.52,3.59,3.60,3.60,3.60,3.60,3.66,3.69,3.70,3.70,3.70,3.75,3.78,3.80,3.80,3.80,3.84,3.88,3.90,3.90,3.90,3.93,3.98,4.00,4.00,4.00,4.02,4.07,4.09,4.10,4.10,4.11,4.16,4.19,4.20,4.20,4.20,4.25
e,e,e,e,e,e,e,e,e,e,e,e,e,e,e,e,e,e,e,e,e,e,e,e,e,e,e,e,e,e,e,e,e,e,e,e,e,e,e,e,e,e,0.12,0.20,0.27,0.35,0.43,0.51,0.58,0.66,0.74,0.82,0.89,1.03,1.14,1.22,1.30,1.37,1.40,1.43,1.51,1.59,1.67,1.74,1.82,1.90,1.97,2.05,2.13,2.21,2.28,2.36,2.44,2.51,2.59,2.67,2.75,2.82,2.90,2.98,3.06,3.13,3.21,3.29,3.36,3.44,3.52,3.60,3.67,3.75,3.83,3.91,3.98,4.05,4.09,4.11,4.19,4.27,4.35,4.42,4.50,4.58,4.65,4.69,4.71,4.78,4.80,4.80,4.82,4.89,5.09,6.39,8.31,10.24,11.32,12.45,13.53,14.53,15.54,16.61,17.64,18.60,19.47,21.54,23.50,25.17,26.54,28.33,31.04,34.26,37.64,40.62,42.45,44.06,45.57,47.03,48.37,48.45,47.70,46.48,45.32,44.27,43.05,41.49,39.45,34.40,30.40,27.51,25.57,23.50,23.30,23.70,24.15,24.22,23.59,22.39,20.64,18.41,16.55,14.65,12.52,10.16,7.83,5.76,4.90,4.90,4.89,4.82,4.80,4.77,4.70,4.70,4.69,4.65,4.60,4.60,4.53,4.50,4.50,4.49,4.42,4.40,4.37,4.30,4.30,4.29,4.25,4.20,4.20,4.12,4.10,4.07,4.00,4.00,3.99,3.95,3.90,3.90,3.83,3.80,3.77,3.70,3.70,3.64,3.57,3.51,3.50,3.44,3.41,3.38,3.31,3.38,3.40,3.40,3.42,3.49,3.50,3.50,3.52,3.59,3.60,3.60,3.60,3.60,3.61,3.66,3.70,3.70,3.70,3.71,3.75,3.80,3.80,3.80,3.81,3.84,3.90,3.90,3.90,3.90,3.92,3.99,4.00,4.00,4.00,4.01,4.08,4.10,4.10,4.10,4.11,4.17,4.20,4.20,4.20,4.21
e,e,e,e,e,e,e,e,e,e,e,e,e,e,e,e,e,e,e,e,e,e,e,e,e,e,e,e,e,e,e,e,e,e,e,e,e,e,e,e,e,0.04,0.12,0.20,0.27,0.35,0.43,0.51,0.58,0.66,0.76,0.87,0.95,1.06,1.15,1.22,1.30,1.38,1.40,1.43,1.51,1.59,1.67,1.74,1.82,1.90,1.97,2.05,2.13,2.21,2.28,2.36,2.44,2.51,2.59,2.67,2.75,2.82,2.90,2.98,3.06,3.13,3.21,3.29,3.36,3.44,3.52,3.60,3.67,3.75,3.83,3.91,3.98,4.06,4.10,4.11,4.19,4.27,4.35,4.42,4.50,4.58,4.66,4.70,4.71,4.79,4.80,4.82,4.86,4.90,5.87,7.59,9.47,10.91,11.99,13.13,14.29,15.44,16.49,17.57,18.75,20.14,21.87,23.95,25.93,27.50,28.63,30.20,32.57,35.39,38.38,41.11,43.06,44.92,46.60,47.97,49.08,49.29,48.90,48.08,47.09,46.05,44.73,43.11,41.20,37.13,32.29,28.46,26.68,25.52,25.58,26.13,26.81,27.26,27.00,25.87,23.88,21.11,18.59,16.67,14.58,12.06,9.54,6.82,5.32,4.90,4.90,4.82,4.80,4.79,4.75,4.71,4.70,4.66,4.60,4.60,4.57,4.53,4.50,4.50,4.42,4.40,4.38,4.35,4.31,4.30,4.26,4.20,4.20,4.12,4.10,4.07,4.00,4.00,4.00,3.96,3.90,3.90,3.83,3.80,3.77,3.70,3.66,3.62,3.57,3.50,3.50,3.43,3.40,3.38,3.30,3.33,3.37,3.40,3.40,3.44,3.48,3.50,3.51,3.54,3.58,3.60,3.60,3.60,3.60,3.66,3.70,3.70,3.70,3.70,3.74,3.80,3.80,3.80,3.80,3.81,3.85,3.89,3.90,3.90,3.91,3.94,3.98,4.00,4.00,4.00,4.04,4.08,4.10,4.10,4.10,4.13,4.17,4.20,4.20,4.20
e,e,e,e,e,e,e,e,e,e,e,e,e,e,e,e,e,e,e,e,e,e,e,e,e,e,e,e,e,e,e,e,e,e,e,e,e,e,e,e,e,0.04,0.12,0.20,0.27,0.35,0.43,0.51,0.60,0.68,0.79,0.92,0.99,1.07,1.15,1.22,1.30,1.38,1.41,1.45,1.51,1.59,1.67,1.74,1.82,1.90,1.97,2.05,2.13,2.21,2.28,2.36,2.44,2.51,2.59,2.67,2.75,2.82,2.90,2.98,3.06,3.13,3.21,3.29,3.36,3.44,3.52,3.60,3.67,3.75,3.83,3.91,3.98,4.06,4.11,4.13,4.19,4.27,4.35,4.42,4.50,4.58,4.66,4.71,4.73,4.79,4.81,4.85,4.95,5.18,6.89,8.85,10.54,11.55,12.63,13.77,14.99,16.24,17.37,18.53,20.05,22.06,24.63,26.65,28.55,30.08,31.18,32.60,34.55,36.80,39.22,41.65,43.70,45.75,47.65,49.24,50.69,51.21,51.10,50.49,49.29,47.93,46.37,44.57,42.52,39.51,34.35,29.87,27.97,27.65,27.85,28.41,29.21,29.97,30.01,29.03,27.03,24.11,21.02,18.87,16.69,14.08,11.35,8.14,5.93,4.90,4.90,4.84,4.81,4.80,4.79,4.71,4.70,4.67,4.61,4.60,4.60,4.55,4.50,4.50,4.42,4.40,4.40,4.39,4.31,4.30,4.26,4.20,4.20,4.12,4.10,4.07,4.00,4.00,4.00,3.96,3.90,3.90,3.83,3.79,3.76,3.70,3.62,3.60,3.57,3.50,3.50,3.43,3.40,3.38,3.30,3.30,3.34,3.39,3.40,3.40,3.45,3.49,3.50,3.50,3.56,3.59,3.60,3.60,3.60,3.65,3.69,3.70,3.70,3.70,3.74,3.79,3.80,3.80,3.80,3.80,3.81,3.88,3.90,3.90,3.90,3.90,3.97,4.00,4.00,4.00,4.00,4.05,4.09,4.10,4.10,4.10,4.13,4.19,4.20,4.20
e,e,e,e,e,e,e,e,e,e,e,e,e,e,e,e,e,e,e,e,e,e,e,e,e,e,e,e,e,e,e,e,e,e,e,e,e,e,e,e,e,0.04,0.12,0.20,0.27,0.35,0.43,0.51,0.65,0.74,0.83,0.92,0.99,1.07,1.15,1.22,1.30,1.38,1.45,1.49,1.51,1.59,1.67,1.74,1.82,1.90,1.97,2.05,2.13,2.21,2.28,2.36,2.44,2.51,2.59,2.67,2.75,2.82,2.90,2.98,3.06,3.13,3.21,3.29,3.36,3.44,3.52,3.60,3.67,3.75,3.83,3.91,3.98,4.06,4.13,4.18,4.20,4.27,4.35,4.42,4.50,4.58,4.66,4.73,4.78,4.80,4.85,4.89,5.14,6.16,8.24,9.91,11.18,12.19,13.27,14.41,15.58,16.78,18.05,19.49,21.78,24.65,27.57,29.64,31.35,32.90,34.46,35.97,37.66,39.19,40.65,42.39,44.45,46.49,48.70,51.32,54.65,55.99,55.99,54.89,52.45,49.98,47.82,45.81,43.61,41.14,36.93,32.67,29.79,29.72,29.96,30.45,31.12,31.83,31.82,31.04,29.58,27.50,24.41,21.48,18.81,16.31,13.47,9.91,6.82,4.90,4.90,4.89,4.84,4.80,4.79,4.71,4.70,4.69,4.67,4.60,4.60,4.55,4.50,4.50,4.42,4.40,4.40,4.39,4.31,4.30,4.26,4.20,4.20,4.12,4.10,4.07,4.00,4.00,4.00,3.96,3.90,3.90,3.83,3.76,3.71,3.70,3.62,3.60,3.57,3.50,3.50,3.43,3.40,3.38,3.30,3.30,3.31,3.34,3.40,3.40,3.41,3.45,3.50,3.50,3.51,3.56,3.60,3.60,3.60,3.61,3.65,3.70,3.70,3.70,3.71,3.73,3.80,3.80,3.80,3.80,3.81,3.88,3.90,3.90,3.90,3.90,3.97,4.00,4.00,4.00,4.00,4.01,4.05,4.10,4.10,4.10,4.11,4.13,4.20,4.20
e,e,e,e,e,e,e,e,e,e,e,e,e,e,e,e,e,e,e,e,e,e,e,e,e,e,e,e,e,e,e,e,e,e,e,e,e,e,e,e,e,0.04,0.12,0.20,0.27,0.38,0.48,0.56,0.67,0.76,0.84,0.92,0.99,1.07,1.15,1.22,1.30,1.38,1.46,1.50,1.51,1.59,1.67,1.74,1.82,1.90,1.97,2.05,2.13,2.21,2.28,2.36,2.44,2.51,2.59,2.67,2.75,2.82,2.90,2.98,3.06,3.13,3.21,3.29,3.36,3.44,3.52,3.60,3.67,3.75,3.83,3.91,3.98,4.06,4.14,4.20,4.20,4.27,4.35,4.42,4.50,4.58,4.66,4.73,4.80,4.84,4.88,5.09,5.74,7.33,9.27,10.71,11.82,12.83,13.91,15.05,16.21,17.39,18.66,20.40,23.12,26.45,29.64,31.90,33.78,35.49,37.16,38.64,40.06,41.24,42.27,43.50,45.30,47.22,49.86,53.81,58.77,60.55,60.37,58.83,56.01,52.48,49.42,46.86,44.51,41.98,38.60,35.02,31.98,31.41,31.68,32.23,32.89,33.55,33.32,32.57,31.33,29.57,26.87,23.80,21.01,18.58,15.40,11.45,7.88,5.44,4.91,4.90,4.85,4.80,4.80,4.75,4.72,4.70,4.68,4.61,4.60,4.55,4.50,4.50,4.46,4.42,4.40,4.39,4.31,4.30,4.26,4.20,4.20,4.12,4.10,4.07,4.00,4.00,4.00,3.96,3.89,3.86,3.82,3.75,3.70,3.70,3.62,3.60,3.57,3.49,3.46,3.42,3.38,3.34,3.30,3.27,3.28,3.32,3.36,3.39,3.40,3.42,3.46,3.50,3.50,3.53,3.57,3.60,3.60,3.60,3.62,3.66,3.69,3.70,3.70,3.71,3.75,3.79,3.80,3.80,3.80,3.85,3.88,3.90,3.90,3.90,3.94,3.98,4.00,4.00,4.00,4.00,4.03,4.10,4.10,4.10,4.10,4.12,4.20,4.20
e,e,e,e,e,e,e,e,e,e,e,e,e,e,e,e,e,e,e,e,e,e,e,e,e,e,e,e,e,e,e,e,e,e,e,e,e,e,e,e,e,0.04,0.12,0.21,0.28,0.41,0.53,0.61,0.68,0.76,0.84,0.92,0.99,1.07,1.15,1.22,1.30,1.38,1.46,1.50,1.52,1.59,1.67,1.74,1.82,1.90,1.97,2.05,2.13,2.21,2.28,2.36,2.44,2.51,2.59,2.67,2.75,2.82,2.90,2.98,3.06,3.13,3.21,3.29,3.36,3.44,3.52,3.60,3.67,3.75,3.83,3.91,3.98,4.06,4.14,4.20,4.21,4.27,4.35,4.42,4.50,4.58,4.66,4.73,4.81,4.89,4.90,5.37,6.51,8.53,10.13,11.39,12.45,13.47,14.55,15.69,16.84,17.99,19.18,21.19,24.22,27.81,31.20,33.73,35.94,37.86,39.52,40.92,42.12,43.12,43.98,44.82,46.24,48.00,51.16,56.64,62.91,64.89,64.40,62.44,59.52,55.11,51.07,47.77,45.25,42.45,39.71,36.88,34.07,32.99,33.30,33.97,34.64,35.22,34.73,33.92,32.73,31.06,28.87,25.94,23.17,20.66,17.08,12.86,9.04,6.20,4.92,4.90,4.85,4.80,4.80,4.80,4.74,4.70,4.68,4.61,4.60,4.55,4.50,4.50,4.50,4.44,4.40,4.39,4.31,4.30,4.26,4.20,4.20,4.12,4.10,4.07,4.00,4.00,3.99,3.95,3.88,3.81,3.80,3.75,3.70,3.70,3.62,3.59,3.56,3.49,3.41,3.40,3.36,3.30,3.30,3.22,3.25,3.30,3.31,3.38,3.40,3.40,3.41,3.48,3.50,3.50,3.52,3.59,3.60,3.60,3.60,3.61,3.68,3.70,3.70,3.70,3.70,3.77,3.80,3.80,3.80,3.80,3.85,3.89,3.90,3.90,3.90,3.94,3.99,4.00,4.00,4.00,4.03,4.09,4.10,4.10,4.10,4.12,4.19,4.20
e,e,e,e,e,e,e,e,e,e,e,e,e,e,e,e,e,e,e,e,e,e,e,e,e,e,e,e,e,e,e,e,e,e,e,e,e,e,e,e,e,0.04,0.14,0.27,0.35,0.44,0.53,0.61,0.68,0.76,0.84,0.92,0.99,1.07,1.15,1.22,1.30,1.38,1.46,1.52,1.58,1.60,1.67,1.74,1.82,1.90,1.97,2.05,2.13,2.21,2.28,2.36,2.44,2.51,2.59,2.67,2.75,2.82,2.90,2.98,3.06,3.13,3.21,3.29,3.36,3.44,3.52,3.60,3.67,3.75,3.83,3.91,3.98,4.06,4.14,4.21,4.27,4.29,4.35,4.42,4.50,4.58,4.66,4.73,4.81,4.89,4.90,5.71,7.35,9.42,10.74,11.93,13.06,14.17,15.20,16.33,17.43,18.45,19.34,21.49,24.75,28.50,31.84,34.77,37.41,39.57,41.19,42.63,43.84,44.90,45.82,46.62,47.47,49.02,52.95,60.54,66.86,68.51,67.61,65.24,61.87,57.49,52.70,48.31,45.44,42.49,39.71,37.06,34.75,34.66,35.24,35.95,36.57,36.96,36.28,35.26,33.91,32.16,30.27,27.78,24.87,21.59,17.81,14.08,10.31,7.00,4.93,4.90,4.85,4.80,4.80,4.80,4.74,4.70,4.68,4.61,4.60,4.55,4.50,4.50,4.50,4.44,4.40,4.39,4.31,4.30,4.26,4.20,4.20,4.12,4.10,4.07,4.00,4.00,3.95,3.92,3.88,3.81,3.80,3.75,3.70,3.70,3.62,3.56,3.52,3.49,3.41,3.40,3.36,3.30,3.30,3.22,3.25,3.30,3.30,3.32,3.37,3.40,3.40,3.42,3.48,3.50,3.51,3.53,3.58,3.60,3.60,3.60,3.62,3.67,3.70,3.70,3.70,3.72,3.76,3.80,3.80,3.80,3.82,3.85,3.90,3.90,3.90,3.91,3.94,4.00,4.00,4.00,4.01,4.03,4.09,4.10,4.10,4.11,4.13,4.18
e,e,e,e,e,e,e,e,e,e,e,e,e,e,e,e,e,e,e,e,e,e,e,e,e,e,e,e,e,e,e,e,e,e,e,e,e,e,e,e,e,0.08,0.17,0.30,0.37,0.45,0.53,0.61,0.68,0.76,0.84,0.92,0.99,1.07,1.15,1.22,1.30,1.38,1.46,1.53,1.60,1.60,1.67,1.74,1.82,1.90,1.97,2.05,2.13,2.21,2.28,2.36,2.44,2.51,2.59,2.67,2.75,2.82,2.90,2.98,3.06,3.13,3.21,3.29,3.36,3.44,3.52,3.60,3.67,3.75,3.83,3.91,3.98,4.06,4.14,4.21,4.29,4.30,4.35,4.42,4.50,4.58,4.66,4.73,4.81,4.89,5.12,6.27,8.19,10.10,11.30,12.46,13.61,14.77,15.80,16.79,17.75,18.64,19.41,21.56,24.86,28.70,32.25,35.66,38.55,40.84,42.56,44.15,45.48,46.64,47.70,48.73,50.00,52.49,57.28,64.93,69.14,70.17,69.41,67.40,63.76,59.53,54.29,49.11,45.75,42.53,39.74,37.41,35.77,36.29,37.13,37.85,38.32,38.52,37.77,36.55,35.02,33.29,31.49,29.29,26.37,22.73,18.93,15.23,11.30,7.60,4.94,4.90,4.87,4.83,4.80,4.80,4.74,4.70,4.68,4.61,4.60,4.55,4.50,4.50,4.50,4.44,4.40,4.39,4.31,4.30,4.26,4.20,4.20,4.12,4.10,4.07,4.00,4.00,3.94,3.90,3.88,3.81,3.77,3.73,3.69,3.66,3.61,3.54,3.50,3.49,3.41,3.40,3.36,3.30,3.30,3.22,3.23,3.27,3.30,3.30,3.34,3.38,3.40,3.40,3.47,3.50,3.50,3.50,3.58,3.60,3.60,3.60,3.60,3.64,3.68,3.70,3.70,3.70,3.73,3.77,3.80,3.80,3.80,3.82,3.87,3.90,3.90,3.90,3.92,3.96,3.99,4.00,4.00,4.01,4.05,4.09,4.10,4.10,4.10,4.15
e,e,e,e,e,e,e,e,e,e,e,e,e,e,e,e,e,e,e,e,e,e,e,e,e,e,e,e,e,e,e,e,e,e,e,e,e,e,e,e,e,0.14,0.22,0.30,0.37,0.45,0.53,0.61,0.68,0.76,0.84,0.92,0.99,1.07,1.15,1.22,1.30,1.38,1.46,1.53,1.60,1.60,1.67,1.74,1.82,1.90,1.97,2.05,2.13,2.21,2.28,2.36,2.44,2.51,2.59,2.67,2.75,2.82,2.90,2.98,3.06,3.13,3.21,3.29,3.36,3.44,3.52,3.60,3.67,3.75,3.83,3.91,3.98,4.06,4.14,4.21,4.29,4.30,4.35,4.42,4.50,4.58,4.66,4.73,4.81,4.89,5.49,6.98,9.01,10.63,11.81,12.97,14.12,15.26,16.33,17.12,17.85,18.63,19.40,21.47,24.66,28.54,32.48,36.44,39.46,41.81,43.72,45.51,47.03,48.36,49.63,51.13,53.48,57.64,63.29,69.55,70.24,70.46,70.22,69.06,65.28,61.29,55.84,50.09,46.13,42.57,39.78,37.89,37.04,37.91,39.01,39.73,39.97,39.96,39.22,37.80,36.07,34.44,32.58,30.55,27.73,24.02,20.32,16.33,12.09,8.05,4.94,4.90,4.90,4.87,4.80,4.80,4.74,4.70,4.68,4.61,4.60,4.55,4.50,4.50,4.50,4.44,4.40,4.39,4.31,4.30,4.26,4.20,4.20,4.12,4.10,4.07,4.00,4.00,3.94,3.90,3.88,3.81,3.73,3.70,3.67,3.60,3.60,3.54,3.50,3.49,3.41,3.40,3.36,3.30,3.30,3.22,3.20,3.23,3.30,3.30,3.30,3.34,3.40,3.40,3.47,3.50,3.50,3.50,3.58,3.60,3.60,3.60,3.60,3.60,3.64,3.70,3.70,3.70,3.70,3.73,3.80,3.80,3.80,3.80,3.81,3.89,3.90,3.90,3.90,3.90,3.98,4.00,4.00,4.00,4.00,4.06,4.10,4.10,4.10,4.10
e,e,e,e,e,e,e,e,e,e,e,e,e,e,e,e,e,e,e,e,e,e,e,e,e,e,e,e,e,e,e,e,e,e,e,e,e,e,e,e,e,0.14,0.22,0.30,0.37,0.45,0.53,0.61,0.68,0.76,0.84,0.92,0.99,1.07,1.15,1.22,1.30,1.38,1.46,1.53,1.61,1.66,1.69,1.74,1.82,1.90,1.97,2.05,2.13,2.21,2.28,2.36,2.44,2.51,2.59,2.67,2.75,2.82,2.90,2.98,3.06,3.13,3.21,3.29,3.36,3.44,3.52,3.60,3.67,3.75,3.83,3.91,3.98,4.06,4.14,4.21,4.29,4.35,4.38,4.42,4.50,4.58,4.66,4.73,4.81,4.89,6.02,7.84,9.88,11.40,12.58,13.48,14.23,14.99,15.76,16.59,17.45,18.32,19.14,20.99,24.05,27.92,31.91,36.41,39.80,42.36,44.39,46.37,48.13,50.41,53.18,55.91,58.52,62.06,66.12,69.99,70.59,70.71,70.41,69.28,65.64,61.63,56.39,50.78,46.33,42.47,39.93,38.73,38.84,40.40,41.55,42.30,42.56,42.16,40.84,39.08,37.17,35.39,33.44,31.38,28.69,25.24,21.53,17.11,12.72,8.60,4.95,4.90,4.90,4.87,4.80,4.80,4.74,4.70,4.68,4.61,4.60,4.55,4.50,4.50,4.50,4.44,4.40,4.39,4.31,4.30,4.26,4.20,4.20,4.12,4.10,4.07,4.00,4.00,3.94,3.87,3.83,3.80,3.73,3.70,3.67,3.60,3.60,3.54,3.50,3.49,3.41,3.40,3.36,3.29,3.24,3.21,3.20,3.21,3.24,3.29,3.30,3.31,3.34,3.40,3.42,3.47,3.50,3.50,3.53,3.57,3.60,3.60,3.60,3.60,3.64,3.70,3.70,3.70,3.70,3.73,3.80,3.80,3.80,3.80,3.81,3.83,3.88,3.90,3.90,3.90,3.93,3.97,4.00,4.00,4.00,4.02,4.06,4.10,4.10,4.10
e,e,e,e,e,e,e,e,e,e,e,e,e,e,e,e,e,e,e,e,e,e,e,e,e,e,e,e,e,e,e,e,e,e,e,e,e,e,e,e,0.07,0.14,0.22,0.30,0.37,0.45,0.53,0.61,0.68,0.76,0.84,0.92,0.99,1.07,1.15,1.22,1.30,1.38,1.46,1.53,1.61,1.69,1.70,1.74,1.82,1.90,1.97,2.05,2.13,2.21,2.28,2.36,2.44,2.51,2.59,2.67,2.75,2.82,2.90,2.98,3.06,3.13,3.21,3.29,3.36,3.44,3.52,3.60,3.67,3.75,3.83,3.91,3.98,4.06,4.14,4.21,4.29,4.37,4.40,4.42,4.50,4.58,4.66,4.73,4.81,4.89,6.46,8.51,10.49,11.77,12.76,13.46,14.00,14.54,15.19,16.05,16.96,17.87,18.79,20.39,23.33,27.21,31.27,36.11,39.83,42.67,44.92,47.06,49.22,52.24,55.91,59.29,62.01,65.03,67.96,70.29,70.85,70.95,70.58,69.36,65.78,61.81,56.67,51.13,46.55,43.03,41.24,40.88,41.64,43.32,44.23,44.83,45.03,44.29,42.43,40.31,38.18,36.23,34.20,32.12,29.57,26.36,22.63,17.98,13.34,8.98,5.02,4.91,4.90,4.87,4.80,4.80,4.74,4.70,4.68,4.61,4.60,4.55,4.50,4.50,4.50,4.44,4.40,4.39,4.31,4.30,4.26,4.20,4.20,4.12,4.08,4.05,4.00,3.98,3.93,3.86,3.80,3.80,3.73,3.70,3.67,3.60,3.60,3.54,3.49,3.46,3.41,3.38,3.34,3.28,3.20,3.20,3.18,3.18,3.20,3.26,3.29,3.30,3.31,3.37,3.39,3.43,3.48,3.50,3.50,3.54,3.58,3.60,3.60,3.60,3.63,3.68,3.70,3.70,3.70,3.72,3.77,3.80,3.80,3.80,3.80,3.80,3.87,3.90,3.90,3.90,3.90,3.96,4.00,4.00,4.00,4.00,4.03,4.08,4.10,4.10
e,e,e,e,e,e,e,e,e,e,e,e,e,e,e,e,e,e,e,e,e,e,e,e,e,e,e,e,e,e,e,e,e,e,e,e,e,e,e,e,0.07,0.14,0.22,0.30,0.37,0.45,0.53,0.61,0.68,0.76,0.84,0.92,0.99,1.07,1.15,1.22,1.30,1.38,1.46,1.53,1.61,1.69,1.70,1.74,1.82,1.90,1.97,2.05,2.13,2.21,2.28,2.36,2.44,2.51,2.59,2.67,2.75,2.82,2.90,2.98,3.06,3.13,3.21,3.29,3.36,3.44,3.52,3.60,3.67,3.75,3.83,3.91,3.98,4.06,4.14,4.21,4.29,4.37,4.40,4.42,4.50,4.58,4.66,4.73,4.81,4.89,6.79,8.97,10.77,11.66,12.26,12.82,13.36,13.91,14.60,15.47,16.36,17.26,18.32,19.64,22.46,26.41,30.57,35.51,39.49,42.71,45.32,47.55,50.30,53.80,57.69,61.02,63.69,66.31,68.65,70.42,71.03,71.18,70.72,69.29,65.66,61.82,56.65,51.08,46.80,44.36,43.90,44.56,45.61,46.75,47.07,47.31,47.34,46.36,43.97,41.46,39.07,36.93,34.85,32.76,30.35,27.38,23.60,18.94,13.96,9.16,5.14,4.94,4.90,4.87,4.80,4.80,4.74,4.70,4.68,4.61,4.60,4.55,4.50,4.50,4.50,4.44,4.40,4.39,4.31,4.30,4.26,4.20,4.20,4.12,4.05,4.00,3.99,3.92,3.90,3.86,3.80,3.80,3.73,3.70,3.67,3.60,3.60,3.54,3.47,3.41,3.40,3.34,3.30,3.28,3.20,3.20,3.15,3.13,3.20,3.21,3.26,3.30,3.30,3.31,3.37,3.40,3.43,3.50,3.50,3.50,3.54,3.60,3.60,3.60,3.60,3.63,3.70,3.70,3.70,3.70,3.71,3.78,3.80,3.80,3.80,3.80,3.87,3.90,3.90,3.90,3.90,3.96,4.00,4.00,4.00,4.00,4.00,4.02,4.10,4.10
e,e,e,e,e,e,e,e,e,e,e,e,e,e,e,e,e,e,e,e,e,e,e,e,e,e,e,e,e,e,e,e,e,e,e,e,e,e,e,e,0.07,0.14,0.22,0.30,0.37,0.45,0.53,0.61,0.68,0.76,0.84,0.92,0.99,1.07,1.15,1.22,1.30,1.38,1.46,1.53,1.61,1.69,1.74,1.78,1.82,1.90,1.97,2.05,2.13,2.21,2.28,2.36,2.44,2.51,2.59,2.67,2.75,2.82,2.90,2.98,3.06,3.13,3.21,3.29,3.36,3.44,3.52,3.60,3.67,3.75,3.83,3.91,3.98,4.06,4.14,4.21,4.24,4.31,4.37,4.42,4.50,4.58,4.66,4.73,4.81,4.89,6.42,8.53,10.46,11.09,11.64,12.21,12.76,13.27,14.01,14.89,15.83,16.81,17.98,19.27,21.85,25.55,29.81,34.62,38.79,42.18,44.83,47.42,50.77,54.66,58.62,61.72,64.26,66.76,68.93,70.43,71.05,70.96,70.08,68.11,63.99,60.13,55.78,51.58,48.66,47.79,48.00,48.64,49.21,49.53,49.66,49.58,49.24,48.50,46.28,43.39,40.37,37.74,35.52,33.37,31.10,28.44,24.57,20.13,14.90,9.56,5.28,4.98,4.90,4.87,4.80,4.80,4.74,4.70,4.68,4.61,4.60,4.58,4.54,4.50,4.50,4.44,4.40,4.39,4.31,4.30,4.26,4.19,4.14,4.11,4.05,4.00,3.99,3.92,3.90,3.86,3.80,3.80,3.73,3.70,3.67,3.60,3.55,3.52,3.47,3.40,3.40,3.33,3.30,3.28,3.20,3.20,3.15,3.13,3.20,3.20,3.23,3.26,3.30,3.30,3.33,3.37,3.41,3.44,3.49,3.50,3.51,3.55,3.59,3.60,3.60,3.61,3.64,3.69,3.70,3.70,3.70,3.74,3.78,3.80,3.80,3.80,3.83,3.87,3.90,3.90,3.90,3.92,3.96,4.00,4.00,4.00,4.00,4.02,4.10,4.10
e,e,e,e,e,e,e,e,e,e,e,e,e,e,e,e,e,e,e,e,e,e,e,e,e,e,e,e,e,e,e,e,e,e,e,e,e,e,e,e,0.07,0.14,0.22,0.30,0.37,0.45,0.53,0.61,0.68,0.76,0.84,0.92,0.99,1.07,1.15,1.22,1.30,1.38,1.46,1.53,1.61,1.67,1.74,1.79,1.82,1.90,1.97,2.05,2.13,2.21,2.28,2.36,2.44,2.51,2.59,2.67,2.75,2.82,2.90,2.98,3.06,3.13,3.21,3.29,3.36,3.44,3.52,3.60,3.67,3.75,3.83,3.90,3.96,4.04,4.12,4.18,4.20,4.27,4.35,4.42,4.50,4.58,4.66,4.73,4.81,4.89,5.86,7.51,9.30,10.16,10.94,11.59,12.14,12.64,13.42,14.34,15.35,16.43,17.67,18.96,21.31,24.77,29.11,33.72,38.00,41.58,44.36,47.32,51.07,55.20,59.19,62.06,64.47,66.91,69.01,70.38,70.87,70.59,69.39,67.03,62.75,59.21,55.90,53.13,51.46,51.43,51.91,52.32,52.29,51.96,51.84,51.46,50.81,50.22,48.39,45.30,41.72,38.57,36.27,34.06,31.86,29.37,25.41,21.13,15.71,9.96,5.43,5.01,4.90,4.87,4.80,4.80,4.74,4.70,4.68,4.61,4.60,4.60,4.57,4.50,4.50,4.44,4.40,4.39,4.31,4.29,4.24,4.18,4.10,4.10,4.05,4.00,3.99,3.92,3.90,3.86,3.80,3.78,3.72,3.69,3.66,3.60,3.52,3.50,3.47,3.40,3.40,3.33,3.30,3.28,3.20,3.18,3.14,3.12,3.18,3.20,3.20,3.23,3.28,3.30,3.30,3.34,3.38,3.40,3.46,3.49,3.50,3.51,3.57,3.59,3.60,3.60,3.60,3.66,3.69,3.70,3.70,3.70,3.75,3.79,3.80,3.80,3.80,3.84,3.88,3.90,3.90,3.90,3.93,3.98,4.00,4.00,4.00,4.02,4.08,4.09
e,e,e,e,e,e,e,e,e,e,e,e,e,e,e,e,e,e,e,e,e,e,e,e,e,e,e,e,e,e,e,e,e,e,e,e,e,e,e,e,0.07,0.14,0.22,0.30,0.37,0.45,0.53,0.61,0.68,0.76,0.84,0.92,0.99,1.07,1.15,1.22,1.30,1.38,1.46,1.53,1.60,1.61,1.68,1.75,1.82,1.90,1.97,2.05,2.13,2.21,2.28,2.36,2.44,2.51,2.59,2.67,2.75,2.82,2.90,2.98,3.06,3.13,3.21,3.29,3.36,3.44,3.52,3.60,3.67,3.75,3.83,3.90,3.91,3.97,4.05,4.13,4.19,4.27,4.35,4.42,4.50,4.58,4.66,4.73,4.81,4.89,5.08,5.56,6.58,8.63,10.12,10.95,11.45,12.00,12.84,13.84,14.97,16.18,17.41,18.66,20.85,24.14,28.53,32.85,37.15,40.97,44.14,47.39,51.15,55.27,59.21,61.88,64.23,66.65,68.79,70.23,70.33,69.99,68.77,66.43,62.74,60.18,58.17,56.68,55.80,55.05,55.13,55.11,54.43,53.80,53.27,52.60,51.80,51.06,49.91,46.96,43.07,39.40,37.15,34.92,32.63,30.00,25.99,21.71,16.20,10.30,5.62,5.06,4.90,4.87,4.80,4.80,4.74,4.70,4.68,4.61,4.60,4.60,4.57,4.50,4.50,4.44,4.40,4.39,4.31,4.24,4.21,4.18,4.10,4.10,4.05,4.00,3.99,3.92,3.90,3.86,3.79,3.72,3.70,3.66,3.61,3.60,3.52,3.50,3.47,3.40,3.40,3.33,3.30,3.28,3.20,3.14,3.11,3.10,3.12,3.19,3.20,3.21,3.23,3.29,3.30,3.31,3.34,3.40,3.41,3.46,3.50,3.50,3.51,3.57,3.60,3.60,3.60,3.61,3.66,3.70,3.70,3.70,3.71,3.75,3.80,3.80,3.80,3.81,3.84,3.90,3.90,3.90,3.90,3.92,3.99,4.00,4.00,4.00,4.01,4.08
e,e,e,e,e,e,e,e,e,e,e,e,e,e,e,e,e,e,e,e,e,e,e,e,e,e,e,e,e,e,e,e,e,e,e,e,e,e,e,e,0.07,0.14,0.22,0.30,0.37,0.45,0.53,0.61,0.68,0.76,0.84,0.92,0.99,1.07,1.15,1.22,1.30,1.34,1.41,1.48,1.56,1.59,1.67,1.74,1.82,1.90,1.97,2.05,2.13,2.21,2.28,2.36,2.44,2.51,2.59,2.67,2.75,2.82,2.90,2.98,3.06,3.13,3.21,3.29,3.36,3.44,3.52,3.60,3.64,3.70,3.78,3.85,3.89,3.96,4.04,4.11,4.19,4.27,4.35,4.42,4.50,4.58,4.66,4.73,4.80,4.84,4.88,5.00,5.44,6.61,8.46,9.87,10.80,11.37,12.33,13.44,14.60,15.78,17.01,18.38,20.57,23.80,28.20,32.38,36.41,40.11,43.40,46.76,50.75,55.09,59.16,61.79,64.02,66.32,68.30,69.47,68.63,68.08,67.34,66.10,63.99,62.03,60.61,59.58,58.58,57.27,56.41,55.61,54.67,53.94,53.36,52.74,52.04,51.35,50.33,47.56,43.88,40.37,37.90,35.52,33.11,30.40,26.46,21.99,16.45,10.59,5.77,5.09,4.90,4.87,4.80,4.80,4.74,4.70,4.68,4.61,4.60,4.60,4.57,4.50,4.50,4.44,4.40,4.39,4.31,4.23,4.20,4.18,4.10,4.10,4.05,4.00,3.99,3.92,3.87,3.83,3.78,3.71,3.70,3.65,3.60,3.60,3.52,3.50,3.47,3.39,3.36,3.32,3.28,3.24,3.20,3.12,3.10,3.10,3.10,3.14,3.18,3.20,3.21,3.25,3.29,3.30,3.32,3.40,3.40,3.43,3.47,3.50,3.50,3.53,3.57,3.60,3.60,3.60,3.65,3.70,3.70,3.70,3.70,3.72,3.76,3.80,3.80,3.80,3.81,3.85,3.89,3.90,3.90,3.91,3.94,3.98,4.00,4.00,4.00,4.04
e,e,e,e,e,e,e,e,e,e,e,e,e,e,e,e,e,e,e,e,e,e,e,e,e,e,e,e,e,e,e,e,e,e,e,e,e,e,e,e,0.08,0.16,0.23,0.31,0.39,0.47,0.54,0.62,0.69,0.76,0.84,0.92,0.99,1.07,1.14,1.21,1.29,1.30,1.36,1.43,1.51,1.59,1.67,1.74,1.82,1.90,1.97,2.05,2.13,2.21,2.28,2.36,2.44,2.51,2.59,2.67,2.75,2.82,2.90,2.98,3.06,3.13,3.21,3.29,3.36,3.43,3.51,3.58,3.60,3.65,3.73,3.81,3.88,3.96,4.04,4.11,4.19,4.27,4.35,4.42,4.50,4.58,4.66,4.73,4.80,4.80,4.86,4.89,4.89,4.90,6.68,8.48,9.89,10.70,11.79,13.01,14.20,15.35,16.61,18.16,20.45,23.70,28.10,32.08,35.74,39.18,42.51,45.97,50.16,54.74,59.05,61.73,63.87,66.04,67.72,68.26,66.52,65.66,65.37,65.30,64.83,63.39,62.33,61.46,60.13,58.39,56.60,55.07,54.00,53.27,52.82,52.38,51.87,51.30,50.25,47.71,44.42,41.28,38.61,36.07,33.52,30.69,26.81,22.14,16.59,10.81,5.91,5.12,4.90,4.87,4.80,4.80,4.74,4.70,4.68,4.61,4.60,4.60,4.57,4.50,4.49,4.44,4.40,4.38,4.31,4.23,4.20,4.18,4.10,4.09,4.04,4.00,3.98,3.91,3.84,3.80,3.78,3.71,3.70,3.65,3.60,3.60,3.52,3.49,3.46,3.39,3.31,3.30,3.26,3.20,3.20,3.12,3.10,3.10,3.09,3.10,3.15,3.19,3.20,3.20,3.26,3.29,3.32,3.39,3.40,3.40,3.43,3.49,3.50,3.50,3.54,3.60,3.60,3.60,3.64,3.69,3.70,3.70,3.70,3.70,3.72,3.79,3.80,3.80,3.80,3.80,3.88,3.90,3.90,3.90,3.90,3.96,3.99,4.00,4.00,4.00
e,e,e,e,e,e,e,e,e,e,e,e,e,e,e,e,e,e,e,e,e,e,e,e,e,e,e,e,e,e,e,e,e,e,e,e,e,e,e,e,0.14,0.22,0.30,0.37,0.45,0.53,0.61,0.68,0.70,0.76,0.84,0.92,0.99,1.07,1.11,1.15,1.22,1.28,1.36,1.43,1.51,1.59,1.67,1.74,1.82,1.90,1.97,2.05,2.13,2.21,2.28,2.36,2.44,2.51,2.59,2.67,2.75,2.82,2.90,2.98,3.06,3.13,3.21,3.29,3.31,3.36,3.44,3.52,3.58,3.65,3.73,3.81,3.88,3.96,4.04,4.11,4.19,4.27,4.35,4.42,4.50,4.58,4.66,4.73,4.80,4.80,4.81,4.82,4.84,4.90,5.37,6.40,7.95,9.87,11.01,12.31,13.65,14.99,16.40,18.14,20.71,24.21,28.62,32.00,35.13,38.26,41.58,45.34,49.38,54.06,58.73,61.72,63.91,66.04,67.09,66.07,64.14,62.82,62.28,62.41,62.63,61.85,61.05,60.16,58.79,56.80,54.83,53.16,51.98,51.44,51.35,51.23,50.96,50.58,49.55,47.36,44.55,41.80,39.27,36.70,33.93,30.80,26.82,22.14,16.56,10.80,6.10,5.17,4.90,4.87,4.80,4.80,4.74,4.70,4.68,4.61,4.60,4.60,4.57,4.50,4.44,4.41,4.37,4.32,4.30,4.23,4.20,4.18,4.10,4.04,4.01,3.98,3.92,3.90,3.84,3.80,3.78,3.71,3.70,3.65,3.60,3.60,3.52,3.46,3.42,3.39,3.31,3.30,3.26,3.20,3.20,3.12,3.10,3.08,3.03,3.09,3.11,3.15,3.20,3.20,3.22,3.26,3.31,3.32,3.38,3.40,3.41,3.43,3.49,3.50,3.54,3.60,3.60,3.60,3.61,3.65,3.70,3.70,3.70,3.70,3.72,3.79,3.80,3.80,3.80,3.80,3.88,3.90,3.90,3.90,3.90,3.91,3.96,4.00,4.00,4.00
e,e,e,e,e,e,e,e,e,e,e,e,e,e,e,e,e,e,e,e,e,e,e,e,e,e,e,e,e,e,e,e,e,e,e,e,e,e,e,e,0.17,0.24,0.33,0.44,0.52,0.59,0.67,0.74,0.74,0.80,0.88,0.96,1.03,1.11,1.16,1.20,1.24,1.32,1.40,1.47,1.55,1.63,1.68,1.74,1.82,1.90,1.97,2.05,2.13,2.21,2.28,2.36,2.44,2.51,2.59,2.67,2.75,2.82,2.90,2.98,3.03,3.09,3.17,3.25,3.29,3.34,3.42,3.50,3.57,3.65,3.73,3.81,3.88,3.96,4.04,4.11,4.19,4.27,4.35,4.42,4.50,4.58,4.66,4.72,4.76,4.76,4.79,4.80,4.82,4.90,4.90,5.39,6.64,8.77,10.25,11.75,13.30,14.89,16.52,18.34,21.15,24.87,29.21,32.16,35.02,37.95,41.12,44.92,49.18,54.31,59.33,61.75,64.02,65.59,65.82,64.23,62.25,60.34,59.39,59.54,59.78,59.12,58.45,57.79,56.87,55.08,53.11,51.22,49.68,49.09,49.23,49.35,49.30,49.28,48.62,46.84,44.43,42.03,39.68,36.98,34.04,30.80,26.75,22.14,16.54,10.76,6.29,5.22,4.90,4.87,4.80,4.80,4.74,4.70,4.68,4.61,4.60,4.58,4.54,4.50,4.42,4.40,4.37,4.30,4.30,4.23,4.18,4.15,4.10,4.02,4.00,3.97,3.90,3.90,3.84,3.80,3.78,3.71,3.67,3.63,3.59,3.56,3.51,3.44,3.40,3.39,3.31,3.30,3.26,3.20,3.20,3.12,3.08,3.04,3.00,3.05,3.08,3.12,3.17,3.20,3.20,3.23,3.27,3.30,3.35,3.38,3.40,3.41,3.45,3.49,3.53,3.57,3.60,3.60,3.60,3.62,3.66,3.69,3.70,3.70,3.71,3.75,3.79,3.80,3.80,3.80,3.85,3.88,3.90,3.90,3.90,3.90,3.94,4.00,4.00,4.00
e,e,e,e,e,e,e,e,e,e,e,e,e,e,e,e,e,e,e,e,e,e,e,e,e,e,e,e,e,e,e,e,e,e,e,e,e,e,0.01,0.09,0.17,0.25,0.34,0.49,0.57,0.65,0.73,0.80,0.80,0.87,0.94,1.02,1.10,1.17,1.25,1.30,1.31,1.38,1.46,1.54,1.62,1.69,1.70,1.75,1.82,1.90,1.98,2.06,2.13,2.21,2.28,2.36,2.44,2.51,2.59,2.67,2.75,2.82,2.90,2.97,3.00,3.03,3.11,3.19,3.26,3.34,3.42,3.50,3.57,3.65,3.73,3.81,3.88,3.96,4.04,4.11,4.19,4.27,4.35,4.42,4.50,4.58,4.65,4.70,4.70,4.70,4.76,4.80,4.82,4.90,4.90,5.01,5.76,7.60,9.53,11.29,13.08,14.95,16.81,18.66,21.66,25.58,29.79,32.42,35.16,37.97,40.93,44.67,49.37,55.08,60.37,61.83,64.15,64.91,64.26,62.61,60.66,58.13,56.67,56.62,56.50,55.70,55.11,54.80,54.58,53.25,51.39,49.27,47.25,46.42,46.70,47.01,47.18,47.57,47.50,46.18,44.16,42.08,39.93,37.07,33.98,30.72,26.64,22.14,16.51,10.70,6.46,5.26,4.90,4.87,4.80,4.80,4.74,4.70,4.68,4.61,4.60,4.55,4.50,4.50,4.42,4.40,4.36,4.30,4.30,4.23,4.16,4.10,4.10,4.02,4.00,3.97,3.90,3.90,3.84,3.80,3.78,3.71,3.63,3.60,3.57,3.50,3.50,3.44,3.40,3.39,3.31,3.30,3.25,3.20,3.20,3.12,3.05,3.00,3.00,3.00,3.06,3.10,3.11,3.19,3.20,3.20,3.22,3.30,3.30,3.35,3.40,3.40,3.40,3.46,3.50,3.52,3.59,3.60,3.60,3.60,3.61,3.68,3.70,3.70,3.70,3.70,3.77,3.80,3.80,3.80,3.80,3.85,3.90,3.90,3.90,3.90,3.94,4.00,4.00,4.00
e,e,e,e,e,e,e,e,e,e,e,e,e,e,e,e,e,e,e,e,e,e,e,e,e,e,e,e,e,e,e,e,e,e,e,e,e,e,0.01,0.09,0.17,0.27,0.40,0.50,0.57,0.65,0.73,0.80,0.86,0.93,1.01,1.08,1.16,1.24,1.32,1.37,1.37,1.45,1.53,1.60,1.68,1.76,1.77,1.81,1.89,1.97,2.04,2.12,2.20,2.27,2.29,2.36,2.44,2.51,2.59,2.67,2.75,2.81,2.83,2.91,2.97,3.03,3.11,3.19,3.26,3.34,3.42,3.50,3.57,3.65,3.73,3.81,3.88,3.96,4.04,4.11,4.19,4.27,4.35,4.42,4.50,4.58,4.62,4.65,4.70,4.70,4.76,4.80,4.82,4.90,4.90,5.07,5.80,7.41,9.23,11.12,13.11,15.16,17.12,18.98,22.07,25.96,29.73,32.41,35.12,37.93,40.98,45.11,50.24,55.88,60.74,62.16,64.14,64.40,63.33,61.58,59.38,56.68,54.46,53.15,52.54,51.97,51.73,51.73,51.77,51.02,49.41,47.30,45.06,43.54,43.53,43.98,44.52,45.01,45.45,45.02,43.76,41.83,39.88,37.07,33.91,30.56,26.68,22.21,16.46,10.55,6.46,5.26,4.90,4.87,4.80,4.80,4.74,4.70,4.68,4.61,4.60,4.55,4.50,4.50,4.42,4.36,4.32,4.29,4.24,4.21,4.16,4.10,4.10,4.02,4.00,3.97,3.90,3.90,3.84,3.77,3.73,3.70,3.63,3.60,3.57,3.50,3.50,3.44,3.40,3.39,3.31,3.25,3.22,3.19,3.13,3.11,3.05,3.00,3.00,3.00,3.06,3.10,3.10,3.13,3.18,3.20,3.21,3.23,3.29,3.32,3.35,3.40,3.40,3.42,3.46,3.51,3.53,3.58,3.60,3.60,3.60,3.63,3.67,3.70,3.70,3.70,3.72,3.76,3.80,3.80,3.80,3.82,3.85,3.90,3.90,3.90,3.91,3.94,4.00,4.00
e,e,e,e,e,e,e,e,e,e,e,e,e,e,e,e,e,e,e,e,e,e,e,e,e,e,e,e,e,e,e,e,e,e,e,e,e,e,0.01,0.09,0.19,0.30,0.42,0.50,0.57,0.67,0.76,0.84,0.92,0.97,1.05,1.15,1.23,1.30,1.38,1.43,1.43,1.51,1.59,1.67,1.74,1.82,1.83,1.88,1.95,2.03,2.11,2.18,2.26,2.33,2.33,2.39,2.47,2.55,2.62,2.70,2.78,2.83,2.83,2.91,2.99,3.07,3.14,3.22,3.28,3.34,3.42,3.50,3.57,3.65,3.73,3.81,3.88,3.96,4.04,4.11,4.19,4.27,4.35,4.42,4.50,4.58,4.60,4.63,4.70,4.70,4.76,4.81,4.85,4.90,4.90,5.28,6.15,7.53,9.10,10.95,12.99,15.14,17.19,19.18,22.26,26.01,29.57,32.30,35.01,37.87,41.11,45.48,51.00,56.54,60.95,62.32,63.71,63.60,62.41,60.73,58.19,55.31,52.35,49.50,47.00,46.82,47.30,48.01,48.72,48.64,47.48,45.54,43.17,41.21,40.89,41.29,41.99,42.58,43.36,43.68,43.18,41.61,39.76,36.92,33.67,30.24,26.38,22.09,16.40,10.47,6.43,5.25,4.90,4.87,4.80,4.80,4.74,4.70,4.68,4.61,4.60,4.55,4.49,4.47,4.41,4.34,4.30,4.29,4.21,4.20,4.16,4.10,4.10,4.02,3.98,3.95,3.90,3.87,3.83,3.76,3.70,3.70,3.63,3.60,3.57,3.50,3.50,3.44,3.39,3.36,3.31,3.23,3.20,3.18,3.10,3.10,3.05,3.00,3.00,3.00,3.04,3.08,3.10,3.10,3.15,3.18,3.20,3.20,3.28,3.30,3.32,3.37,3.40,3.40,3.43,3.47,3.50,3.55,3.58,3.60,3.60,3.60,3.64,3.68,3.70,3.70,3.70,3.73,3.78,3.80,3.80,3.80,3.82,3.87,3.90,3.90,3.90,3.91,3.96,3.99
e,e,e,e,e,e,e,e,e,e,e,e,e,e,e,e,e,e,e,e,e,e,e,e,e,e,e,e,e,e,e,e,e,e,e,e,e,e,0.01,0.09,0.23,0.34,0.42,0.50,0.57,0.70,0.83,0.90,0.98,1.00,1.08,1.21,1.29,1.37,1.44,1.50,1.50,1.58,1.65,1.73,1.81,1.88,1.90,1.94,2.02,2.09,2.17,2.25,2.33,2.40,2.40,2.46,2.53,2.61,2.69,2.77,2.84,2.90,2.90,2.98,3.05,3.13,3.21,3.28,3.30,3.34,3.42,3.50,3.57,3.65,3.73,3.81,3.88,3.96,4.04,4.11,4.19,4.27,4.35,4.42,4.50,4.58,4.60,4.63,4.70,4.70,4.76,4.84,4.90,4.90,4.90,5.64,6.78,7.95,9.13,10.77,12.74,14.90,17.06,19.27,22.25,25.76,29.31,32.09,34.82,37.80,41.31,45.79,51.65,57.06,61.00,62.32,62.88,62.51,61.49,60.07,57.08,54.02,50.32,45.69,39.98,40.31,41.85,43.65,45.45,46.12,45.59,43.98,41.55,39.39,38.76,38.94,39.58,40.27,41.24,42.17,42.42,41.42,39.57,36.61,33.26,29.77,25.76,21.79,16.33,10.45,6.36,5.23,4.90,4.87,4.80,4.80,4.74,4.70,4.68,4.61,4.60,4.55,4.47,4.40,4.40,4.34,4.30,4.29,4.21,4.20,4.16,4.10,4.10,4.02,3.95,3.90,3.89,3.82,3.80,3.76,3.70,3.70,3.63,3.60,3.57,3.50,3.50,3.44,3.37,3.30,3.30,3.23,3.20,3.18,3.10,3.10,3.05,3.00,3.00,3.00,3.00,3.04,3.10,3.10,3.10,3.15,3.20,3.20,3.28,3.30,3.30,3.31,3.39,3.40,3.40,3.42,3.50,3.50,3.55,3.60,3.60,3.60,3.60,3.64,3.70,3.70,3.70,3.70,3.73,3.80,3.80,3.80,3.80,3.81,3.89,3.90,3.90,3.90,3.90,3.97
