120.58,116.13,111.43,106.80,102.09,95.68,90.97,87.72,85.55,83.86,80.39,77.34,74.91,73.07,70.99,67.54,62.73,57.06,51.92,47.39,43.39,39.41,34.85,30.69,28.43,26.90,25.43,24.23,23.51,22.62,21.38,19.70,18.52,17.36,16.20,15.03,13.68,12.25,10.91,9.90,9.90,9.90,9.90,9.90,9.90,9.89,9.84,9.80,9.80,9.80,9.80,9.80,9.80,9.80,9.80,9.80,9.80,9.79,9.72,9.70,9.70,9.70,9.69,9.68,9.64,9.58,9.58,9.58,9.53,9.48,9.48,9.41,9.39,9.38,9.37,9.30,9.29,9.28,9.26,9.18,9.18,9.13,9.09,9.08,9.08,9.03,8.99,8.98,8.98,8.91,8.88,8.86,8.80,8.79,8.78,8.78,8.78,8.78,8.86,8.88,8.91,8.99,9.07,9.08,9.12,9.18,9.18,9.25,9.29,9.32,9.38,9.46,9.48,9.51,9.58,9.58,9.58,9.62,9.68,9.68,9.70,9.74,9.78,9.79,9.86,9.88,9.85,9.80,9.80,9.80,9.84,9.88,9.88,9.88,9.88,9.88,9.88,9.88,9.88,9.88,9.88,9.88,9.88,9.89,9.90,9.90,9.90,9.90,9.90,9.90,9.90,9.90,9.94,10.02,10.10,10.10,10.11,10.12,10.12,10.13,10.25,10.35,10.40,10.39,10.45,10.48,10.48,10.48,10.42,10.45,10.49,10.51,10.59,10.66,10.69,10.72,10.78,10.78,10.79,10.80,10.80,10.80,10.80,10.80,10.80,10.80,10.86,10.89,10.92,11.00,11.00,11.06,11.10,11.11,11.19,11.20,11.24,11.32,11.38,11.40,11.45,11.53,11.60,11.60,11.66,11.74,11.81,11.89,11.96,11.99,12.02,12.10,12.18,12.26,12.30,12.31,12.39,12.46,12.50,12.52,12.60,12.67,12.74,12.79,12.81,12.88,12.96,13.04,13.10,13.10,13.17,13.25,13.32,13.40,13.54,13.64,13.72,13.81,13.89,13.96,14.04,14.12,14.20,14.27,14.31,14.34,14.40,14.41,14.48,14.52,14.53,14.61,14.67,14.75,14.84,14.90
124.17,119.53,113.89,108.33,103.33,98.15,94.59,92.14,90.23,87.99,84.37,80.98,78.02,75.61,73.54,70.82,66.73,61.13,54.47,48.93,44.37,40.23,35.79,31.50,29.01,27.50,26.41,25.66,25.09,24.27,23.05,21.27,19.77,18.47,17.25,15.97,14.58,13.16,11.75,10.51,9.96,9.90,9.90,9.90,9.90,9.90,9.87,9.85,9.84,9.81,9.80,9.80,9.80,9.80,9.80,9.80,9.80,9.79,9.72,9.70,9.70,9.70,9.70,9.70,9.68,9.65,9.65,9.61,9.57,9.55,9.54,9.46,9.45,9.43,9.39,9.35,9.35,9.32,9.29,9.25,9.25,9.19,9.15,9.14,9.10,9.06,9.05,9.04,9.00,8.96,8.95,8.92,8.85,8.85,8.85,8.85,8.85,8.85,8.92,8.95,8.97,9.05,9.09,9.13,9.18,9.25,9.25,9.32,9.35,9.37,9.45,9.49,9.53,9.58,9.65,9.65,9.65,9.69,9.75,9.75,9.75,9.80,9.85,9.85,9.89,9.90,9.88,9.85,9.85,9.85,9.87,9.90,9.90,9.90,9.90,9.90,9.90,9.90,9.90,9.90,9.90,9.90,9.90,9.90,9.90,9.90,9.90,9.90,9.90,9.90,9.90,9.90,9.92,9.97,10.05,10.05,10.05,10.04,10.01,10.04,10.18,10.29,10.35,10.35,10.46,10.50,10.50,10.50,10.46,10.48,10.52,10.56,10.64,10.68,10.72,10.76,10.80,10.80,10.80,10.80,10.80,10.80,10.83,10.85,10.85,10.85,10.88,10.90,10.92,11.00,11.00,11.06,11.10,11.11,11.19,11.20,11.24,11.32,11.40,11.40,11.45,11.53,11.60,11.60,11.66,11.74,11.81,11.89,11.97,12.00,12.02,12.10,12.18,12.26,12.30,12.31,12.39,12.46,12.52,12.56,12.60,12.67,12.75,12.80,12.81,12.88,12.96,13.04,13.11,13.14,13.18,13.27,13.37,13.45,13.57,13.66,13.73,13.81,13.89,13.96,14.04,14.12,14.20,14.24,14.28,14.31,14.35,14.39,14.43,14.47,14.51,14.55,14.62,14.70,14.79,14.90
127.50,122.72,116.40,110.08,104.74,100.88,98.82,97.31,95.54,92.45,88.64,84.73,80.97,77.56,75.22,73.10,70.04,65.17,57.14,50.60,45.46,41.11,36.79,32.59,29.90,28.36,27.63,27.25,26.75,25.96,24.76,22.98,21.15,19.64,18.28,16.88,15.49,14.11,12.71,11.36,10.20,9.95,9.90,9.90,9.90,9.90,9.90,9.90,9.89,9.82,9.81,9.81,9.80,9.80,9.80,9.80,9.80,9.79,9.72,9.70,9.70,9.70,9.70,9.70,9.70,9.70,9.70,9.63,9.61,9.61,9.59,9.52,9.51,9.47,9.41,9.41,9.40,9.36,9.31,9.31,9.30,9.25,9.21,9.20,9.12,9.11,9.11,9.08,9.01,9.01,9.01,8.97,8.91,8.91,8.90,8.90,8.90,8.91,8.98,9.01,9.04,9.11,9.11,9.17,9.24,9.30,9.31,9.38,9.41,9.43,9.51,9.51,9.57,9.64,9.70,9.71,9.71,9.75,9.81,9.81,9.81,9.85,9.90,9.90,9.90,9.90,9.90,9.90,9.90,9.90,9.90,9.90,9.90,9.90,9.90,9.90,9.90,9.90,9.90,9.90,9.90,9.90,9.90,9.90,9.90,9.90,9.90,9.90,9.90,9.90,9.90,9.90,9.90,9.92,9.99,9.99,9.99,9.96,9.91,9.98,10.12,10.22,10.28,10.30,10.44,10.51,10.51,10.51,10.51,10.51,10.55,10.62,10.69,10.71,10.75,10.80,10.80,10.80,10.81,10.81,10.81,10.81,10.87,10.90,10.90,10.90,10.90,10.90,10.92,11.00,11.00,11.06,11.10,11.11,11.19,11.21,11.25,11.32,11.40,11.40,11.45,11.53,11.60,11.60,11.66,11.74,11.81,11.89,11.97,12.00,12.02,12.10,12.18,12.26,12.30,12.32,12.39,12.46,12.54,12.60,12.61,12.68,12.75,12.80,12.82,12.88,12.96,13.04,13.11,13.19,13.21,13.30,13.42,13.50,13.58,13.66,13.74,13.82,13.89,13.96,14.04,14.11,14.18,14.19,14.24,14.29,14.29,14.37,14.40,14.44,14.50,14.51,14.58,14.65,14.75,14.90
130.30,125.18,119.34,113.04,107.03,104.46,103.47,102.43,100.65,97.56,93.03,88.36,83.58,78.89,76.46,74.08,71.48,67.60,59.56,52.10,46.45,42.01,37.70,34.19,31.58,29.93,29.17,28.84,28.39,27.62,26.42,24.64,22.91,21.07,19.33,17.84,16.51,15.13,13.71,12.32,11.16,10.25,9.90,9.90,9.90,9.90,9.90,9.90,9.90,9.88,9.88,9.84,9.80,9.80,9.80,9.80,9.80,9.79,9.72,9.70,9.70,9.70,9.70,9.70,9.70,9.70,9.70,9.68,9.68,9.65,9.60,9.58,9.58,9.53,9.48,9.48,9.42,9.39,9.38,9.37,9.31,9.29,9.28,9.26,9.18,9.18,9.14,9.09,9.08,9.08,9.03,8.99,8.98,8.98,8.93,8.90,8.91,8.97,9.05,9.08,9.10,9.18,9.18,9.23,9.28,9.31,9.37,9.44,9.48,9.50,9.57,9.58,9.63,9.68,9.71,9.76,9.78,9.82,9.88,9.88,9.88,9.89,9.90,9.90,9.90,9.90,9.90,9.90,9.90,9.90,9.90,9.90,9.90,9.90,9.90,9.90,9.90,9.90,9.90,9.90,9.90,9.90,9.90,9.90,9.90,9.90,9.90,9.90,9.90,9.90,9.90,9.90,9.90,9.91,9.92,9.92,9.92,9.92,9.91,9.98,10.08,10.13,10.17,10.29,10.44,10.54,10.58,10.58,10.58,10.58,10.61,10.68,10.70,10.75,10.79,10.80,10.80,10.80,10.84,10.88,10.88,10.88,10.89,10.90,10.90,10.90,10.90,10.90,10.92,11.00,11.00,11.06,11.10,11.11,11.19,11.25,11.29,11.32,11.40,11.40,11.45,11.53,11.60,11.60,11.66,11.74,11.81,11.89,11.97,12.00,12.02,12.10,12.18,12.26,12.32,12.38,12.40,12.46,12.54,12.61,12.67,12.69,12.75,12.82,12.88,12.90,12.96,13.04,13.11,13.19,13.25,13.33,13.42,13.50,13.58,13.66,13.76,13.88,13.90,13.96,14.01,14.04,14.12,14.12,14.17,14.22,14.23,14.31,14.37,14.44,14.51,14.57,14.64,14.69,14.75,14.90
132.91,127.62,122.21,116.45,110.93,109.27,108.03,106.63,104.56,101.07,96.28,91.49,86.40,81.00,77.73,75.07,72.53,68.98,61.47,53.66,47.75,43.24,39.15,36.06,33.68,32.00,30.96,30.47,30.00,29.29,28.18,26.50,24.65,22.61,20.57,18.75,17.38,16.04,14.67,13.30,12.05,10.77,10.15,9.99,9.90,9.90,9.90,9.90,9.90,9.90,9.90,9.87,9.83,9.80,9.80,9.80,9.80,9.80,9.75,9.74,9.72,9.70,9.70,9.70,9.70,9.70,9.70,9.70,9.70,9.67,9.60,9.60,9.60,9.58,9.54,9.54,9.47,9.44,9.43,9.40,9.35,9.34,9.33,9.29,9.25,9.24,9.19,9.14,9.14,9.11,9.07,9.04,9.04,9.01,8.96,8.94,8.96,9.03,9.08,9.12,9.17,9.24,9.24,9.30,9.34,9.35,9.43,9.48,9.52,9.56,9.64,9.64,9.69,9.74,9.75,9.82,9.84,9.86,9.90,9.90,9.90,9.90,9.90,9.90,9.90,9.90,9.90,9.90,9.94,9.94,9.94,9.94,9.94,9.91,9.90,9.90,9.90,9.90,9.90,9.92,9.94,9.94,9.94,9.94,9.94,9.94,9.91,9.90,9.90,9.90,9.90,9.90,9.90,9.90,9.90,9.90,9.90,9.90,9.90,9.95,10.02,10.08,10.13,10.29,10.41,10.53,10.60,10.60,10.60,10.62,10.67,10.74,10.74,10.78,10.80,10.81,10.84,10.84,10.87,10.90,10.90,10.90,10.90,10.90,10.90,10.90,10.93,10.94,10.95,11.00,11.00,11.06,11.10,11.11,11.19,11.27,11.30,11.32,11.40,11.40,11.45,11.53,11.60,11.63,11.68,11.74,11.81,11.89,11.97,12.00,12.02,12.10,12.18,12.26,12.33,12.40,12.40,12.46,12.54,12.62,12.70,12.70,12.75,12.83,12.90,12.90,12.96,13.04,13.11,13.19,13.27,13.35,13.42,13.50,13.61,13.67,13.75,13.86,13.89,13.94,13.98,14.01,14.06,14.09,14.15,14.21,14.24,14.32,14.40,14.48,14.55,14.63,14.71,14.74,14.78,14.90
135.42,130.10,125.07,120.15,115.79,114.70,112.45,110.23,107.67,103.57,98.80,94.26,89.32,83.59,79.02,76.03,73.32,69.70,63.02,55.27,49.23,44.71,40.96,38.11,36.03,34.36,32.92,32.12,31.60,30.95,29.98,28.44,26.37,24.18,21.90,19.64,18.16,16.87,15.59,14.26,12.87,11.41,10.55,10.16,9.93,9.92,9.91,9.90,9.90,9.90,9.90,9.90,9.88,9.81,9.80,9.80,9.80,9.80,9.80,9.80,9.76,9.70,9.70,9.70,9.70,9.70,9.70,9.70,9.70,9.67,9.60,9.60,9.60,9.60,9.60,9.60,9.53,9.50,9.48,9.40,9.40,9.40,9.36,9.30,9.30,9.30,9.26,9.20,9.20,9.13,9.10,9.10,9.09,9.02,9.00,9.00,9.02,9.10,9.10,9.15,9.23,9.30,9.30,9.36,9.40,9.42,9.49,9.50,9.55,9.63,9.70,9.70,9.76,9.80,9.81,9.89,9.90,9.90,9.90,9.90,9.90,9.90,9.90,9.90,9.90,9.90,9.90,9.91,9.99,10.00,10.00,10.00,10.00,9.93,9.90,9.90,9.90,9.90,9.90,9.94,10.00,10.00,10.00,10.00,10.00,10.00,9.92,9.90,9.90,9.90,9.90,9.90,9.90,9.90,9.90,9.90,9.90,9.90,9.90,9.90,9.96,10.04,10.13,10.28,10.37,10.49,10.60,10.60,10.60,10.66,10.74,10.80,10.80,10.80,10.80,10.82,10.90,10.90,10.90,10.90,10.90,10.90,10.90,10.90,10.90,10.90,10.97,11.00,11.00,11.00,11.00,11.06,11.10,11.11,11.19,11.27,11.30,11.32,11.40,11.40,11.45,11.53,11.61,11.68,11.70,11.74,11.81,11.89,11.97,12.00,12.02,12.10,12.18,12.26,12.33,12.40,12.40,12.46,12.54,12.62,12.70,12.70,12.75,12.83,12.90,12.90,12.96,13.04,13.11,13.19,13.27,13.35,13.43,13.50,13.65,13.70,13.73,13.81,13.88,13.90,13.94,14.00,14.00,14.07,14.15,14.23,14.30,14.38,14.46,14.54,14.61,14.69,14.77,14.80,14.83,14.90
138.23,133.16,128.38,123.94,120.05,117.49,115.09,112.80,110.08,105.88,100.91,96.31,91.59,86.27,80.13,76.60,73.72,70.14,64.04,56.71,50.80,46.38,43.07,40.26,38.24,36.62,35.16,33.98,33.22,32.35,31.20,29.71,27.60,25.29,22.89,20.52,18.84,17.39,16.01,14.64,13.25,11.88,11.09,10.74,10.50,10.35,10.15,9.99,9.90,9.90,9.90,9.90,9.89,9.87,9.87,9.83,9.80,9.80,9.80,9.80,9.79,9.76,9.71,9.70,9.70,9.70,9.70,9.70,9.70,9.67,9.60,9.60,9.60,9.60,9.60,9.60,9.58,9.57,9.54,9.47,9.47,9.43,9.39,9.37,9.37,9.32,9.29,9.27,9.27,9.19,9.17,9.15,9.10,9.07,9.07,9.07,9.09,9.16,9.17,9.22,9.29,9.37,9.37,9.43,9.47,9.48,9.56,9.57,9.61,9.69,9.77,9.77,9.82,9.87,9.88,9.95,9.97,9.97,9.96,9.90,9.90,9.90,9.90,9.90,9.90,9.90,9.90,9.91,9.99,10.00,10.00,10.00,10.00,9.98,9.97,9.97,9.97,9.97,9.97,9.98,10.00,10.00,10.00,10.00,10.00,10.00,9.97,9.93,9.90,9.90,9.90,9.90,9.90,9.90,9.90,9.90,9.90,9.90,9.90,9.90,9.92,9.97,10.06,10.22,10.35,10.46,10.57,10.67,10.67,10.72,10.78,10.80,10.80,10.80,10.83,10.87,10.90,10.90,10.90,10.90,10.90,10.90,10.94,10.97,10.97,10.97,10.99,11.00,11.00,11.00,11.00,11.06,11.10,11.11,11.19,11.27,11.30,11.32,11.40,11.40,11.45,11.53,11.61,11.68,11.70,11.74,11.81,11.89,11.97,12.00,12.02,12.10,12.18,12.26,12.33,12.40,12.40,12.46,12.54,12.62,12.70,12.75,12.78,12.83,12.90,12.96,12.99,13.04,13.11,13.19,13.27,13.38,13.49,13.57,13.62,13.67,13.71,13.74,13.82,13.83,13.87,13.95,14.00,14.07,14.15,14.23,14.30,14.38,14.46,14.54,14.61,14.69,14.77,14.83,14.89,14.97
140.55,136.71,132.30,128.06,124.34,120.70,117.65,114.84,111.74,107.49,102.15,97.43,92.88,87.86,80.83,77.00,74.00,70.42,64.57,57.56,51.84,47.67,44.87,42.23,40.21,38.51,36.96,35.47,34.36,33.22,31.93,30.49,28.38,26.00,23.50,21.03,19.26,17.78,16.41,15.06,13.67,12.39,11.68,11.37,11.14,10.93,10.67,10.39,10.13,9.93,9.90,9.90,9.90,9.90,9.90,9.87,9.82,9.80,9.80,9.80,9.80,9.79,9.74,9.73,9.72,9.70,9.70,9.70,9.70,9.68,9.63,9.60,9.60,9.60,9.60,9.60,9.60,9.60,9.58,9.53,9.53,9.47,9.43,9.43,9.40,9.35,9.33,9.32,9.30,9.25,9.23,9.20,9.13,9.13,9.13,9.13,9.15,9.23,9.23,9.28,9.35,9.40,9.43,9.49,9.53,9.54,9.62,9.63,9.68,9.75,9.80,9.82,9.87,9.91,9.94,9.99,10.00,10.00,9.99,9.94,9.91,9.90,9.90,9.90,9.90,9.90,9.90,9.91,9.96,9.99,10.00,10.00,10.00,10.00,10.00,10.00,10.00,10.00,10.00,10.00,10.00,10.00,10.00,10.00,10.00,10.00,10.00,9.96,9.92,9.90,9.90,9.90,9.90,9.90,9.90,9.90,9.90,9.90,9.90,9.90,9.92,9.97,10.06,10.19,10.34,10.45,10.55,10.70,10.70,10.76,10.80,10.80,10.83,10.83,10.86,10.90,10.90,10.90,10.92,10.93,10.93,10.93,10.97,11.00,11.00,11.00,11.00,11.00,11.01,11.03,11.03,11.07,11.10,11.11,11.19,11.27,11.30,11.32,11.40,11.40,11.45,11.53,11.61,11.68,11.70,11.74,11.81,11.89,11.97,12.01,12.05,12.10,12.18,12.26,12.33,12.40,12.40,12.46,12.54,12.62,12.70,12.77,12.80,12.83,12.91,12.98,13.02,13.06,13.12,13.22,13.30,13.41,13.52,13.57,13.59,13.64,13.68,13.71,13.79,13.82,13.87,13.95,14.03,14.10,14.18,14.26,14.34,14.41,14.49,14.57,14.65,14.72,14.80,14.86,14.94,15.06
142.33,140.77,136.85,132.51,128.66,124.38,120.15,116.32,112.64,108.39,102.47,97.59,93.14,88.29,81.12,77.22,74.17,70.52,64.58,57.78,52.34,48.56,46.35,44.01,41.92,40.02,38.27,36.59,34.99,33.52,32.14,30.74,28.68,26.29,23.72,21.16,19.38,18.02,16.77,15.50,14.11,12.92,12.31,12.08,11.84,11.69,11.47,11.12,10.59,10.00,9.90,9.90,9.90,9.90,9.90,9.90,9.87,9.80,9.80,9.80,9.80,9.80,9.80,9.80,9.75,9.70,9.70,9.70,9.70,9.70,9.69,9.61,9.60,9.60,9.60,9.60,9.60,9.60,9.60,9.60,9.60,9.54,9.50,9.48,9.41,9.40,9.40,9.37,9.30,9.30,9.30,9.26,9.20,9.20,9.20,9.20,9.21,9.29,9.30,9.34,9.40,9.40,9.48,9.55,9.60,9.61,9.69,9.70,9.74,9.80,9.80,9.87,9.90,9.93,10.00,10.00,10.00,10.00,10.00,10.00,9.93,9.90,9.90,9.90,9.90,9.90,9.90,9.90,9.90,9.97,10.00,10.00,10.00,10.00,10.00,10.00,10.00,10.00,10.00,10.00,10.00,10.00,10.00,10.00,10.00,10.00,10.00,10.00,9.96,9.90,9.90,9.90,9.90,9.90,9.90,9.90,9.90,9.90,9.90,9.90,9.96,10.03,10.11,10.19,10.34,10.45,10.55,10.70,10.70,10.76,10.80,10.81,10.88,10.90,10.90,10.90,10.90,10.90,10.95,11.00,11.00,11.00,11.00,11.00,11.00,11.00,11.00,11.00,11.02,11.10,11.10,11.10,11.10,11.11,11.19,11.27,11.30,11.32,11.40,11.40,11.45,11.53,11.61,11.68,11.70,11.74,11.81,11.89,11.97,12.04,12.10,12.10,12.18,12.26,12.33,12.40,12.40,12.46,12.54,12.62,12.70,12.77,12.80,12.83,12.91,12.98,13.06,13.10,13.13,13.28,13.36,13.44,13.50,13.51,13.58,13.60,13.64,13.71,13.79,13.86,13.94,14.01,14.09,14.17,14.25,14.32,14.40,14.48,14.55,14.63,14.71,14.79,14.86,14.90,14.97,15.19
141.89,141.09,139.18,136.41,132.99,128.98,123.74,118.37,113.22,108.47,102.49,97.58,92.78,87.20,80.70,76.94,73.91,70.20,63.75,57.41,52.40,48.85,46.63,44.13,41.95,40.06,38.38,36.72,35.10,33.53,32.04,30.70,28.60,26.10,23.42,20.83,19.28,17.98,16.74,15.50,14.25,13.45,13.04,12.84,12.61,12.45,12.08,11.47,10.67,10.01,9.90,9.88,9.84,9.84,9.84,9.84,9.83,9.80,9.80,9.80,9.80,9.80,9.80,9.80,9.78,9.75,9.70,9.70,9.70,9.70,9.70,9.66,9.66,9.63,9.60,9.60,9.60,9.60,9.60,9.60,9.60,9.54,9.50,9.49,9.46,9.46,9.43,9.39,9.36,9.36,9.33,9.29,9.26,9.26,9.22,9.22,9.28,9.35,9.36,9.41,9.46,9.46,9.54,9.58,9.62,9.66,9.70,9.74,9.78,9.80,9.80,9.88,9.90,9.93,10.00,10.00,10.00,10.00,10.00,10.00,9.97,9.93,9.90,9.90,9.90,9.90,9.92,9.96,9.96,9.99,10.00,10.00,10.00,10.00,10.00,10.00,10.00,10.00,10.00,10.00,10.00,10.00,10.00,10.00,10.00,10.00,10.00,10.00,9.99,9.95,9.91,9.90,9.90,9.90,9.90,9.90,9.90,9.90,9.90,9.95,10.02,10.10,10.18,10.25,10.36,10.48,10.59,10.70,10.75,10.78,10.82,10.86,10.90,10.90,10.93,10.96,10.96,10.96,10.98,11.00,11.00,11.00,11.00,11.00,11.01,11.05,11.06,11.06,11.07,11.10,11.10,11.10,11.12,11.16,11.20,11.27,11.30,11.32,11.40,11.40,11.45,11.53,11.61,11.68,11.70,11.74,11.81,11.89,11.97,12.05,12.10,12.10,12.18,12.26,12.33,12.41,12.45,12.49,12.54,12.62,12.70,12.77,12.80,12.83,12.91,12.98,13.06,13.12,13.18,13.29,13.33,13.39,13.45,13.50,13.58,13.63,13.69,13.77,13.85,13.92,14.00,14.08,14.15,14.23,14.31,14.39,14.46,14.54,14.62,14.70,14.77,14.85,14.93,15.01,15.13,15.32
138.65,138.26,137.83,136.80,134.86,132.18,126.53,120.05,113.63,108.07,102.14,96.85,91.53,85.62,79.95,76.45,73.50,69.69,62.52,56.93,52.43,49.02,46.71,44.08,41.76,39.81,38.20,36.60,35.01,33.42,31.89,30.54,28.35,25.76,23.02,20.42,19.14,17.91,16.68,15.48,14.47,14.01,13.77,13.60,13.37,13.15,12.58,11.74,10.75,10.02,9.90,9.86,9.80,9.80,9.78,9.78,9.77,9.75,9.75,9.75,9.75,9.75,9.75,9.75,9.75,9.74,9.68,9.68,9.68,9.68,9.68,9.68,9.68,9.65,9.60,9.60,9.60,9.60,9.60,9.60,9.60,9.55,9.51,9.50,9.50,9.50,9.47,9.42,9.42,9.41,9.36,9.32,9.32,9.30,9.25,9.26,9.34,9.40,9.42,9.47,9.52,9.53,9.60,9.62,9.65,9.70,9.72,9.77,9.80,9.81,9.82,9.88,9.91,9.95,10.00,10.00,10.00,10.00,10.00,10.00,10.00,9.96,9.92,9.90,9.90,9.90,9.94,10.00,10.00,10.00,10.00,10.00,10.00,10.00,10.00,10.00,10.00,10.00,10.00,10.00,10.00,10.00,10.00,10.00,10.00,10.00,10.00,10.00,10.00,9.99,9.93,9.91,9.90,9.90,9.90,9.90,9.90,9.90,9.91,9.98,10.08,10.16,10.24,10.32,10.39,10.51,10.63,10.70,10.78,10.81,10.85,10.90,10.90,10.92,10.96,11.00,11.00,11.00,11.00,11.00,11.00,11.00,11.01,11.02,11.03,11.09,11.10,11.10,11.10,11.10,11.10,11.10,11.13,11.20,11.20,11.27,11.30,11.32,11.40,11.40,11.45,11.53,11.61,11.68,11.71,11.75,11.81,11.89,11.97,12.05,12.10,12.10,12.18,12.26,12.33,12.41,12.49,12.50,12.54,12.62,12.70,12.77,12.80,12.83,12.91,12.98,13.06,13.14,13.21,13.29,13.32,13.37,13.45,13.52,13.60,13.67,13.73,13.81,13.89,13.96,14.04,14.12,14.20,14.27,14.35,14.43,14.50,14.58,14.66,14.74,14.81,14.89,14.97,15.10,15.28,15.47
130.72,130.34,130.27,130.98,132.36,132.73,127.72,120.97,113.74,106.90,101.17,94.90,88.77,83.40,78.72,75.66,72.89,68.91,60.70,56.35,52.49,49.09,46.58,43.95,41.38,39.25,37.70,36.14,34.64,33.15,31.68,30.23,27.84,25.22,22.51,19.93,18.95,17.82,16.62,15.50,14.87,14.63,14.50,14.37,14.14,13.71,12.91,11.91,10.87,10.04,9.90,9.86,9.80,9.80,9.74,9.71,9.69,9.63,9.63,9.63,9.63,9.63,9.63,9.63,9.63,9.62,9.61,9.61,9.61,9.61,9.61,9.61,9.61,9.61,9.60,9.60,9.60,9.60,9.60,9.60,9.60,9.59,9.56,9.50,9.50,9.50,9.49,9.49,9.49,9.42,9.39,9.39,9.38,9.31,9.29,9.33,9.39,9.40,9.46,9.54,9.59,9.59,9.67,9.69,9.69,9.71,9.78,9.80,9.80,9.82,9.89,9.90,9.95,9.99,10.00,10.00,10.00,10.00,10.00,10.00,10.00,9.99,9.96,9.90,9.90,9.90,9.94,10.00,10.00,10.00,10.00,10.00,10.00,10.00,10.00,10.00,10.00,10.00,10.00,10.00,10.00,10.00,10.00,10.00,10.00,10.00,10.00,10.00,10.00,10.00,9.99,9.93,9.90,9.90,9.90,9.90,9.90,9.90,9.91,9.98,10.12,10.23,10.30,10.38,10.46,10.54,10.63,10.70,10.78,10.85,10.89,10.90,10.90,10.96,10.99,11.00,11.00,11.00,11.00,11.00,11.00,11.00,11.05,11.09,11.09,11.10,11.10,11.10,11.10,11.10,11.10,11.10,11.13,11.20,11.20,11.27,11.30,11.32,11.40,11.40,11.45,11.53,11.61,11.68,11.75,11.79,11.81,11.89,11.97,12.05,12.10,12.10,12.18,12.26,12.33,12.41,12.49,12.50,12.54,12.62,12.70,12.77,12.80,12.83,12.91,12.98,13.06,13.14,13.21,13.29,13.36,13.43,13.51,13.59,13.66,13.69,13.73,13.81,13.89,13.96,14.04,14.12,14.20,14.27,14.35,14.43,14.50,14.58,14.66,14.74,14.81,14.89,14.97,15.13,15.37,15.66
127.16,126.50,126.20,127.62,130.71,131.60,126.73,119.55,111.74,105.02,98.89,92.50,86.43,81.23,77.53,74.58,71.57,67.45,59.93,55.96,52.37,49.03,46.25,43.62,41.05,38.87,37.18,35.55,34.09,32.64,31.14,29.51,27.23,24.71,22.12,19.73,18.80,17.70,16.65,15.84,15.49,15.35,15.24,15.09,14.85,14.11,13.16,12.10,11.03,10.06,9.90,9.86,9.80,9.80,9.73,9.70,9.67,9.60,9.60,9.57,9.55,9.55,9.55,9.55,9.55,9.55,9.55,9.55,9.55,9.55,9.55,9.55,9.55,9.55,9.55,9.55,9.55,9.55,9.55,9.55,9.55,9.55,9.53,9.50,9.50,9.50,9.50,9.50,9.50,9.46,9.45,9.43,9.40,9.36,9.35,9.39,9.45,9.45,9.52,9.58,9.60,9.60,9.68,9.70,9.70,9.71,9.79,9.80,9.80,9.82,9.90,9.90,9.93,9.96,10.00,10.00,10.00,10.00,10.00,10.00,10.00,10.00,9.99,9.95,9.91,9.93,9.97,10.00,10.00,10.00,10.00,10.00,10.00,10.00,10.00,10.00,10.00,10.00,10.00,10.00,10.00,10.00,10.00,10.00,10.00,10.00,10.00,10.00,10.00,10.00,10.00,9.97,9.95,9.95,9.95,9.95,9.95,9.95,9.96,10.04,10.14,10.24,10.32,10.39,10.47,10.55,10.63,10.70,10.78,10.86,10.90,10.91,10.94,10.98,11.00,11.00,11.00,11.00,11.03,11.05,11.05,11.05,11.08,11.10,11.10,11.10,11.10,11.10,11.11,11.15,11.15,11.15,11.17,11.20,11.20,11.27,11.30,11.32,11.40,11.40,11.45,11.53,11.61,11.68,11.76,11.80,11.81,11.89,11.97,12.05,12.10,12.10,12.18,12.26,12.33,12.41,12.49,12.50,12.54,12.62,12.70,12.77,12.83,12.86,12.91,12.98,13.06,13.14,13.21,13.29,13.37,13.45,13.51,13.55,13.63,13.68,13.73,13.81,13.89,13.96,14.04,14.12,14.20,14.27,14.35,14.43,14.50,14.58,14.66,14.72,14.76,14.84,14.92,15.04,15.25,15.60
124.94,123.96,123.15,124.58,128.35,129.42,124.69,117.21,109.03,102.83,96.30,90.06,84.32,79.35,76.46,73.52,70.18,65.90,59.51,55.68,52.21,48.93,45.91,43.25,40.74,38.55,36.71,34.99,33.49,32.03,30.48,28.66,26.51,24.14,21.74,19.59,18.66,17.62,16.81,16.35,16.21,16.12,16.00,15.76,15.34,14.33,13.27,12.20,11.12,10.08,9.90,9.86,9.80,9.80,9.73,9.70,9.67,9.60,9.60,9.54,9.50,9.50,9.49,9.49,9.48,9.47,9.47,9.47,9.48,9.49,9.49,9.49,9.49,9.49,9.49,9.49,9.49,9.49,9.49,9.49,9.49,9.49,9.49,9.49,9.49,9.49,9.49,9.49,9.49,9.49,9.49,9.46,9.40,9.40,9.40,9.44,9.50,9.50,9.56,9.59,9.60,9.60,9.67,9.69,9.70,9.71,9.78,9.80,9.80,9.82,9.88,9.90,9.90,9.93,9.99,10.00,10.00,10.00,10.00,10.00,10.00,10.00,10.00,10.00,9.93,9.96,10.00,10.00,10.00,10.00,10.00,10.00,10.00,10.00,10.00,10.00,10.00,10.00,10.00,10.01,10.01,10.01,10.01,10.01,10.01,10.01,10.01,10.01,10.01,10.00,10.00,10.00,10.00,10.00,10.00,10.00,10.00,10.00,10.01,10.08,10.16,10.24,10.32,10.39,10.47,10.55,10.63,10.70,10.78,10.86,10.90,10.92,10.99,11.00,11.01,11.01,11.01,11.01,11.06,11.10,11.10,11.10,11.10,11.10,11.10,11.11,11.11,11.11,11.14,11.20,11.20,11.20,11.20,11.20,11.20,11.27,11.30,11.32,11.40,11.41,11.46,11.53,11.61,11.68,11.76,11.80,11.81,11.89,11.97,12.05,12.10,12.12,12.18,12.26,12.33,12.41,12.49,12.50,12.54,12.62,12.70,12.77,12.84,12.89,12.91,12.98,13.06,13.14,13.21,13.29,13.36,13.43,13.49,13.50,13.58,13.66,13.73,13.81,13.89,13.96,14.04,14.12,14.20,14.27,14.35,14.43,14.50,14.57,14.64,14.69,14.71,14.79,14.86,14.93,15.09,15.44
123.46,122.23,120.50,120.46,122.84,125.19,121.04,113.78,105.79,100.18,93.77,87.83,82.63,78.41,75.71,72.78,69.12,64.59,59.34,55.62,52.12,48.78,45.71,42.91,40.43,38.29,36.44,34.62,32.86,31.29,29.73,27.71,25.55,23.38,21.28,19.40,18.47,17.74,17.30,17.12,17.03,16.95,16.83,16.35,15.15,14.09,13.05,12.01,10.95,10.05,9.90,9.86,9.80,9.80,9.73,9.70,9.67,9.60,9.60,9.54,9.50,9.49,9.43,9.42,9.39,9.34,9.34,9.34,9.39,9.42,9.42,9.42,9.42,9.42,9.42,9.42,9.42,9.42,9.42,9.42,9.42,9.42,9.42,9.42,9.42,9.42,9.42,9.42,9.42,9.42,9.42,9.41,9.40,9.40,9.40,9.44,9.50,9.50,9.52,9.56,9.60,9.60,9.62,9.67,9.70,9.70,9.72,9.77,9.80,9.80,9.82,9.88,9.90,9.91,9.93,9.99,10.00,10.00,10.00,10.00,10.00,10.00,10.00,10.00,9.98,9.99,10.00,10.00,10.00,10.00,10.00,10.00,10.00,10.00,10.00,10.00,10.00,10.00,10.00,10.03,10.08,10.08,10.08,10.08,10.08,10.08,10.08,10.08,10.05,10.00,10.00,10.00,10.00,10.00,10.00,10.00,10.00,10.00,10.01,10.08,10.16,10.24,10.32,10.39,10.47,10.55,10.63,10.70,10.78,10.86,10.93,10.98,11.00,11.00,11.03,11.08,11.08,11.08,11.09,11.10,11.10,11.10,11.10,11.10,11.11,11.17,11.18,11.18,11.18,11.20,11.20,11.20,11.20,11.20,11.20,11.27,11.30,11.32,11.40,11.46,11.49,11.53,11.61,11.68,11.76,11.80,11.81,11.89,11.97,12.05,12.12,12.18,12.20,12.26,12.33,12.41,12.49,12.50,12.54,12.62,12.70,12.77,12.81,12.84,12.91,12.98,13.06,13.14,13.21,13.29,13.31,13.37,13.44,13.50,13.58,13.66,13.73,13.81,13.89,13.96,14.04,14.12,14.20,14.27,14.35,14.43,14.50,14.52,14.58,14.65,14.71,14.79,14.81,14.87,14.98,15.19
122.58,121.24,119.25,117.86,117.60,117.66,114.28,108.95,102.94,98.09,91.54,85.51,80.65,77.38,74.88,72.24,68.64,64.04,59.27,55.57,52.05,48.69,45.60,42.61,40.11,37.98,36.09,34.17,32.25,30.65,29.15,27.13,25.01,22.91,20.98,19.39,18.62,18.24,18.07,18.02,17.94,17.84,17.54,16.75,15.09,13.81,12.73,11.70,10.70,10.01,9.90,9.86,9.80,9.80,9.73,9.70,9.67,9.60,9.60,9.54,9.50,9.49,9.41,9.40,9.35,9.30,9.30,9.27,9.29,9.32,9.32,9.32,9.32,9.32,9.32,9.32,9.32,9.32,9.32,9.32,9.32,9.32,9.32,9.32,9.32,9.32,9.33,9.36,9.36,9.36,9.36,9.37,9.40,9.40,9.40,9.44,9.50,9.50,9.50,9.55,9.60,9.60,9.60,9.63,9.67,9.70,9.70,9.74,9.78,9.80,9.80,9.84,9.88,9.90,9.91,9.99,10.00,10.00,10.00,10.00,10.00,10.00,10.00,10.00,10.00,10.00,10.00,10.00,10.00,10.00,10.00,10.00,10.00,10.00,10.00,10.00,10.00,10.04,10.04,10.07,10.10,10.10,10.10,10.10,10.10,10.10,10.10,10.10,10.08,10.04,10.04,10.04,10.04,10.03,10.00,10.00,10.00,10.00,10.01,10.08,10.16,10.24,10.32,10.43,10.48,10.55,10.63,10.70,10.78,10.86,10.93,11.00,11.00,11.03,11.07,11.10,11.10,11.10,11.10,11.10,11.10,11.10,11.13,11.14,11.15,11.20,11.20,11.20,11.20,11.20,11.20,11.20,11.21,11.24,11.24,11.28,11.30,11.32,11.40,11.47,11.50,11.53,11.61,11.68,11.76,11.80,11.81,11.89,11.97,12.05,12.12,12.20,12.20,12.26,12.33,12.41,12.49,12.50,12.54,12.62,12.70,12.77,12.80,12.83,12.91,12.98,13.06,13.14,13.21,13.25,13.29,13.35,13.42,13.50,13.58,13.66,13.73,13.81,13.89,13.96,14.04,14.12,14.20,14.24,14.31,14.39,14.46,14.49,14.53,14.59,14.67,14.75,14.79,14.83,14.89,15.02
122.02,120.66,118.78,116.22,112.99,109.40,106.79,103.94,100.52,96.39,89.70,83.37,78.68,76.39,74.10,71.86,68.50,63.94,59.27,55.53,51.99,48.63,45.53,42.36,39.80,37.62,35.66,33.62,31.62,30.05,28.68,26.81,24.75,22.67,20.84,19.51,19.01,18.96,19.01,19.00,18.90,18.72,18.16,17.01,15.08,13.51,12.34,11.33,10.41,9.97,9.90,9.85,9.80,9.79,9.72,9.70,9.67,9.60,9.60,9.54,9.50,9.49,9.41,9.40,9.35,9.30,9.30,9.22,9.20,9.20,9.19,9.19,9.19,9.19,9.19,9.19,9.19,9.19,9.19,9.19,9.19,9.19,9.20,9.20,9.20,9.20,9.24,9.30,9.30,9.30,9.30,9.33,9.40,9.40,9.40,9.44,9.50,9.50,9.50,9.55,9.60,9.60,9.61,9.61,9.64,9.70,9.70,9.70,9.74,9.80,9.80,9.80,9.86,9.90,9.91,9.99,10.00,10.00,10.00,10.00,10.00,10.00,10.00,10.00,10.00,10.00,10.00,10.00,10.00,10.00,10.00,10.00,10.00,10.00,10.00,10.00,10.01,10.09,10.10,10.10,10.10,10.10,10.10,10.10,10.10,10.10,10.10,10.10,10.10,10.10,10.10,10.10,10.10,10.08,10.01,10.01,10.01,10.01,10.01,10.09,10.17,10.25,10.34,10.49,10.50,10.55,10.63,10.70,10.78,10.86,10.93,11.00,11.01,11.07,11.10,11.10,11.10,11.10,11.10,11.11,11.11,11.11,11.16,11.20,11.20,11.20,11.20,11.20,11.20,11.21,11.21,11.21,11.24,11.30,11.30,11.30,11.30,11.32,11.40,11.47,11.50,11.53,11.61,11.68,11.76,11.80,11.82,11.89,11.97,12.05,12.12,12.20,12.20,12.26,12.33,12.41,12.49,12.50,12.54,12.62,12.70,12.77,12.80,12.83,12.91,12.98,13.06,13.13,13.19,13.20,13.27,13.35,13.42,13.50,13.58,13.66,13.73,13.81,13.89,13.96,14.04,14.11,14.19,14.20,14.25,14.33,14.40,14.48,14.50,14.53,14.61,14.68,14.76,14.80,14.82,14.89
121.51,120.56,118.78,116.19,112.98,109.84,106.97,103.86,100.25,95.83,89.98,83.35,78.20,76.16,74.11,72.04,68.90,64.50,59.37,55.55,51.96,48.55,45.40,42.23,39.53,37.13,34.92,32.64,30.68,29.29,28.27,27.10,25.16,23.15,21.33,19.99,19.94,19.98,20.08,20.11,19.81,19.35,18.44,16.99,15.01,13.19,11.92,10.91,10.06,9.92,9.85,9.82,9.79,9.73,9.71,9.70,9.67,9.60,9.60,9.54,9.50,9.49,9.41,9.40,9.35,9.30,9.30,9.22,9.20,9.18,9.13,9.13,9.13,9.13,9.13,9.13,9.13,9.13,9.13,9.13,9.13,9.13,9.16,9.20,9.20,9.20,9.21,9.25,9.30,9.30,9.30,9.33,9.40,9.40,9.40,9.44,9.50,9.50,9.55,9.58,9.60,9.60,9.66,9.67,9.68,9.70,9.70,9.70,9.74,9.80,9.80,9.85,9.89,9.92,9.97,10.00,10.00,10.00,10.00,10.00,10.00,10.00,10.00,10.00,10.00,10.00,10.00,10.00,10.00,10.00,10.00,10.00,10.00,10.00,10.00,10.02,10.07,10.10,10.10,10.10,10.10,10.10,10.10,10.10,10.10,10.10,10.10,10.10,10.10,10.10,10.10,10.10,10.10,10.09,10.07,10.07,10.07,10.07,10.07,10.10,10.20,10.31,10.39,10.49,10.50,10.55,10.63,10.70,10.78,10.86,10.93,11.01,11.06,11.09,11.10,11.10,11.10,11.10,11.14,11.17,11.17,11.17,11.19,11.20,11.20,11.20,11.20,11.20,11.22,11.27,11.27,11.27,11.28,11.30,11.30,11.30,11.30,11.32,11.40,11.47,11.50,11.53,11.61,11.68,11.76,11.83,11.87,11.90,11.97,12.05,12.12,12.20,12.20,12.26,12.33,12.41,12.49,12.50,12.54,12.62,12.70,12.77,12.80,12.83,12.91,12.98,13.06,13.11,13.14,13.19,13.27,13.35,13.42,13.50,13.58,13.66,13.73,13.81,13.89,13.96,14.01,14.05,14.13,14.18,14.25,14.31,14.33,14.41,14.47,14.51,14.54,14.62,14.70,14.76,14.81,14.83
121.21,120.49,118.99,116.76,113.92,110.88,107.87,104.60,100.81,96.12,90.81,83.72,78.00,76.05,74.11,72.12,69.22,65.08,59.67,55.77,52.20,48.85,45.79,42.67,39.82,37.20,34.76,32.21,30.18,28.79,27.86,26.93,25.40,23.56,21.90,20.91,21.30,21.41,21.50,21.54,21.13,20.11,18.70,16.96,14.98,13.02,11.58,10.55,9.90,9.90,9.84,9.80,9.78,9.70,9.70,9.68,9.65,9.60,9.57,9.53,9.49,9.46,9.41,9.38,9.34,9.29,9.27,9.21,9.20,9.17,9.10,9.10,9.08,9.07,9.07,9.07,9.07,9.08,9.10,9.10,9.10,9.12,9.16,9.20,9.20,9.22,9.23,9.26,9.33,9.33,9.33,9.37,9.43,9.43,9.46,9.49,9.53,9.53,9.61,9.63,9.63,9.64,9.72,9.73,9.73,9.73,9.70,9.72,9.76,9.81,9.83,9.88,9.90,9.93,10.00,10.00,10.00,10.00,10.00,10.00,10.00,10.00,10.01,10.03,10.03,10.03,10.03,10.03,10.03,10.03,10.03,10.03,10.03,10.03,10.03,10.05,10.10,10.10,10.10,10.10,10.10,10.10,10.10,10.10,10.10,10.10,10.10,10.10,10.10,10.10,10.10,10.10,10.10,10.10,10.10,10.10,10.10,10.10,10.10,10.13,10.24,10.34,10.42,10.49,10.52,10.57,10.63,10.70,10.78,10.86,10.93,11.01,11.09,11.10,11.11,11.13,11.13,11.13,11.17,11.20,11.20,11.20,11.20,11.20,11.21,11.23,11.23,11.23,11.25,11.30,11.30,11.30,11.30,11.30,11.30,11.30,11.31,11.35,11.40,11.47,11.50,11.53,11.61,11.68,11.76,11.84,11.90,11.90,11.97,12.05,12.12,12.20,12.20,12.26,12.33,12.41,12.49,12.50,12.54,12.62,12.70,12.75,12.78,12.83,12.91,12.98,13.04,13.08,13.11,13.19,13.27,13.35,13.42,13.50,13.58,13.66,13.72,13.78,13.85,13.93,13.98,14.01,14.06,14.14,14.22,14.28,14.30,14.35,14.43,14.48,14.51,14.59,14.65,14.71,14.77,14.80
121.09,120.47,119.38,117.82,115.69,112.45,109.40,106.05,102.08,97.15,92.12,84.43,78.05,76.05,74.11,72.12,69.46,65.69,60.13,56.17,52.67,49.49,46.62,43.60,40.60,37.76,35.10,32.26,30.05,28.52,27.44,26.36,25.48,23.91,22.54,22.22,23.06,23.18,23.22,23.26,22.80,20.98,18.94,16.91,14.98,12.97,11.30,10.25,9.90,9.90,9.84,9.80,9.78,9.70,9.70,9.65,9.60,9.60,9.52,9.50,9.46,9.40,9.40,9.33,9.30,9.28,9.20,9.20,9.20,9.17,9.10,9.10,9.04,9.00,9.00,9.00,9.00,9.05,9.10,9.10,9.10,9.16,9.20,9.20,9.20,9.27,9.30,9.32,9.40,9.40,9.40,9.43,9.50,9.50,9.56,9.60,9.60,9.60,9.67,9.70,9.70,9.70,9.78,9.80,9.80,9.79,9.71,9.77,9.80,9.82,9.90,9.90,9.90,9.93,10.00,10.00,10.00,10.00,10.00,10.00,10.00,10.00,10.03,10.10,10.10,10.10,10.10,10.10,10.10,10.10,10.10,10.10,10.10,10.10,10.10,10.10,10.10,10.10,10.10,10.10,10.10,10.10,10.10,10.10,10.10,10.10,10.10,10.10,10.10,10.10,10.10,10.10,10.10,10.10,10.10,10.10,10.10,10.10,10.11,10.18,10.26,10.34,10.42,10.49,10.57,10.60,10.63,10.70,10.78,10.86,10.93,11.01,11.09,11.10,11.14,11.20,11.20,11.20,11.20,11.20,11.20,11.20,11.20,11.20,11.22,11.29,11.30,11.30,11.30,11.30,11.30,11.30,11.30,11.30,11.30,11.30,11.34,11.40,11.40,11.47,11.50,11.53,11.61,11.68,11.76,11.84,11.90,11.90,11.97,12.05,12.12,12.20,12.20,12.26,12.33,12.41,12.49,12.50,12.54,12.62,12.70,12.70,12.75,12.83,12.91,12.98,13.00,13.04,13.11,13.19,13.27,13.35,13.42,13.50,13.58,13.66,13.70,13.71,13.79,13.87,13.94,14.00,14.00,14.08,14.15,14.23,14.30,14.30,14.36,14.44,14.51,14.59,14.60,14.65,14.72,14.80
121.34,121.16,120.59,119.51,117.76,114.81,112.00,108.52,103.85,97.42,92.30,84.55,78.09,76.05,74.11,72.12,69.47,65.78,60.60,56.73,53.30,50.17,47.27,44.35,41.47,38.60,35.74,32.93,30.65,28.99,27.76,26.54,25.44,24.05,23.21,23.63,24.58,24.99,25.15,24.91,23.39,21.31,19.20,17.13,15.10,13.04,11.15,10.03,9.90,9.90,9.84,9.80,9.78,9.70,9.70,9.65,9.60,9.59,9.52,9.50,9.46,9.40,9.40,9.33,9.30,9.29,9.26,9.21,9.20,9.17,9.10,9.10,9.04,9.00,9.00,9.00,9.05,9.08,9.12,9.16,9.16,9.22,9.26,9.26,9.26,9.33,9.36,9.37,9.40,9.45,9.46,9.49,9.57,9.62,9.65,9.69,9.72,9.72,9.75,9.76,9.76,9.76,9.79,9.80,9.80,9.80,9.77,9.79,9.80,9.82,9.90,9.90,9.93,9.97,10.00,10.00,10.00,10.00,10.00,10.00,10.00,10.03,10.07,10.10,10.10,10.10,10.10,10.10,10.10,10.10,10.10,10.10,10.10,10.10,10.10,10.10,10.10,10.10,10.10,10.10,10.10,10.10,10.10,10.10,10.10,10.10,10.10,10.10,10.10,10.10,10.10,10.10,10.10,10.10,10.10,10.10,10.13,10.16,10.16,10.19,10.26,10.34,10.42,10.49,10.53,10.57,10.63,10.70,10.78,10.86,10.93,11.01,11.09,11.10,11.12,11.15,11.20,11.20,11.20,11.20,11.20,11.20,11.24,11.26,11.27,11.30,11.30,11.30,11.30,11.30,11.30,11.30,11.32,11.36,11.36,11.36,11.38,11.40,11.40,11.47,11.50,11.53,11.61,11.68,11.76,11.84,11.90,11.90,11.97,12.05,12.12,12.20,12.20,12.26,12.33,12.40,12.43,12.48,12.54,12.62,12.70,12.70,12.75,12.83,12.91,12.98,13.00,13.04,13.11,13.19,13.27,13.35,13.42,13.50,13.53,13.59,13.66,13.70,13.73,13.80,13.88,13.95,14.00,14.03,14.09,14.17,14.24,14.29,14.32,14.37,14.45,14.53,14.58,14.62,14.66,14.74
122.07,122.13,121.70,120.72,119.08,116.26,113.55,109.95,104.85,97.62,92.38,84.62,78.18,76.12,74.15,72.13,69.46,65.83,61.03,57.32,53.97,50.85,47.88,45.04,42.25,39.40,36.51,33.86,31.56,29.73,28.28,26.97,25.69,24.47,24.04,24.94,25.98,26.72,27.04,26.55,24.07,21.48,19.22,17.18,15.15,13.11,11.09,9.92,9.90,9.90,9.84,9.80,9.78,9.70,9.70,9.65,9.60,9.59,9.52,9.50,9.46,9.40,9.40,9.35,9.31,9.30,9.30,9.22,9.20,9.17,9.10,9.10,9.05,9.03,9.03,9.03,9.10,9.13,9.15,9.20,9.22,9.27,9.31,9.33,9.33,9.39,9.43,9.43,9.43,9.50,9.53,9.56,9.63,9.71,9.73,9.77,9.83,9.83,9.83,9.83,9.83,9.83,9.83,9.83,9.83,9.82,9.80,9.80,9.81,9.84,9.90,9.92,9.97,10.00,10.00,10.00,10.00,10.00,10.00,10.00,10.02,10.06,10.10,10.10,10.10,10.10,10.10,10.10,10.10,10.10,10.10,10.10,10.10,10.10,10.10,10.10,10.10,10.10,10.10,10.10,10.10,10.10,10.10,10.10,10.10,10.10,10.10,10.10,10.10,10.10,10.12,10.13,10.13,10.13,10.13,10.13,10.16,10.20,10.20,10.20,10.26,10.34,10.41,10.47,10.49,10.55,10.63,10.70,10.78,10.86,10.93,11.01,11.07,11.09,11.10,11.12,11.17,11.17,11.19,11.20,11.20,11.20,11.25,11.27,11.28,11.30,11.30,11.30,11.30,11.30,11.30,11.31,11.35,11.40,11.40,11.40,11.40,11.40,11.40,11.47,11.51,11.55,11.61,11.68,11.76,11.84,11.90,11.90,11.97,12.05,12.12,12.17,12.19,12.26,12.33,12.40,12.40,12.46,12.54,12.62,12.70,12.70,12.75,12.83,12.91,12.98,13.00,13.04,13.11,13.19,13.25,13.32,13.40,13.47,13.49,13.54,13.61,13.68,13.70,13.76,13.83,13.89,13.97,13.99,14.05,14.12,14.18,14.26,14.29,14.34,14.41,14.47,14.54,14.59,14.62,14.67
123.47,123.48,122.64,121.21,119.26,116.34,113.49,109.79,104.73,97.73,92.37,84.65,78.32,76.30,74.23,72.16,69.44,65.84,61.38,57.97,54.71,51.53,48.46,45.67,42.88,40.12,37.45,35.15,32.90,30.83,29.05,27.73,26.36,25.30,25.10,26.10,27.24,28.34,28.87,28.19,24.92,21.46,18.89,16.97,15.09,13.14,11.15,9.96,9.90,9.90,9.84,9.80,9.78,9.70,9.70,9.65,9.60,9.59,9.52,9.50,9.46,9.40,9.40,9.39,9.35,9.30,9.30,9.22,9.20,9.17,9.10,9.10,9.09,9.09,9.09,9.09,9.16,9.19,9.19,9.20,9.27,9.30,9.33,9.39,9.39,9.46,9.49,9.49,9.49,9.57,9.59,9.62,9.70,9.78,9.79,9.83,9.89,9.89,9.89,9.89,9.89,9.89,9.89,9.89,9.89,9.88,9.81,9.80,9.84,9.89,9.90,9.97,10.00,10.00,10.00,10.00,10.00,10.00,10.00,10.00,10.06,10.09,10.10,10.10,10.10,10.10,10.10,10.10,10.10,10.10,10.10,10.10,10.10,10.10,10.10,10.10,10.10,10.10,10.10,10.10,10.10,10.10,10.10,10.10,10.10,10.10,10.10,10.10,10.10,10.11,10.18,10.19,10.19,10.19,10.19,10.19,10.20,10.20,10.20,10.20,10.26,10.34,10.40,10.41,10.47,10.55,10.63,10.70,10.78,10.86,10.93,11.00,11.01,11.07,11.10,11.10,11.11,11.11,11.16,11.20,11.20,11.20,11.21,11.21,11.22,11.29,11.30,11.30,11.30,11.30,11.30,11.35,11.39,11.40,11.40,11.40,11.40,11.40,11.40,11.47,11.55,11.59,11.61,11.68,11.76,11.84,11.90,11.90,11.97,12.05,12.10,12.11,12.18,12.26,12.33,12.40,12.40,12.46,12.54,12.62,12.70,12.70,12.75,12.83,12.91,12.98,13.00,13.04,13.11,13.19,13.21,13.26,13.33,13.41,13.48,13.51,13.54,13.62,13.69,13.76,13.80,13.83,13.91,13.98,14.05,14.10,14.12,14.19,14.26,14.34,14.40,14.41,14.48,14.55,14.60,14.61
124.92,124.30,122.95,121.20,119.14,116.28,113.43,109.16,103.49,97.04,91.19,84.20,78.69,76.60,74.52,72.33,69.52,65.89,61.49,58.17,55.04,51.99,49.03,46.25,43.44,40.69,38.08,35.84,33.60,31.46,29.61,28.34,26.95,26.17,26.22,27.20,28.40,29.79,30.20,28.96,25.40,21.63,18.92,16.99,15.13,13.24,11.30,10.08,9.90,9.90,9.84,9.80,9.78,9.70,9.70,9.65,9.60,9.59,9.52,9.50,9.46,9.40,9.40,9.40,9.35,9.30,9.30,9.22,9.20,9.17,9.10,9.10,9.10,9.10,9.11,9.15,9.19,9.23,9.25,9.26,9.29,9.33,9.37,9.41,9.45,9.49,9.52,9.55,9.55,9.63,9.65,9.67,9.71,9.79,9.83,9.89,9.95,9.95,9.95,9.95,9.95,9.95,9.95,9.92,9.90,9.89,9.86,9.85,9.87,9.90,9.90,9.98,10.00,10.00,10.00,10.00,10.00,10.00,10.01,10.05,10.09,10.10,10.10,10.10,10.10,10.10,10.10,10.10,10.10,10.10,10.10,10.10,10.10,10.10,10.10,10.10,10.10,10.10,10.10,10.10,10.10,10.10,10.10,10.13,10.15,10.15,10.15,10.15,10.15,10.16,10.19,10.20,10.20,10.20,10.20,10.20,10.20,10.20,10.20,10.20,10.26,10.32,10.35,10.40,10.47,10.55,10.63,10.70,10.78,10.86,10.92,10.95,10.99,11.07,11.10,11.10,11.10,11.10,11.12,11.16,11.20,11.20,11.20,11.20,11.21,11.24,11.28,11.30,11.30,11.30,11.30,11.33,11.36,11.40,11.40,11.40,11.40,11.40,11.40,11.47,11.55,11.60,11.61,11.68,11.76,11.82,11.85,11.90,11.97,12.05,12.10,12.10,12.18,12.26,12.33,12.40,12.40,12.46,12.54,12.62,12.70,12.70,12.75,12.83,12.91,12.98,13.00,13.04,13.11,13.14,13.18,13.25,13.32,13.40,13.48,13.50,13.53,13.61,13.69,13.76,13.80,13.82,13.90,13.97,14.05,14.10,14.10,14.18,14.26,14.34,14.40,14.40,14.47,14.55,14.61,14.65
126.05,124.72,122.95,120.97,118.84,116.10,113.30,108.29,101.75,95.96,89.98,83.90,79.21,76.95,74.80,72.49,69.59,65.92,61.55,58.26,55.25,52.36,49.52,46.77,43.95,41.19,38.60,36.36,34.15,32.01,30.13,28.83,27.49,27.03,27.36,28.31,29.63,31.16,31.31,29.49,25.83,21.95,19.15,17.13,15.27,13.40,11.49,10.22,9.90,9.90,9.84,9.80,9.78,9.70,9.70,9.65,9.60,9.59,9.52,9.50,9.47,9.42,9.40,9.40,9.35,9.30,9.30,9.22,9.20,9.17,9.12,9.12,9.12,9.12,9.14,9.21,9.22,9.26,9.30,9.32,9.32,9.37,9.41,9.43,9.49,9.51,9.55,9.60,9.62,9.69,9.72,9.72,9.73,9.80,9.88,9.95,10.00,10.00,10.00,10.00,10.00,10.00,10.00,9.94,9.90,9.90,9.90,9.90,9.90,9.90,9.92,9.98,10.00,10.00,10.00,10.00,10.00,10.00,10.02,10.09,10.10,10.10,10.10,10.10,10.10,10.10,10.10,10.10,10.10,10.10,10.10,10.10,10.10,10.10,10.10,10.10,10.10,10.11,10.12,10.12,10.12,10.12,10.12,10.16,10.20,10.20,10.20,10.20,10.20,10.20,10.20,10.20,10.20,10.20,10.20,10.20,10.20,10.20,10.20,10.21,10.27,10.30,10.32,10.39,10.47,10.55,10.63,10.70,10.78,10.85,10.89,10.91,10.99,11.05,11.08,11.09,11.10,11.10,11.10,11.12,11.18,11.20,11.20,11.20,11.20,11.20,11.26,11.29,11.30,11.30,11.30,11.30,11.33,11.38,11.40,11.40,11.40,11.40,11.40,11.47,11.55,11.60,11.61,11.68,11.76,11.81,11.83,11.89,11.97,12.05,12.10,12.10,12.18,12.26,12.33,12.40,12.40,12.46,12.54,12.62,12.70,12.70,12.75,12.83,12.91,12.98,13.00,13.04,13.10,13.10,13.17,13.24,13.31,13.38,13.46,13.49,13.53,13.61,13.69,13.75,13.79,13.82,13.90,13.97,14.05,14.10,14.10,14.18,14.26,14.34,14.40,14.40,14.47,14.55,14.62,14.70
126.36,124.38,122.44,120.42,118.22,115.63,113.02,107.01,99.22,94.26,89.27,84.21,80.02,77.38,74.98,72.54,69.56,65.88,61.60,58.33,55.38,52.57,49.78,47.12,44.37,41.62,38.99,36.75,34.61,32.55,30.64,29.09,27.94,27.87,28.51,29.48,31.10,32.39,32.07,29.84,26.32,22.60,19.70,17.50,15.59,13.67,11.74,10.39,9.90,9.90,9.84,9.80,9.78,9.70,9.70,9.65,9.60,9.59,9.52,9.50,9.49,9.47,9.41,9.40,9.35,9.30,9.30,9.22,9.20,9.19,9.18,9.18,9.18,9.18,9.20,9.28,9.28,9.29,9.32,9.38,9.38,9.39,9.43,9.48,9.50,9.56,9.59,9.62,9.68,9.76,9.78,9.78,9.79,9.87,9.94,9.99,10.00,10.00,10.00,10.00,10.00,10.00,10.00,9.94,9.90,9.90,9.90,9.90,9.90,9.92,9.98,10.00,10.00,10.00,10.00,10.00,10.00,10.00,10.02,10.09,10.10,10.10,10.10,10.10,10.10,10.10,10.10,10.10,10.10,10.10,10.10,10.10,10.10,10.10,10.10,10.10,10.11,10.17,10.18,10.18,10.18,10.18,10.18,10.19,10.20,10.20,10.20,10.20,10.20,10.20,10.20,10.20,10.20,10.20,10.20,10.20,10.20,10.20,10.21,10.27,10.29,10.30,10.32,10.39,10.47,10.55,10.63,10.70,10.78,10.81,10.85,10.91,10.99,11.01,11.02,11.04,11.10,11.10,11.10,11.11,11.12,11.19,11.20,11.20,11.20,11.20,11.21,11.26,11.30,11.30,11.30,11.30,11.31,11.33,11.39,11.40,11.40,11.40,11.40,11.47,11.55,11.60,11.61,11.68,11.76,11.83,11.88,11.90,11.97,12.05,12.10,12.10,12.18,12.26,12.33,12.40,12.40,12.46,12.54,12.62,12.70,12.70,12.75,12.83,12.91,12.98,13.00,13.04,13.10,13.10,13.17,13.21,13.24,13.32,13.40,13.46,13.53,13.61,13.69,13.71,13.75,13.82,13.90,13.97,14.05,14.10,14.10,14.18,14.26,14.34,14.40,14.40,14.47,14.55,14.62,14.70
126.31,124.11,121.93,119.70,117.35,114.77,112.22,105.54,96.86,92.01,88.47,84.47,80.85,78.30,75.66,72.93,69.70,65.91,61.91,58.63,55.66,52.86,50.08,47.42,44.69,41.97,39.33,37.16,35.09,33.05,31.10,29.44,28.74,29.09,30.03,31.13,32.72,33.51,32.71,30.22,26.78,23.16,20.19,17.83,15.86,13.93,11.97,10.53,9.90,9.90,9.84,9.80,9.78,9.70,9.70,9.65,9.60,9.60,9.55,9.52,9.50,9.49,9.41,9.40,9.35,9.30,9.30,9.26,9.22,9.21,9.25,9.25,9.25,9.25,9.26,9.30,9.33,9.35,9.36,9.40,9.44,9.45,9.47,9.51,9.54,9.58,9.62,9.66,9.70,9.78,9.82,9.85,9.85,9.93,9.98,10.00,10.00,10.00,10.00,10.00,10.00,10.00,9.96,9.92,9.90,9.90,9.90,9.93,9.95,9.96,10.00,10.00,10.00,10.00,10.00,10.00,10.00,10.02,10.05,10.10,10.10,10.10,10.10,10.10,10.10,10.10,10.10,10.10,10.10,10.10,10.10,10.10,10.10,10.10,10.12,10.15,10.15,10.19,10.20,10.20,10.20,10.20,10.20,10.20,10.20,10.20,10.20,10.20,10.20,10.20,10.20,10.20,10.20,10.21,10.24,10.25,10.25,10.25,10.25,10.29,10.30,10.30,10.32,10.39,10.47,10.55,10.61,10.66,10.73,10.78,10.83,10.91,10.99,11.00,11.00,11.01,11.05,11.09,11.10,11.10,11.10,11.15,11.15,11.17,11.20,11.20,11.20,11.23,11.25,11.26,11.29,11.30,11.30,11.31,11.35,11.38,11.40,11.41,11.44,11.49,11.55,11.60,11.61,11.68,11.76,11.84,11.90,11.90,11.97,12.05,12.10,12.10,12.18,12.26,12.33,12.40,12.40,12.46,12.54,12.62,12.70,12.70,12.75,12.83,12.91,12.98,13.00,13.02,13.06,13.10,13.14,13.18,13.22,13.30,13.38,13.43,13.49,13.56,13.64,13.68,13.74,13.81,13.85,13.93,14.01,14.07,14.10,14.18,14.26,14.32,14.36,14.40,14.47,14.55,14.62,14.70
125.93,123.65,121.26,118.82,116.36,113.75,110.78,103.63,94.61,89.75,87.63,84.65,81.66,79.37,76.48,73.40,69.90,66.05,62.37,59.07,56.04,53.18,50.39,47.68,44.97,42.24,39.60,37.55,35.54,33.50,31.55,29.98,29.83,30.56,31.75,32.99,34.43,34.58,33.26,30.60,27.23,23.73,20.69,18.17,16.14,14.19,12.20,10.67,9.90,9.90,9.84,9.80,9.78,9.70,9.70,9.65,9.61,9.60,9.60,9.54,9.50,9.49,9.41,9.40,9.36,9.31,9.30,9.30,9.25,9.24,9.30,9.30,9.30,9.30,9.31,9.31,9.38,9.40,9.41,9.41,9.48,9.51,9.51,9.52,9.59,9.61,9.65,9.70,9.71,9.78,9.85,9.90,9.92,9.99,10.00,10.00,10.00,10.00,10.00,10.00,10.00,9.99,9.92,9.90,9.90,9.90,9.91,9.97,10.00,10.00,10.00,10.00,10.00,10.00,10.00,10.00,10.01,10.05,10.10,10.10,10.10,10.10,10.10,10.10,10.10,10.10,10.10,10.10,10.10,10.10,10.10,10.10,10.11,10.11,10.16,10.20,10.20,10.20,10.20,10.20,10.20,10.20,10.20,10.20,10.20,10.20,10.20,10.20,10.20,10.20,10.21,10.21,10.21,10.23,10.30,10.30,10.30,10.30,10.30,10.30,10.30,10.30,10.32,10.39,10.47,10.54,10.59,10.60,10.68,10.76,10.83,10.91,10.99,11.00,11.00,11.00,11.00,11.07,11.10,11.10,11.10,11.10,11.10,11.13,11.19,11.20,11.20,11.20,11.20,11.20,11.27,11.30,11.30,11.30,11.30,11.37,11.40,11.42,11.50,11.50,11.55,11.60,11.61,11.68,11.76,11.84,11.90,11.90,11.97,12.05,12.10,12.11,12.18,12.26,12.33,12.40,12.40,12.46,12.54,12.62,12.70,12.70,12.75,12.83,12.90,12.98,13.00,13.00,13.01,13.09,13.10,13.15,13.22,13.29,13.37,13.40,13.43,13.51,13.59,13.66,13.73,13.79,13.80,13.87,13.95,14.03,14.10,14.17,14.25,14.29,14.31,14.39,14.47,14.54,14.61,14.69
124.45,121.93,119.61,117.39,115.16,112.71,106.87,99.51,92.53,88.81,86.69,84.52,82.31,80.06,76.97,73.62,70.13,66.60,63.12,59.75,56.56,53.53,50.64,47.94,45.11,42.24,39.50,37.64,35.75,33.79,32.09,31.41,31.72,32.61,33.77,34.96,36.20,35.58,33.68,30.89,27.72,24.51,21.47,18.77,16.59,14.49,12.45,10.84,9.90,9.90,9.84,9.80,9.78,9.70,9.70,9.69,9.65,9.60,9.60,9.54,9.50,9.49,9.41,9.40,9.39,9.36,9.30,9.30,9.29,9.28,9.30,9.30,9.30,9.33,9.37,9.37,9.39,9.44,9.47,9.47,9.50,9.54,9.57,9.58,9.60,9.65,9.69,9.72,9.77,9.79,9.85,9.92,9.98,10.00,10.00,10.00,10.00,10.00,10.00,10.00,9.98,9.93,9.91,9.90,9.90,9.91,9.97,9.99,10.00,10.00,10.00,10.00,10.00,10.00,10.00,10.00,10.05,10.08,10.10,10.10,10.10,10.10,10.10,10.10,10.10,10.10,10.10,10.10,10.10,10.10,10.10,10.12,10.17,10.17,10.19,10.20,10.20,10.20,10.20,10.20,10.20,10.20,10.20,10.20,10.20,10.20,10.20,10.20,10.20,10.21,10.27,10.27,10.27,10.28,10.30,10.30,10.30,10.30,10.30,10.30,10.30,10.30,10.32,10.39,10.47,10.51,10.55,10.60,10.68,10.76,10.83,10.91,10.99,11.00,11.00,11.00,11.00,11.02,11.06,11.10,11.10,11.10,11.10,11.11,11.14,11.19,11.20,11.20,11.20,11.20,11.22,11.27,11.30,11.30,11.30,11.37,11.40,11.42,11.50,11.50,11.55,11.60,11.61,11.68,11.76,11.84,11.90,11.90,11.97,12.05,12.12,12.17,12.19,12.26,12.33,12.40,12.40,12.46,12.54,12.62,12.70,12.70,12.75,12.83,12.90,12.92,12.97,13.00,13.01,13.09,13.10,13.15,13.21,13.23,13.30,13.37,13.43,13.51,13.59,13.62,13.67,13.74,13.80,13.87,13.95,14.01,14.03,14.11,14.19,14.25,14.31,14.39,14.47,14.51,14.55,14.63
123.06,120.40,118.15,116.05,113.94,111.69,103.85,96.21,90.51,87.56,85.30,83.46,81.79,79.97,77.14,73.84,70.47,67.17,63.80,60.43,57.18,54.05,51.01,48.13,45.17,42.22,39.46,37.72,35.93,34.47,33.56,33.48,33.89,34.82,36.00,37.13,37.91,36.75,34.47,31.53,28.41,25.39,22.37,19.53,17.15,14.95,12.83,11.06,9.90,9.90,9.84,9.80,9.79,9.74,9.71,9.70,9.67,9.60,9.60,9.54,9.50,9.49,9.44,9.41,9.40,9.39,9.34,9.34,9.34,9.34,9.34,9.34,9.34,9.36,9.41,9.44,9.44,9.47,9.51,9.54,9.54,9.57,9.61,9.64,9.64,9.68,9.72,9.75,9.80,9.83,9.89,9.96,10.00,10.00,10.00,10.00,10.00,10.00,10.00,10.00,9.97,9.90,9.90,9.90,9.90,9.91,9.99,10.00,10.00,10.00,10.00,10.00,10.00,10.00,10.00,10.03,10.08,10.10,10.10,10.10,10.10,10.10,10.10,10.10,10.10,10.10,10.11,10.14,10.14,10.14,10.14,10.15,10.20,10.20,10.20,10.20,10.20,10.20,10.20,10.20,10.20,10.20,10.20,10.20,10.21,10.24,10.24,10.24,10.24,10.24,10.29,10.30,10.30,10.30,10.30,10.30,10.30,10.30,10.30,10.33,10.34,10.34,10.35,10.40,10.44,10.48,10.53,10.60,10.68,10.76,10.83,10.91,10.96,10.96,10.98,11.00,11.00,11.00,11.03,11.06,11.07,11.09,11.10,11.10,11.11,11.16,11.16,11.18,11.20,11.20,11.20,11.26,11.30,11.30,11.30,11.37,11.40,11.42,11.50,11.50,11.55,11.60,11.61,11.68,11.76,11.84,11.90,11.90,11.97,12.05,12.12,12.20,12.20,12.26,12.33,12.40,12.40,12.46,12.54,12.62,12.70,12.70,12.75,12.83,12.90,12.90,12.96,13.00,13.01,13.06,13.09,13.13,13.17,13.20,13.28,13.36,13.42,13.47,13.55,13.59,13.64,13.72,13.80,13.85,13.91,13.97,14.00,14.08,14.16,14.22,14.28,14.35,14.43,14.48,14.52,14.60
121.71,119.01,116.82,114.78,112.70,110.66,101.46,93.53,88.55,86.07,83.59,81.74,80.40,79.30,77.07,74.05,70.88,67.75,64.43,61.11,57.89,54.70,51.45,48.29,45.17,42.18,39.48,37.78,36.09,35.45,35.70,36.02,36.25,37.15,38.35,39.42,39.58,38.05,35.52,32.42,29.25,26.36,23.36,20.41,17.79,15.54,13.30,11.32,9.90,9.90,9.84,9.80,9.80,9.80,9.73,9.70,9.67,9.60,9.60,9.54,9.50,9.50,9.50,9.43,9.40,9.40,9.40,9.40,9.40,9.40,9.40,9.40,9.40,9.40,9.42,9.50,9.50,9.50,9.53,9.60,9.60,9.60,9.64,9.70,9.70,9.70,9.75,9.80,9.80,9.88,9.95,10.00,10.00,10.00,10.00,10.00,10.00,10.00,10.00,10.00,9.97,9.90,9.90,9.90,9.90,9.91,9.99,10.00,10.00,10.00,10.00,10.00,10.00,10.00,10.01,10.09,10.10,10.10,10.10,10.10,10.10,10.10,10.10,10.10,10.10,10.10,10.14,10.20,10.20,10.20,10.20,10.20,10.20,10.20,10.20,10.20,10.20,10.20,10.20,10.20,10.20,10.20,10.20,10.20,10.23,10.30,10.30,10.30,10.30,10.30,10.30,10.30,10.30,10.30,10.30,10.30,10.30,10.30,10.31,10.38,10.40,10.40,10.40,10.40,10.40,10.45,10.53,10.60,10.68,10.76,10.83,10.90,10.90,10.90,10.94,11.00,11.00,11.00,11.00,11.00,11.01,11.08,11.10,11.10,11.10,11.10,11.10,11.15,11.20,11.20,11.20,11.26,11.30,11.30,11.30,11.37,11.40,11.42,11.50,11.50,11.55,11.60,11.61,11.68,11.76,11.84,11.90,11.90,11.97,12.05,12.12,12.20,12.20,12.26,12.33,12.40,12.40,12.47,12.54,12.62,12.70,12.70,12.75,12.83,12.90,12.90,12.96,13.00,13.00,13.00,13.07,13.10,13.12,13.20,13.28,13.35,13.40,13.41,13.49,13.56,13.64,13.72,13.79,13.80,13.85,13.93,14.00,14.08,14.16,14.20,14.21,14.29,14.37,14.45,14.52,14.60
119.93,117.93,116.07,114.14,111.73,107.37,98.87,91.92,87.38,84.36,81.87,80.18,78.96,77.82,76.28,73.80,70.88,67.82,64.85,61.74,58.59,55.41,52.22,49.05,45.87,42.74,39.87,38.27,37.43,37.24,37.54,38.05,38.54,39.12,39.76,40.36,40.22,38.82,36.46,33.49,30.57,27.66,24.52,21.36,18.49,16.20,13.94,11.75,9.90,9.90,9.88,9.84,9.80,9.80,9.73,9.70,9.67,9.60,9.60,9.58,9.54,9.50,9.50,9.43,9.40,9.40,9.40,9.40,9.40,9.40,9.40,9.40,9.44,9.46,9.47,9.50,9.55,9.56,9.57,9.60,9.65,9.66,9.68,9.71,9.76,9.76,9.78,9.81,9.86,9.89,9.95,10.00,10.00,10.00,10.00,10.00,10.00,10.00,10.00,10.00,9.97,9.90,9.90,9.90,9.92,9.97,10.00,10.00,10.00,10.00,10.00,10.00,10.00,10.02,10.07,10.09,10.10,10.10,10.10,10.10,10.10,10.10,10.10,10.10,10.10,10.14,10.18,10.20,10.20,10.20,10.20,10.20,10.20,10.20,10.20,10.20,10.20,10.20,10.20,10.23,10.26,10.26,10.26,10.26,10.27,10.30,10.30,10.30,10.30,10.30,10.30,10.30,10.30,10.30,10.30,10.35,10.36,10.36,10.37,10.39,10.40,10.40,10.40,10.40,10.40,10.45,10.53,10.60,10.68,10.76,10.81,10.84,10.89,10.90,10.92,10.95,11.00,11.00,11.00,11.00,11.00,11.03,11.07,11.10,11.10,11.10,11.10,11.15,11.20,11.20,11.20,11.26,11.30,11.31,11.36,11.39,11.40,11.42,11.50,11.50,11.55,11.60,11.61,11.68,11.76,11.84,11.90,11.90,11.97,12.05,12.12,12.20,12.20,12.26,12.33,12.41,12.46,12.49,12.54,12.62,12.70,12.70,12.75,12.83,12.90,12.90,12.92,12.96,13.00,13.00,13.07,13.10,13.12,13.20,13.23,13.29,13.36,13.41,13.49,13.52,13.58,13.65,13.73,13.78,13.85,13.93,14.00,14.03,14.09,14.16,14.21,14.29,14.37,14.42,14.46,14.54
118.58,116.92,115.21,113.39,110.75,103.96,96.43,90.51,86.28,82.85,80.47,78.88,77.66,76.46,75.30,73.30,70.74,67.85,65.07,62.14,59.13,56.07,53.02,49.87,46.67,43.57,40.81,39.27,38.91,38.96,39.25,39.75,40.30,40.62,40.87,41.16,40.71,39.40,37.22,34.40,31.66,28.85,25.65,22.30,19.16,16.87,14.55,12.17,10.03,9.92,9.90,9.86,9.80,9.80,9.73,9.70,9.68,9.63,9.61,9.60,9.56,9.50,9.50,9.45,9.43,9.43,9.43,9.43,9.43,9.43,9.43,9.43,9.47,9.51,9.53,9.53,9.58,9.61,9.63,9.63,9.69,9.72,9.73,9.74,9.79,9.82,9.83,9.84,9.90,9.90,9.95,10.00,10.00,10.00,10.00,10.00,10.00,10.00,10.00,10.00,9.98,9.93,9.91,9.90,9.94,10.00,10.00,10.00,10.00,10.00,10.00,10.00,10.02,10.05,10.10,10.10,10.10,10.10,10.10,10.10,10.10,10.10,10.10,10.10,10.10,10.16,10.20,10.20,10.20,10.20,10.20,10.20,10.20,10.20,10.20,10.21,10.23,10.23,10.23,10.26,10.30,10.30,10.30,10.30,10.30,10.30,10.30,10.30,10.30,10.30,10.33,10.33,10.33,10.33,10.33,10.38,10.40,10.40,10.40,10.40,10.40,10.40,10.40,10.40,10.40,10.45,10.53,10.60,10.68,10.74,10.78,10.81,10.89,10.90,10.90,10.91,10.97,10.99,11.00,11.00,11.00,11.00,11.04,11.08,11.10,11.10,11.10,11.15,11.20,11.20,11.20,11.26,11.30,11.31,11.39,11.40,11.40,11.42,11.50,11.50,11.55,11.60,11.61,11.68,11.76,11.84,11.90,11.90,11.97,12.05,12.12,12.20,12.20,12.26,12.33,12.41,12.49,12.50,12.54,12.62,12.70,12.72,12.77,12.82,12.87,12.90,12.90,12.94,13.00,13.00,13.07,13.10,13.12,13.20,13.20,13.26,13.32,13.38,13.46,13.49,13.54,13.62,13.70,13.75,13.82,13.90,13.97,13.99,14.06,14.14,14.21,14.26,14.34,14.38,14.42,14.50
117.75,115.99,114.22,112.50,109.75,100.39,94.18,89.33,85.26,81.58,79.48,77.88,76.54,75.25,74.09,72.52,70.42,67.85,65.07,62.28,59.47,56.66,53.85,50.75,47.60,44.74,42.41,40.86,40.55,40.60,40.78,41.04,41.44,41.54,41.60,41.77,41.03,39.78,37.77,35.12,32.48,29.90,26.74,23.23,19.80,17.56,15.11,12.58,10.32,9.96,9.90,9.86,9.80,9.80,9.73,9.70,9.70,9.69,9.62,9.60,9.56,9.50,9.50,9.49,9.49,9.49,9.49,9.49,9.49,9.49,9.49,9.49,9.50,9.54,9.59,9.59,9.60,9.65,9.69,9.69,9.70,9.75,9.79,9.79,9.80,9.86,9.89,9.89,9.90,9.90,9.95,10.00,10.00,10.00,10.00,10.00,10.00,10.00,10.00,10.00,10.00,9.99,9.92,9.90,9.94,10.00,10.00,10.00,10.00,10.00,10.00,10.00,10.05,10.09,10.10,10.10,10.10,10.10,10.10,10.10,10.10,10.10,10.10,10.10,10.10,10.16,10.20,10.20,10.20,10.20,10.20,10.20,10.20,10.20,10.20,10.23,10.29,10.29,10.29,10.30,10.30,10.30,10.30,10.30,10.30,10.30,10.30,10.30,10.30,10.31,10.38,10.39,10.39,10.39,10.39,10.40,10.40,10.40,10.40,10.40,10.40,10.40,10.40,10.40,10.40,10.45,10.53,10.60,10.68,10.70,10.74,10.81,10.89,10.90,10.90,10.90,10.91,10.98,11.00,11.00,11.00,11.00,11.00,11.04,11.10,11.10,11.10,11.15,11.20,11.20,11.20,11.26,11.30,11.31,11.39,11.40,11.40,11.42,11.50,11.50,11.55,11.60,11.61,11.68,11.76,11.84,11.90,11.90,11.97,12.05,12.12,12.20,12.20,12.26,12.33,12.41,12.49,12.50,12.54,12.62,12.70,12.77,12.80,12.80,12.81,12.88,12.90,12.94,13.00,13.00,13.07,13.10,13.12,13.20,13.20,13.26,13.30,13.32,13.39,13.47,13.54,13.62,13.70,13.71,13.76,13.83,13.91,13.98,14.06,14.14,14.20,14.21,14.28,14.35,14.42,14.50
117.04,115.39,113.71,112.02,109.08,98.73,92.78,88.39,84.66,81.04,78.97,77.26,75.77,74.42,73.18,71.74,69.83,67.42,64.73,61.95,59.33,56.74,54.01,51.22,48.79,46.47,44.25,42.88,42.31,42.08,42.08,42.27,42.52,42.55,42.40,42.06,41.16,39.94,38.00,35.41,33.01,30.78,27.85,24.37,20.78,18.14,15.57,13.02,10.71,10.02,9.90,9.86,9.80,9.80,9.77,9.73,9.70,9.69,9.62,9.60,9.58,9.55,9.50,9.50,9.50,9.50,9.50,9.54,9.56,9.56,9.56,9.56,9.56,9.57,9.61,9.65,9.66,9.68,9.72,9.76,9.76,9.78,9.82,9.86,9.86,9.89,9.90,9.90,9.90,9.90,9.92,9.94,9.95,9.99,10.00,10.00,10.00,10.00,10.00,10.00,10.00,10.00,9.96,9.96,9.97,10.00,10.00,10.00,10.00,10.00,10.00,10.00,10.05,10.10,10.10,10.10,10.10,10.10,10.10,10.10,10.10,10.10,10.10,10.10,10.10,10.16,10.20,10.20,10.20,10.20,10.20,10.20,10.20,10.20,10.20,10.23,10.30,10.30,10.30,10.30,10.30,10.30,10.30,10.30,10.30,10.30,10.30,10.33,10.36,10.36,10.40,10.40,10.40,10.40,10.40,10.40,10.40,10.40,10.40,10.40,10.43,10.46,10.46,10.46,10.46,10.48,10.53,10.60,10.63,10.68,10.73,10.80,10.84,10.88,10.90,10.90,10.90,10.93,10.94,10.96,11.00,11.00,11.00,11.04,11.10,11.10,11.10,11.15,11.20,11.20,11.24,11.28,11.30,11.31,11.39,11.40,11.40,11.42,11.50,11.50,11.55,11.60,11.61,11.68,11.76,11.84,11.90,11.90,11.97,12.05,12.12,12.20,12.20,12.26,12.33,12.41,12.49,12.50,12.54,12.62,12.70,12.77,12.80,12.80,12.81,12.88,12.90,12.92,12.95,13.00,13.03,13.07,13.11,13.14,13.19,13.22,13.26,13.31,13.39,13.46,13.52,13.56,13.64,13.68,13.75,13.83,13.90,13.94,14.00,14.08,14.15,14.19,14.27,14.35,14.41,14.44
116.46,114.88,113.26,111.31,107.81,97.40,91.71,87.62,84.14,80.59,78.57,76.77,75.15,73.69,72.34,70.90,69.01,66.64,64.01,61.33,58.92,56.60,54.06,51.60,49.77,48.00,46.10,44.85,44.04,43.55,43.36,43.48,43.47,43.33,42.94,42.21,41.24,40.07,38.22,35.75,33.54,31.55,28.82,25.41,21.65,18.65,15.99,13.46,11.13,10.08,9.90,9.87,9.82,9.80,9.80,9.75,9.70,9.70,9.63,9.61,9.60,9.59,9.53,9.52,9.52,9.52,9.52,9.58,9.60,9.60,9.60,9.60,9.61,9.62,9.63,9.70,9.71,9.72,9.74,9.80,9.80,9.81,9.85,9.90,9.90,9.90,9.90,9.90,9.90,9.90,9.90,9.90,9.91,9.97,9.98,9.99,10.00,10.00,10.00,10.00,10.00,10.00,10.00,10.00,10.00,10.00,10.00,10.00,10.00,10.00,10.00,10.00,10.05,10.10,10.10,10.10,10.10,10.10,10.10,10.10,10.10,10.10,10.10,10.10,10.12,10.17,10.20,10.20,10.20,10.20,10.20,10.20,10.20,10.20,10.20,10.23,10.30,10.30,10.30,10.30,10.30,10.30,10.30,10.30,10.30,10.30,10.32,10.37,10.40,10.40,10.40,10.40,10.40,10.40,10.40,10.40,10.40,10.41,10.42,10.42,10.47,10.50,10.50,10.50,10.50,10.50,10.52,10.58,10.60,10.66,10.73,10.80,10.80,10.85,10.89,10.90,10.90,10.90,10.90,10.92,10.98,11.00,11.00,11.04,11.10,11.10,11.10,11.15,11.20,11.20,11.28,11.30,11.30,11.31,11.39,11.40,11.40,11.42,11.50,11.50,11.55,11.61,11.63,11.69,11.76,11.84,11.90,11.90,11.97,12.05,12.12,12.20,12.20,12.26,12.33,12.41,12.49,12.50,12.54,12.62,12.70,12.76,12.79,12.80,12.80,12.87,12.89,12.90,12.91,12.99,13.00,13.05,13.10,13.10,13.18,13.20,13.23,13.31,13.37,13.44,13.49,13.52,13.60,13.67,13.74,13.81,13.88,13.90,13.96,14.04,14.11,14.17,14.25,14.33,14.38,14.40
116.14,114.46,112.78,110.00,105.15,96.28,91.06,87.14,83.69,80.14,78.26,76.48,74.74,73.04,71.60,69.94,67.81,65.23,62.60,60.19,58.08,56.12,54.06,51.90,50.23,48.94,47.89,46.59,45.68,45.04,44.68,44.70,44.16,43.58,42.92,42.15,41.28,40.17,38.49,36.28,34.17,32.10,29.48,26.18,22.22,19.03,16.34,13.89,11.59,10.14,9.90,9.89,9.87,9.80,9.80,9.75,9.70,9.70,9.69,9.63,9.60,9.60,9.59,9.58,9.58,9.58,9.58,9.60,9.60,9.60,9.60,9.60,9.65,9.68,9.69,9.70,9.76,9.78,9.79,9.80,9.80,9.85,9.89,9.90,9.90,9.90,9.90,9.90,9.90,9.90,9.90,9.90,9.90,9.91,9.92,9.95,10.00,10.00,10.00,10.00,10.00,10.00,10.00,10.00,10.00,10.00,10.00,10.00,10.00,10.00,10.00,10.00,10.05,10.10,10.10,10.10,10.10,10.10,10.10,10.10,10.10,10.10,10.10,10.10,10.17,10.19,10.20,10.20,10.20,10.20,10.20,10.20,10.20,10.20,10.20,10.23,10.30,10.30,10.30,10.30,10.30,10.30,10.30,10.30,10.30,10.30,10.37,10.39,10.40,10.40,10.40,10.40,10.40,10.40,10.40,10.40,10.40,10.43,10.48,10.48,10.49,10.50,10.50,10.50,10.50,10.50,10.50,10.52,10.58,10.66,10.73,10.80,10.80,10.81,10.85,10.90,10.90,10.90,10.90,10.90,10.92,10.99,11.00,11.04,11.10,11.10,11.10,11.15,11.20,11.20,11.28,11.30,11.30,11.31,11.39,11.40,11.40,11.42,11.50,11.50,11.55,11.62,11.69,11.70,11.76,11.84,11.90,11.90,11.97,12.05,12.12,12.20,12.20,12.26,12.33,12.41,12.49,12.50,12.54,12.62,12.70,12.71,12.76,12.80,12.80,12.81,12.87,12.90,12.91,12.99,13.00,13.05,13.10,13.10,13.18,13.20,13.23,13.30,13.31,13.38,13.45,13.52,13.60,13.67,13.71,13.74,13.82,13.88,13.96,14.04,14.10,14.11,14.18,14.26,14.33,14.40
115.53,114.02,112.42,109.03,103.08,95.48,90.49,86.57,83.16,79.83,77.96,76.17,74.39,72.63,71.01,68.95,66.55,63.91,61.25,58.96,56.91,54.98,53.05,51.12,49.68,48.61,47.73,46.68,45.92,45.37,45.03,44.96,44.29,43.59,42.87,42.09,41.24,40.21,38.60,36.47,34.46,32.51,30.24,27.18,22.80,19.44,16.72,14.36,12.20,10.39,9.97,9.90,9.88,9.80,9.80,9.77,9.73,9.70,9.70,9.64,9.62,9.65,9.65,9.65,9.65,9.65,9.65,9.65,9.65,9.65,9.65,9.65,9.68,9.72,9.75,9.75,9.79,9.80,9.80,9.80,9.80,9.86,9.90,9.90,9.90,9.90,9.90,9.90,9.90,9.90,9.87,9.85,9.86,9.89,9.90,9.92,9.96,10.00,10.00,10.00,10.00,10.00,10.00,10.00,10.00,10.00,10.00,10.00,10.00,10.00,10.00,10.00,10.05,10.10,10.10,10.10,10.10,10.10,10.10,10.10,10.10,10.10,10.10,10.10,10.18,10.20,10.20,10.20,10.20,10.20,10.20,10.20,10.20,10.20,10.20,10.23,10.30,10.30,10.30,10.30,10.30,10.30,10.30,10.30,10.30,10.30,10.38,10.40,10.40,10.40,10.40,10.40,10.40,10.40,10.40,10.40,10.43,10.46,10.50,10.50,10.50,10.50,10.50,10.50,10.50,10.50,10.51,10.55,10.59,10.66,10.73,10.80,10.80,10.80,10.82,10.86,10.90,10.90,10.90,10.91,10.95,10.99,11.00,11.04,11.10,11.10,11.10,11.15,11.20,11.20,11.28,11.30,11.30,11.31,11.39,11.40,11.40,11.42,11.50,11.50,11.55,11.63,11.70,11.70,11.76,11.84,11.90,11.90,11.97,12.05,12.12,12.20,12.20,12.26,12.33,12.41,12.49,12.50,12.54,12.62,12.70,12.70,12.73,12.77,12.80,12.80,12.86,12.90,12.91,12.95,12.99,13.02,13.06,13.10,13.14,13.18,13.22,13.26,13.29,13.36,13.42,13.47,13.55,13.62,13.68,13.73,13.80,13.88,13.93,13.99,14.06,14.10,14.17,14.25,14.31,14.35
114.89,113.51,112.04,108.19,101.32,94.52,89.75,85.89,82.56,79.53,77.65,75.86,74.09,72.32,70.56,68.06,65.38,62.71,60.01,57.78,55.69,53.68,51.71,49.98,48.75,47.76,46.84,46.06,45.48,45.06,44.80,44.65,44.07,43.44,42.77,42.03,41.18,40.21,38.68,36.60,34.69,32.90,31.00,28.18,23.48,19.89,17.14,14.89,12.87,10.78,10.09,9.90,9.88,9.82,9.80,9.80,9.77,9.70,9.70,9.65,9.64,9.70,9.70,9.70,9.70,9.70,9.70,9.70,9.70,9.70,9.71,9.70,9.71,9.75,9.80,9.80,9.80,9.80,9.80,9.80,9.80,9.85,9.89,9.90,9.90,9.90,9.89,9.89,9.89,9.89,9.84,9.80,9.81,9.88,9.89,9.89,9.91,9.97,9.99,10.00,10.00,10.00,10.00,10.00,10.00,10.00,10.00,10.00,10.00,10.00,10.00,10.00,10.05,10.10,10.10,10.10,10.10,10.10,10.10,10.10,10.10,10.10,10.10,10.10,10.18,10.20,10.20,10.20,10.20,10.20,10.20,10.20,10.20,10.20,10.21,10.24,10.30,10.30,10.30,10.30,10.30,10.30,10.30,10.30,10.30,10.31,10.38,10.40,10.40,10.40,10.40,10.40,10.40,10.40,10.41,10.41,10.46,10.50,10.50,10.50,10.50,10.50,10.50,10.50,10.51,10.51,10.53,10.60,10.60,10.66,10.73,10.79,10.80,10.80,10.80,10.82,10.89,10.90,10.90,10.93,11.00,11.00,11.00,11.04,11.10,11.10,11.11,11.15,11.20,11.20,11.28,11.30,11.30,11.31,11.39,11.40,11.40,11.42,11.50,11.50,11.55,11.63,11.70,11.70,11.76,11.84,11.90,11.91,11.97,12.05,12.12,12.20,12.20,12.26,12.33,12.41,12.49,12.50,12.54,12.62,12.68,12.70,12.70,12.73,12.80,12.80,12.85,12.89,12.90,12.90,12.97,13.00,13.02,13.10,13.10,13.16,13.20,13.21,13.29,13.36,13.39,13.42,13.50,13.57,13.64,13.72,13.79,13.87,13.90,13.94,14.01,14.09,14.16,14.23,14.29,14.30
114.50,112.78,111.35,107.42,100.05,92.41,88.22,84.87,81.81,79.07,77.29,75.57,73.85,72.13,70.42,67.66,64.71,61.88,59.18,56.91,54.71,52.53,50.38,48.89,47.59,46.46,45.49,44.66,44.07,43.66,43.40,43.31,43.20,42.94,42.52,41.96,41.11,40.19,38.80,36.94,35.12,33.34,31.53,28.94,24.62,20.44,17.74,15.64,13.57,11.48,10.34,9.90,9.90,9.88,9.82,9.80,9.77,9.70,9.70,9.69,9.68,9.70,9.70,9.70,9.70,9.70,9.70,9.70,9.70,9.72,9.77,9.71,9.75,9.79,9.80,9.80,9.80,9.80,9.80,9.80,9.80,9.81,9.85,9.90,9.90,9.90,9.87,9.82,9.82,9.82,9.81,9.80,9.80,9.82,9.82,9.85,9.89,9.85,9.96,10.00,10.00,10.00,10.00,10.00,10.00,10.00,10.00,10.00,10.00,10.00,10.00,10.00,10.05,10.10,10.10,10.10,10.10,10.10,10.10,10.10,10.10,10.10,10.10,10.10,10.18,10.20,10.20,10.20,10.20,10.20,10.20,10.20,10.20,10.20,10.24,10.28,10.30,10.30,10.30,10.30,10.30,10.30,10.30,10.30,10.32,10.38,10.40,10.40,10.40,10.40,10.40,10.40,10.40,10.42,10.47,10.48,10.49,10.50,10.50,10.50,10.50,10.50,10.50,10.50,10.55,10.58,10.58,10.60,10.60,10.66,10.71,10.73,10.79,10.80,10.80,10.80,10.82,10.88,10.90,10.93,11.00,11.00,11.00,11.04,11.10,11.10,11.15,11.19,11.20,11.20,11.28,11.30,11.30,11.31,11.39,11.40,11.40,11.42,11.50,11.50,11.55,11.63,11.70,11.70,11.76,11.84,11.91,11.97,11.99,12.05,12.12,12.20,12.20,12.26,12.33,12.41,12.49,12.50,12.54,12.60,12.62,12.68,12.70,12.73,12.80,12.80,12.81,12.85,12.90,12.90,12.97,13.00,13.02,13.10,13.10,13.16,13.20,13.21,13.29,13.32,13.36,13.42,13.50,13.57,13.61,13.65,13.73,13.81,13.87,13.94,14.01,14.09,14.12,14.17,14.24,14.30
113.80,112.00,110.01,105.75,98.54,90.61,86.71,83.61,80.81,78.68,77.08,75.42,73.72,72.02,70.32,67.45,64.32,61.31,58.52,56.11,53.73,51.43,49.35,47.90,46.51,45.24,44.14,43.26,42.67,42.27,42.06,42.04,42.12,42.07,41.86,41.47,40.81,39.92,38.64,36.98,35.21,33.49,31.79,29.43,25.53,21.19,18.41,16.29,14.25,12.29,10.79,10.04,9.90,9.90,9.83,9.80,9.78,9.74,9.74,9.74,9.74,9.74,9.74,9.74,9.74,9.74,9.74,9.74,9.74,9.76,9.79,9.75,9.78,9.80,9.80,9.80,9.80,9.80,9.80,9.80,9.80,9.80,9.82,9.86,9.86,9.86,9.83,9.80,9.80,9.80,9.80,9.80,9.80,9.80,9.80,9.82,9.85,9.80,9.89,9.96,10.00,10.00,10.00,10.00,10.00,10.00,10.00,10.00,10.00,10.00,10.00,10.00,10.05,10.10,10.10,10.10,10.10,10.10,10.10,10.10,10.10,10.10,10.11,10.14,10.19,10.20,10.20,10.20,10.20,10.20,10.20,10.21,10.24,10.24,10.27,10.30,10.30,10.30,10.30,10.30,10.31,10.34,10.34,10.34,10.36,10.40,10.40,10.40,10.40,10.40,10.40,10.43,10.44,10.45,10.50,10.50,10.50,10.50,10.50,10.50,10.52,10.54,10.54,10.54,10.58,10.60,10.60,10.60,10.60,10.63,10.67,10.71,10.75,10.79,10.80,10.80,10.80,10.87,10.90,10.93,11.00,11.00,11.00,11.04,11.10,11.10,11.17,11.20,11.20,11.20,11.28,11.30,11.31,11.35,11.39,11.40,11.42,11.45,11.50,11.50,11.55,11.63,11.70,11.70,11.76,11.84,11.91,11.99,12.00,12.05,12.12,12.20,12.20,12.26,12.33,12.41,12.49,12.50,12.54,12.60,12.60,12.67,12.70,12.72,12.76,12.79,12.80,12.82,12.87,12.90,12.94,12.98,13.01,13.06,13.09,13.13,13.17,13.21,13.29,13.30,13.34,13.41,13.46,13.53,13.58,13.63,13.70,13.78,13.84,13.90,13.97,14.05,14.09,14.15,14.21,14.26
112.81,111.07,108.14,103.48,96.93,89.18,85.31,82.26,79.70,78.32,76.93,75.34,73.66,71.96,70.26,67.35,64.11,60.92,57.97,55.36,52.75,50.37,48.53,46.98,45.48,44.08,42.80,41.87,41.26,40.88,40.72,40.79,40.87,40.95,40.92,40.68,40.28,39.41,38.23,36.79,35.06,33.44,31.87,29.75,26.29,22.05,19.13,16.90,14.93,13.15,11.37,10.28,9.90,9.90,9.83,9.80,9.80,9.80,9.80,9.80,9.80,9.80,9.80,9.80,9.80,9.80,9.80,9.80,9.80,9.80,9.80,9.80,9.80,9.80,9.80,9.80,9.80,9.80,9.80,9.80,9.80,9.80,9.80,9.80,9.80,9.80,9.80,9.80,9.80,9.80,9.80,9.80,9.80,9.80,9.80,9.80,9.80,9.80,9.81,9.90,10.00,10.00,10.00,10.00,10.00,10.00,10.00,10.00,10.00,10.00,10.00,10.00,10.06,10.10,10.10,10.10,10.10,10.10,10.10,10.10,10.10,10.10,10.13,10.20,10.20,10.20,10.20,10.20,10.20,10.20,10.20,10.22,10.30,10.30,10.30,10.30,10.30,10.30,10.30,10.30,10.32,10.39,10.40,10.40,10.40,10.40,10.40,10.40,10.40,10.40,10.40,10.47,10.50,10.50,10.50,10.50,10.50,10.50,10.50,10.50,10.56,10.60,10.60,10.60,10.60,10.60,10.60,10.60,10.60,10.60,10.64,10.70,10.70,10.77,10.80,10.80,10.80,10.88,10.90,10.93,11.00,11.00,11.00,11.04,11.10,11.10,11.17,11.20,11.20,11.20,11.28,11.30,11.33,11.40,11.40,11.40,11.44,11.50,11.50,11.50,11.55,11.63,11.70,11.70,11.76,11.84,11.91,11.99,12.00,12.05,12.12,12.20,12.20,12.26,12.33,12.41,12.49,12.50,12.54,12.60,12.60,12.67,12.70,12.70,12.71,12.78,12.80,12.80,12.81,12.89,12.90,12.95,13.00,13.00,13.08,13.10,13.13,13.21,13.28,13.30,13.34,13.40,13.40,13.47,13.55,13.63,13.70,13.78,13.80,13.84,13.91,13.99,14.07,14.14,14.20,14.20
110.30,107.92,104.32,100.29,96.08,90.39,85.84,81.99,79.08,77.74,76.40,75.00,73.52,71.96,70.21,67.28,64.07,60.88,57.74,54.71,51.89,49.50,47.76,46.16,44.58,43.05,41.63,40.49,39.86,39.37,39.02,38.94,39.11,39.26,39.27,39.07,38.52,37.62,36.61,35.59,34.60,33.32,31.90,29.93,26.86,22.77,19.86,17.69,15.88,14.05,12.27,10.80,9.90,9.90,9.88,9.83,9.80,9.80,9.80,9.80,9.80,9.80,9.80,9.80,9.80,9.80,9.80,9.80,9.80,9.80,9.80,9.80,9.80,9.80,9.80,9.80,9.80,9.80,9.80,9.80,9.80,9.80,9.80,9.80,9.80,9.80,9.80,9.80,9.80,9.80,9.80,9.80,9.80,9.80,9.80,9.80,9.81,9.86,9.92,9.97,10.00,10.00,10.00,10.00,10.00,10.00,10.00,10.00,10.00,10.00,10.00,10.05,10.09,10.10,10.10,10.10,10.10,10.10,10.10,10.10,10.10,10.10,10.13,10.20,10.20,10.20,10.20,10.20,10.20,10.25,10.27,10.27,10.30,10.35,10.37,10.37,10.37,10.37,10.37,10.37,10.37,10.40,10.45,10.47,10.47,10.47,10.47,10.47,10.47,10.47,10.47,10.49,10.50,10.51,10.57,10.57,10.57,10.57,10.57,10.57,10.59,10.60,10.60,10.60,10.60,10.60,10.62,10.67,10.67,10.67,10.68,10.70,10.70,10.77,10.80,10.81,10.87,10.89,10.90,10.93,11.00,11.00,11.04,11.08,11.10,11.10,11.17,11.20,11.20,11.20,11.28,11.30,11.33,11.40,11.40,11.40,11.44,11.50,11.50,11.50,11.55,11.63,11.70,11.70,11.76,11.84,11.91,11.99,12.00,12.05,12.12,12.20,12.25,12.29,12.33,12.41,12.49,12.50,12.54,12.60,12.60,12.62,12.67,12.70,12.71,12.78,12.80,12.80,12.81,12.89,12.90,12.95,13.00,13.00,13.08,13.10,13.13,13.20,13.23,13.28,13.31,13.34,13.40,13.47,13.55,13.61,13.64,13.71,13.77,13.84,13.91,13.99,14.02,14.08,14.15,14.20
106.54,103.98,100.52,97.19,94.29,90.36,85.31,81.23,78.57,77.26,75.94,74.62,73.24,71.78,70.15,67.33,64.20,61.06,57.87,54.52,51.43,48.89,47.12,45.47,43.81,42.17,40.62,39.39,38.55,37.91,37.40,36.97,37.04,37.17,37.13,36.74,36.17,35.47,34.71,33.96,33.44,32.48,31.34,29.73,27.25,23.36,20.41,18.22,16.53,14.78,13.05,11.42,10.18,9.91,9.90,9.87,9.83,9.83,9.83,9.83,9.83,9.83,9.83,9.81,9.80,9.80,9.80,9.80,9.80,9.80,9.80,9.80,9.80,9.80,9.80,9.80,9.80,9.80,9.80,9.80,9.80,9.80,9.80,9.80,9.80,9.80,9.80,9.80,9.80,9.80,9.80,9.80,9.80,9.80,9.80,9.81,9.84,9.90,9.97,10.00,10.00,10.00,10.00,10.00,10.00,10.00,10.00,10.00,10.00,10.00,10.00,10.08,10.10,10.10,10.10,10.10,10.10,10.10,10.10,10.10,10.10,10.10,10.13,10.20,10.20,10.20,10.21,10.23,10.23,10.28,10.31,10.33,10.33,10.41,10.43,10.43,10.43,10.43,10.43,10.43,10.43,10.43,10.48,10.50,10.51,10.53,10.53,10.53,10.53,10.53,10.53,10.53,10.53,10.55,10.60,10.60,10.62,10.63,10.63,10.63,10.63,10.63,10.63,10.63,10.63,10.63,10.65,10.70,10.73,10.73,10.73,10.73,10.70,10.77,10.80,10.82,10.90,10.90,10.90,10.93,11.00,11.00,11.06,11.10,11.10,11.10,11.17,11.20,11.21,11.23,11.29,11.30,11.33,11.40,11.40,11.40,11.44,11.50,11.50,11.50,11.55,11.63,11.70,11.70,11.76,11.84,11.91,11.99,12.00,12.05,12.12,12.20,12.28,12.30,12.33,12.41,12.49,12.50,12.53,12.57,12.60,12.60,12.65,12.70,12.70,12.76,12.79,12.80,12.81,12.86,12.89,12.95,13.00,13.00,13.08,13.10,13.13,13.20,13.20,13.26,13.30,13.32,13.40,13.45,13.52,13.58,13.60,13.68,13.76,13.83,13.88,13.96,13.99,14.05,14.12,14.20
101.50,99.23,96.76,94.17,91.55,89.06,83.68,79.96,78.19,76.87,75.56,74.20,72.81,71.42,70.09,67.48,64.50,61.47,58.37,54.81,51.39,48.52,46.60,44.91,43.16,41.42,39.79,38.56,37.35,36.50,35.86,34.89,34.65,34.68,34.47,33.68,33.21,32.96,32.52,31.89,31.56,30.89,30.16,29.15,27.45,23.80,20.78,18.50,16.88,15.32,13.70,12.12,10.75,9.94,9.90,9.90,9.90,9.90,9.90,9.90,9.90,9.90,9.90,9.83,9.80,9.80,9.80,9.80,9.80,9.80,9.80,9.80,9.80,9.80,9.80,9.80,9.80,9.80,9.80,9.80,9.80,9.80,9.80,9.80,9.80,9.80,9.80,9.80,9.80,9.80,9.80,9.80,9.80,9.80,9.80,9.84,9.90,9.90,9.97,10.00,10.00,10.00,10.00,10.00,10.00,10.00,10.00,10.00,10.00,10.00,10.00,10.08,10.10,10.10,10.10,10.10,10.10,10.10,10.10,10.10,10.10,10.10,10.13,10.20,10.20,10.20,10.23,10.30,10.30,10.30,10.34,10.40,10.40,10.47,10.50,10.50,10.50,10.50,10.50,10.50,10.50,10.50,10.50,10.50,10.52,10.60,10.60,10.60,10.60,10.60,10.60,10.60,10.60,10.60,10.60,10.60,10.65,10.70,10.70,10.70,10.70,10.70,10.70,10.70,10.70,10.70,10.70,10.70,10.78,10.80,10.80,10.78,10.71,10.77,10.80,10.82,10.90,10.90,10.90,10.93,11.00,11.00,11.06,11.10,11.10,11.10,11.17,11.20,11.22,11.30,11.30,11.30,11.33,11.40,11.40,11.40,11.44,11.50,11.50,11.50,11.55,11.63,11.70,11.70,11.76,11.84,11.91,11.99,12.00,12.05,12.12,12.20,12.28,12.30,12.33,12.41,12.49,12.50,12.50,12.52,12.60,12.60,12.65,12.70,12.70,12.70,12.76,12.80,12.80,12.80,12.87,12.95,13.00,13.00,13.08,13.10,13.13,13.20,13.20,13.26,13.30,13.32,13.40,13.40,13.45,13.53,13.60,13.68,13.76,13.80,13.82,13.90,13.97,14.05,14.12,14.20
96.05,94.69,92.78,90.51,87.96,85.06,81.48,79.03,77.63,76.31,75.04,73.76,72.44,71.12,70.13,67.61,64.64,61.59,58.36,54.52,51.08,48.32,46.39,44.55,42.76,41.03,39.42,38.10,36.77,35.59,34.54,33.44,32.78,32.30,31.78,31.11,30.87,30.77,30.56,30.21,30.00,29.56,28.95,27.99,26.40,23.87,21.07,18.71,17.14,15.54,13.81,12.19,10.84,9.95,9.90,9.90,9.90,9.90,9.90,9.90,9.90,9.90,9.90,9.87,9.83,9.80,9.80,9.80,9.80,9.80,9.80,9.80,9.80,9.80,9.80,9.80,9.80,9.80,9.80,9.80,9.80,9.80,9.80,9.80,9.80,9.80,9.80,9.80,9.80,9.80,9.80,9.80,9.81,9.85,9.86,9.88,9.91,9.96,9.99,10.00,10.00,10.00,10.00,10.00,10.00,10.00,10.00,10.00,10.00,10.00,10.00,10.08,10.10,10.10,10.10,10.10,10.10,10.10,10.11,10.16,10.16,10.16,10.19,10.26,10.26,10.26,10.29,10.36,10.36,10.36,10.40,10.46,10.46,10.54,10.56,10.56,10.56,10.56,10.56,10.56,10.56,10.56,10.56,10.56,10.57,10.60,10.60,10.63,10.66,10.66,10.66,10.66,10.66,10.66,10.66,10.66,10.68,10.70,10.70,10.75,10.76,10.76,10.76,10.76,10.76,10.76,10.76,10.76,10.79,10.80,10.80,10.80,10.76,10.79,10.80,10.82,10.90,10.90,10.90,10.93,11.00,11.00,11.06,11.10,11.10,11.10,11.17,11.20,11.22,11.30,11.30,11.30,11.33,11.40,11.40,11.40,11.44,11.50,11.50,11.50,11.55,11.63,11.70,11.70,11.76,11.84,11.91,11.99,12.00,12.05,12.12,12.20,12.28,12.30,12.33,12.41,12.49,12.50,12.50,12.52,12.60,12.60,12.62,12.66,12.70,12.70,12.72,12.76,12.80,12.80,12.87,12.92,12.95,13.00,13.03,13.07,13.11,13.15,13.19,13.23,13.27,13.31,13.34,13.38,13.45,13.51,13.55,13.62,13.70,13.76,13.81,13.89,13.93,13.99,14.06,14.14
90.60,89.90,88.51,86.62,84.30,81.51,79.43,77.99,76.90,75.64,74.46,73.25,71.98,70.65,69.77,67.39,64.51,61.46,58.14,54.14,50.74,48.11,46.19,44.26,42.41,40.66,39.05,37.64,36.23,34.82,33.47,32.27,31.26,30.40,29.69,29.14,29.03,29.00,28.93,28.77,28.62,28.28,27.69,26.76,25.35,23.63,21.14,18.83,17.17,15.47,13.75,12.22,10.96,10.02,9.92,9.90,9.90,9.90,9.90,9.90,9.90,9.90,9.90,9.88,9.84,9.80,9.80,9.80,9.80,9.80,9.80,9.80,9.80,9.80,9.80,9.80,9.80,9.80,9.80,9.80,9.80,9.80,9.80,9.80,9.80,9.80,9.80,9.80,9.80,9.80,9.80,9.81,9.83,9.89,9.90,9.91,9.94,10.00,10.00,10.00,10.00,10.00,10.00,10.00,10.00,10.00,10.00,10.00,10.00,10.01,10.02,10.08,10.10,10.10,10.10,10.10,10.11,10.12,10.14,10.20,10.22,10.22,10.24,10.30,10.32,10.32,10.35,10.40,10.42,10.42,10.47,10.52,10.52,10.60,10.62,10.62,10.62,10.62,10.62,10.62,10.62,10.62,10.62,10.62,10.62,10.62,10.62,10.67,10.70,10.70,10.72,10.72,10.72,10.72,10.72,10.72,10.72,10.72,10.73,10.79,10.80,10.81,10.82,10.82,10.82,10.82,10.82,10.82,10.82,10.82,10.82,10.82,10.82,10.81,10.80,10.82,10.90,10.90,10.91,10.95,11.00,11.00,11.06,11.10,11.10,11.12,11.18,11.20,11.22,11.30,11.30,11.30,11.33,11.40,11.40,11.40,11.44,11.50,11.50,11.50,11.55,11.63,11.70,11.70,11.76,11.84,11.91,11.99,12.00,12.05,12.12,12.20,12.28,12.30,12.33,12.41,12.47,12.49,12.50,12.51,12.57,12.59,12.60,12.63,12.70,12.70,12.70,12.74,12.80,12.80,12.87,12.90,12.92,13.00,13.00,13.06,13.10,13.11,13.19,13.20,13.24,13.30,13.30,13.37,13.44,13.48,13.50,13.58,13.66,13.73,13.79,13.87,13.89,13.95,14.02,14.10
85.17,84.67,83.77,82.40,80.64,79.09,77.70,76.71,75.92,74.81,73.77,72.65,71.35,69.86,68.68,66.55,63.92,60.95,57.63,53.67,50.38,47.87,46.00,44.07,42.11,40.25,38.59,37.14,35.68,34.22,32.80,31.51,30.31,29.35,28.64,28.18,27.96,27.92,27.84,27.69,27.53,27.06,26.36,25.47,24.46,22.89,20.86,18.76,16.82,14.93,13.46,12.25,11.21,10.21,9.97,9.90,9.90,9.90,9.90,9.90,9.90,9.90,9.90,9.84,9.81,9.80,9.80,9.80,9.80,9.80,9.80,9.80,9.80,9.80,9.80,9.80,9.80,9.80,9.80,9.80,9.80,9.80,9.80,9.80,9.80,9.80,9.80,9.80,9.80,9.80,9.80,9.83,9.89,9.90,9.90,9.94,9.99,10.00,10.00,10.00,10.00,10.00,10.00,10.00,10.00,10.00,10.00,10.00,10.00,10.02,10.09,10.10,10.10,10.10,10.10,10.10,10.15,10.19,10.19,10.20,10.26,10.29,10.29,10.30,10.37,10.39,10.39,10.41,10.48,10.49,10.53,10.59,10.59,10.66,10.69,10.69,10.69,10.69,10.69,10.69,10.69,10.69,10.69,10.69,10.69,10.69,10.69,10.69,10.70,10.71,10.78,10.79,10.79,10.79,10.79,10.79,10.79,10.79,10.79,10.80,10.80,10.83,10.89,10.89,10.89,10.89,10.89,10.89,10.89,10.89,10.89,10.89,10.89,10.83,10.80,10.82,10.90,10.90,10.95,10.99,11.00,11.00,11.06,11.10,11.11,11.18,11.20,11.20,11.22,11.30,11.30,11.30,11.33,11.40,11.40,11.40,11.44,11.50,11.50,11.50,11.55,11.63,11.70,11.70,11.76,11.84,11.91,11.99,12.00,12.05,12.12,12.20,12.28,12.30,12.33,12.40,12.41,12.47,12.50,12.50,12.51,12.58,12.60,12.63,12.70,12.70,12.70,12.74,12.80,12.80,12.87,12.90,12.92,13.00,13.00,13.06,13.10,13.11,13.19,13.20,13.24,13.30,13.30,13.37,13.41,13.44,13.50,13.58,13.66,13.70,13.73,13.80,13.87,13.95,14.02,14.10
80.87,80.57,80.09,79.31,78.21,77.18,76.01,75.11,74.40,73.56,72.60,71.50,70.12,68.42,67.10,65.22,62.91,60.18,56.81,53.00,49.90,47.48,45.50,43.53,41.51,39.66,38.09,36.58,35.07,33.59,32.16,30.85,29.76,28.86,28.10,27.46,27.03,26.87,26.76,26.59,26.40,25.79,25.02,24.17,23.31,21.93,20.15,18.19,16.24,14.66,13.44,12.34,11.31,10.30,9.99,9.90,9.90,9.90,9.90,9.87,9.85,9.85,9.85,9.82,9.80,9.80,9.80,9.80,9.80,9.80,9.80,9.80,9.80,9.80,9.80,9.80,9.80,9.80,9.80,9.80,9.80,9.80,9.80,9.80,9.80,9.80,9.80,9.80,9.80,9.84,9.85,9.87,9.90,9.90,9.90,9.94,10.00,10.00,10.00,10.00,10.00,10.00,10.00,10.00,10.00,10.00,10.00,10.00,10.00,10.02,10.10,10.10,10.10,10.12,10.15,10.15,10.18,10.22,10.25,10.25,10.32,10.35,10.35,10.35,10.43,10.45,10.45,10.46,10.54,10.55,10.60,10.65,10.65,10.73,10.75,10.75,10.75,10.75,10.75,10.75,10.75,10.75,10.75,10.75,10.75,10.75,10.75,10.75,10.75,10.76,10.79,10.83,10.85,10.85,10.85,10.85,10.85,10.85,10.85,10.85,10.85,10.87,10.91,10.95,10.95,10.95,10.95,10.95,10.95,10.95,10.95,10.95,10.91,10.87,10.85,10.86,10.90,10.90,10.95,11.00,11.00,11.00,11.06,11.10,11.12,11.19,11.20,11.20,11.22,11.30,11.30,11.30,11.33,11.40,11.40,11.40,11.44,11.50,11.50,11.50,11.55,11.63,11.70,11.70,11.76,11.84,11.91,11.99,12.00,12.05,12.12,12.20,12.28,12.30,12.33,12.40,12.40,12.43,12.47,12.50,12.50,12.57,12.60,12.61,12.65,12.69,12.70,12.72,12.76,12.80,12.83,12.87,12.91,12.95,12.99,13.03,13.07,13.10,13.14,13.18,13.22,13.26,13.30,13.34,13.37,13.43,13.50,13.54,13.61,13.67,13.71,13.79,13.87,13.92,13.97,14.05
77.03,76.98,76.87,76.59,76.07,75.33,74.31,73.43,72.74,72.09,71.06,69.97,68.60,66.84,65.43,63.77,61.69,59.07,55.70,52.14,49.25,46.93,44.85,42.82,40.79,39.00,37.51,35.99,34.47,32.97,31.54,30.25,29.32,28.50,27.70,26.86,26.22,25.89,25.68,25.52,25.28,24.54,23.70,22.87,22.09,20.92,19.36,17.55,15.70,14.47,13.43,12.40,11.37,10.41,10.02,9.90,9.90,9.88,9.88,9.83,9.80,9.80,9.80,9.80,9.80,9.80,9.80,9.80,9.80,9.80,9.80,9.80,9.80,9.80,9.80,9.80,9.80,9.81,9.81,9.80,9.80,9.80,9.80,9.80,9.80,9.80,9.80,9.80,9.82,9.88,9.90,9.90,9.90,9.90,9.90,9.93,9.99,10.00,10.00,10.00,10.00,10.00,10.00,10.00,10.00,10.00,10.01,10.02,10.02,10.04,10.11,10.12,10.12,10.15,10.22,10.22,10.22,10.25,10.32,10.32,10.38,10.41,10.42,10.42,10.48,10.51,10.52,10.53,10.60,10.62,10.66,10.72,10.72,10.79,10.82,10.82,10.82,10.82,10.82,10.82,10.82,10.82,10.82,10.82,10.82,10.82,10.82,10.82,10.82,10.82,10.82,10.87,10.90,10.90,10.91,10.92,10.92,10.92,10.92,10.92,10.92,10.92,10.93,10.99,11.00,11.01,11.02,11.02,11.02,11.02,11.02,11.00,10.93,10.92,10.91,10.90,10.90,10.90,10.95,11.00,11.00,11.00,11.06,11.10,11.12,11.19,11.20,11.20,11.22,11.30,11.30,11.30,11.33,11.40,11.40,11.40,11.44,11.50,11.50,11.50,11.55,11.63,11.70,11.70,11.76,11.84,11.91,11.99,12.00,12.05,12.12,12.20,12.28,12.30,12.33,12.39,12.40,12.40,12.44,12.50,12.50,12.56,12.59,12.60,12.60,12.67,12.69,12.70,12.71,12.79,12.80,12.85,12.90,12.90,12.98,13.00,13.03,13.10,13.10,13.16,13.20,13.22,13.30,13.30,13.35,13.42,13.49,13.50,13.56,13.64,13.71,13.78,13.85,13.89,13.92,14.00
73.78,74.18,74.26,74.14,73.85,73.26,72.55,71.81,71.04,70.24,68.73,67.61,66.59,65.36,63.85,62.32,60.11,57.11,53.83,50.77,48.19,45.98,43.96,41.83,39.95,38.28,36.76,35.34,33.92,32.43,30.99,29.80,28.92,28.12,27.31,26.47,25.73,25.07,24.66,24.49,24.26,23.38,22.49,21.65,20.81,19.94,18.64,17.10,15.51,14.34,13.31,12.33,11.41,10.65,10.09,9.90,9.88,9.82,9.82,9.81,9.80,9.80,9.80,9.80,9.80,9.80,9.80,9.80,9.80,9.80,9.80,9.80,9.80,9.80,9.80,9.80,9.80,9.84,9.86,9.80,9.80,9.80,9.80,9.80,9.80,9.80,9.80,9.82,9.88,9.90,9.90,9.90,9.90,9.90,9.90,9.91,9.94,10.00,10.00,10.00,10.00,10.00,10.00,10.00,10.00,10.01,10.07,10.08,10.08,10.10,10.18,10.18,10.18,10.21,10.28,10.28,10.28,10.32,10.38,10.38,10.39,10.44,10.48,10.48,10.50,10.55,10.58,10.59,10.67,10.68,10.72,10.78,10.78,10.85,10.88,10.88,10.88,10.88,10.88,10.88,10.88,10.88,10.88,10.88,10.88,10.88,10.88,10.88,10.88,10.88,10.88,10.89,10.90,10.92,10.98,10.98,10.98,10.98,10.98,10.98,10.98,10.98,10.98,11.00,11.00,11.04,11.08,11.08,11.08,11.08,11.08,11.07,10.99,10.98,10.94,10.90,10.90,10.90,10.95,11.00,11.00,11.00,11.06,11.10,11.12,11.19,11.20,11.20,11.22,11.30,11.30,11.30,11.33,11.40,11.40,11.40,11.44,11.50,11.50,11.50,11.55,11.63,11.70,11.70,11.76,11.84,11.91,11.99,12.00,12.05,12.12,12.20,12.28,12.30,12.31,12.33,12.39,12.40,12.44,12.50,12.50,12.52,12.56,12.60,12.60,12.62,12.67,12.70,12.71,12.79,12.80,12.85,12.90,12.90,12.98,13.00,13.03,13.10,13.10,13.16,13.20,13.22,13.30,13.30,13.35,13.41,13.42,13.49,13.56,13.64,13.70,13.72,13.79,13.86,13.92,14.00
70.11,70.84,71.09,71.19,71.25,70.81,70.02,69.22,68.30,66.95,65.17,64.03,63.31,62.75,61.90,60.09,57.54,54.52,51.64,49.14,46.81,44.63,42.59,40.49,38.73,37.22,35.87,34.52,33.13,31.69,30.32,29.26,28.40,27.60,26.80,25.96,25.15,24.37,23.82,23.51,23.24,22.40,21.49,20.61,19.79,19.09,18.08,16.79,15.33,14.20,13.23,12.35,11.56,10.86,10.21,9.94,9.87,9.80,9.80,9.80,9.80,9.80,9.80,9.80,9.80,9.80,9.80,9.80,9.80,9.80,9.80,9.80,9.80,9.82,9.84,9.84,9.84,9.85,9.84,9.80,9.80,9.80,9.80,9.80,9.80,9.80,9.82,9.86,9.90,9.90,9.90,9.90,9.90,9.90,9.90,9.88,9.88,9.99,10.00,10.00,10.00,10.00,10.00,10.03,10.04,10.05,10.09,10.13,10.14,10.16,10.20,10.23,10.24,10.26,10.30,10.34,10.34,10.37,10.41,10.44,10.44,10.47,10.51,10.54,10.54,10.60,10.64,10.66,10.73,10.74,10.79,10.84,10.84,10.92,10.94,10.94,10.94,10.94,10.94,10.94,10.94,10.94,10.94,10.94,10.94,10.94,10.94,10.94,10.94,10.94,10.94,10.94,10.94,10.95,11.00,11.00,11.02,11.04,11.04,11.04,11.04,11.04,11.04,11.04,11.04,11.07,11.10,11.10,11.13,11.14,11.13,11.09,11.05,11.01,10.98,10.94,10.94,10.91,10.95,11.00,11.00,11.04,11.08,11.10,11.12,11.19,11.20,11.20,11.22,11.30,11.30,11.32,11.36,11.40,11.40,11.40,11.44,11.50,11.50,11.50,11.55,11.63,11.70,11.74,11.78,11.84,11.91,11.99,12.00,12.05,12.12,12.20,12.28,12.30,12.30,12.31,12.39,12.40,12.42,12.47,12.50,12.50,12.53,12.57,12.60,12.60,12.63,12.67,12.71,12.75,12.79,12.83,12.87,12.90,12.94,12.98,13.02,13.06,13.09,13.16,13.20,13.22,13.30,13.30,13.35,13.40,13.40,13.48,13.53,13.59,13.66,13.70,13.77,13.83,13.88,13.96
66.18,67.05,67.38,67.69,68.10,67.88,66.96,66.09,65.04,63.09,61.21,60.04,59.53,59.54,59.53,57.30,54.43,51.63,49.30,47.34,45.24,43.08,41.00,38.99,37.29,35.94,34.85,33.57,32.21,30.84,29.59,28.66,27.82,27.02,26.22,25.37,24.52,23.73,23.07,22.58,22.25,21.54,20.64,19.71,18.94,18.31,17.57,16.52,15.14,14.08,13.21,12.45,11.75,11.06,10.36,10.01,9.87,9.80,9.80,9.80,9.80,9.80,9.80,9.80,9.80,9.80,9.80,9.80,9.80,9.81,9.81,9.81,9.81,9.85,9.90,9.90,9.90,9.85,9.80,9.80,9.80,9.80,9.80,9.80,9.80,9.80,9.84,9.89,9.89,9.89,9.89,9.89,9.89,9.89,9.89,9.86,9.84,9.99,10.00,10.00,10.00,10.01,10.01,10.06,10.10,10.11,10.11,10.17,10.21,10.21,10.21,10.28,10.31,10.31,10.31,10.39,10.41,10.41,10.42,10.50,10.51,10.51,10.53,10.61,10.61,10.66,10.71,10.72,10.80,10.81,10.85,10.91,10.91,10.98,11.01,11.01,11.01,11.01,11.01,11.01,11.01,11.01,11.01,11.01,11.01,11.01,11.01,11.01,11.01,11.01,11.01,11.01,11.01,11.01,11.01,11.01,11.06,11.10,11.10,11.11,11.11,11.11,11.11,11.11,11.11,11.11,11.11,11.11,11.18,11.20,11.17,11.11,11.11,11.04,11.01,11.01,11.00,10.93,10.96,11.00,11.01,11.08,11.10,11.10,11.12,11.19,11.20,11.20,11.23,11.30,11.30,11.36,11.40,11.40,11.40,11.40,11.45,11.50,11.50,11.50,11.55,11.63,11.71,11.78,11.80,11.84,11.91,11.99,12.00,12.05,12.12,12.20,12.27,12.30,12.30,12.31,12.38,12.40,12.40,12.42,12.50,12.50,12.50,12.53,12.60,12.60,12.60,12.64,12.70,12.70,12.77,12.80,12.82,12.90,12.90,12.96,13.00,13.01,13.09,13.16,13.20,13.22,13.29,13.30,13.35,13.40,13.40,13.48,13.50,13.54,13.61,13.68,13.76,13.80,13.82,13.90
61.93,61.51,61.39,61.53,61.89,62.51,62.60,62.44,61.85,60.39,59.00,57.73,56.72,56.03,55.28,53.01,50.69,48.81,47.07,45.25,43.38,41.45,39.47,37.46,35.51,34.04,33.17,32.24,31.01,29.88,28.88,27.90,27.14,26.38,25.58,24.73,23.88,23.05,22.41,21.96,21.44,20.89,20.09,19.20,18.43,17.64,16.87,15.99,14.98,14.11,13.35,12.64,11.94,11.25,10.55,10.10,9.87,9.80,9.80,9.80,9.80,9.80,9.80,9.80,9.80,9.80,9.80,9.80,9.84,9.87,9.87,9.87,9.87,9.88,9.90,9.90,9.85,9.81,9.80,9.80,9.80,9.80,9.80,9.80,9.80,9.80,9.81,9.83,9.83,9.83,9.83,9.83,9.83,9.83,9.83,9.85,9.89,9.99,10.00,10.00,10.02,10.07,10.07,10.09,10.13,10.17,10.17,10.24,10.27,10.27,10.27,10.35,10.37,10.37,10.38,10.46,10.47,10.47,10.49,10.57,10.57,10.57,10.60,10.67,10.67,10.73,10.77,10.78,10.86,10.87,10.91,10.97,10.97,11.05,11.07,11.07,11.07,11.07,11.07,11.07,11.07,11.07,11.07,11.07,11.07,11.07,11.07,11.07,11.07,11.07,11.07,11.07,11.07,11.07,11.07,11.07,11.09,11.10,11.10,11.16,11.17,11.17,11.17,11.17,11.17,11.17,11.17,11.17,11.19,11.20,11.19,11.17,11.17,11.10,11.07,11.06,11.00,10.98,10.99,11.00,11.01,11.08,11.10,11.10,11.12,11.19,11.20,11.23,11.28,11.30,11.30,11.36,11.40,11.40,11.40,11.45,11.48,11.50,11.50,11.50,11.55,11.63,11.71,11.78,11.80,11.84,11.91,11.99,12.05,12.08,12.12,12.20,12.22,12.27,12.30,12.30,12.33,12.38,12.40,12.42,12.50,12.50,12.50,12.53,12.60,12.60,12.60,12.64,12.70,12.70,12.77,12.80,12.82,12.90,12.90,12.96,13.00,13.01,13.09,13.12,13.16,13.21,13.23,13.28,13.31,13.35,13.40,13.42,13.47,13.54,13.60,13.63,13.70,13.76,13.82,13.90
57.74,57.00,56.70,56.66,56.85,57.72,58.36,58.95,59.14,58.20,57.05,55.81,54.53,53.24,51.79,49.54,47.65,46.34,44.87,43.12,41.36,39.58,37.73,35.72,33.75,32.27,31.45,30.84,29.90,28.99,28.11,27.13,26.42,25.67,24.89,24.09,23.24,22.39,21.75,21.32,20.78,20.26,19.56,18.77,18.05,17.23,16.44,15.64,14.80,14.06,13.35,12.66,11.97,11.33,10.69,10.18,9.87,9.80,9.80,9.80,9.80,9.80,9.80,9.82,9.83,9.83,9.83,9.83,9.87,9.90,9.90,9.90,9.90,9.89,9.87,9.87,9.82,9.80,9.80,9.80,9.80,9.80,9.80,9.80,9.80,9.80,9.80,9.80,9.80,9.80,9.80,9.80,9.80,9.80,9.80,9.84,9.92,9.99,10.02,10.03,10.06,10.13,10.13,10.13,10.17,10.23,10.23,10.28,10.32,10.33,10.33,10.38,10.42,10.43,10.44,10.49,10.52,10.53,10.55,10.60,10.62,10.63,10.66,10.73,10.73,10.79,10.83,10.85,10.92,10.93,10.98,11.03,11.03,11.08,11.10,11.10,11.10,11.13,11.13,11.13,11.13,11.13,11.13,11.13,11.13,11.13,11.13,11.13,11.13,11.13,11.13,11.13,11.13,11.13,11.13,11.13,11.13,11.13,11.14,11.19,11.22,11.23,11.23,11.23,11.23,11.23,11.23,11.23,11.23,11.23,11.23,11.23,11.20,11.16,11.13,11.11,11.04,11.03,11.02,11.00,11.01,11.08,11.10,11.10,11.12,11.19,11.20,11.25,11.30,11.30,11.30,11.36,11.40,11.40,11.40,11.47,11.50,11.50,11.50,11.50,11.55,11.63,11.71,11.78,11.80,11.84,11.91,11.99,12.07,12.10,12.12,12.20,12.20,12.24,12.28,12.30,12.30,12.36,12.40,12.41,12.46,12.49,12.50,12.52,12.57,12.59,12.60,12.62,12.67,12.70,12.75,12.78,12.82,12.87,12.89,12.96,13.00,13.01,13.09,13.10,13.14,13.20,13.20,13.27,13.30,13.33,13.40,13.40,13.46,13.52,13.57,13.60,13.67,13.75,13.81,13.87
53.59,53.35,53.12,52.89,52.79,53.41,54.22,55.61,56.86,56.46,55.33,54.22,52.87,51.08,48.93,46.77,45.20,44.16,42.70,40.95,39.22,37.52,35.81,33.80,32.01,30.61,29.70,29.38,28.87,28.16,27.29,26.36,25.65,24.91,24.16,23.45,22.60,21.75,21.09,20.64,20.25,19.66,19.04,18.42,17.80,17.02,16.25,15.45,14.62,13.92,13.22,12.53,11.87,11.33,10.78,10.24,9.87,9.80,9.80,9.80,9.80,9.80,9.80,9.87,9.90,9.90,9.90,9.90,9.90,9.90,9.90,9.90,9.90,9.86,9.80,9.80,9.80,9.80,9.80,9.80,9.80,9.80,9.80,9.80,9.80,9.80,9.80,9.80,9.80,9.80,9.80,9.80,9.80,9.80,9.80,9.84,9.92,9.99,10.07,10.10,10.13,10.20,10.20,10.20,10.23,10.30,10.30,10.30,10.34,10.40,10.40,10.40,10.45,10.50,10.50,10.50,10.56,10.60,10.60,10.60,10.67,10.70,10.72,10.80,10.80,10.86,10.90,10.91,10.99,11.00,11.04,11.10,11.10,11.10,11.10,11.10,11.11,11.18,11.20,11.20,11.20,11.20,11.20,11.20,11.20,11.20,11.20,11.20,11.20,11.20,11.20,11.20,11.20,11.20,11.20,11.20,11.20,11.20,11.20,11.20,11.26,11.30,11.30,11.30,11.30,11.30,11.30,11.30,11.30,11.30,11.30,11.29,11.21,11.20,11.20,11.18,11.10,11.10,11.05,11.00,11.01,11.08,11.10,11.10,11.12,11.19,11.20,11.25,11.30,11.30,11.30,11.36,11.40,11.40,11.40,11.47,11.50,11.50,11.50,11.50,11.55,11.63,11.71,11.78,11.80,11.84,11.91,11.99,12.07,12.10,12.12,12.20,12.20,12.20,12.23,12.30,12.30,12.36,12.40,12.40,12.40,12.47,12.50,12.50,12.51,12.58,12.60,12.60,12.62,12.69,12.70,12.75,12.80,12.80,12.88,12.96,13.00,13.01,13.09,13.10,13.14,13.20,13.20,13.27,13.30,13.33,13.40,13.40,13.46,13.50,13.52,13.59,13.67,13.75,13.80,13.80
50.94,50.80,50.67,50.55,50.51,50.75,51.58,53.06,54.52,54.71,53.65,52.52,51.06,48.98,46.14,43.98,42.53,41.59,40.60,38.99,37.27,35.51,33.71,31.89,30.51,29.49,28.78,28.42,27.91,27.25,26.48,25.65,24.90,24.14,23.40,22.69,21.89,21.09,20.48,20.07,19.68,19.17,18.62,18.04,17.42,16.69,15.97,15.23,14.50,13.90,13.30,12.68,12.06,11.51,10.97,10.40,9.98,9.86,9.81,9.84,9.86,9.86,9.86,9.89,9.90,9.90,9.90,9.90,9.90,9.90,9.90,9.90,9.86,9.82,9.80,9.80,9.80,9.80,9.80,9.80,9.80,9.80,9.80,9.80,9.80,9.80,9.80,9.80,9.80,9.80,9.80,9.80,9.81,9.85,9.86,9.90,9.98,10.06,10.13,10.16,10.17,10.20,10.25,10.26,10.28,10.31,10.36,10.36,10.38,10.41,10.46,10.46,10.48,10.52,10.56,10.56,10.63,10.66,10.66,10.66,10.73,10.76,10.79,10.86,10.86,10.92,10.96,10.97,11.05,11.06,11.11,11.16,11.16,11.16,11.16,11.16,11.17,11.19,11.20,11.22,11.26,11.26,11.26,11.26,11.26,11.26,11.26,11.26,11.26,11.26,11.26,11.26,11.26,11.26,11.26,11.26,11.26,11.26,11.26,11.26,11.29,11.30,11.31,11.36,11.36,11.36,11.36,11.36,11.36,11.36,11.36,11.35,11.27,11.26,11.24,11.19,11.16,11.16,11.11,11.06,11.06,11.09,11.10,11.12,11.17,11.20,11.20,11.25,11.30,11.30,11.30,11.36,11.40,11.40,11.40,11.47,11.50,11.50,11.50,11.55,11.58,11.63,11.71,11.78,11.80,11.84,11.91,11.99,12.07,12.10,12.12,12.20,12.20,12.20,12.23,12.30,12.30,12.32,12.36,12.40,12.40,12.43,12.47,12.50,12.50,12.53,12.58,12.60,12.61,12.69,12.70,12.75,12.80,12.80,12.88,12.92,12.96,13.00,13.03,13.08,13.12,13.15,13.20,13.23,13.27,13.31,13.34,13.39,13.42,13.46,13.51,13.53,13.61,13.68,13.75,13.80
49.00,48.93,48.85,48.81,48.82,48.92,49.72,51.05,52.43,52.95,51.96,50.64,48.90,46.61,43.37,41.47,40.26,39.42,38.76,37.29,35.65,33.94,32.21,30.55,29.39,28.55,27.93,27.50,26.94,26.31,25.62,24.89,24.14,23.37,22.63,21.93,21.20,20.45,19.89,19.52,19.15,18.70,18.19,17.63,17.04,16.38,15.70,15.04,14.46,13.94,13.39,12.80,12.22,11.68,11.12,10.56,10.13,9.92,9.82,9.86,9.90,9.90,9.90,9.90,9.90,9.90,9.90,9.90,9.90,9.90,9.90,9.90,9.85,9.83,9.83,9.83,9.83,9.83,9.83,9.83,9.80,9.80,9.80,9.80,9.80,9.80,9.80,9.80,9.80,9.82,9.83,9.83,9.83,9.89,9.90,9.94,10.02,10.09,10.17,10.21,10.23,10.23,10.31,10.33,10.33,10.34,10.42,10.43,10.43,10.45,10.53,10.53,10.53,10.56,10.63,10.63,10.67,10.71,10.73,10.73,10.80,10.83,10.85,10.93,10.93,10.98,11.03,11.04,11.12,11.13,11.17,11.23,11.23,11.23,11.23,11.23,11.23,11.23,11.23,11.26,11.30,11.30,11.30,11.31,11.33,11.33,11.33,11.33,11.33,11.33,11.33,11.33,11.33,11.33,11.33,11.33,11.33,11.33,11.33,11.33,11.33,11.33,11.34,11.40,11.40,11.41,11.43,11.43,11.43,11.43,11.42,11.39,11.33,11.31,11.27,11.23,11.23,11.21,11.16,11.13,11.12,11.10,11.10,11.14,11.20,11.20,11.20,11.25,11.30,11.30,11.30,11.36,11.40,11.40,11.40,11.47,11.50,11.50,11.50,11.57,11.60,11.63,11.71,11.78,11.80,11.84,11.91,11.99,12.07,12.10,12.12,12.17,12.19,12.20,12.22,12.28,12.30,12.30,12.34,12.40,12.40,12.40,12.45,12.50,12.50,12.50,12.56,12.60,12.61,12.69,12.70,12.75,12.80,12.80,12.88,12.90,12.93,13.00,13.00,13.06,13.10,13.12,13.20,13.20,13.25,13.30,13.30,13.38,13.40,13.44,13.50,13.50,13.57,13.65,13.72,13.77
48.05,47.97,47.89,47.85,47.90,48.25,48.91,49.80,50.69,51.16,50.27,48.48,46.24,43.86,40.62,39.34,38.58,37.84,37.28,35.95,34.49,33.01,31.57,30.01,28.81,27.87,27.15,26.62,25.97,25.32,24.69,24.06,23.36,22.61,21.86,21.17,20.54,19.85,19.34,19.02,18.70,18.25,17.74,17.20,16.65,16.10,15.44,14.89,14.53,14.06,13.47,12.89,12.35,11.81,11.20,10.72,10.33,9.98,9.83,9.86,9.90,9.90,9.90,9.90,9.90,9.90,9.90,9.90,9.90,9.90,9.90,9.90,9.89,9.89,9.89,9.89,9.89,9.89,9.89,9.89,9.82,9.80,9.80,9.80,9.80,9.80,9.80,9.80,9.80,9.87,9.89,9.89,9.89,9.90,9.90,9.94,10.02,10.09,10.17,10.24,10.29,10.29,10.37,10.39,10.39,10.40,10.48,10.49,10.49,10.51,10.59,10.59,10.59,10.62,10.69,10.69,10.70,10.74,10.79,10.79,10.86,10.89,10.92,10.99,10.99,11.05,11.09,11.10,11.18,11.19,11.23,11.29,11.29,11.29,11.29,11.29,11.29,11.29,11.29,11.29,11.30,11.30,11.30,11.34,11.39,11.39,11.39,11.39,11.39,11.39,11.39,11.39,11.39,11.39,11.39,11.39,11.39,11.39,11.39,11.39,11.39,11.39,11.39,11.40,11.40,11.44,11.49,11.49,11.49,11.49,11.46,11.40,11.39,11.33,11.30,11.29,11.29,11.22,11.19,11.19,11.18,11.11,11.10,11.14,11.20,11.20,11.20,11.25,11.30,11.30,11.30,11.36,11.40,11.40,11.40,11.47,11.50,11.50,11.50,11.57,11.60,11.63,11.71,11.78,11.80,11.84,11.91,11.99,12.07,12.10,12.10,12.11,12.18,12.20,12.20,12.22,12.29,12.30,12.34,12.40,12.40,12.40,12.45,12.50,12.50,12.50,12.56,12.60,12.61,12.69,12.70,12.75,12.80,12.80,12.88,12.90,12.93,13.00,13.00,13.06,13.10,13.12,13.20,13.20,13.25,13.30,13.30,13.38,13.40,13.44,13.50,13.50,13.57,13.65,13.70,13.71
47.03,47.00,46.93,46.94,47.14,47.73,48.34,49.01,49.62,49.92,49.03,46.95,44.32,41.72,39.22,38.04,37.20,36.38,35.71,34.43,33.04,31.67,30.45,29.41,28.40,27.52,26.82,26.37,25.74,25.13,24.56,23.98,23.05,22.30,21.65,21.00,20.38,19.67,19.04,18.56,18.20,17.75,17.24,16.70,16.16,15.66,15.17,14.78,14.50,14.12,13.57,13.02,12.47,11.88,11.35,10.94,10.58,10.21,10.05,9.98,9.93,9.90,9.90,9.90,9.90,9.90,9.90,9.90,9.90,9.90,9.90,9.90,9.90,9.90,9.89,9.85,9.85,9.85,9.85,9.84,9.81,9.80,9.80,9.80,9.80,9.84,9.85,9.85,9.85,9.89,9.90,9.90,9.90,9.90,9.93,9.99,10.07,10.15,10.23,10.30,10.35,10.36,10.39,10.43,10.45,10.46,10.50,10.54,10.55,10.56,10.60,10.64,10.65,10.67,10.70,10.75,10.75,10.79,10.85,10.85,10.93,10.95,10.98,11.05,11.05,11.11,11.15,11.17,11.24,11.25,11.30,11.35,11.35,11.35,11.35,11.35,11.35,11.35,11.35,11.35,11.35,11.35,11.35,11.38,11.40,11.40,11.44,11.45,11.45,11.45,11.45,11.45,11.45,11.45,11.45,11.45,11.45,11.45,11.45,11.45,11.45,11.45,11.45,11.45,11.45,11.48,11.50,11.50,11.54,11.52,11.48,11.45,11.45,11.39,11.35,11.34,11.30,11.27,11.25,11.24,11.20,11.16,11.15,11.17,11.20,11.20,11.20,11.25,11.30,11.30,11.30,11.36,11.40,11.40,11.40,11.47,11.50,11.50,11.50,11.57,11.60,11.63,11.71,11.78,11.80,11.84,11.91,11.99,12.03,12.07,12.10,12.10,12.14,12.18,12.20,12.21,12.29,12.30,12.32,12.36,12.40,12.40,12.42,12.46,12.50,12.50,12.53,12.57,12.61,12.64,12.68,12.72,12.76,12.80,12.84,12.88,12.91,12.95,12.99,13.03,13.07,13.11,13.14,13.19,13.22,13.26,13.30,13.34,13.38,13.44,13.50,13.50,13.57,13.62,13.66,13.70
45.98,46.01,45.99,46.09,46.44,47.17,47.74,48.26,48.67,48.82,48.02,45.85,43.05,40.38,38.57,37.38,36.36,35.36,34.48,33.23,31.91,30.65,29.61,28.99,28.23,27.49,26.88,26.46,25.89,25.31,24.72,24.06,22.93,22.14,21.55,20.96,20.34,19.61,18.87,18.21,17.76,17.28,16.78,16.25,15.72,15.27,14.93,14.67,14.43,14.13,13.67,13.14,12.57,11.98,11.53,11.17,10.84,10.48,10.31,10.15,10.04,9.96,9.92,9.91,9.90,9.90,9.90,9.90,9.90,9.90,9.90,9.90,9.89,9.88,9.87,9.80,9.80,9.80,9.80,9.80,9.80,9.80,9.81,9.82,9.82,9.87,9.90,9.90,9.90,9.90,9.90,9.90,9.90,9.92,9.98,10.06,10.14,10.21,10.29,10.36,10.40,10.42,10.42,10.48,10.52,10.52,10.52,10.59,10.62,10.62,10.62,10.69,10.72,10.72,10.73,10.80,10.82,10.86,10.92,10.92,10.99,11.02,11.04,11.12,11.12,11.18,11.22,11.23,11.31,11.32,11.36,11.42,11.42,11.42,11.42,11.42,11.42,11.42,11.42,11.42,11.42,11.42,11.42,11.42,11.42,11.42,11.48,11.50,11.50,11.50,11.52,11.52,11.52,11.52,11.52,11.52,11.52,11.52,11.52,11.52,11.52,11.52,11.52,11.52,11.52,11.52,11.52,11.52,11.58,11.55,11.52,11.52,11.50,11.45,11.42,11.40,11.32,11.32,11.31,11.28,11.22,11.22,11.21,11.20,11.20,11.20,11.20,11.25,11.30,11.30,11.30,11.36,11.40,11.40,11.40,11.47,11.50,11.50,11.50,11.57,11.60,11.63,11.71,11.78,11.80,11.84,11.91,11.99,12.00,12.05,12.10,12.10,12.10,12.16,12.20,12.21,12.27,12.29,12.30,12.32,12.38,12.40,12.40,12.43,12.50,12.50,12.50,12.54,12.60,12.60,12.67,12.70,12.72,12.80,12.80,12.86,12.90,12.91,12.99,13.00,13.04,13.10,13.10,13.17,13.20,13.23,13.30,13.30,13.36,13.43,13.48,13.50,13.56,13.59,13.62,13.70
44.83,44.96,45.07,45.35,45.85,46.43,46.98,47.41,47.71,47.87,47.34,45.54,43.14,40.84,39.18,37.98,36.76,35.41,34.13,32.94,31.74,30.62,29.67,29.05,28.58,28.15,27.70,27.18,26.63,26.02,25.26,24.21,23.06,22.14,21.46,20.96,20.34,19.65,18.92,18.17,17.46,16.92,16.42,15.94,15.47,15.07,14.78,14.54,14.30,14.06,13.73,13.24,12.66,12.17,11.77,11.43,11.11,10.80,10.58,10.41,10.29,10.19,10.00,9.93,9.90,9.90,9.90,9.90,9.90,9.90,9.90,9.90,9.85,9.82,9.81,9.80,9.80,9.80,9.80,9.80,9.80,9.80,9.83,9.88,9.88,9.89,9.90,9.90,9.90,9.90,9.90,9.90,9.91,9.97,10.05,10.12,10.20,10.28,10.35,10.39,10.42,10.48,10.48,10.54,10.58,10.58,10.58,10.65,10.68,10.68,10.68,10.76,10.78,10.78,10.79,10.87,10.88,10.92,10.98,10.98,11.05,11.08,11.11,11.18,11.18,11.24,11.28,11.29,11.37,11.38,11.43,11.48,11.48,11.48,11.48,11.48,11.48,11.48,11.48,11.48,11.48,11.48,11.48,11.48,11.48,11.48,11.50,11.50,11.50,11.51,11.57,11.58,11.58,11.58,11.58,11.58,11.58,11.58,11.58,11.58,11.58,11.58,11.58,11.58,11.58,11.58,11.58,11.58,11.60,11.59,11.58,11.57,11.51,11.49,11.48,11.46,11.38,11.38,11.34,11.29,11.28,11.28,11.23,11.20,11.20,11.20,11.20,11.25,11.30,11.30,11.30,11.36,11.40,11.40,11.40,11.47,11.50,11.50,11.50,11.57,11.60,11.63,11.71,11.78,11.80,11.84,11.91,11.99,12.00,12.05,12.10,12.10,12.10,12.16,12.20,12.20,12.22,12.27,12.30,12.30,12.32,12.38,12.40,12.43,12.50,12.50,12.50,12.54,12.60,12.60,12.67,12.70,12.72,12.80,12.80,12.86,12.90,12.91,12.99,13.00,13.04,13.10,13.10,13.17,13.20,13.23,13.30,13.30,13.36,13.41,13.43,13.49,13.51,13.56,13.62,13.70
43.73,43.95,44.20,44.57,45.08,45.62,46.10,46.46,46.72,46.91,46.74,45.37,43.38,41.40,39.99,38.86,37.63,36.22,34.90,33.72,32.57,31.48,30.56,29.87,29.35,28.91,28.47,27.90,27.29,26.52,25.54,24.34,23.18,22.14,21.33,20.82,20.28,19.59,18.82,18.01,17.20,16.60,16.09,15.63,15.17,14.85,14.60,14.36,14.13,13.90,13.66,13.28,12.80,12.40,12.05,11.73,11.40,11.07,10.80,10.65,10.48,10.25,9.98,9.92,9.90,9.90,9.90,9.90,9.90,9.90,9.90,9.90,9.84,9.80,9.80,9.80,9.80,9.80,9.80,9.80,9.80,9.80,9.84,9.90,9.90,9.90,9.90,9.90,9.90,9.90,9.90,9.91,9.95,9.99,10.06,10.14,10.22,10.29,10.37,10.42,10.47,10.55,10.55,10.58,10.62,10.65,10.65,10.68,10.72,10.75,10.75,10.79,10.82,10.85,10.85,10.89,10.93,10.97,11.01,11.04,11.08,11.12,11.17,11.25,11.25,11.30,11.35,11.36,11.44,11.45,11.49,11.55,11.55,11.55,11.55,11.55,11.55,11.55,11.55,11.55,11.55,11.55,11.55,11.55,11.55,11.55,11.55,11.55,11.55,11.55,11.59,11.60,11.62,11.65,11.65,11.65,11.65,11.65,11.65,11.65,11.65,11.65,11.65,11.65,11.65,11.65,11.65,11.65,11.65,11.65,11.65,11.63,11.56,11.55,11.53,11.49,11.45,11.45,11.39,11.35,11.34,11.31,11.27,11.25,11.25,11.25,11.21,11.25,11.30,11.30,11.30,11.36,11.40,11.40,11.40,11.47,11.50,11.50,11.50,11.57,11.60,11.63,11.71,11.78,11.80,11.84,11.91,11.99,12.00,12.03,12.07,12.10,12.10,12.13,12.17,12.20,12.20,12.24,12.27,12.30,12.30,12.37,12.40,12.42,12.46,12.49,12.50,12.52,12.56,12.60,12.64,12.68,12.71,12.75,12.79,12.83,12.87,12.91,12.95,12.98,13.02,13.06,13.10,13.17,13.20,13.23,13.30,13.30,13.36,13.40,13.41,13.49,13.50,13.55,13.61,13.65
42.69,43.01,43.38,43.79,44.25,44.79,45.16,45.42,45.62,45.87,46.04,45.17,43.68,42.03,40.87,39.84,38.65,37.31,36.09,34.94,33.79,32.72,31.80,31.03,30.34,29.75,29.22,28.58,27.86,26.89,25.71,24.48,23.32,22.16,21.21,20.64,20.17,19.45,18.64,17.80,16.95,16.30,15.77,15.32,14.88,14.65,14.41,14.18,13.95,13.72,13.55,13.27,12.92,12.62,12.31,12.01,11.69,11.32,11.02,10.86,10.62,10.24,9.93,9.90,9.90,9.90,9.90,9.90,9.90,9.90,9.90,9.90,9.84,9.80,9.80,9.80,9.80,9.80,9.80,9.80,9.80,9.81,9.84,9.90,9.90,9.90,9.90,9.90,9.90,9.90,9.90,9.93,10.00,10.01,10.07,10.15,10.23,10.30,10.38,10.46,10.53,10.60,10.61,10.61,10.64,10.70,10.71,10.71,10.75,10.81,10.81,10.81,10.86,10.91,10.91,10.91,10.97,11.01,11.03,11.10,11.11,11.16,11.23,11.30,11.31,11.36,11.40,11.42,11.49,11.51,11.55,11.60,11.61,11.61,11.61,11.61,11.61,11.61,11.61,11.61,11.61,11.61,11.61,11.61,11.61,11.61,11.61,11.61,11.61,11.61,11.61,11.61,11.65,11.70,11.70,11.70,11.71,11.71,11.71,11.71,11.71,11.71,11.71,11.71,11.71,11.71,11.71,11.71,11.71,11.71,11.71,11.69,11.62,11.61,11.57,11.51,11.51,11.50,11.45,11.41,11.40,11.33,11.33,11.33,11.33,11.32,11.25,11.26,11.30,11.30,11.31,11.36,11.40,11.40,11.40,11.47,11.50,11.50,11.50,11.57,11.60,11.63,11.71,11.78,11.80,11.84,11.91,11.98,12.00,12.00,12.02,12.09,12.10,12.10,12.13,12.20,12.20,12.20,12.24,12.30,12.30,12.37,12.40,12.40,12.40,12.47,12.50,12.50,12.51,12.59,12.60,12.65,12.70,12.70,12.78,12.80,12.83,12.90,12.90,12.96,13.00,13.02,13.10,13.17,13.20,13.22,13.29,13.30,13.35,13.39,13.41,13.48,13.50,13.54,13.59,13.60
