1.79,1.94,2.02,2.10,2.21,2.35,2.43,2.53,2.65,2.76,2.84,2.94,3.06,3.17,3.25,3.36,3.48,3.58,3.67,3.83,3.91,4.01,4.12,4.24,4.32,4.42,4.53,4.65,4.73,4.83,4.95,5.06,5.14,5.24,5.36,5.47,5.55,5.71,5.80,5.89,6.00,6.13,6.21,6.30,6.42,6.54,6.62,6.72,6.80,6.84,6.84,6.84,6.84,6.82,6.74,6.74,6.74,6.72,6.67,6.64,6.64,6.61,6.57,6.54,6.54,6.54,6.51,6.44,6.44,6.44,6.40,6.34,6.34,6.34,6.30,6.24,6.24,6.24,6.19,6.14,6.14,6.14,6.18,6.24,6.32,6.39,6.50,6.61,6.72,6.80,6.88,6.96,7.03,7.11,7.19,7.27,7.34,7.43,7.53,7.66,7.75,7.83,7.91,7.98,8.06,8.14,8.21,8.29,8.37,8.45,8.51,8.56,8.64,8.68,8.73,8.81,8.85,8.93,8.96,8.97,8.99,8.99,8.95,8.91,8.88,8.87,8.92,9.04,9.18,9.25,9.33,9.41,9.51,9.66,9.74,9.82,15.41,28.44,39.64,43.28,45.38,47.55,49.83,52.66,55.96,59.93,64.64,69.53,74.17,78.20,81.33,82.99,82.59,80.53,77.44,74.20,71.21,68.74,66.64,64.90,64.14,66.38,69.69,73.49,77.64,80.74,82.22,82.01,80.10,76.27,71.65,67.43,64.25,62.50,63.88,66.72,70.25,73.67,75.53,74.01,70.79,67.25,63.86,61.84,61.25,62.03,63.93,66.25,67.82,68.55,68.50,67.99,67.18,66.62,66.64,67.63,69.35,71.13,72.08,70.99,68.32,65.31,62.23,59.37,57.23,55.12,53.65,52.83,52.21,51.04,51.65,53.36,55.14,57.11,59.40,62.51,66.51,70.63,75.18,79.17,82.67,86.11,88.98,91.28,92.86,93.70,94.76,96.62,99.51,103.14,106.46,108.28,108.95,108.77,108.16,107.17,105.73,104.54,104.16,105.52,107.60,109.79,111.85,113.57,113.45,112.88,112.22,111.72,111.27,110.58,109.64,108.49,107.31,106.18,105.71,106.21
1.72,1.85,1.95,2.03,2.14,2.26,2.36,2.44,2.55,2.68,2.77,2.85,2.98,3.10,3.18,3.26,3.40,3.51,3.60,3.74,3.84,3.92,4.02,4.15,4.25,4.33,4.44,4.56,4.66,4.74,4.86,5.00,5.07,5.15,5.28,5.40,5.49,5.62,5.73,5.81,5.90,6.04,6.14,6.22,6.32,6.45,6.55,6.63,6.71,6.77,6.77,6.77,6.77,6.75,6.68,6.67,6.67,6.64,6.57,6.57,6.57,6.54,6.47,6.47,6.47,6.46,6.43,6.37,6.37,6.36,6.32,6.27,6.27,6.26,6.22,6.17,6.17,6.17,6.12,6.07,6.08,6.10,6.16,6.24,6.32,6.39,6.47,6.58,6.70,6.78,6.87,6.96,7.03,7.11,7.19,7.27,7.34,7.42,7.50,7.63,7.73,7.81,7.91,7.98,8.06,8.14,8.21,8.29,8.37,8.45,8.52,8.60,8.68,8.71,8.75,8.81,8.89,8.96,9.01,9.04,9.12,9.13,9.10,9.07,9.05,8.99,9.02,9.12,9.24,9.32,9.39,9.47,9.57,9.73,9.80,12.37,22.00,38.32,42.20,44.56,46.66,48.96,51.75,55.08,58.92,63.47,68.84,73.96,78.73,82.49,84.98,86.34,86.24,84.58,81.70,78.20,74.71,71.76,69.32,67.42,66.69,68.68,72.03,76.14,80.49,83.58,85.20,85.13,83.24,78.98,74.44,70.32,67.15,65.66,67.57,70.38,73.42,76.33,76.28,73.53,70.03,67.14,64.33,63.47,63.85,65.44,68.62,71.33,73.00,73.68,73.53,72.78,71.84,71.22,71.26,72.31,73.50,74.39,74.21,71.86,68.80,65.35,61.97,59.04,57.06,55.62,54.85,54.52,53.92,52.05,52.20,53.75,55.60,57.42,59.57,62.60,66.56,70.64,74.89,78.87,82.69,86.69,90.70,94.48,97.27,98.68,99.95,101.67,104.21,107.39,110.30,111.79,112.33,112.12,111.44,110.51,109.35,108.56,108.58,109.90,111.59,113.42,115.33,117.27,117.16,116.49,115.78,115.45,115.80,115.56,114.77,113.52,112.03,110.28,108.63,107.69
1.64,1.73,1.87,1.97,2.05,2.14,2.29,2.38,2.46,2.56,2.71,2.79,2.92,3.04,3.12,3.20,3.34,3.45,3.53,3.61,3.76,3.86,3.94,4.03,4.17,4.27,4.35,4.44,4.59,4.68,4.80,4.93,5.01,5.09,5.22,5.34,5.42,5.50,5.64,5.75,5.83,5.91,6.06,6.16,6.24,6.33,6.47,6.57,6.64,6.71,6.71,6.71,6.71,6.69,6.61,6.61,6.61,6.58,6.51,6.51,6.51,6.47,6.41,6.41,6.41,6.37,6.32,6.31,6.31,6.26,6.22,6.21,6.21,6.15,6.12,6.11,6.11,6.11,6.06,6.01,6.02,6.09,6.16,6.24,6.32,6.39,6.47,6.55,6.63,6.71,6.86,6.96,7.03,7.11,7.19,7.27,7.34,7.42,7.50,7.58,7.66,7.76,7.91,7.98,8.06,8.14,8.21,8.29,8.37,8.45,8.52,8.60,8.68,8.75,8.79,8.81,8.89,8.96,9.04,9.11,9.19,9.19,9.23,9.24,9.18,9.17,9.18,9.22,9.30,9.38,9.46,9.54,9.64,9.79,9.87,18.58,30.60,41.20,43.60,45.79,47.91,50.31,53.70,57.15,61.89,67.28,72.61,77.78,82.34,85.80,88.07,89.52,89.65,88.21,85.45,81.91,78.16,74.87,71.91,69.43,69.00,70.96,74.29,78.45,82.85,86.13,88.04,88.21,86.33,81.28,76.85,72.71,69.31,68.91,71.30,73.85,76.12,78.19,75.88,73.03,69.99,67.09,64.97,65.72,67.24,69.43,73.60,76.65,78.33,78.82,78.39,77.69,76.91,76.73,77.47,79.01,78.90,77.53,75.18,72.19,68.78,64.99,61.45,58.69,56.95,56.95,57.00,56.51,55.36,53.18,52.88,54.07,55.92,57.63,59.69,62.66,66.62,70.64,74.81,78.91,82.99,87.14,91.87,96.72,100.60,102.77,104.15,106.28,108.79,111.33,113.19,114.56,115.23,115.20,114.57,113.64,112.73,112.24,112.39,113.17,114.40,116.21,118.44,120.77,120.81,120.09,119.29,118.98,119.42,119.47,118.73,117.16,115.02,113.21,111.54,110.26
1.57,1.65,1.77,1.88,1.98,2.07,2.18,2.30,2.39,2.49,2.64,2.72,2.82,2.94,3.05,3.13,3.24,3.35,3.46,3.54,3.65,3.77,3.87,3.95,4.11,4.20,4.28,4.37,4.53,4.61,4.71,4.83,4.94,5.02,5.12,5.24,5.35,5.43,5.54,5.65,5.76,5.84,5.99,6.09,6.17,6.25,6.41,6.50,6.58,6.65,6.65,6.65,6.62,6.58,6.55,6.55,6.52,6.48,6.45,6.45,6.45,6.41,6.35,6.35,6.35,6.30,6.25,6.25,6.25,6.19,6.15,6.15,6.15,6.08,6.05,6.05,6.05,6.01,5.97,5.95,5.96,6.07,6.16,6.24,6.32,6.39,6.47,6.55,6.62,6.70,6.82,6.90,7.00,7.11,7.19,7.27,7.34,7.42,7.50,7.57,7.65,7.74,7.85,7.93,8.04,8.14,8.21,8.29,8.37,8.45,8.52,8.60,8.68,8.76,8.82,8.86,8.94,8.98,9.04,9.12,9.20,9.24,9.28,9.30,9.31,9.35,9.33,9.32,9.37,9.45,9.52,9.60,9.70,9.88,13.27,25.37,36.90,42.26,44.42,46.55,48.72,51.32,55.17,59.05,64.22,70.06,75.86,81.24,85.91,89.56,92.07,93.37,93.09,91.57,89.11,86.10,82.06,78.38,75.10,72.48,71.97,73.84,77.10,81.23,85.59,88.86,91.04,91.31,88.90,83.43,78.70,74.63,71.76,72.24,75.02,77.31,78.63,79.03,76.19,73.13,70.07,67.38,66.66,68.14,70.84,74.39,78.59,81.45,82.95,83.34,83.04,82.51,82.11,81.85,81.85,82.52,81.31,78.98,75.83,72.20,68.60,64.77,61.33,58.85,58.27,59.45,59.84,58.83,56.93,54.57,53.67,54.25,56.02,57.72,59.77,62.73,66.67,70.65,74.69,78.76,82.89,87.10,92.03,97.17,101.44,104.16,106.51,109.16,111.77,114.11,115.85,117.24,118.20,118.42,117.59,116.62,115.74,115.41,115.78,116.39,117.32,119.29,121.98,124.54,124.38,123.45,122.66,122.67,123.34,123.54,122.81,120.97,117.99,115.95,114.05,112.46
1.50,1.59,1.66,1.80,1.92,2.00,2.07,2.22,2.33,2.42,2.56,2.65,2.74,2.84,2.97,3.07,3.15,3.26,3.39,3.48,3.55,3.68,3.81,3.89,4.03,4.13,4.22,4.30,4.45,4.54,4.63,4.72,4.86,4.95,5.04,5.14,5.27,5.36,5.44,5.56,5.70,5.78,5.91,6.02,6.11,6.19,6.33,6.43,6.52,6.58,6.58,6.58,6.54,6.48,6.48,6.48,6.43,6.38,6.38,6.38,6.37,6.33,6.28,6.28,6.27,6.23,6.18,6.18,6.17,6.12,6.08,6.08,6.08,6.02,5.98,5.98,5.98,5.91,5.88,5.89,5.91,6.05,6.15,6.24,6.32,6.39,6.47,6.55,6.62,6.70,6.78,6.86,6.96,7.09,7.19,7.27,7.34,7.42,7.50,7.57,7.65,7.73,7.81,7.88,8.01,8.13,8.21,8.29,8.37,8.45,8.52,8.60,8.68,8.76,8.83,8.91,8.99,9.01,9.06,9.13,9.20,9.27,9.31,9.35,9.42,9.49,9.46,9.44,9.46,9.51,9.59,9.66,9.92,10.65,18.92,31.99,41.37,42.97,45.11,47.17,49.41,52.25,56.45,60.88,66.30,72.39,78.72,84.41,89.49,93.50,96.16,97.08,96.33,94.68,92.45,89.95,85.99,82.05,78.49,75.73,75.08,76.87,80.15,84.34,88.66,91.98,94.21,94.29,91.24,85.55,80.41,76.35,74.08,75.41,78.37,80.36,80.84,79.74,76.77,73.53,70.43,68.10,68.95,71.29,74.99,79.48,83.48,86.22,87.62,88.03,87.89,87.57,87.35,86.70,85.59,84.99,82.76,79.71,76.06,71.93,68.25,64.59,61.72,60.29,61.06,62.88,63.14,61.36,58.46,55.94,54.45,54.42,56.10,57.79,59.83,62.79,66.73,70.66,74.58,78.60,82.73,87.01,92.01,97.21,101.67,104.85,108.16,111.36,114.21,116.66,118.72,120.39,121.70,122.17,121.33,120.47,119.55,119.21,119.65,120.30,121.18,123.15,125.87,128.36,127.98,126.78,125.97,126.40,127.41,127.74,126.97,124.89,121.22,118.57,116.32,114.52
1.39,1.52,1.60,1.74,1.85,1.93,2.01,2.15,2.26,2.34,2.44,2.58,2.67,2.76,2.85,2.99,3.08,3.17,3.27,3.41,3.49,3.62,3.74,3.82,3.91,4.04,4.15,4.23,4.32,4.46,4.56,4.64,4.74,4.87,4.97,5.05,5.15,5.29,5.38,5.50,5.64,5.71,5.80,5.92,6.04,6.12,6.21,6.34,6.45,6.52,6.52,6.52,6.48,6.42,6.42,6.42,6.37,6.32,6.32,6.32,6.27,6.23,6.22,6.22,6.16,6.13,6.12,6.12,6.05,6.03,6.02,6.02,6.02,5.95,5.92,5.92,5.92,5.84,5.82,5.84,5.91,6.00,6.13,6.24,6.32,6.39,6.47,6.55,6.62,6.70,6.78,6.86,6.94,7.04,7.18,7.27,7.34,7.42,7.50,7.57,7.65,7.73,7.81,7.88,7.97,8.09,8.21,8.29,8.37,8.45,8.52,8.60,8.68,8.76,8.83,8.91,8.99,9.05,9.12,9.18,9.20,9.27,9.34,9.41,9.48,9.50,9.54,9.59,9.64,9.59,9.65,9.73,10.57,13.25,28.88,37.88,42.18,43.73,45.76,47.68,50.04,53.17,57.46,62.61,68.05,74.08,80.86,86.99,93.12,97.69,100.03,100.06,99.08,97.28,95.00,92.70,89.77,85.96,82.12,79.04,78.23,80.04,83.58,88.10,92.43,96.02,97.76,96.97,93.22,87.63,82.03,77.77,75.89,78.11,80.79,82.34,82.32,80.57,77.69,74.42,71.46,69.75,72.34,76.28,80.45,84.45,88.10,91.14,92.82,93.42,93.39,93.32,92.64,91.03,88.59,86.36,83.14,79.40,75.33,71.11,67.51,64.43,63.29,64.84,67.05,68.19,67.29,64.27,59.79,57.11,55.13,54.59,56.23,57.86,59.89,62.86,66.79,70.66,74.54,78.50,82.63,87.00,92.01,97.11,101.58,105.03,108.88,112.62,116.04,119.18,122.28,124.85,126.55,127.28,127.03,126.72,125.68,124.93,125.01,126.05,127.45,128.92,130.45,132.15,131.75,130.15,129.18,130.16,131.76,132.17,131.28,129.01,125.19,121.01,118.14,116.40
1.31,1.46,1.54,1.65,1.76,1.87,1.94,2.06,2.17,2.28,2.35,2.47,2.59,2.69,2.77,2.93,3.02,3.09,3.19,3.34,3.43,3.53,3.65,3.76,3.84,3.94,4.06,4.17,4.24,4.36,4.47,4.58,4.65,4.81,4.91,4.98,5.07,5.22,5.32,5.42,5.53,5.65,5.73,5.83,5.95,6.06,6.13,6.24,6.34,6.41,6.45,6.42,6.39,6.35,6.35,6.35,6.30,6.25,6.25,6.25,6.19,6.15,6.15,6.15,6.08,6.05,6.05,6.05,5.98,5.95,5.95,5.95,5.91,5.87,5.85,5.85,5.81,5.77,5.78,5.83,5.91,5.98,6.09,6.19,6.28,6.39,6.47,6.55,6.62,6.70,6.78,6.86,6.93,7.02,7.14,7.22,7.32,7.42,7.50,7.57,7.65,7.73,7.81,7.88,7.96,8.06,8.17,8.25,8.36,8.45,8.52,8.60,8.68,8.76,8.83,8.91,8.99,9.06,9.14,9.21,9.24,9.29,9.35,9.43,9.50,9.54,9.60,9.67,9.70,9.69,9.73,9.90,12.33,19.86,32.42,39.01,42.28,44.31,46.36,48.18,50.75,54.27,58.70,64.06,69.61,75.64,82.40,88.94,95.36,99.86,101.90,102.26,101.25,99.60,97.57,95.40,92.71,89.31,85.88,83.02,81.68,83.18,86.72,91.48,96.05,99.21,100.32,98.96,94.99,89.67,83.62,79.25,77.92,80.67,83.22,84.20,83.51,81.40,78.80,75.77,73.76,73.87,77.06,81.12,85.16,88.93,92.48,96.03,97.87,98.40,98.28,97.90,96.60,93.91,90.03,86.66,82.91,78.86,74.61,70.37,67.01,65.70,66.39,68.72,71.10,71.49,69.87,66.41,61.53,58.45,56.06,55.11,56.40,57.99,59.98,62.90,66.81,70.71,74.51,78.39,82.48,86.96,91.83,96.74,101.29,105.29,109.58,113.56,117.50,121.57,125.95,128.64,130.32,131.15,131.28,131.19,130.58,130.07,130.02,130.62,131.70,132.63,133.54,134.98,135.59,135.46,135.41,136.07,137.04,137.00,135.71,133.07,129.04,124.39,120.52,117.98
1.24,1.39,1.47,1.55,1.66,1.80,1.88,1.96,2.08,2.21,2.29,2.37,2.50,2.62,2.71,2.85,2.95,3.03,3.12,3.27,3.36,3.44,3.54,3.69,3.77,3.85,3.96,4.10,4.18,4.26,4.38,4.51,4.59,4.74,4.84,4.92,5.01,5.15,5.25,5.33,5.42,5.57,5.66,5.74,5.84,5.99,6.07,6.15,6.23,6.30,6.38,6.32,6.29,6.29,6.29,6.28,6.23,6.19,6.19,6.18,6.13,6.09,6.09,6.09,6.02,5.99,5.99,5.99,5.91,5.89,5.89,5.88,5.80,5.79,5.79,5.77,5.69,5.70,5.75,5.83,5.91,5.98,6.06,6.14,6.23,6.38,6.46,6.54,6.62,6.70,6.78,6.86,6.93,7.01,7.09,7.17,7.28,7.41,7.49,7.57,7.65,7.73,7.81,7.88,7.96,8.04,8.11,8.19,8.33,8.44,8.52,8.60,8.68,8.76,8.83,8.91,8.99,9.06,9.14,9.22,9.30,9.31,9.36,9.43,9.51,9.58,9.66,9.70,9.72,9.79,9.81,10.53,15.09,27.41,33.44,38.43,42.26,44.98,47.03,48.79,51.56,55.46,59.98,65.32,70.95,77.01,83.60,90.44,96.83,101.08,102.94,104.10,103.21,101.83,100.15,98.14,95.41,92.51,89.68,87.12,85.21,86.35,89.77,94.61,99.35,101.92,102.37,100.60,96.67,91.65,85.40,81.17,80.45,83.40,85.72,86.06,84.67,82.37,80.03,77.48,76.71,78.88,82.22,85.83,89.50,93.17,96.82,100.90,102.76,103.00,102.54,101.55,99.50,95.72,90.52,86.38,82.35,78.19,73.94,69.75,66.90,67.72,70.14,72.47,74.37,73.90,71.66,67.99,63.30,59.75,57.04,55.78,56.58,58.12,60.05,62.92,66.78,70.71,74.46,78.26,82.31,86.85,91.54,96.24,100.89,105.47,110.21,114.35,118.78,123.78,129.32,131.91,133.53,134.47,134.89,134.91,134.85,134.77,134.69,134.61,135.07,135.48,136.08,137.60,139.72,141.63,142.79,142.88,142.77,141.97,140.09,137.00,132.74,128.08,123.21,119.61
1.16,1.26,1.39,1.49,1.57,1.68,1.81,1.89,1.98,2.09,2.23,2.30,2.43,2.56,2.64,2.74,2.86,2.97,3.05,3.15,3.28,3.38,3.46,3.56,3.69,3.78,3.87,3.98,4.11,4.19,4.32,4.45,4.53,4.62,4.75,4.86,4.94,5.03,5.16,5.27,5.35,5.45,5.58,5.68,5.78,5.93,6.01,6.08,6.16,6.24,6.32,6.26,6.23,6.23,6.23,6.17,6.14,6.13,6.12,6.07,6.04,6.03,6.03,6.03,5.96,5.93,5.93,5.92,5.85,5.83,5.83,5.82,5.74,5.73,5.73,5.71,5.63,5.68,5.75,5.83,5.91,5.98,6.06,6.14,6.22,6.32,6.40,6.51,6.62,6.70,6.78,6.86,6.93,7.01,7.09,7.17,7.25,7.35,7.42,7.56,7.65,7.73,7.81,7.88,7.96,8.04,8.11,8.19,8.29,8.37,8.47,8.60,8.68,8.76,8.83,8.91,8.99,9.06,9.14,9.22,9.30,9.35,9.42,9.48,9.51,9.58,9.66,9.73,9.78,9.80,9.85,13.71,21.11,30.72,35.18,39.36,43.21,46.55,48.35,50.07,52.84,56.67,60.89,66.07,71.56,77.54,84.16,90.75,97.04,101.55,104.00,105.70,105.30,104.18,102.73,101.20,98.82,96.27,93.38,90.27,88.45,89.77,93.02,97.28,101.13,103.88,103.91,101.81,98.40,93.32,88.37,85.55,85.52,87.48,88.69,88.15,86.31,84.16,81.68,80.07,80.44,83.23,86.67,90.10,93.52,97.15,101.50,105.71,107.11,106.34,104.47,102.49,99.38,94.75,89.09,85.20,81.25,77.30,73.42,69.68,68.64,70.67,74.05,77.13,77.69,75.93,72.54,68.20,64.20,60.39,57.70,56.43,56.70,58.19,60.04,62.79,66.51,70.40,74.23,78.07,82.09,86.54,91.08,95.66,100.29,105.03,110.51,115.08,119.90,125.21,130.61,133.73,136.03,137.58,138.34,138.46,138.43,138.33,138.20,138.12,138.21,138.30,139.00,141.41,145.47,148.15,149.53,149.78,148.87,146.78,143.86,140.25,135.94,131.37,126.31,122.31
1.12,1.17,1.30,1.41,1.50,1.59,1.74,1.83,1.91,2.01,2.16,2.24,2.35,2.47,2.57,2.65,2.77,2.88,2.98,3.06,3.18,3.29,3.39,3.47,3.62,3.72,3.80,3.89,4.04,4.13,4.23,4.36,4.46,4.54,4.65,4.77,4.87,4.95,5.06,5.18,5.28,5.36,5.51,5.61,5.70,5.83,5.94,6.02,6.10,6.17,6.22,6.18,6.16,6.16,6.16,6.09,6.06,6.06,6.06,5.98,5.96,5.96,5.96,5.93,5.88,5.86,5.85,5.82,5.78,5.76,5.75,5.72,5.67,5.66,5.66,5.64,5.57,5.67,5.75,5.83,5.91,5.98,6.06,6.14,6.22,6.29,6.37,6.48,6.60,6.70,6.78,6.86,6.93,7.01,7.09,7.17,7.24,7.32,7.40,7.52,7.63,7.73,7.81,7.88,7.96,8.04,8.11,8.19,8.27,8.35,8.44,8.56,8.67,8.76,8.83,8.91,8.99,9.06,9.14,9.22,9.30,9.37,9.45,9.51,9.54,9.62,9.67,9.74,9.81,9.83,10.77,16.87,25.70,32.90,36.71,40.58,44.49,48.17,49.93,51.71,54.23,57.60,61.61,66.69,72.07,77.93,84.42,90.77,97.08,101.88,104.86,107.04,107.42,106.89,105.83,104.60,102.79,100.39,97.51,94.49,92.88,93.96,96.68,100.30,103.69,106.22,105.85,103.48,100.26,95.70,91.80,89.82,90.01,91.27,91.94,90.92,88.75,86.57,84.28,83.59,84.88,88.09,91.54,95.00,98.76,102.70,106.31,109.01,109.35,107.75,104.95,102.38,98.21,93.10,87.85,84.23,80.39,76.53,73.14,70.92,71.61,74.30,77.56,80.07,79.88,77.09,72.94,68.33,64.62,60.91,58.42,57.14,56.87,58.28,60.08,62.71,66.22,69.82,73.67,77.53,81.53,85.96,90.55,95.08,99.81,104.96,110.81,115.54,120.60,126.17,131.38,134.88,137.66,139.64,140.66,141.19,141.65,141.91,141.94,141.92,142.24,142.92,144.31,147.04,150.97,153.56,154.91,155.18,153.71,150.89,147.46,143.67,139.49,134.89,129.82,126.01
1.10,1.10,1.18,1.32,1.43,1.52,1.68,1.77,1.84,1.94,2.10,2.18,2.25,2.36,2.51,2.58,2.66,2.78,2.92,2.99,3.07,3.20,3.33,3.41,3.56,3.66,3.73,3.82,3.98,4.07,4.14,4.24,4.40,4.47,4.55,4.66,4.81,4.88,4.96,5.08,5.22,5.29,5.44,5.55,5.62,5.70,5.86,5.96,6.03,6.10,6.10,6.10,6.10,6.10,6.10,6.02,6.00,6.00,5.99,5.92,5.90,5.90,5.88,5.81,5.80,5.80,5.77,5.70,5.70,5.70,5.67,5.60,5.60,5.60,5.60,5.58,5.50,5.65,5.75,5.83,5.91,5.98,6.06,6.14,6.22,6.29,6.37,6.45,6.55,6.70,6.78,6.86,6.93,7.01,7.09,7.17,7.24,7.32,7.40,7.47,7.60,7.73,7.81,7.88,7.96,8.04,8.11,8.19,8.27,8.35,8.42,8.50,8.66,8.75,8.83,8.91,8.99,9.06,9.14,9.22,9.30,9.37,9.45,9.53,9.61,9.68,9.70,9.74,9.81,9.89,12.34,20.02,29.23,34.24,38.10,42.02,46.03,49.85,51.70,53.62,55.72,58.35,62.21,67.23,72.53,78.24,84.47,90.58,96.97,102.11,105.57,108.20,109.55,109.85,109.32,108.25,107.17,104.79,101.99,99.52,98.20,98.72,100.66,103.61,106.84,108.85,108.09,105.50,102.23,98.61,95.57,94.00,94.07,94.84,95.41,94.21,91.79,89.47,87.62,87.81,89.87,93.34,96.74,100.39,104.88,109.35,111.18,111.15,110.00,107.72,104.35,101.48,96.24,90.96,86.74,83.43,79.70,75.85,73.06,73.15,75.50,78.42,80.78,81.76,81.21,77.62,73.01,68.40,64.69,61.35,59.19,57.90,57.06,58.37,60.13,62.65,65.88,69.05,72.88,76.74,80.71,85.19,89.98,94.50,99.41,105.15,111.10,115.82,121.00,126.75,131.77,135.51,138.61,140.88,142.11,143.26,144.53,145.44,145.79,145.90,146.92,148.82,151.33,153.96,156.31,158.17,159.32,159.50,157.63,154.49,150.94,147.24,143.31,138.60,133.63,130.47
1.12,1.17,1.19,1.28,1.37,1.45,1.56,1.68,1.78,1.86,1.97,2.10,2.19,2.28,2.38,2.51,2.60,2.69,2.80,2.93,3.01,3.13,3.26,3.34,3.44,3.57,3.67,3.75,3.86,3.98,4.08,4.16,4.27,4.40,4.49,4.60,4.74,4.82,4.90,5.01,5.15,5.23,5.33,5.45,5.56,5.64,5.74,5.86,5.97,6.04,6.04,6.04,6.04,6.02,5.97,5.94,5.94,5.94,5.93,5.85,5.84,5.84,5.82,5.74,5.74,5.74,5.71,5.64,5.64,5.64,5.60,5.54,5.54,5.54,5.51,5.48,5.50,5.60,5.69,5.78,5.91,5.98,6.06,6.14,6.22,6.29,6.37,6.45,6.53,6.64,6.71,6.83,6.93,7.01,7.09,7.17,7.24,7.32,7.40,7.47,7.57,7.66,7.75,7.87,7.96,8.04,8.11,8.19,8.27,8.35,8.42,8.50,8.61,8.69,8.79,8.91,8.99,9.06,9.14,9.22,9.30,9.37,9.45,9.53,9.61,9.68,9.74,9.78,9.81,9.89,15.37,23.39,31.15,35.32,39.29,43.84,48.08,51.41,53.57,55.62,57.76,60.38,64.19,68.89,74.07,79.37,84.53,90.59,96.94,102.07,105.72,109.19,111.55,112.71,112.92,112.59,111.36,109.70,107.72,105.60,103.89,104.30,105.99,108.46,111.16,112.01,110.77,108.08,104.74,101.46,98.84,97.42,97.34,98.21,98.88,98.35,96.67,94.20,92.54,93.28,95.84,99.59,103.54,106.80,109.91,112.31,112.27,110.73,108.54,105.87,102.84,99.19,93.67,88.77,85.39,82.42,78.96,76.68,76.11,77.53,79.42,81.44,82.95,83.38,81.79,78.36,73.69,68.77,65.61,62.53,60.41,59.05,58.17,58.49,59.71,61.95,65.05,68.16,71.86,75.76,79.92,84.55,89.39,93.89,98.72,104.36,110.76,115.60,120.66,126.11,130.83,134.01,136.73,138.77,139.80,140.41,141.09,142.30,144.30,147.22,149.70,152.00,154.40,157.27,161.45,164.55,165.94,165.21,162.11,158.59,154.96,151.32,147.63,143.39,139.55,137.28
1.13,1.20,1.20,1.24,1.31,1.38,1.46,1.59,1.70,1.79,1.87,2.00,2.11,2.20,2.29,2.44,2.53,2.61,2.71,2.86,2.94,3.06,3.18,3.27,3.35,3.47,3.59,3.68,3.76,3.89,4.00,4.09,4.17,4.32,4.42,4.52,4.65,4.75,4.83,4.94,5.06,5.16,5.24,5.35,5.48,5.57,5.65,5.77,5.89,5.97,5.97,5.97,5.97,5.95,5.87,5.87,5.87,5.86,5.84,5.78,5.77,5.76,5.73,5.68,5.67,5.66,5.63,5.57,5.57,5.57,5.54,5.47,5.47,5.47,5.44,5.42,5.50,5.57,5.65,5.75,5.88,5.98,6.06,6.14,6.22,6.29,6.37,6.45,6.52,6.60,6.68,6.80,6.91,7.01,7.09,7.17,7.24,7.32,7.40,7.47,7.55,7.63,7.71,7.84,7.95,8.04,8.11,8.19,8.27,8.35,8.42,8.50,8.58,8.66,8.76,8.88,8.98,9.06,9.14,9.22,9.30,9.37,9.45,9.53,9.61,9.68,9.76,9.81,9.88,10.15,17.76,25.86,32.44,36.13,40.19,45.25,49.75,52.80,55.19,57.43,59.91,62.87,66.66,71.11,75.98,80.79,85.20,90.90,97.07,102.13,105.83,109.79,113.18,115.34,116.44,116.93,115.80,114.61,113.06,111.08,109.37,109.56,110.91,112.95,115.13,115.13,113.41,110.58,107.31,104.35,102.18,101.01,100.91,101.77,102.29,102.08,100.97,98.84,97.68,98.98,101.86,105.54,109.35,112.09,113.68,113.91,112.37,109.84,106.98,103.96,100.86,96.43,91.35,87.17,84.34,81.63,78.80,78.09,79.32,81.39,82.93,84.33,84.99,84.41,82.16,78.82,74.16,69.14,66.40,63.84,61.96,60.62,59.60,58.97,59.53,61.38,64.32,67.39,70.84,74.69,78.96,83.63,88.68,93.21,97.83,103.16,110.13,115.04,119.82,124.78,129.01,131.92,134.26,135.92,136.72,137.07,137.63,139.21,142.23,146.60,150.40,153.49,156.38,160.03,165.32,168.79,170.11,169.23,166.19,162.69,159.08,155.49,151.98,148.21,145.03,143.13
1.13,1.20,1.20,1.20,1.24,1.32,1.40,1.48,1.60,1.73,1.81,1.89,2.02,2.14,2.22,2.38,2.47,2.55,2.64,2.80,2.88,2.96,3.07,3.21,3.29,3.37,3.48,3.62,3.70,3.78,3.90,4.03,4.11,4.26,4.36,4.44,4.53,4.68,4.77,4.85,4.95,5.10,5.18,5.26,5.36,5.51,5.59,5.67,5.78,5.91,5.91,5.91,5.91,5.89,5.81,5.81,5.81,5.78,5.71,5.71,5.71,5.67,5.61,5.61,5.61,5.56,5.51,5.51,5.51,5.51,5.47,5.41,5.41,5.41,5.40,5.42,5.50,5.57,5.65,5.73,5.82,5.97,6.06,6.14,6.22,6.29,6.37,6.45,6.52,6.60,6.68,6.76,6.87,7.01,7.09,7.17,7.24,7.32,7.40,7.47,7.55,7.63,7.71,7.79,7.92,8.04,8.11,8.19,8.27,8.35,8.42,8.50,8.58,8.66,8.74,8.83,8.98,9.06,9.14,9.22,9.30,9.37,9.45,9.53,9.61,9.68,9.76,9.83,10.03,10.74,19.37,27.20,32.93,36.57,40.73,46.18,50.95,53.97,56.50,59.02,62.19,65.94,69.72,74.03,78.37,82.58,86.63,91.58,97.43,102.32,105.90,109.91,114.35,117.67,119.84,121.28,120.54,119.49,117.90,115.80,114.58,114.42,115.32,116.99,118.67,118.18,116.00,112.96,109.94,107.28,105.59,104.81,104.84,105.56,105.63,105.30,104.56,103.36,103.09,104.97,107.94,111.12,113.94,115.98,115.87,113.80,111.23,108.35,105.29,101.97,98.27,93.10,89.32,86.30,83.67,81.10,79.36,80.23,82.71,84.59,85.93,87.06,86.86,84.71,82.27,78.92,74.37,69.52,67.02,65.30,63.93,62.71,61.42,59.90,59.64,60.97,63.74,66.76,69.82,73.51,77.78,82.35,87.84,92.44,96.72,101.44,109.15,114.05,118.36,122.58,126.07,129.10,131.05,132.13,132.70,133.15,134.13,136.17,139.44,143.57,148.51,152.88,157.02,162.10,167.62,170.35,171.23,171.17,169.81,166.81,163.32,159.79,156.38,153.07,149.96,147.81
1.13,1.20,1.20,1.20,1.24,1.31,1.34,1.41,1.51,1.62,1.74,1.82,1.95,2.07,2.16,2.27,2.39,2.48,2.57,2.68,2.80,2.89,2.98,3.09,3.21,3.30,3.41,3.56,3.63,3.71,3.83,3.97,4.04,4.15,4.27,4.37,4.45,4.57,4.68,4.78,4.87,4.98,5.10,5.19,5.29,5.45,5.52,5.60,5.71,5.84,5.84,5.84,5.84,5.82,5.75,5.74,5.74,5.71,5.64,5.64,5.64,5.61,5.54,5.54,5.54,5.50,5.44,5.44,5.44,5.41,5.37,5.34,5.34,5.34,5.37,5.42,5.50,5.57,5.65,5.73,5.81,5.92,6.00,6.10,6.22,6.29,6.37,6.45,6.52,6.60,6.68,6.76,6.85,6.95,7.03,7.15,7.24,7.32,7.40,7.47,7.55,7.63,7.71,7.78,7.89,7.98,8.07,8.19,8.27,8.35,8.42,8.50,8.58,8.66,8.73,8.81,8.93,9.01,9.11,9.22,9.30,9.37,9.45,9.53,9.61,9.68,9.76,9.84,10.43,13.28,21.06,27.96,33.16,36.80,41.27,46.79,51.52,54.55,57.45,60.63,64.18,68.19,72.80,77.10,80.88,84.42,88.11,93.32,98.82,103.26,106.54,110.30,115.14,118.94,121.74,124.16,122.81,121.57,120.10,118.25,116.40,116.07,116.72,118.14,120.20,119.96,118.00,115.13,112.22,109.55,108.93,109.08,109.34,109.56,109.33,108.91,108.39,107.78,109.00,111.64,114.52,116.70,117.54,117.62,116.08,113.14,110.05,106.58,103.26,99.97,96.45,91.55,88.30,85.97,84.03,81.83,82.30,84.11,86.37,88.01,89.03,89.19,88.17,85.83,82.92,79.53,75.34,71.01,68.50,67.44,66.47,65.35,63.93,62.09,60.94,61.24,63.20,66.08,68.89,72.39,76.49,80.74,86.45,91.23,95.45,99.75,106.68,111.75,115.93,119.52,122.44,124.89,126.27,126.94,127.46,128.49,130.72,133.56,136.67,140.20,144.90,149.78,154.87,160.65,166.21,169.55,171.32,172.11,171.34,169.45,166.86,163.85,160.76,157.92,155.17,153.25
1.13,1.20,1.20,1.21,1.25,1.30,1.30,1.37,1.44,1.52,1.68,1.76,1.88,2.00,2.09,2.17,2.29,2.41,2.50,2.57,2.71,2.82,2.91,2.99,3.14,3.24,3.34,3.47,3.57,3.65,3.76,3.89,3.98,4.06,4.18,4.30,4.39,4.46,4.59,4.71,4.80,4.87,5.02,5.13,5.23,5.36,5.46,5.54,5.64,5.76,5.78,5.78,5.77,5.74,5.68,5.68,5.67,5.64,5.58,5.58,5.57,5.53,5.48,5.48,5.48,5.43,5.38,5.38,5.38,5.32,5.28,5.28,5.28,5.28,5.33,5.42,5.50,5.57,5.65,5.73,5.81,5.88,5.96,6.07,6.20,6.27,6.36,6.45,6.52,6.60,6.68,6.76,6.83,6.91,6.99,7.12,7.22,7.30,7.40,7.47,7.55,7.63,7.71,7.78,7.86,7.94,8.03,8.17,8.25,8.34,8.42,8.50,8.58,8.66,8.73,8.81,8.89,8.96,9.08,9.20,9.28,9.37,9.45,9.53,9.61,9.68,9.76,9.84,10.80,15.68,22.56,28.57,33.33,36.95,41.68,47.24,51.98,55.10,58.31,62.01,65.80,70.01,75.59,79.78,83.12,86.22,89.79,95.54,100.64,104.67,107.80,111.15,115.99,119.83,122.64,124.98,123.22,121.68,120.12,118.32,116.11,115.49,115.73,116.76,118.84,119.31,118.40,116.36,113.52,111.38,112.25,113.53,114.04,113.92,113.55,113.13,112.84,112.90,115.17,118.04,120.46,121.58,120.65,118.90,116.13,112.60,109.03,105.00,101.40,98.19,95.20,91.27,88.55,86.62,85.17,83.64,85.83,88.22,90.13,91.50,91.98,91.17,89.44,87.05,83.81,80.39,76.59,72.88,70.67,70.20,69.47,68.24,66.50,64.48,62.63,62.01,63.07,65.47,68.06,71.32,75.13,79.13,84.76,89.66,93.93,97.94,103.70,108.84,113.01,116.18,118.56,120.26,121.08,121.45,121.98,123.85,127.16,130.72,133.91,136.92,140.95,145.65,151.08,157.43,163.27,167.59,170.56,172.34,172.32,171.77,170.25,167.80,165.05,162.64,160.40,158.96
1.13,1.20,1.20,1.25,1.29,1.30,1.30,1.37,1.41,1.46,1.61,1.69,1.78,1.89,2.02,2.10,2.19,2.31,2.43,2.51,2.60,2.72,2.84,2.92,3.08,3.17,3.26,3.35,3.50,3.58,3.67,3.77,3.91,3.99,4.08,4.19,4.32,4.40,4.49,4.60,4.73,4.81,4.96,5.06,5.15,5.24,5.38,5.47,5.56,5.64,5.71,5.72,5.68,5.63,5.62,5.62,5.57,5.53,5.52,5.52,5.46,5.43,5.42,5.42,5.42,5.37,5.32,5.32,5.32,5.26,5.22,5.22,5.22,5.22,5.29,5.42,5.50,5.57,5.65,5.73,5.81,5.88,5.96,6.04,6.13,6.21,6.34,6.45,6.52,6.60,6.68,6.76,6.83,6.91,6.99,7.08,7.16,7.25,7.39,7.47,7.55,7.63,7.71,7.78,7.86,7.94,8.02,8.11,8.19,8.30,8.42,8.50,8.58,8.66,8.73,8.81,8.89,8.96,9.05,9.14,9.21,9.35,9.45,9.53,9.61,9.68,9.76,9.84,11.04,17.20,23.61,29.04,33.44,37.01,41.79,47.44,52.36,55.75,59.11,62.88,66.70,71.16,77.77,81.60,84.75,87.94,91.89,98.47,103.08,106.86,110.24,112.95,117.10,120.23,121.81,121.72,120.26,118.36,116.15,113.85,112.24,110.99,110.45,110.72,111.82,113.75,115.52,115.57,112.79,112.42,115.51,118.22,119.04,119.02,118.83,118.56,118.60,119.60,121.78,123.66,124.83,124.92,123.01,120.02,116.44,112.48,108.36,103.93,100.00,96.92,94.92,93.27,91.25,89.25,87.68,87.44,89.92,92.28,94.00,95.08,94.58,92.99,90.78,88.27,85.02,81.64,78.19,75.22,74.10,74.13,73.31,71.54,68.99,66.92,64.83,63.68,63.84,65.00,67.42,70.32,73.65,77.60,82.60,87.43,91.88,95.88,100.06,104.95,109.27,112.49,114.32,115.12,115.46,115.72,116.33,119.49,123.25,127.28,131.19,133.95,136.76,140.03,144.52,151.41,158.08,163.77,168.24,171.31,172.73,173.84,173.48,171.58,169.17,167.06,165.58,165.06
1.16,1.20,1.20,1.26,1.30,1.30,1.30,1.37,1.40,1.43,1.55,1.63,1.71,1.80,1.92,2.03,2.11,2.23,2.37,2.45,2.52,2.65,2.78,2.86,2.97,3.09,3.19,3.27,3.39,3.50,3.60,3.68,3.80,3.92,4.01,4.11,4.26,4.34,4.41,4.53,4.67,4.75,4.86,4.98,5.08,5.16,5.27,5.39,5.49,5.56,5.64,5.65,5.61,5.55,5.55,5.55,5.50,5.45,5.45,5.45,5.39,5.35,5.35,5.35,5.32,5.28,5.25,5.25,5.21,5.17,5.15,5.15,5.15,5.18,5.27,5.38,5.50,5.57,5.65,5.73,5.81,5.88,5.96,6.04,6.12,6.19,6.31,6.42,6.52,6.60,6.68,6.76,6.83,6.91,6.99,7.07,7.14,7.23,7.35,7.46,7.55,7.63,7.71,7.78,7.86,7.94,8.01,8.09,8.17,8.27,8.39,8.50,8.58,8.66,8.73,8.81,8.89,8.96,9.04,9.12,9.20,9.31,9.43,9.53,9.61,9.68,9.76,10.01,11.60,18.20,24.23,29.33,33.55,37.08,41.91,47.45,52.31,55.78,59.21,63.03,66.91,71.61,78.96,82.69,85.85,89.48,94.36,100.20,104.41,108.05,111.36,113.54,116.01,117.92,118.65,117.51,115.79,113.80,111.70,109.68,108.29,106.99,106.30,106.39,107.27,109.23,111.35,112.57,112.09,113.31,116.94,120.25,122.02,122.28,122.27,122.59,123.46,125.06,127.18,128.54,128.90,128.03,125.13,121.18,116.70,112.06,107.81,103.72,100.66,98.89,98.50,97.79,95.60,92.99,90.81,90.41,93.07,95.72,97.50,97.95,96.47,94.41,92.00,89.37,86.02,82.63,79.51,77.22,76.88,78.13,77.65,75.53,72.34,69.04,66.75,65.63,65.57,65.82,67.23,69.40,72.33,76.16,80.50,85.13,89.61,93.63,97.30,101.20,105.03,108.22,109.52,110.02,110.25,110.55,111.33,114.84,118.92,123.18,127.23,130.12,132.72,135.61,139.39,144.87,151.21,157.28,162.68,167.09,170.01,172.37,173.72,173.94,173.18,171.35,170.69,171.29
1.20,1.20,1.20,1.26,1.30,1.30,1.31,1.37,1.40,1.42,1.50,1.57,1.64,1.72,1.80,1.96,2.05,2.16,2.30,2.38,2.46,2.58,2.71,2.79,2.87,3.00,3.12,3.20,3.28,3.42,3.53,3.61,3.69,3.84,3.94,4.05,4.19,4.27,4.35,4.46,4.60,4.68,4.76,4.88,5.01,5.09,5.17,5.30,5.42,5.50,5.58,5.58,5.54,5.49,5.49,5.49,5.44,5.39,5.39,5.39,5.33,5.29,5.29,5.29,5.22,5.19,5.19,5.19,5.11,5.09,5.09,5.09,5.10,5.17,5.24,5.34,5.48,5.56,5.65,5.73,5.81,5.88,5.96,6.04,6.12,6.19,6.27,6.39,6.51,6.59,6.68,6.76,6.83,6.91,6.99,7.07,7.14,7.22,7.30,7.44,7.54,7.62,7.71,7.78,7.86,7.94,8.01,8.09,8.17,8.25,8.34,8.49,8.57,8.65,8.73,8.81,8.89,8.96,9.04,9.12,9.20,9.27,9.40,9.53,9.61,9.68,9.77,10.30,12.35,18.92,24.66,29.55,33.66,37.14,41.96,47.34,52.06,55.53,58.98,62.85,66.81,71.68,79.45,83.34,86.68,90.81,96.59,101.26,105.06,108.48,111.49,113.13,113.87,114.53,114.56,112.97,110.97,109.04,107.25,105.67,104.35,103.19,102.56,102.63,103.57,105.13,106.89,108.82,110.89,113.35,116.96,120.67,123.65,124.49,124.99,126.16,127.96,130.03,132.08,133.09,132.79,130.96,127.07,122.35,117.10,111.84,107.62,104.45,102.76,102.53,103.48,103.04,100.40,97.05,94.11,93.16,95.87,98.79,100.62,100.26,98.01,95.64,93.13,90.38,86.85,83.72,81.32,79.99,80.33,82.28,81.94,79.58,75.97,71.33,68.76,67.74,67.66,67.16,67.51,68.86,71.32,74.97,78.62,82.90,87.28,91.31,94.85,97.72,100.85,103.81,104.58,105.00,105.26,105.69,106.73,110.29,114.51,118.81,122.75,125.87,128.50,131.35,134.63,138.50,144.23,150.22,156.11,161.56,165.88,169.29,172.35,174.96,176.22,175.22,175.53,177.10
1.20,1.20,1.20,1.26,1.30,1.31,1.37,1.39,1.40,1.42,1.50,1.52,1.58,1.66,1.74,1.90,1.99,2.07,2.18,2.31,2.40,2.49,2.59,2.73,2.80,2.90,3.01,3.14,3.21,3.36,3.47,3.55,3.62,3.78,3.88,3.96,4.06,4.20,4.29,4.37,4.48,4.61,4.70,4.78,4.89,5.03,5.10,5.24,5.36,5.44,5.51,5.47,5.44,5.42,5.42,5.42,5.37,5.32,5.32,5.32,5.26,5.22,5.22,5.22,5.15,5.12,5.12,5.12,5.05,5.02,5.02,5.03,5.09,5.17,5.24,5.33,5.42,5.50,5.62,5.73,5.81,5.88,5.96,6.04,6.12,6.19,6.27,6.36,6.45,6.53,6.66,6.76,6.83,6.91,6.99,7.07,7.14,7.22,7.30,7.39,7.48,7.57,7.71,7.78,7.86,7.94,8.01,8.09,8.17,8.25,8.33,8.43,8.50,8.62,8.73,8.81,8.89,8.96,9.04,9.12,9.20,9.27,9.40,9.53,9.61,9.68,9.80,10.81,13.48,19.27,24.87,29.68,33.72,37.20,41.78,46.95,51.55,55.00,58.30,62.23,66.29,71.09,78.27,83.11,87.10,91.48,97.13,101.16,104.39,107.08,109.18,110.02,110.33,110.34,109.83,108.44,106.88,105.18,103.50,101.96,100.59,99.58,98.94,98.87,99.86,101.33,103.06,105.07,107.38,109.79,113.49,117.93,122.33,124.80,127.32,129.82,132.28,134.69,136.49,137.22,136.33,133.47,128.59,123.49,118.12,112.89,108.82,108.05,108.24,108.73,108.94,107.76,104.79,100.90,97.16,96.11,98.50,101.20,102.60,101.10,99.09,96.73,94.08,91.12,87.29,85.69,85.72,86.76,87.69,86.95,85.30,82.82,79.55,74.91,71.64,70.12,69.99,68.85,69.19,69.88,71.37,74.72,77.64,81.15,85.03,89.00,92.44,95.29,97.75,99.57,99.95,100.34,100.69,101.40,102.96,106.57,110.41,114.21,117.79,121.06,123.33,125.95,129.32,133.63,139.33,144.67,149.82,154.99,160.09,164.37,168.35,172.08,175.16,177.42,179.19,180.87
1.20,1.20,1.23,1.27,1.30,1.31,1.39,1.40,1.40,1.42,1.50,1.50,1.55,1.62,1.67,1.80,1.91,2.00,2.09,2.21,2.32,2.41,2.50,2.63,2.73,2.82,2.93,3.07,3.15,3.27,3.38,3.48,3.56,3.68,3.80,3.89,3.97,4.10,4.21,4.30,4.39,4.51,4.62,4.71,4.81,4.96,5.04,5.15,5.27,5.37,5.41,5.38,5.36,5.36,5.36,5.33,5.29,5.26,5.26,5.23,5.18,5.16,5.15,5.12,5.08,5.06,5.06,5.06,4.98,4.96,4.97,5.01,5.09,5.17,5.24,5.32,5.40,5.47,5.58,5.69,5.77,5.88,5.96,6.04,6.12,6.19,6.27,6.35,6.42,6.50,6.63,6.72,6.81,6.91,6.99,7.07,7.14,7.22,7.30,7.37,7.45,7.55,7.67,7.74,7.84,7.94,8.01,8.09,8.17,8.25,8.32,8.40,8.48,8.59,8.69,8.77,8.88,8.96,9.04,9.12,9.20,9.30,9.42,9.53,9.61,9.72,9.84,11.07,14.05,19.41,25.03,29.79,33.72,37.11,41.32,46.26,50.77,54.25,57.53,61.35,65.49,70.35,76.97,82.41,87.16,91.83,96.84,100.26,102.98,105.06,106.46,106.88,106.94,106.57,105.71,104.34,102.73,101.26,99.83,98.42,97.12,96.19,95.48,95.20,95.90,97.29,99.23,101.58,104.19,106.89,110.83,115.69,120.87,124.60,128.53,132.20,135.55,138.64,140.56,141.04,139.59,135.98,130.52,125.05,119.63,114.76,111.62,112.15,113.06,113.63,113.35,111.70,108.88,104.87,100.48,99.09,101.22,103.39,104.12,102.10,100.08,97.65,94.90,91.87,88.33,88.23,89.93,92.16,93.02,91.37,88.91,86.05,83.05,78.47,75.01,73.02,72.23,70.87,70.95,71.14,71.85,74.21,76.89,79.64,82.65,86.02,89.26,92.44,94.74,95.95,96.21,96.56,97.03,98.04,100.09,103.45,106.66,109.76,112.73,115.44,117.54,120.24,123.97,128.99,134.72,140.01,145.06,150.13,155.36,160.07,164.69,169.25,173.49,177.48,180.55,183.08
1.20,1.20,1.28,1.30,1.30,1.31,1.39,1.40,1.40,1.42,1.50,1.50,1.55,1.60,1.61,1.68,1.82,1.93,2.01,2.09,2.24,2.35,2.42,2.50,2.66,2.75,2.87,3.01,3.09,3.16,3.28,3.42,3.50,3.57,3.70,3.82,3.90,3.98,4.12,4.24,4.31,4.39,4.54,4.64,4.75,4.90,4.98,5.05,5.16,5.29,5.30,5.30,5.30,5.30,5.30,5.22,5.20,5.20,5.19,5.11,5.10,5.10,5.08,5.00,5.00,5.00,5.00,4.99,4.92,4.90,4.93,5.01,5.09,5.17,5.24,5.32,5.40,5.47,5.55,5.63,5.71,5.86,5.96,6.04,6.12,6.19,6.27,6.35,6.42,6.50,6.58,6.66,6.77,6.91,6.99,7.07,7.14,7.22,7.30,7.37,7.45,7.53,7.61,7.68,7.82,7.94,8.01,8.09,8.17,8.25,8.32,8.40,8.48,8.56,8.63,8.72,8.87,8.96,9.04,9.12,9.20,9.35,9.45,9.53,9.61,9.77,9.86,11.16,14.27,19.43,25.13,29.85,33.64,36.89,40.67,45.38,49.83,53.38,56.71,60.35,64.54,69.50,75.58,81.38,86.93,91.89,95.95,98.77,101.03,102.60,103.48,103.70,103.65,103.05,101.93,100.43,98.51,97.25,96.17,94.97,93.81,92.90,92.08,91.52,91.74,93.11,95.43,98.30,101.28,104.49,108.72,113.81,119.36,124.10,129.03,133.71,138.06,142.05,144.36,144.64,142.68,138.49,132.70,126.91,121.50,117.19,115.48,116.60,117.53,117.79,117.14,115.14,112.72,108.84,103.98,102.12,104.01,105.47,105.38,103.23,101.08,98.54,95.70,92.71,89.86,91.22,94.05,96.70,97.07,95.61,92.71,89.35,86.53,82.05,78.67,76.18,74.40,73.10,72.78,72.55,72.61,73.57,76.28,78.31,80.25,82.66,85.59,89.23,91.70,92.69,93.03,93.34,93.95,95.29,97.78,100.69,103.14,105.44,107.67,109.45,111.50,114.44,118.64,124.46,130.26,135.88,141.26,146.39,151.31,156.20,161.27,166.48,171.47,176.21,180.39,184.17
1.20,1.20,1.28,1.30,1.30,1.31,1.39,1.40,1.43,1.47,1.50,1.50,1.55,1.60,1.60,1.63,1.72,1.83,1.95,2.03,2.18,2.28,2.36,2.44,2.59,2.69,2.78,2.89,3.02,3.10,3.19,3.30,3.43,3.51,3.60,3.72,3.84,3.92,4.06,4.17,4.25,4.33,4.47,4.58,4.67,4.77,4.90,4.99,5.08,5.17,5.23,5.23,5.23,5.23,5.23,5.16,5.13,5.13,5.13,5.05,5.03,5.03,5.02,4.94,4.93,4.93,4.92,4.87,4.84,4.83,4.89,5.01,5.09,5.17,5.24,5.32,5.40,5.47,5.55,5.63,5.71,5.81,5.93,6.04,6.12,6.19,6.27,6.35,6.42,6.50,6.58,6.66,6.74,6.85,6.98,7.07,7.14,7.22,7.30,7.37,7.45,7.53,7.61,7.68,7.78,7.90,8.01,8.09,8.17,8.25,8.32,8.40,8.48,8.56,8.63,8.72,8.87,8.96,9.04,9.13,9.26,9.36,9.45,9.55,9.67,9.78,9.86,11.26,14.49,19.45,24.60,29.09,32.92,36.32,39.90,44.34,48.82,52.82,56.24,59.86,63.79,68.29,73.88,79.66,85.24,90.05,93.61,95.69,97.70,99.29,100.27,100.39,100.11,99.03,97.26,95.06,93.44,92.55,91.89,91.08,90.03,88.93,87.83,86.98,86.90,89.22,92.36,95.91,99.53,103.48,107.89,112.98,118.63,123.91,128.99,133.88,138.70,143.57,146.97,148.03,146.03,140.91,135.01,129.33,124.40,120.97,120.44,122.01,123.15,123.15,121.55,118.38,115.36,111.72,107.64,105.48,107.20,107.95,107.11,105.21,103.31,100.53,97.50,94.86,93.63,96.02,98.93,100.98,101.06,99.76,97.39,94.26,90.68,86.10,81.70,78.39,76.48,75.37,74.95,74.15,73.34,73.46,75.53,77.21,78.71,80.21,81.56,84.14,86.97,89.34,90.11,90.56,91.42,93.03,95.59,97.85,99.73,101.71,103.92,105.80,107.99,110.77,114.42,119.25,125.02,131.37,137.73,143.54,148.13,153.06,158.32,163.92,169.85,174.86,178.84,182.48
1.20,1.20,1.28,1.30,1.31,1.34,1.39,1.40,1.44,1.50,1.50,1.50,1.55,1.60,1.60,1.63,1.67,1.77,1.89,1.96,2.09,2.20,2.30,2.37,2.51,2.61,2.70,2.79,2.92,3.03,3.11,3.20,3.34,3.44,3.52,3.63,3.78,3.85,3.97,4.09,4.19,4.26,4.39,4.50,4.59,4.67,4.80,4.91,5.00,5.08,5.16,5.17,5.17,5.16,5.14,5.09,5.07,5.06,5.03,4.98,4.97,4.97,4.95,4.88,4.87,4.87,4.84,4.77,4.77,4.79,4.86,4.98,5.06,5.15,5.24,5.32,5.40,5.47,5.55,5.63,5.71,5.78,5.90,6.01,6.09,6.19,6.27,6.35,6.42,6.50,6.58,6.66,6.73,6.82,6.95,7.03,7.12,7.22,7.30,7.37,7.45,7.53,7.61,7.68,7.76,7.86,7.98,8.06,8.16,8.25,8.32,8.40,8.48,8.56,8.64,8.75,8.88,8.96,9.05,9.16,9.29,9.37,9.45,9.56,9.71,9.78,9.86,11.31,14.58,19.32,23.81,28.08,32.00,35.40,39.00,43.30,47.79,52.05,55.67,59.38,63.13,67.13,71.86,77.39,82.63,87.00,90.04,91.67,93.66,95.41,96.56,96.78,96.29,94.85,92.66,90.16,88.41,87.40,86.81,86.35,85.59,84.55,83.46,82.66,82.81,86.20,90.18,94.29,98.33,102.75,107.20,112.26,117.99,123.70,128.98,133.95,138.97,144.51,148.58,150.20,148.59,143.66,137.57,131.87,127.51,125.12,125.46,127.10,128.12,127.88,125.90,122.04,118.23,114.38,110.77,108.91,110.51,110.88,109.61,107.50,105.70,102.83,99.85,97.72,98.17,100.96,103.64,105.20,104.98,103.46,101.28,98.49,95.05,90.49,85.66,81.62,78.91,77.55,76.74,75.58,74.31,73.66,74.85,76.12,77.35,78.45,79.25,81.10,83.72,86.41,87.44,88.23,89.53,91.42,93.81,95.82,97.50,99.28,101.38,103.60,106.11,108.85,112.10,116.36,121.92,128.61,135.51,141.73,146.04,150.86,156.23,162.09,168.23,173.40,177.26,180.63
1.20,1.20,1.28,1.30,1.33,1.40,1.40,1.40,1.44,1.50,1.50,1.50,1.55,1.60,1.61,1.68,1.70,1.74,1.82,1.90,1.98,2.11,2.23,2.31,2.39,2.52,2.64,2.72,2.80,2.94,3.05,3.13,3.21,3.36,3.46,3.57,3.71,3.79,3.87,3.99,4.12,4.20,4.28,4.40,4.53,4.61,4.69,4.82,4.94,5.02,5.09,5.11,5.11,5.09,5.01,5.01,5.01,4.98,4.91,4.91,4.91,4.91,4.89,4.81,4.81,4.81,4.78,4.71,4.71,4.76,4.84,4.92,4.99,5.13,5.24,5.32,5.40,5.47,5.55,5.63,5.71,5.78,5.86,5.94,6.04,6.19,6.27,6.35,6.42,6.50,6.58,6.66,6.73,6.81,6.89,6.97,7.09,7.22,7.30,7.37,7.45,7.53,7.61,7.68,7.76,7.84,7.92,8.00,8.14,8.25,8.32,8.40,8.48,8.56,8.66,8.81,8.89,8.96,9.08,9.21,9.30,9.37,9.45,9.56,9.71,9.78,9.86,11.31,14.53,19.03,22.75,26.82,30.87,34.13,37.97,42.27,46.72,51.06,54.98,58.90,62.56,66.00,69.50,74.54,79.05,82.66,85.18,86.66,88.88,90.93,92.34,92.85,92.18,90.49,88.16,85.76,83.41,81.77,80.91,80.72,80.45,79.75,78.95,78.56,79.50,84.10,88.93,93.52,97.70,102.32,106.67,111.64,117.47,123.47,129.00,133.91,138.84,144.83,149.15,151.08,150.32,146.76,140.37,134.53,130.85,129.64,130.53,131.84,132.41,131.92,130.17,126.16,121.36,116.80,113.35,112.43,113.94,114.28,112.93,110.13,108.27,105.45,102.76,101.34,103.52,106.05,108.17,109.35,108.83,106.70,104.35,102.00,99.66,95.24,90.59,85.93,81.74,79.63,78.12,76.80,75.52,74.19,74.25,75.03,76.17,77.41,78.76,80.24,82.05,83.93,85.00,86.39,88.34,90.50,92.48,94.63,96.49,98.24,100.13,102.94,105.95,108.78,111.81,115.92,121.09,127.68,134.67,141.01,145.12,149.67,155.03,161.02,166.62,171.83,175.63,178.62
1.22,1.26,1.29,1.30,1.34,1.40,1.40,1.40,1.44,1.50,1.50,1.54,1.58,1.60,1.61,1.69,1.70,1.72,1.76,1.84,1.91,2.01,2.12,2.24,2.32,2.42,2.54,2.65,2.73,2.87,2.99,3.06,3.14,3.29,3.39,3.48,3.59,3.72,3.80,3.90,4.01,4.13,4.21,4.31,4.42,4.54,4.62,4.76,4.88,4.95,5.03,5.04,5.04,5.02,4.94,4.94,4.94,4.91,4.84,4.84,4.84,4.82,4.78,4.74,4.74,4.71,4.67,4.64,4.69,4.76,4.83,4.91,4.99,5.09,5.21,5.32,5.40,5.47,5.55,5.63,5.71,5.78,5.86,5.94,6.02,6.13,6.25,6.35,6.42,6.50,6.58,6.66,6.73,6.81,6.89,6.97,7.06,7.16,7.24,7.36,7.45,7.53,7.61,7.68,7.76,7.84,7.91,7.99,8.10,8.22,8.32,8.40,8.48,8.59,8.71,8.81,8.89,9.00,9.12,9.22,9.30,9.37,9.45,9.56,9.71,9.78,9.86,11.31,14.45,18.52,22.09,25.84,29.37,32.03,35.84,40.55,45.36,49.76,53.74,57.88,61.61,64.90,67.98,71.68,75.15,77.94,79.73,81.01,82.62,84.39,86.13,87.40,87.48,86.51,84.68,82.29,80.17,78.53,77.64,77.51,77.23,76.73,76.66,77.37,79.19,83.55,88.21,92.87,97.41,101.91,106.15,111.15,117.18,123.48,129.06,133.88,138.66,144.50,149.33,151.95,151.89,148.95,143.18,137.63,134.25,133.36,134.28,135.36,135.49,134.59,132.71,129.29,124.58,119.85,116.30,116.40,117.60,117.75,116.53,114.04,111.55,109.10,107.54,107.56,109.79,111.69,113.03,113.39,111.81,108.62,105.89,103.58,101.42,98.06,93.73,89.20,85.07,82.14,79.80,78.08,76.79,75.58,74.75,75.48,76.93,78.37,79.58,81.25,83.22,85.18,86.44,87.56,89.02,90.81,92.84,95.00,96.98,98.88,100.89,103.66,106.59,109.94,113.78,118.11,123.65,129.54,135.54,141.32,145.50,150.37,155.87,161.60,166.39,170.41,173.24,175.40
1.23,1.30,1.30,1.30,1.34,1.40,1.40,1.42,1.46,1.50,1.50,1.58,1.60,1.60,1.61,1.69,1.70,1.71,1.74,1.80,1.86,1.93,2.02,2.16,2.25,2.34,2.45,2.59,2.67,2.80,2.91,3.00,3.08,3.21,3.32,3.41,3.49,3.63,3.73,3.82,3.91,4.06,4.15,4.23,4.33,4.48,4.56,4.68,4.80,4.89,4.97,4.98,4.98,4.96,4.88,4.88,4.88,4.85,4.78,4.78,4.78,4.74,4.68,4.68,4.68,4.63,4.58,4.60,4.68,4.76,4.83,4.91,4.99,5.07,5.18,5.30,5.37,5.47,5.55,5.63,5.71,5.78,5.86,5.94,6.02,6.09,6.22,6.32,6.41,6.50,6.58,6.66,6.73,6.81,6.89,6.97,7.04,7.12,7.20,7.33,7.44,7.53,7.61,7.68,7.76,7.84,7.91,7.99,8.08,8.21,8.32,8.40,8.50,8.62,8.73,8.81,8.89,9.03,9.14,9.22,9.30,9.37,9.45,9.56,9.71,9.78,9.86,11.28,14.31,17.99,21.47,24.77,27.66,29.88,33.40,38.57,43.84,48.29,52.36,56.61,60.38,63.55,66.30,68.78,71.16,73.11,74.38,75.54,76.73,78.31,80.28,82.11,82.89,82.60,81.30,79.15,77.27,75.62,74.64,74.48,74.19,74.04,74.78,76.52,78.99,83.04,87.46,92.08,96.78,101.17,105.36,110.54,116.94,123.47,129.14,133.98,138.71,144.48,149.56,152.65,153.19,150.92,146.12,140.77,137.53,136.86,137.87,138.77,138.46,137.10,135.00,131.94,127.66,123.37,120.30,121.16,121.93,121.71,120.37,117.97,115.01,112.88,112.24,113.39,115.54,116.97,117.66,117.20,114.52,110.33,107.25,104.96,102.81,100.43,96.57,92.29,88.21,84.57,81.66,79.52,78.01,76.82,75.37,76.05,77.73,79.40,81.01,82.99,85.11,87.16,88.87,90.08,91.18,92.48,94.29,96.07,97.83,99.74,101.91,104.59,107.41,111.27,115.98,120.81,126.55,131.72,136.72,141.85,146.22,151.27,156.61,161.72,165.48,168.20,170.21,171.79
1.23,1.30,1.30,1.30,1.34,1.40,1.40,1.46,1.49,1.50,1.50,1.58,1.60,1.60,1.61,1.69,1.70,1.73,1.79,1.80,1.81,1.86,1.94,2.03,2.18,2.27,2.38,2.53,2.60,2.69,2.81,2.93,3.01,3.10,3.23,3.34,3.42,3.51,3.64,3.75,3.85,4.00,4.08,4.16,4.26,4.42,4.49,4.58,4.69,4.83,4.90,4.91,4.91,4.89,4.82,4.81,4.81,4.78,4.71,4.71,4.71,4.67,4.61,4.61,4.61,4.57,4.54,4.60,4.68,4.76,4.83,4.91,4.99,5.07,5.15,5.23,5.31,5.45,5.55,5.63,5.71,5.78,5.86,5.94,6.02,6.09,6.18,6.26,6.36,6.50,6.58,6.66,6.73,6.81,6.89,6.97,7.04,7.12,7.20,7.28,7.41,7.53,7.61,7.68,7.76,7.84,7.91,7.99,8.13,8.24,8.32,8.40,8.55,8.65,8.73,8.81,8.89,9.03,9.14,9.22,9.30,9.37,9.45,9.56,9.71,9.78,9.86,11.21,14.07,17.45,20.86,23.52,25.65,27.76,30.55,36.20,42.08,46.58,50.80,55.00,58.69,61.75,64.21,65.84,67.07,68.16,69.34,70.50,71.76,73.39,75.39,77.37,78.60,78.74,77.93,76.47,74.74,72.96,71.75,71.42,71.18,71.64,73.28,75.87,78.53,82.36,86.57,90.99,95.50,99.84,104.09,109.69,116.77,123.39,129.25,134.28,139.20,145.12,149.90,153.04,154.02,152.61,149.29,143.90,140.58,140.11,141.37,142.19,141.44,139.54,137.10,133.89,130.47,127.65,126.15,127.26,127.46,126.56,124.59,121.75,118.68,116.73,116.48,118.11,120.21,121.51,121.81,120.62,116.90,111.86,108.52,106.25,103.99,102.30,99.16,95.20,90.88,86.81,83.79,81.24,79.14,77.66,76.00,76.59,78.30,80.24,83.33,85.77,87.85,89.91,92.50,94.60,95.73,96.44,97.45,98.14,99.11,100.72,103.05,105.69,108.45,112.71,118.22,124.04,129.52,134.02,138.21,142.65,147.36,152.25,156.85,160.73,163.11,164.50,166.15,167.67
1.23,1.30,1.30,1.33,1.37,1.40,1.40,1.47,1.50,1.50,1.50,1.58,1.60,1.62,1.65,1.69,1.70,1.74,1.80,1.80,1.80,1.85,1.91,1.96,2.11,2.21,2.30,2.42,2.53,2.62,2.72,2.83,2.95,3.03,3.13,3.24,3.36,3.43,3.57,3.69,3.77,3.89,4.01,4.10,4.19,4.30,4.42,4.51,4.60,4.72,4.83,4.85,4.83,4.79,4.75,4.75,4.72,4.68,4.65,4.65,4.62,4.58,4.55,4.55,4.55,4.50,4.47,4.55,4.67,4.76,4.83,4.91,4.99,5.07,5.14,5.22,5.30,5.41,5.50,5.59,5.71,5.78,5.86,5.94,6.02,6.09,6.17,6.25,6.34,6.45,6.53,6.63,6.73,6.81,6.89,6.97,7.04,7.12,7.20,7.27,7.38,7.48,7.56,7.67,7.76,7.84,7.92,8.04,8.15,8.25,8.34,8.45,8.57,8.66,8.73,8.81,8.89,9.03,9.14,9.22,9.30,9.37,9.45,9.56,9.71,9.78,9.86,11.01,13.50,16.79,20.00,22.56,24.71,26.91,29.38,34.44,39.89,44.40,48.57,52.48,55.93,58.77,60.82,62.10,62.88,63.55,64.52,66.11,67.78,69.59,71.52,73.45,74.70,74.97,74.41,73.33,71.48,69.76,68.74,68.62,68.51,69.92,72.25,75.08,77.82,81.40,85.75,90.31,94.51,98.49,103.26,109.38,116.60,123.09,129.04,134.33,139.53,145.55,150.08,153.28,154.79,154.35,151.45,147.30,144.51,143.77,144.89,145.62,144.54,142.19,139.32,136.19,133.21,131.28,130.79,131.52,131.42,130.25,128.17,125.51,122.77,121.39,121.80,123.96,125.74,126.36,125.75,123.60,119.15,114.18,110.93,108.89,107.15,105.37,102.24,98.39,94.10,89.15,85.93,83.15,80.66,78.65,77.02,77.16,78.52,80.66,84.45,87.74,90.78,93.78,97.15,99.91,101.70,102.94,104.15,104.34,104.27,104.38,105.04,106.93,109.52,113.60,118.89,124.48,130.05,134.62,138.80,143.15,147.75,152.13,155.44,157.50,158.57,159.51,161.51,163.71
1.23,1.30,1.30,1.36,1.40,1.40,1.40,1.47,1.50,1.50,1.51,1.58,1.60,1.63,1.70,1.70,1.70,1.74,1.80,1.80,1.81,1.86,1.90,1.91,2.05,2.14,2.22,2.31,2.45,2.55,2.63,2.73,2.88,2.96,3.04,3.15,3.29,3.37,3.50,3.62,3.70,3.78,3.92,4.03,4.11,4.19,4.33,4.44,4.52,4.61,4.75,4.78,4.74,4.69,4.69,4.69,4.63,4.59,4.59,4.59,4.52,4.49,4.49,4.49,4.48,4.44,4.42,4.50,4.65,4.75,4.83,4.91,4.99,5.07,5.14,5.22,5.30,5.37,5.45,5.55,5.69,5.78,5.86,5.94,6.02,6.09,6.17,6.25,6.32,6.40,6.48,6.60,6.72,6.81,6.89,6.97,7.04,7.12,7.20,7.27,7.35,7.43,7.53,7.67,7.76,7.84,7.94,8.09,8.17,8.25,8.35,8.50,8.58,8.66,8.73,8.81,8.89,9.03,9.14,9.22,9.30,9.37,9.45,9.56,9.71,9.78,9.86,10.79,12.89,16.08,19.13,21.74,24.07,26.39,28.69,32.86,37.61,42.04,46.06,49.59,52.69,55.18,56.71,57.73,58.32,58.86,59.79,61.93,64.10,66.13,67.98,69.78,70.89,71.14,70.66,69.73,67.83,66.35,65.65,65.82,66.10,68.45,71.32,74.24,77.05,80.49,85.20,90.05,93.88,97.43,102.78,109.32,116.41,122.62,128.46,133.93,139.44,145.62,150.10,153.40,155.50,156.17,153.58,150.81,148.63,147.60,148.52,148.94,147.58,144.90,141.62,138.55,135.93,134.70,134.93,135.23,134.84,133.54,131.56,129.33,127.14,126.49,127.53,129.97,131.27,131.09,129.54,126.50,121.52,116.96,113.93,112.06,110.74,108.53,105.20,101.40,97.22,91.59,88.04,85.01,82.23,79.74,78.13,77.71,78.57,80.79,84.98,89.08,93.15,97.19,101.24,104.65,107.15,109.00,110.47,110.46,109.61,108.45,107.61,108.58,110.82,114.34,118.85,123.79,129.44,134.40,138.96,143.41,147.74,151.38,153.33,153.66,153.67,154.40,156.75,159.70
1.23,1.30,1.30,1.36,1.40,1.40,1.40,1.47,1.50,1.52,1.58,1.59,1.60,1.63,1.70,1.70,1.70,1.74,1.80,1.80,1.86,1.89,1.90,1.90,2.00,2.08,2.16,2.24,2.33,2.46,2.57,2.66,2.82,2.90,2.97,3.08,3.23,3.31,3.40,3.51,3.64,3.72,3.81,3.93,4.05,4.13,4.22,4.35,4.46,4.54,4.63,4.70,4.68,4.62,4.62,4.62,4.57,4.52,4.52,4.52,4.46,4.42,4.42,4.42,4.37,4.37,4.42,4.50,4.60,4.72,4.83,4.91,4.99,5.07,5.14,5.22,5.30,5.37,5.45,5.54,5.63,5.77,5.86,5.94,6.02,6.09,6.17,6.25,6.32,6.40,6.48,6.57,6.68,6.81,6.89,6.97,7.04,7.12,7.20,7.27,7.35,7.45,7.59,7.68,7.76,7.87,8.00,8.09,8.17,8.25,8.35,8.50,8.58,8.66,8.73,8.81,8.89,9.03,9.14,9.22,9.30,9.37,9.45,9.56,9.71,9.78,9.86,10.62,12.40,15.34,18.45,21.14,23.49,25.81,28.07,31.42,35.37,39.51,43.18,46.20,48.73,50.59,51.32,51.93,52.57,53.55,55.17,57.90,60.50,62.76,64.61,66.17,66.98,66.97,66.22,64.94,63.48,62.69,62.46,62.77,64.28,67.21,70.33,73.32,76.28,80.05,85.51,90.85,94.24,97.45,103.13,109.66,116.12,121.73,126.90,132.25,138.07,144.60,149.66,153.21,156.05,158.31,156.55,154.38,152.54,151.61,152.48,151.94,150.29,147.65,144.17,140.79,138.66,137.96,138.44,138.68,137.86,136.47,134.83,133.34,132.09,132.30,133.61,135.45,136.01,135.13,132.99,129.53,124.41,120.61,117.92,115.89,113.96,110.87,107.27,103.51,99.52,94.28,89.98,86.49,83.61,81.02,79.22,78.16,78.39,80.35,84.58,88.93,93.39,97.94,102.48,106.65,109.42,111.09,112.14,112.42,111.94,111.47,111.38,111.52,112.96,115.05,117.86,121.71,127.14,132.94,138.41,143.06,147.10,149.51,150.27,149.83,149.55,150.02,152.06,155.35
1.26,1.30,1.30,1.36,1.40,1.40,1.40,1.47,1.50,1.52,1.60,1.60,1.60,1.63,1.70,1.70,1.73,1.77,1.80,1.80,1.87,1.90,1.90,1.90,1.98,2.03,2.09,2.17,2.25,2.39,2.50,2.59,2.71,2.82,2.91,3.01,3.13,3.24,3.32,3.42,3.54,3.65,3.73,3.85,3.98,4.06,4.14,4.27,4.39,4.47,4.55,4.60,4.59,4.56,4.56,4.53,4.49,4.46,4.46,4.46,4.40,4.36,4.36,4.36,4.32,4.35,4.42,4.50,4.58,4.69,4.79,4.87,4.98,5.07,5.14,5.22,5.30,5.37,5.45,5.53,5.61,5.73,5.82,5.91,6.02,6.09,6.17,6.25,6.32,6.40,6.48,6.56,6.65,6.77,6.85,6.95,7.04,7.12,7.20,7.31,7.39,7.49,7.61,7.68,7.79,7.90,8.01,8.09,8.17,8.25,8.35,8.50,8.58,8.66,8.73,8.81,8.89,9.03,9.14,9.22,9.30,9.37,9.45,9.54,9.67,9.78,9.86,10.50,12.05,14.84,17.79,20.42,22.79,25.11,27.29,29.99,33.26,36.98,40.33,43.02,45.24,46.87,47.49,47.94,48.65,49.73,51.24,53.66,56.44,58.98,60.97,62.34,62.84,62.36,60.92,58.69,57.70,58.04,59.02,60.27,62.69,65.96,69.26,72.46,75.86,80.41,86.21,91.56,94.83,97.95,103.48,109.66,115.52,120.48,125.13,129.88,135.46,142.82,148.60,152.96,156.61,159.72,159.52,158.10,156.50,155.35,155.49,154.44,152.65,150.24,147.33,144.51,143.53,143.70,144.41,144.54,143.35,141.42,139.30,137.70,137.28,138.11,139.61,141.13,141.21,139.62,136.93,133.27,128.55,125.11,122.07,119.07,115.76,111.91,107.99,104.13,100.25,95.61,91.24,87.77,85.01,82.38,80.19,78.80,78.63,80.08,83.94,88.17,92.58,97.12,101.74,106.54,109.71,111.53,112.65,113.55,114.17,114.62,114.97,115.31,116.35,117.67,119.55,122.60,127.60,133.37,138.77,142.90,145.87,147.18,147.34,146.83,146.57,147.23,149.06,152.14
1.30,1.30,1.30,1.36,1.40,1.40,1.41,1.47,1.50,1.52,1.60,1.60,1.60,1.63,1.70,1.70,1.76,1.80,1.80,1.80,1.87,1.90,1.90,1.91,1.98,2.00,2.04,2.11,2.18,2.32,2.43,2.52,2.59,2.74,2.84,2.92,3.01,3.16,3.25,3.33,3.43,3.58,3.67,3.79,3.92,4.00,4.07,4.21,4.32,4.41,4.48,4.49,4.49,4.49,4.49,4.42,4.39,4.39,4.39,4.39,4.33,4.29,4.29,4.29,4.30,4.35,4.42,4.50,4.58,4.66,4.73,4.82,4.97,5.06,5.14,5.22,5.30,5.37,5.45,5.53,5.61,5.68,5.76,5.87,6.01,6.09,6.17,6.25,6.32,6.40,6.48,6.56,6.63,6.71,6.79,6.93,7.04,7.12,7.20,7.35,7.45,7.53,7.61,7.68,7.82,7.94,8.01,8.09,8.17,8.25,8.35,8.50,8.58,8.66,8.73,8.81,8.89,9.03,9.14,9.22,9.30,9.37,9.45,9.53,9.61,9.76,9.86,10.40,11.75,14.41,17.11,19.62,21.97,24.24,26.31,28.52,31.21,34.46,37.51,39.95,42.00,43.61,44.46,44.91,45.72,46.74,47.80,49.50,52.26,55.00,57.15,58.31,58.44,57.42,55.25,52.05,51.63,53.28,55.75,58.26,61.34,64.78,68.20,71.68,75.70,81.19,87.09,92.19,95.51,98.68,103.78,109.38,114.65,118.96,123.23,127.22,132.26,140.46,147.00,152.45,157.01,160.66,162.26,161.80,160.49,159.00,158.06,156.70,154.84,152.78,150.85,149.07,149.50,150.59,151.44,151.40,149.96,147.40,144.49,142.44,142.67,143.84,145.37,146.69,146.45,144.29,141.13,137.33,133.18,129.83,126.08,121.72,116.74,112.22,107.96,103.97,100.14,96.15,92.09,88.88,86.32,83.72,81.12,79.54,79.09,79.93,83.17,87.05,91.17,95.43,99.91,105.16,108.75,110.94,112.39,114.00,115.93,117.38,118.14,119.30,120.27,121.27,122.69,125.15,129.53,134.73,139.47,142.72,144.25,144.62,144.50,144.25,144.20,145.32,147.07,149.77
1.30,1.30,1.30,1.36,1.40,1.41,1.46,1.49,1.50,1.52,1.60,1.60,1.64,1.68,1.70,1.70,1.76,1.80,1.80,1.80,1.87,1.90,1.92,1.97,1.99,2.00,2.04,2.10,2.13,2.22,2.34,2.45,2.53,2.63,2.75,2.86,2.94,3.04,3.17,3.27,3.36,3.52,3.60,3.69,3.80,3.93,4.01,4.10,4.22,4.34,4.42,4.43,4.43,4.43,4.43,4.36,4.33,4.33,4.33,4.27,4.24,4.23,4.23,4.23,4.28,4.35,4.42,4.50,4.58,4.66,4.73,4.81,4.92,5.00,5.10,5.22,5.30,5.37,5.45,5.53,5.61,5.68,5.76,5.85,5.95,6.02,6.15,6.25,6.32,6.40,6.48,6.56,6.63,6.72,6.85,6.95,7.04,7.12,7.20,7.35,7.45,7.53,7.61,7.68,7.82,7.94,8.01,8.09,8.17,8.25,8.35,8.50,8.58,8.66,8.73,8.81,8.89,8.98,9.10,9.22,9.30,9.37,9.45,9.53,9.61,9.71,9.83,10.21,11.16,13.43,16.09,18.48,20.56,22.39,24.21,26.55,29.23,32.05,34.71,36.95,38.86,40.36,41.26,42.14,43.20,44.37,45.57,47.32,49.37,51.41,53.05,53.48,52.65,51.51,50.32,49.23,50.25,52.56,55.40,58.24,61.23,64.41,67.63,71.25,76.22,82.04,87.76,92.58,95.89,99.17,103.62,108.26,112.64,116.75,121.17,125.21,129.75,136.32,143.29,149.81,155.69,160.60,162.79,164.45,164.58,163.25,161.32,159.11,157.23,155.74,154.63,154.42,155.24,156.05,156.28,155.74,154.71,152.92,150.78,149.07,148.88,148.92,149.33,150.07,149.78,148.41,145.37,140.89,136.04,132.27,127.76,122.55,116.98,111.96,107.65,103.67,99.80,96.05,92.24,89.16,86.71,84.35,82.10,80.35,79.58,80.17,82.52,85.71,89.26,93.13,97.61,101.96,105.67,108.58,110.60,112.11,113.65,115.59,118.07,120.91,122.97,124.68,126.41,128.67,131.80,135.41,138.82,141.35,141.90,141.95,141.80,141.69,141.94,143.89,146.35,149.82
1.30,1.30,1.33,1.37,1.40,1.41,1.49,1.50,1.50,1.52,1.60,1.60,1.65,1.70,1.70,1.70,1.76,1.80,1.81,1.83,1.88,1.90,1.93,2.00,2.00,2.00,2.04,2.10,2.10,2.17,2.26,2.36,2.46,2.54,2.67,2.80,2.87,2.95,3.09,3.21,3.29,3.42,3.53,3.61,3.71,3.84,3.94,4.02,4.12,4.25,4.35,4.37,4.37,4.37,4.37,4.29,4.27,4.27,4.26,4.18,4.17,4.17,4.17,4.17,4.26,4.35,4.42,4.50,4.58,4.66,4.73,4.81,4.89,4.97,5.07,5.19,5.30,5.37,5.45,5.53,5.61,5.68,5.76,5.84,5.92,5.99,6.12,6.23,6.32,6.40,6.48,6.56,6.64,6.75,6.88,6.97,7.04,7.13,7.23,7.36,7.45,7.53,7.61,7.68,7.82,7.94,8.01,8.09,8.17,8.25,8.34,8.47,8.57,8.66,8.73,8.81,8.89,8.96,9.08,9.22,9.30,9.37,9.45,9.53,9.61,9.68,9.82,10.10,10.78,12.66,15.13,17.34,19.14,20.50,22.02,24.46,27.22,29.86,31.99,33.93,35.69,37.20,38.36,39.52,40.73,41.99,43.33,45.03,46.71,48.31,49.57,49.65,48.61,47.72,47.39,47.93,49.63,52.22,55.20,58.21,61.14,64.22,67.41,71.23,76.95,82.81,88.20,92.65,95.87,99.06,102.96,106.80,110.35,114.03,118.80,123.21,127.70,133.32,140.41,147.12,153.65,159.80,162.92,165.85,167.45,167.44,165.93,163.02,160.74,159.24,158.50,158.94,159.53,159.64,158.87,156.83,155.71,154.61,153.48,152.45,152.36,152.02,151.83,152.00,151.67,150.73,148.16,143.80,138.11,133.91,128.82,123.00,116.96,111.65,107.36,103.46,99.65,96.15,92.63,89.70,87.35,85.32,83.59,81.81,80.65,80.69,82.64,85.22,88.06,91.20,95.03,98.75,102.33,105.43,107.67,109.21,110.89,113.36,116.83,120.70,124.21,127.04,129.29,131.35,133.55,135.59,137.40,138.83,138.51,138.37,138.51,139.07,140.29,143.11,146.41,150.78
1.30,1.30,1.38,1.40,1.40,1.41,1.49,1.50,1.50,1.52,1.60,1.60,1.65,1.70,1.70,1.70,1.76,1.80,1.82,1.89,1.90,1.90,1.93,2.00,2.00,2.00,2.04,2.10,2.10,2.17,2.20,2.25,2.40,2.48,2.61,2.73,2.81,2.89,3.03,3.14,3.22,3.30,3.45,3.55,3.63,3.71,3.86,3.96,4.04,4.13,4.28,4.30,4.30,4.30,4.30,4.23,4.20,4.20,4.20,4.12,4.10,4.10,4.10,4.10,4.24,4.35,4.42,4.50,4.58,4.66,4.73,4.81,4.89,4.97,5.04,5.14,5.29,5.37,5.45,5.53,5.61,5.68,5.76,5.84,5.92,5.99,6.07,6.20,6.32,6.40,6.48,6.56,6.67,6.81,6.89,6.97,7.04,7.14,7.29,7.37,7.45,7.53,7.61,7.68,7.82,7.94,8.01,8.09,8.17,8.25,8.32,8.40,8.56,8.66,8.73,8.81,8.89,8.96,9.08,9.22,9.30,9.37,9.45,9.53,9.61,9.68,9.82,10.05,10.58,12.06,14.23,16.20,17.71,18.58,19.76,22.23,25.17,27.86,29.35,30.90,32.49,34.11,35.72,37.04,38.30,39.62,41.08,42.64,44.24,45.65,46.63,46.71,46.15,45.83,46.27,48.00,49.70,52.21,55.14,58.14,61.08,64.20,67.49,71.56,77.87,83.49,88.42,92.46,95.47,98.42,101.84,105.03,107.81,110.85,116.14,121.22,126.07,131.34,138.28,144.40,150.95,158.34,162.69,166.13,169.23,171.59,171.75,168.27,165.25,163.25,162.45,162.69,162.49,161.55,159.43,154.97,153.32,152.86,152.92,152.88,153.39,153.33,153.00,152.64,152.25,151.42,149.64,146.14,139.46,134.83,129.34,123.13,116.70,111.29,107.09,103.33,99.69,96.44,93.25,90.47,88.22,86.59,85.54,83.85,82.22,81.46,83.46,85.49,87.50,89.60,92.20,95.54,98.76,101.56,103.71,105.41,107.71,110.75,114.54,118.84,124.15,128.45,131.41,133.27,134.85,135.31,135.28,135.25,134.20,133.98,134.68,136.39,139.18,142.92,147.17,152.55
1.30,1.30,1.38,1.40,1.40,1.41,1.49,1.50,1.53,1.57,1.60,1.60,1.65,1.70,1.70,1.70,1.76,1.80,1.82,1.89,1.90,1.90,1.93,2.00,2.00,2.04,2.07,2.10,2.10,2.17,2.20,2.23,2.34,2.41,2.51,2.63,2.75,2.82,2.92,3.04,3.16,3.23,3.34,3.46,3.56,3.64,3.75,3.87,3.97,4.06,4.22,4.24,4.24,4.23,4.18,4.15,4.14,4.12,4.07,4.04,4.04,4.04,4.05,4.10,4.20,4.29,4.38,4.50,4.58,4.66,4.73,4.81,4.89,4.97,5.04,5.13,5.24,5.31,5.42,5.53,5.61,5.68,5.76,5.84,5.92,5.99,6.07,6.19,6.32,6.40,6.48,6.56,6.67,6.81,6.89,6.97,7.04,7.14,7.29,7.37,7.45,7.53,7.61,7.68,7.82,7.94,8.01,8.09,8.17,8.25,8.32,8.40,8.56,8.66,8.73,8.81,8.89,8.96,9.06,9.17,9.29,9.37,9.45,9.53,9.61,9.68,9.78,9.96,10.45,11.92,13.69,15.34,16.76,17.90,19.20,21.41,23.87,26.09,27.80,29.06,30.29,31.68,33.40,34.78,36.24,37.73,39.14,40.45,41.74,42.97,43.96,44.18,44.17,44.80,46.13,48.00,49.79,52.30,55.16,58.08,61.07,64.28,67.64,71.76,78.15,83.18,87.67,91.44,94.34,97.09,100.05,102.91,105.64,108.75,113.95,119.60,125.45,131.56,138.36,144.11,150.07,156.80,161.67,165.11,168.18,170.77,171.81,168.88,166.46,164.78,163.63,162.16,159.87,156.77,153.03,149.28,147.42,146.71,146.69,146.83,148.20,149.83,150.96,151.17,151.16,150.83,149.74,147.01,140.77,135.45,129.67,123.53,117.38,112.54,108.67,105.15,101.72,98.47,95.62,93.20,91.12,89.22,87.73,86.08,84.55,83.45,83.52,85.14,86.94,88.57,90.31,93.31,96.06,98.48,100.71,103.60,106.93,111.03,115.84,120.50,125.00,128.66,131.12,132.02,132.54,132.37,131.86,131.26,130.37,131.05,132.80,135.45,139.07,143.30,148.10,154.20
1.30,1.30,1.38,1.40,1.41,1.43,1.49,1.50,1.54,1.60,1.60,1.60,1.65,1.70,1.70,1.72,1.77,1.80,1.82,1.89,1.90,1.91,1.94,2.00,2.00,2.06,2.10,2.10,2.10,2.17,2.20,2.22,2.30,2.36,2.43,2.53,2.66,2.76,2.84,2.94,3.07,3.17,3.25,3.37,3.50,3.58,3.65,3.79,3.91,4.00,4.13,4.17,4.17,4.15,4.08,4.07,4.07,4.05,3.97,3.97,3.97,3.98,4.02,4.09,4.17,4.25,4.34,4.48,4.55,4.65,4.73,4.81,4.89,4.97,5.04,5.12,5.20,5.27,5.39,5.50,5.58,5.68,5.76,5.84,5.92,5.99,6.09,6.21,6.32,6.40,6.48,6.57,6.68,6.81,6.89,6.97,7.04,7.14,7.29,7.37,7.45,7.53,7.61,7.68,7.81,7.92,8.01,8.09,8.17,8.25,8.32,8.40,8.54,8.64,8.73,8.81,8.89,8.96,9.04,9.13,9.27,9.37,9.45,9.53,9.61,9.68,9.76,9.89,10.32,11.77,13.28,14.73,16.11,17.46,18.83,20.71,22.66,24.42,26.21,27.37,28.44,29.69,31.33,32.73,34.30,35.87,37.27,38.42,39.52,40.61,41.60,42.18,42.85,44.22,46.09,48.00,49.81,52.32,55.14,57.99,60.97,64.18,67.50,71.58,77.97,82.55,86.54,89.94,92.73,95.36,98.06,100.84,103.78,107.22,112.55,118.69,125.28,132.00,138.72,144.09,149.42,155.43,160.31,163.58,166.34,168.65,169.83,167.58,165.71,164.17,162.50,159.66,155.78,151.26,146.67,143.37,141.12,139.94,139.72,140.22,142.04,144.48,146.52,147.48,148.22,148.63,148.32,146.52,141.46,136.08,130.49,124.74,118.99,114.62,111.05,107.83,104.70,101.59,98.95,96.79,94.84,92.66,90.42,88.35,86.59,85.23,84.12,85.04,86.44,87.78,89.00,91.40,93.75,96.03,98.41,101.82,105.90,110.81,116.35,121.21,124.91,127.67,129.28,129.26,129.24,128.87,128.33,127.80,127.57,129.07,131.69,135.16,139.28,143.79,149.08,155.80
1.30,1.30,1.38,1.40,1.43,1.49,1.50,1.50,1.54,1.60,1.60,1.60,1.65,1.70,1.71,1.78,1.80,1.80,1.82,1.89,1.90,1.94,1.99,2.00,2.00,2.06,2.10,2.10,2.10,2.17,2.20,2.22,2.30,2.31,2.36,2.44,2.54,2.68,2.77,2.85,2.95,3.10,3.18,3.31,3.44,3.51,3.59,3.73,3.85,3.92,4.01,4.08,4.11,4.09,4.01,4.01,4.01,3.98,3.91,3.91,3.91,3.95,4.02,4.09,4.17,4.25,4.33,4.41,4.49,4.62,4.73,4.81,4.89,4.97,5.04,5.12,5.20,5.27,5.36,5.44,5.52,5.67,5.76,5.84,5.92,5.99,6.13,6.24,6.32,6.40,6.48,6.61,6.73,6.81,6.89,6.97,7.04,7.14,7.29,7.37,7.45,7.53,7.61,7.68,7.77,7.88,8.01,8.09,8.17,8.25,8.32,8.40,8.49,8.62,8.73,8.81,8.89,8.96,9.04,9.12,9.21,9.35,9.45,9.53,9.61,9.68,9.76,9.85,10.18,11.58,13.05,14.47,15.88,17.33,18.65,20.09,21.51,22.87,24.51,25.85,27.09,28.33,29.62,31.01,32.51,34.04,35.48,36.64,37.74,38.72,39.68,40.95,42.52,44.28,46.14,48.00,49.72,52.23,55.06,57.85,60.73,63.80,66.93,70.80,77.15,81.49,84.92,87.79,90.44,93.06,95.80,98.86,102.37,106.50,112.35,118.87,125.72,132.64,139.36,144.32,149.02,154.32,158.47,161.36,163.49,164.87,165.10,163.61,162.13,160.40,158.00,154.42,149.79,145.08,140.83,137.38,134.43,132.52,131.99,133.19,134.77,136.63,138.59,140.52,142.54,144.03,144.67,144.01,141.22,136.75,132.06,127.16,121.94,117.87,114.55,111.69,109.04,106.27,103.63,101.56,99.70,97.27,93.86,90.64,88.11,86.58,85.63,85.39,86.03,87.32,88.49,89.89,91.99,94.52,97.11,99.99,104.32,109.64,115.39,120.26,123.32,124.93,125.23,124.37,124.66,124.67,124.72,125.17,126.32,128.46,131.68,135.75,139.91,144.43,150.11,157.35
1.31,1.35,1.39,1.40,1.44,1.50,1.50,1.50,1.54,1.60,1.60,1.64,1.68,1.70,1.71,1.79,1.80,1.80,1.82,1.89,1.90,1.95,2.00,2.00,2.00,2.06,2.10,2.11,2.15,2.18,2.20,2.22,2.30,2.30,2.32,2.38,2.46,2.57,2.69,2.79,2.88,3.03,3.12,3.22,3.33,3.45,3.53,3.63,3.75,3.86,3.94,4.01,4.02,3.98,3.95,3.95,3.95,3.92,3.85,3.85,3.88,3.94,4.02,4.09,4.17,4.25,4.32,4.40,4.48,4.58,4.70,4.81,4.89,4.97,5.04,5.12,5.20,5.27,5.35,5.43,5.51,5.67,5.76,5.84,5.92,5.99,6.14,6.25,6.32,6.40,6.48,6.61,6.73,6.81,6.89,6.97,7.04,7.13,7.24,7.36,7.45,7.53,7.61,7.68,7.76,7.86,7.97,8.09,8.17,8.25,8.32,8.40,8.48,8.58,8.70,8.81,8.89,8.96,9.04,9.12,9.20,9.31,9.42,9.53,9.61,9.68,9.76,9.84,10.13,11.40,12.81,14.22,15.63,17.10,18.45,19.89,21.28,22.57,23.99,25.29,26.54,27.78,29.01,30.32,31.67,33.01,34.28,35.60,36.93,38.15,39.32,40.88,42.59,44.25,45.92,47.73,49.39,51.78,54.49,57.24,60.06,63.03,66.11,69.79,75.31,79.45,82.68,85.49,88.38,91.62,94.82,98.26,102.18,107.08,113.00,119.41,126.06,132.64,138.27,142.94,147.41,152.07,155.55,158.11,159.81,160.69,160.85,159.80,158.19,156.06,153.40,149.24,144.28,139.71,136.00,132.73,129.44,127.09,126.15,127.01,128.43,129.98,131.66,133.45,135.16,137.03,138.70,139.67,138.99,136.91,133.52,129.45,125.47,121.65,118.50,115.66,112.93,110.06,107.40,104.93,102.55,100.12,96.63,92.78,89.60,87.81,86.80,86.39,86.65,87.46,88.37,89.58,91.40,93.72,96.29,98.58,101.96,106.90,112.99,117.08,119.75,120.87,120.65,119.56,120.26,121.01,121.87,123.09,125.83,128.68,132.19,136.34,140.59,145.38,151.64,159.34
1.33,1.40,1.40,1.40,1.44,1.50,1.50,1.51,1.55,1.60,1.60,1.68,1.70,1.70,1.71,1.79,1.80,1.81,1.83,1.90,1.90,1.95,2.00,2.00,2.00,2.06,2.10,2.11,2.19,2.20,2.20,2.22,2.30,2.30,2.31,2.34,2.41,2.47,2.61,2.72,2.81,2.95,3.05,3.13,3.23,3.37,3.46,3.54,3.65,3.78,3.87,3.95,3.94,3.88,3.88,3.88,3.87,3.84,3.78,3.78,3.84,3.93,4.02,4.09,4.17,4.25,4.32,4.40,4.48,4.56,4.66,4.79,4.87,4.96,5.04,5.12,5.20,5.27,5.35,5.43,5.53,5.67,5.76,5.84,5.92,6.01,6.14,6.25,6.32,6.40,6.48,6.60,6.72,6.81,6.89,6.97,7.04,7.12,7.20,7.34,7.44,7.53,7.61,7.68,7.76,7.84,7.93,8.08,8.17,8.25,8.32,8.40,8.48,8.56,8.67,8.81,8.89,8.96,9.04,9.12,9.20,9.27,9.40,9.53,9.61,9.68,9.76,9.84,10.11,11.24,12.60,13.99,15.39,16.86,18.29,19.80,21.24,22.53,23.76,24.98,26.22,27.47,28.71,29.95,31.17,32.31,33.34,34.82,36.35,37.80,39.19,40.84,42.46,43.90,45.35,47.13,48.79,50.99,53.53,56.28,59.12,62.05,65.18,68.77,73.41,77.24,80.39,83.40,86.83,90.84,94.59,98.39,102.59,107.98,113.79,119.91,126.16,132.30,136.74,140.94,144.97,148.82,152.06,154.44,155.85,156.44,156.75,156.01,154.11,151.45,148.42,143.80,138.75,134.45,131.22,128.14,124.82,122.29,121.03,121.45,122.82,124.24,125.72,127.23,128.37,130.16,132.45,134.77,136.00,136.21,134.41,131.53,128.73,125.30,122.23,119.28,116.31,113.23,110.40,107.51,104.68,102.21,98.92,94.81,91.20,89.06,87.87,87.49,87.56,87.96,88.64,89.87,91.38,93.22,95.39,97.24,99.58,103.66,109.34,112.93,115.29,116.16,115.85,115.08,116.29,117.91,119.74,121.84,125.98,129.42,133.05,137.14,141.47,146.54,153.29,161.35
1.33,1.40,1.40,1.40,1.44,1.50,1.50,1.55,1.59,1.60,1.60,1.68,1.70,1.70,1.71,1.79,1.80,1.83,1.88,1.90,1.90,1.95,2.00,2.00,2.00,2.06,2.10,2.11,2.19,2.20,2.20,2.22,2.30,2.30,2.34,2.39,2.40,2.42,2.54,2.66,2.74,2.83,2.97,3.07,3.15,3.24,3.38,3.48,3.56,3.66,3.80,3.89,3.88,3.82,3.82,3.82,3.78,3.73,3.72,3.72,3.78,3.89,4.02,4.09,4.17,4.25,4.32,4.40,4.48,4.56,4.64,4.73,4.81,4.94,5.04,5.12,5.20,5.27,5.35,5.45,5.59,5.68,5.76,5.84,5.93,6.07,6.16,6.25,6.32,6.40,6.48,6.57,6.68,6.81,6.89,6.97,7.04,7.12,7.20,7.29,7.41,7.53,7.61,7.68,7.76,7.84,7.93,8.08,8.17,8.25,8.32,8.40,8.48,8.56,8.67,8.81,8.89,8.96,9.04,9.12,9.20,9.27,9.40,9.53,9.61,9.68,9.76,9.84,10.09,11.12,12.48,13.83,15.20,16.67,18.25,19.80,21.22,22.46,23.64,24.81,26.05,27.35,28.65,29.89,31.04,32.01,32.77,34.30,35.84,37.33,38.77,40.22,41.56,42.71,43.95,45.72,47.53,49.42,51.72,54.58,57.67,60.69,64.07,67.87,71.91,75.16,78.31,81.96,86.56,91.40,95.69,99.75,103.93,108.98,114.49,120.05,125.65,131.35,135.00,138.17,140.91,143.49,147.56,150.18,151.61,152.23,152.84,152.20,149.87,146.40,142.47,137.60,132.90,129.00,125.99,122.96,120.29,118.10,116.83,117.11,118.72,120.35,121.95,123.42,124.22,125.03,126.77,129.40,132.06,133.38,133.81,133.08,130.94,128.24,125.10,121.80,118.50,115.18,111.76,108.70,105.94,103.17,100.21,96.62,93.14,90.43,88.85,88.54,88.74,89.17,89.80,91.16,92.27,93.15,93.99,95.84,97.63,99.90,103.00,107.33,109.50,110.41,110.75,111.46,113.38,116.06,119.18,122.61,127.49,131.12,134.63,138.49,142.87,148.08,154.98,163.17
1.33,1.40,1.40,1.43,1.46,1.50,1.50,1.57,1.60,1.60,1.60,1.68,1.70,1.71,1.75,1.79,1.80,1.84,1.90,1.90,1.90,1.95,2.00,2.00,2.04,2.08,2.10,2.11,2.19,2.20,2.22,2.26,2.30,2.30,2.35,2.40,2.40,2.40,2.50,2.59,2.67,2.75,2.87,2.98,3.08,3.16,3.32,3.41,3.49,3.58,3.73,3.82,3.81,3.76,3.76,3.76,3.70,3.66,3.66,3.69,3.76,3.86,3.98,4.09,4.17,4.25,4.32,4.40,4.48,4.56,4.63,4.71,4.79,4.90,5.02,5.12,5.20,5.27,5.35,5.46,5.61,5.68,5.76,5.84,5.92,6.04,6.16,6.25,6.32,6.40,6.48,6.56,6.67,6.81,6.89,6.97,7.04,7.12,7.20,7.27,7.40,7.53,7.61,7.68,7.76,7.84,7.92,8.04,8.16,8.25,8.32,8.40,8.48,8.56,8.65,8.77,8.88,8.96,9.04,9.12,9.20,9.27,9.38,9.50,9.61,9.68,9.76,9.82,10.03,10.96,12.27,13.34,14.40,15.90,18.07,19.80,21.19,22.35,23.51,24.67,25.91,27.22,28.50,29.73,30.80,31.63,32.24,33.78,35.30,36.65,37.80,38.91,40.25,41.41,42.61,44.32,46.21,48.14,50.43,53.27,56.51,59.70,63.32,67.32,71.36,74.53,77.73,81.60,86.65,91.75,96.52,100.88,104.99,109.56,114.56,119.51,124.45,129.63,132.84,135.23,137.09,138.80,141.47,143.27,144.53,145.48,146.38,145.93,143.71,140.21,136.06,131.63,127.45,124.01,121.39,118.96,116.68,114.44,112.85,112.95,114.66,116.42,118.08,119.50,120.13,120.60,121.64,123.40,125.63,128.47,130.55,131.49,131.05,129.34,126.57,123.42,120.20,116.84,113.39,110.38,107.70,105.02,102.30,99.02,95.85,93.33,91.63,90.42,90.21,91.05,92.53,93.93,94.79,95.14,95.18,96.14,97.10,98.29,100.02,103.17,105.26,106.73,107.97,109.51,112.22,115.85,120.18,124.95,129.63,133.15,136.54,140.27,144.64,150.54,157.80,165.86
1.33,1.40,1.40,1.46,1.50,1.50,1.50,1.57,1.60,1.60,1.61,1.68,1.70,1.73,1.80,1.80,1.80,1.84,1.90,1.90,1.91,1.95,2.00,2.00,2.08,2.10,2.10,2.11,2.19,2.20,2.24,2.30,2.30,2.30,2.35,2.40,2.40,2.41,2.47,2.54,2.61,2.69,2.76,2.89,3.02,3.10,3.24,3.35,3.43,3.51,3.66,3.75,3.74,3.69,3.69,3.69,3.64,3.59,3.61,3.68,3.76,3.84,3.93,4.08,4.16,4.24,4.32,4.40,4.48,4.56,4.63,4.71,4.79,4.87,4.99,5.12,5.20,5.27,5.35,5.46,5.61,5.68,5.76,5.84,5.92,5.99,6.14,6.25,6.32,6.40,6.48,6.56,6.66,6.80,6.89,6.97,7.04,7.12,7.20,7.27,7.40,7.52,7.61,7.68,7.76,7.84,7.91,7.99,8.13,8.24,8.32,8.40,8.48,8.56,8.63,8.72,8.87,8.95,9.02,9.08,9.15,9.21,9.28,9.37,9.50,9.57,9.63,9.67,9.83,10.73,11.91,12.59,13.27,14.83,17.68,19.69,21.12,22.22,23.38,24.52,25.75,27.04,28.27,29.50,30.49,31.20,31.73,33.27,34.69,35.75,36.47,37.24,38.69,39.98,41.27,42.95,44.96,47.10,49.49,52.27,55.57,58.94,62.77,66.99,71.24,74.55,77.80,81.71,86.85,91.95,97.12,101.77,105.80,109.88,114.30,118.58,122.84,127.42,130.29,132.06,133.26,134.27,134.86,135.52,136.55,137.87,139.03,138.75,136.88,133.73,129.73,125.97,122.35,119.37,117.19,115.49,113.49,111.07,109.09,108.96,110.70,112.52,114.20,115.54,116.10,116.52,116.90,117.44,118.57,122.74,126.02,128.30,129.84,129.32,127.23,124.51,121.60,118.42,115.26,112.44,109.89,107.41,104.85,101.82,98.99,96.90,95.15,92.75,91.96,93.25,95.87,97.36,98.07,98.09,97.54,97.30,97.40,97.91,98.88,100.26,102.31,104.44,106.52,108.50,111.99,116.48,121.87,127.82,131.95,135.26,138.59,142.32,146.68,153.50,161.17,168.95
1.38,1.40,1.40,1.46,1.50,1.50,1.50,1.57,1.60,1.62,1.67,1.69,1.70,1.73,1.80,1.80,1.80,1.84,1.90,1.90,1.95,1.99,2.00,2.00,2.08,2.10,2.10,2.11,2.19,2.20,2.24,2.30,2.30,2.30,2.35,2.40,2.41,2.46,2.49,2.51,2.54,2.62,2.70,2.82,2.95,3.03,3.13,3.25,3.36,3.44,3.54,3.62,3.64,3.63,3.63,3.57,3.54,3.55,3.61,3.68,3.76,3.84,3.92,4.02,4.10,4.21,4.32,4.40,4.48,4.56,4.63,4.71,4.79,4.91,5.03,5.12,5.20,5.27,5.35,5.46,5.61,5.68,5.76,5.84,5.92,5.99,6.14,6.25,6.32,6.40,6.48,6.56,6.64,6.75,6.88,6.97,7.04,7.12,7.20,7.27,7.37,7.48,7.61,7.68,7.76,7.84,7.91,7.99,8.09,8.21,8.32,8.40,8.48,8.56,8.63,8.71,8.81,8.85,8.84,8.80,8.77,8.73,8.74,8.74,8.73,8.70,8.66,8.64,8.87,10.11,10.72,11.09,11.75,13.36,16.21,18.89,20.89,22.03,23.18,24.25,25.38,26.59,27.83,29.01,29.97,30.69,31.22,32.76,33.69,34.16,34.42,35.20,36.60,38.05,39.67,41.80,44.45,46.88,49.36,52.13,55.34,58.56,62.53,67.06,71.31,74.61,77.89,81.75,86.66,91.76,97.04,101.77,105.79,109.83,113.63,117.10,120.45,124.04,126.32,127.80,128.61,128.94,129.34,129.84,130.70,131.87,133.03,132.75,131.19,128.58,125.20,121.64,118.36,115.78,113.94,112.24,110.44,108.19,106.16,105.58,107.26,109.00,110.52,111.66,112.31,112.75,113.11,113.56,114.43,117.63,120.84,123.65,125.83,127.23,126.52,124.73,122.53,120.38,117.96,115.69,113.44,110.86,108.26,105.50,102.82,100.37,98.23,95.71,94.65,95.67,98.83,100.81,101.71,101.48,100.14,99.31,99.10,99.42,100.21,101.49,103.52,105.43,107.17,108.95,112.87,117.90,123.72,129.77,133.55,136.87,140.60,144.93,149.53,157.13,164.89,172.19
1.40,1.40,1.40,1.46,1.50,1.50,1.53,1.58,1.60,1.62,1.70,1.70,1.70,1.73,1.80,1.80,1.82,1.86,1.90,1.90,1.97,2.00,2.00,2.00,2.08,2.10,2.11,2.14,2.19,2.20,2.24,2.30,2.30,2.33,2.37,2.40,2.41,2.48,2.50,2.50,2.52,2.59,2.65,2.74,2.86,2.97,3.04,3.16,3.27,3.38,3.45,3.53,3.56,3.56,3.56,3.49,3.48,3.53,3.61,3.68,3.76,3.84,3.92,3.99,4.07,4.18,4.29,4.37,4.47,4.56,4.63,4.71,4.79,4.93,5.04,5.12,5.20,5.27,5.35,5.46,5.61,5.68,5.76,5.84,5.92,5.99,6.11,6.23,6.32,6.40,6.48,6.56,6.63,6.72,6.84,6.95,7.04,7.12,7.20,7.27,7.35,7.45,7.57,7.68,7.76,7.84,7.90,7.93,7.95,8.00,8.05,8.08,8.12,8.15,8.18,8.20,8.22,8.22,8.18,8.10,8.03,7.95,7.92,7.89,7.82,7.74,7.66,7.61,7.75,8.64,9.19,9.60,10.31,11.89,14.89,17.89,20.18,21.44,22.59,23.70,24.84,26.02,27.20,28.33,29.36,30.13,30.61,31.73,32.27,32.36,32.34,33.08,34.57,36.21,38.03,40.18,42.61,45.35,48.43,51.78,55.01,58.30,62.40,67.09,71.33,74.56,77.74,81.40,85.99,90.92,95.94,100.41,104.29,108.48,112.19,115.25,117.87,120.45,121.88,122.75,123.11,123.08,123.25,124.04,125.13,126.33,127.46,127.31,125.96,123.67,120.79,117.48,114.60,112.34,110.65,108.98,107.26,105.03,102.96,102.30,103.97,105.70,107.19,108.22,108.81,109.10,109.38,109.79,110.48,113.11,116.29,119.54,122.47,125.02,126.19,125.92,124.51,123.17,121.22,119.21,117.19,115.09,112.10,108.83,105.77,103.21,100.78,98.17,96.68,97.07,100.24,103.24,105.13,105.70,104.92,104.06,103.54,103.36,103.55,104.20,105.64,107.16,109.04,112.11,116.09,120.89,126.15,131.41,135.04,138.70,142.89,147.78,153.30,161.16,168.48,175.14
1.40,1.40,1.40,1.46,1.50,1.51,1.59,1.60,1.60,1.62,1.70,1.70,1.70,1.73,1.80,1.80,1.86,1.90,1.90,1.90,1.97,2.00,2.00,2.00,2.08,2.10,2.14,2.20,2.20,2.20,2.24,2.30,2.30,2.38,2.40,2.40,2.41,2.48,2.50,2.50,2.52,2.59,2.60,2.65,2.75,2.90,2.98,3.06,3.17,3.31,3.39,3.47,3.50,3.50,3.50,3.42,3.45,3.53,3.61,3.68,3.76,3.84,3.92,3.99,4.07,4.15,4.22,4.30,4.46,4.56,4.63,4.71,4.79,4.93,5.04,5.12,5.20,5.27,5.35,5.46,5.61,5.68,5.76,5.84,5.92,5.99,6.07,6.19,6.32,6.40,6.48,6.56,6.63,6.71,6.79,6.93,7.04,7.12,7.20,7.27,7.35,7.43,7.51,7.67,7.76,7.84,7.88,7.81,7.73,7.65,7.58,7.50,7.50,7.44,7.37,7.29,7.21,7.20,7.16,7.08,7.00,6.93,6.90,6.87,6.79,6.72,6.64,6.56,6.50,6.50,7.39,8.12,8.94,10.42,13.67,16.74,19.11,20.54,21.70,22.92,24.16,25.36,26.44,27.52,28.65,29.54,29.92,30.31,30.52,30.42,30.22,30.92,32.57,34.44,36.34,38.20,39.74,42.81,46.87,51.28,54.61,58.12,62.36,67.09,71.33,74.42,77.39,80.75,84.95,89.58,94.04,98.01,101.66,106.14,110.15,113.10,115.14,116.69,117.08,117.09,116.94,116.79,116.71,118.14,119.76,121.14,122.22,122.30,121.07,118.96,116.46,113.45,111.01,109.02,107.33,105.71,103.96,101.65,99.57,99.11,100.77,102.58,104.13,105.14,105.52,105.54,105.70,106.12,106.66,109.05,112.23,115.86,119.62,122.71,126.15,127.86,127.29,126.60,124.90,122.92,121.09,119.93,116.28,111.88,108.04,105.55,102.93,100.24,98.20,97.69,100.47,104.88,108.38,110.58,111.39,110.92,110.06,109.16,108.44,108.06,108.46,109.44,111.86,117.34,121.10,125.07,129.05,132.82,136.45,140.69,145.40,150.82,157.77,165.49,171.97,177.85
1.40,1.40,1.45,1.48,1.50,1.51,1.59,1.60,1.60,1.62,1.70,1.70,1.73,1.78,1.80,1.80,1.86,1.90,1.90,1.90,1.97,2.00,2.02,2.07,2.09,2.10,2.14,2.20,2.20,2.20,2.24,2.30,2.30,2.38,2.40,2.40,2.41,2.48,2.50,2.53,2.57,2.60,2.60,2.65,2.72,2.78,2.90,2.99,3.11,3.25,3.33,3.40,3.44,3.44,3.44,3.36,3.39,3.48,3.61,3.68,3.76,3.84,3.92,3.99,4.07,4.15,4.24,4.37,4.47,4.56,4.63,4.71,4.79,4.93,5.04,5.12,5.20,5.27,5.35,5.44,5.55,5.67,5.76,5.84,5.92,5.99,6.07,6.16,6.28,6.40,6.48,6.56,6.63,6.71,6.79,6.89,6.92,6.90,6.88,6.86,6.87,6.88,6.86,6.87,6.85,6.86,6.86,6.79,6.71,6.63,6.55,6.48,6.48,6.42,6.35,6.27,6.19,6.18,6.14,6.06,5.98,5.90,5.88,5.85,5.77,5.70,5.62,5.54,5.48,5.48,6.24,7.26,8.46,9.84,12.74,15.30,17.55,19.50,21.00,22.24,23.43,24.60,25.73,26.87,28.01,28.88,29.21,29.40,29.45,29.36,29.29,29.79,31.07,32.80,34.76,36.67,38.36,41.37,45.32,49.78,53.89,57.83,62.16,66.73,70.83,73.64,76.24,78.87,81.75,86.29,90.68,94.61,98.10,101.88,106.07,109.20,111.14,112.09,112.24,112.04,111.68,111.37,111.34,112.14,113.58,115.42,117.19,117.59,116.75,114.90,112.34,109.97,107.92,106.08,104.38,102.66,100.72,98.61,96.91,96.55,98.07,99.66,101.10,102.20,102.59,102.44,102.30,102.52,103.55,106.21,109.49,113.65,118.95,122.93,126.85,129.62,130.69,130.04,128.27,126.18,124.18,122.68,120.13,116.30,111.95,107.86,105.33,102.78,100.37,98.97,100.86,106.37,110.69,113.58,115.38,116.00,116.04,115.59,114.72,113.59,113.39,115.04,118.34,122.49,125.97,129.23,132.38,135.53,138.82,143.65,149.28,155.52,162.67,169.15,174.85,180.61
1.40,1.40,1.48,1.50,1.51,1.54,1.59,1.60,1.61,1.64,1.70,1.70,1.75,1.80,1.80,1.82,1.87,1.90,1.90,1.93,1.98,2.00,2.03,2.10,2.10,2.10,2.14,2.20,2.20,2.22,2.26,2.30,2.30,2.38,2.40,2.40,2.41,2.48,2.50,2.54,2.60,2.60,2.60,2.65,2.70,2.70,2.84,2.93,3.03,3.16,3.26,3.34,3.37,3.37,3.35,3.31,3.35,3.45,3.58,3.66,3.75,3.84,3.92,3.99,4.07,4.15,4.25,4.40,4.48,4.56,4.63,4.71,4.79,4.91,5.03,5.12,5.20,5.27,5.35,5.43,5.51,5.64,5.75,5.84,5.91,5.97,6.00,6.04,6.09,6.18,6.23,6.28,6.31,6.34,6.38,6.43,6.41,6.34,6.26,6.18,6.16,6.13,6.05,5.97,5.90,5.85,5.82,5.76,5.69,5.61,5.55,5.51,5.51,5.47,5.42,5.39,5.33,5.32,5.30,5.26,5.21,5.15,5.15,5.14,5.09,5.03,4.99,4.95,4.90,4.90,5.40,6.47,7.88,9.27,11.71,13.92,16.09,18.34,20.36,21.63,22.76,23.90,25.06,26.22,27.38,28.22,28.47,28.50,28.45,28.36,28.35,28.71,29.84,31.60,33.72,35.83,37.82,40.63,44.16,48.26,52.56,56.90,61.30,65.64,69.66,72.42,74.74,76.84,78.96,82.71,86.85,90.84,94.48,97.92,101.86,104.93,106.87,107.74,107.82,107.57,107.21,106.91,106.91,107.23,108.40,110.31,112.25,113.02,112.65,111.21,108.89,106.84,104.98,103.17,101.31,99.30,97.24,95.30,93.95,93.85,95.34,96.85,98.21,99.24,99.44,99.11,98.87,99.28,101.27,104.36,107.85,112.50,118.99,123.30,127.40,130.88,133.31,133.63,132.28,130.21,127.86,125.69,124.03,120.85,116.34,111.11,108.36,105.80,103.38,101.67,102.31,107.65,112.34,116.02,118.93,120.68,121.61,121.70,120.97,119.49,118.80,120.39,123.67,126.96,130.09,132.87,135.60,138.60,142.10,147.39,153.57,160.22,167.01,172.42,177.70,183.46
1.40,1.40,1.48,1.50,1.53,1.59,1.60,1.60,1.64,1.69,1.70,1.70,1.75,1.80,1.81,1.88,1.90,1.90,1.92,1.99,2.00,2.00,2.03,2.10,2.10,2.10,2.14,2.20,2.20,2.26,2.30,2.30,2.30,2.38,2.40,2.40,2.41,2.48,2.50,2.54,2.60,2.60,2.60,2.65,2.70,2.70,2.79,2.87,2.95,3.04,3.19,3.27,3.31,3.29,3.22,3.28,3.35,3.43,3.52,3.59,3.73,3.84,3.92,3.99,4.07,4.15,4.25,4.40,4.48,4.56,4.63,4.71,4.79,4.87,4.99,5.12,5.20,5.27,5.35,5.43,5.51,5.59,5.73,5.84,5.90,5.91,5.85,5.79,5.72,5.67,5.67,5.63,5.56,5.50,5.44,5.43,5.39,5.31,5.24,5.16,5.13,5.11,5.03,4.95,4.87,4.80,4.74,4.73,4.66,4.59,4.55,4.62,4.62,4.61,4.64,4.69,4.68,4.68,4.72,4.77,4.76,4.75,4.80,4.84,4.83,4.83,4.87,4.91,4.90,4.90,4.96,5.77,7.16,8.69,10.54,12.61,14.78,17.02,19.78,21.10,22.16,23.26,24.42,25.58,26.74,27.54,27.70,27.63,27.56,27.45,27.38,27.70,28.94,30.94,33.39,35.89,38.37,40.81,43.52,46.72,50.43,55.15,59.60,63.60,67.62,70.66,72.80,74.62,76.70,78.77,82.39,86.60,90.79,94.33,97.51,100.17,102.25,103.72,103.94,103.88,103.75,103.72,103.72,103.76,104.53,105.98,107.43,108.63,108.81,107.99,106.33,104.18,102.26,100.29,98.09,95.54,93.45,91.65,90.57,90.97,92.56,94.17,95.49,96.26,96.01,95.48,95.39,96.49,100.07,103.77,107.65,112.75,119.93,123.84,127.73,131.49,134.92,137.42,137.13,135.22,132.29,129.04,127.98,125.57,121.37,115.59,112.19,109.42,107.48,106.23,105.14,108.66,113.12,117.72,121.91,124.84,126.63,127.39,127.19,125.86,124.85,125.41,127.50,130.54,133.24,135.83,138.69,142.13,146.57,152.13,158.41,164.92,170.62,175.17,180.49,186.41
1.40,1.40,1.48,1.50,1.54,1.60,1.60,1.60,1.64,1.70,1.70,1.74,1.78,1.80,1.81,1.89,1.90,1.90,1.92,1.99,2.00,2.03,2.07,2.10,2.10,2.13,2.17,2.20,2.20,2.27,2.30,2.31,2.35,2.39,2.40,2.42,2.46,2.49,2.50,2.54,2.60,2.60,2.64,2.68,2.70,2.70,2.78,2.83,2.88,2.96,3.07,3.19,3.24,3.24,3.20,3.28,3.35,3.43,3.51,3.58,3.72,3.84,3.92,3.99,4.07,4.15,4.25,4.40,4.48,4.56,4.63,4.71,4.79,4.87,4.94,4.99,4.98,4.97,4.99,5.01,5.00,4.99,5.01,5.04,5.06,5.02,4.94,4.86,4.79,4.71,4.71,4.69,4.65,4.62,4.58,4.61,4.62,4.58,4.55,4.55,4.56,4.54,4.51,4.52,4.50,4.46,4.44,4.48,4.46,4.42,4.42,4.50,4.50,4.50,4.53,4.60,4.60,4.60,4.64,4.70,4.70,4.70,4.72,4.76,4.80,4.80,4.83,4.87,4.90,4.90,4.90,5.48,6.60,8.05,9.49,11.23,13.27,15.68,18.97,20.61,21.78,22.82,23.90,25.01,26.10,26.80,26.82,26.70,26.61,26.49,26.42,26.73,28.15,30.27,32.89,35.79,38.76,41.37,43.91,46.56,49.12,52.68,56.36,59.81,62.75,66.04,69.10,71.66,73.57,75.38,78.56,82.41,86.48,90.37,93.61,96.07,97.89,99.30,99.80,100.08,100.19,100.19,100.19,100.23,100.77,101.85,103.20,104.92,105.55,105.14,103.89,101.82,99.46,96.94,94.38,91.96,90.28,88.94,88.16,88.32,89.92,91.49,92.61,93.00,92.35,91.80,92.78,95.65,100.08,103.92,107.85,112.91,119.95,123.94,128.12,132.26,136.32,140.69,142.28,141.71,139.41,135.97,133.27,130.24,125.98,120.18,115.63,112.82,111.05,109.83,108.56,109.77,113.47,118.47,123.28,127.40,129.97,131.34,131.68,130.79,130.10,130.19,131.30,133.59,136.16,139.18,142.65,146.59,151.70,157.28,163.02,168.57,173.23,177.39,182.21,187.33
1.40,1.40,1.48,1.50,1.54,1.60,1.60,1.60,1.64,1.70,1.70,1.76,1.79,1.80,1.81,1.89,1.90,1.90,1.92,1.99,2.00,2.05,2.10,2.10,2.10,2.16,2.20,2.20,2.22,2.27,2.30,2.32,2.40,2.40,2.40,2.43,2.50,2.50,2.51,2.55,2.60,2.60,2.67,2.70,2.70,2.70,2.78,2.80,2.83,2.91,2.97,3.10,3.17,3.18,3.20,3.28,3.35,3.43,3.51,3.58,3.72,3.84,3.92,3.99,4.04,4.09,4.16,4.27,4.33,4.38,4.43,4.48,4.54,4.60,4.63,4.62,4.57,4.51,4.49,4.47,4.42,4.36,4.30,4.27,4.27,4.21,4.15,4.09,4.04,3.98,3.98,3.99,4.00,4.00,4.00,4.07,4.10,4.10,4.10,4.17,4.20,4.20,4.20,4.27,4.29,4.30,4.31,4.37,4.39,4.40,4.42,4.48,4.50,4.50,4.53,4.58,4.60,4.60,4.63,4.68,4.70,4.70,4.70,4.73,4.80,4.80,4.80,4.84,4.90,4.90,4.90,5.28,6.12,7.45,8.60,10.00,11.87,14.42,18.05,20.10,21.44,22.45,23.47,24.52,25.47,26.02,25.92,25.76,25.66,25.54,25.47,25.79,27.40,29.58,32.28,35.52,38.87,41.60,43.87,45.82,47.37,49.92,52.82,55.57,57.51,60.77,64.34,67.49,69.62,71.84,74.90,78.45,82.29,86.23,89.54,91.87,93.45,94.79,95.48,96.04,96.37,96.44,96.62,96.81,97.25,98.07,99.42,101.47,102.47,102.41,101.45,99.49,96.77,93.79,90.94,88.84,87.47,86.46,85.79,85.61,87.10,88.51,89.42,89.55,88.84,88.94,91.17,95.45,100.38,104.25,108.25,113.23,119.86,124.31,128.81,133.15,137.59,143.59,147.03,147.85,146.35,143.13,138.80,134.84,130.40,124.92,119.32,116.30,114.52,113.33,112.14,111.73,114.34,119.01,124.20,129.28,132.63,134.70,135.70,135.38,135.06,134.91,135.31,136.86,139.59,143.08,147.06,151.41,156.97,162.39,167.35,171.73,175.53,179.33,183.51,187.66
1.40,1.40,1.48,1.50,1.54,1.60,1.60,1.60,1.64,1.70,1.70,1.71,1.76,1.80,1.81,1.89,1.90,1.90,1.92,1.99,2.00,2.05,2.10,2.10,2.10,2.16,2.20,2.21,2.27,2.29,2.30,2.32,2.40,2.40,2.40,2.43,2.50,2.50,2.55,2.59,2.60,2.60,2.67,2.70,2.70,2.70,2.78,2.80,2.83,2.90,2.91,2.99,3.07,3.13,3.20,3.28,3.35,3.43,3.51,3.58,3.72,3.84,3.92,3.99,3.95,3.90,3.85,3.82,3.83,3.80,3.75,3.70,3.72,3.73,3.73,3.75,3.80,3.79,3.78,3.80,3.85,3.84,3.82,3.85,3.90,3.89,3.87,3.90,3.93,3.92,3.92,3.96,4.00,4.00,4.00,4.07,4.10,4.10,4.10,4.17,4.20,4.20,4.20,4.21,4.27,4.30,4.30,4.32,4.37,4.40,4.40,4.42,4.48,4.50,4.51,4.53,4.59,4.60,4.61,4.63,4.70,4.70,4.70,4.73,4.80,4.80,4.80,4.84,4.90,4.90,4.90,5.16,5.81,6.94,8.04,9.14,10.78,13.33,16.96,19.50,21.12,22.14,23.21,24.17,24.86,25.17,25.03,24.87,24.73,24.58,24.52,24.89,26.72,28.86,31.46,34.95,38.40,40.94,42.51,43.28,44.33,46.75,49.08,50.92,52.37,54.94,57.76,60.79,64.07,67.78,71.38,74.99,78.58,81.79,84.92,87.17,88.75,90.20,90.83,91.48,91.98,92.29,93.06,93.69,94.27,95.03,96.47,98.34,99.59,99.88,98.97,97.15,94.40,91.28,88.33,86.67,85.32,84.14,83.21,82.68,83.83,84.89,85.57,85.73,85.76,87.99,91.56,96.01,100.89,104.76,108.97,113.93,119.84,125.48,130.17,134.28,138.60,145.78,150.75,152.68,151.94,149.56,144.44,139.33,134.53,129.97,123.73,120.03,117.98,116.94,115.90,115.63,116.59,119.41,124.66,130.18,134.31,137.31,139.26,139.68,139.63,139.54,139.77,140.83,144.27,148.10,152.25,156.78,162.34,167.29,171.14,174.13,177.49,180.79,184.21,187.33
1.40,1.40,1.48,1.50,1.52,1.56,1.60,1.60,1.64,1.70,1.70,1.70,1.75,1.80,1.81,1.89,1.90,1.90,1.92,1.99,2.00,2.03,2.07,2.10,2.10,2.16,2.20,2.21,2.25,2.28,2.30,2.32,2.40,2.40,2.40,2.43,2.50,2.50,2.56,2.60,2.60,2.60,2.67,2.70,2.70,2.70,2.78,2.80,2.83,2.90,2.90,2.94,3.00,3.06,3.10,3.15,3.21,3.27,3.32,3.36,3.46,3.54,3.58,3.62,3.62,3.59,3.55,3.51,3.55,3.53,3.49,3.46,3.49,3.50,3.50,3.52,3.60,3.60,3.60,3.63,3.70,3.70,3.70,3.74,3.80,3.80,3.80,3.85,3.90,3.90,3.90,3.96,4.00,4.00,4.00,4.03,4.07,4.10,4.10,4.14,4.18,4.20,4.20,4.20,4.26,4.30,4.30,4.30,4.37,4.40,4.40,4.40,4.48,4.50,4.50,4.51,4.59,4.60,4.60,4.62,4.70,4.70,4.70,4.73,4.80,4.80,4.80,4.84,4.90,4.90,4.90,5.13,5.70,6.71,7.76,8.75,10.17,12.42,15.90,18.91,20.82,21.84,22.77,23.66,24.18,24.32,24.13,23.98,23.82,23.67,23.57,23.74,25.66,27.87,30.39,33.62,36.80,39.06,40.28,40.59,41.19,42.86,44.75,46.60,48.35,50.57,53.35,56.64,60.36,64.53,68.48,72.10,75.31,78.07,80.51,82.37,83.88,85.45,86.26,86.99,87.50,87.82,88.90,89.87,90.83,91.99,93.75,95.86,97.61,98.20,96.99,94.99,92.26,88.95,85.68,84.50,83.20,81.65,80.27,79.83,80.43,81.15,81.80,82.34,83.74,87.84,92.41,96.84,101.38,105.26,109.31,114.00,119.69,125.57,130.56,134.87,139.33,147.04,153.31,156.61,156.93,154.87,150.07,144.57,139.23,134.57,129.43,126.10,124.10,122.92,121.62,120.94,120.87,122.22,125.85,130.98,135.50,139.21,142.00,143.71,144.83,145.48,145.90,146.50,149.41,152.89,156.96,161.64,166.88,170.97,174.04,176.37,178.74,181.21,183.55,185.71
1.40,1.40,1.48,1.50,1.50,1.51,1.59,1.60,1.64,1.70,1.70,1.70,1.75,1.80,1.81,1.88,1.90,1.90,1.92,1.99,2.00,2.00,2.03,2.10,2.10,2.16,2.20,2.20,2.21,2.27,2.30,2.32,2.40,2.40,2.41,2.44,2.50,2.51,2.57,2.60,2.60,2.61,2.67,2.71,2.71,2.71,2.79,2.81,2.84,2.90,2.91,2.91,2.95,3.00,3.00,3.00,3.05,3.10,3.10,3.10,3.16,3.20,3.20,3.20,3.27,3.30,3.30,3.30,3.38,3.40,3.40,3.41,3.49,3.50,3.50,3.52,3.60,3.60,3.60,3.63,3.70,3.70,3.70,3.74,3.80,3.80,3.80,3.85,3.90,3.90,3.90,3.96,4.00,4.00,4.00,4.01,4.05,4.10,4.10,4.10,4.15,4.20,4.20,4.20,4.26,4.30,4.30,4.30,4.37,4.40,4.40,4.40,4.48,4.50,4.50,4.51,4.59,4.60,4.60,4.62,4.70,4.70,4.70,4.73,4.80,4.80,4.80,4.84,4.90,4.90,4.90,5.15,5.73,6.67,7.67,8.62,9.87,11.75,14.92,18.26,20.44,21.49,22.26,23.10,23.48,23.47,23.24,23.08,22.93,22.77,22.63,22.55,24.45,26.70,29.14,31.96,34.73,36.60,37.54,37.72,38.08,39.06,40.66,42.75,45.00,47.17,50.13,53.70,57.61,61.81,65.89,69.41,72.24,74.59,76.29,77.69,79.06,80.73,81.73,82.52,83.00,83.26,84.45,85.77,87.26,89.01,91.21,93.69,95.99,96.88,95.22,92.99,90.07,86.50,82.93,81.98,80.62,78.71,77.05,76.95,77.20,77.83,78.65,79.73,82.65,88.14,93.37,97.70,101.86,105.68,109.47,113.85,119.44,125.21,130.48,135.13,139.79,147.65,154.85,159.41,160.92,159.44,155.44,149.95,144.18,139.15,135.46,132.82,130.98,129.63,128.06,126.89,126.17,126.33,127.87,132.06,136.53,140.65,144.15,147.20,149.95,151.68,152.44,152.59,154.66,157.65,161.53,166.17,170.86,173.74,175.83,177.51,178.78,180.53,181.99,183.43
1.40,1.40,1.48,1.50,1.50,1.51,1.59,1.60,1.64,1.70,1.70,1.70,1.75,1.80,1.80,1.82,1.87,1.90,1.92,1.99,2.00,2.00,2.03,2.10,2.10,2.16,2.20,2.21,2.27,2.29,2.30,2.32,2.40,2.40,2.44,2.48,2.51,2.56,2.59,2.60,2.61,2.67,2.69,2.74,2.77,2.78,2.85,2.87,2.88,2.91,2.97,2.97,2.99,3.00,3.00,3.00,3.05,3.10,3.10,3.10,3.16,3.20,3.20,3.20,3.27,3.30,3.30,3.30,3.38,3.40,3.40,3.41,3.49,3.50,3.50,3.52,3.60,3.60,3.60,3.63,3.70,3.70,3.70,3.74,3.80,3.80,3.80,3.85,3.90,3.90,3.90,3.96,4.00,4.00,4.00,4.05,4.09,4.10,4.10,4.10,4.15,4.20,4.20,4.20,4.26,4.30,4.30,4.30,4.37,4.40,4.40,4.40,4.48,4.50,4.50,4.51,4.59,4.60,4.60,4.62,4.70,4.70,4.70,4.73,4.80,4.80,4.80,4.84,4.90,4.90,4.90,5.27,6.01,7.06,8.00,8.98,10.23,11.96,14.30,17.37,19.64,20.91,21.68,22.53,22.78,22.62,22.34,22.19,22.03,21.88,21.73,21.59,23.15,25.14,27.41,29.98,32.26,33.46,33.95,34.17,35.32,36.97,38.72,40.59,42.89,45.94,48.95,52.28,56.32,60.28,63.69,66.77,69.44,71.10,72.63,73.79,74.86,76.32,77.27,78.09,78.57,78.76,79.71,81.50,83.76,86.34,89.18,91.89,94.65,95.75,93.63,91.44,87.27,83.04,79.76,77.77,75.77,74.00,73.05,73.75,75.03,76.69,78.36,80.05,84.26,89.28,94.02,98.26,102.31,105.76,109.40,113.67,118.92,124.54,129.82,134.64,139.51,146.77,153.47,158.32,161.18,162.32,159.49,154.76,149.37,144.40,140.81,138.62,137.08,135.83,134.61,133.55,132.87,132.57,132.66,134.73,137.65,141.10,144.82,148.51,153.63,156.95,158.12,157.77,159.69,162.64,166.17,169.91,173.56,174.16,173.83,173.60,174.18,176.36,178.40,180.18
1.41,1.44,1.49,1.52,1.54,1.55,1.59,1.63,1.67,1.71,1.74,1.74,1.79,1.84,1.84,1.84,1.90,1.94,1.96,2.03,2.04,2.06,2.09,2.14,2.14,2.20,2.24,2.25,2.33,2.34,2.36,2.39,2.44,2.44,2.49,2.54,2.55,2.62,2.64,2.65,2.69,2.73,2.74,2.79,2.84,2.84,2.92,2.94,2.94,2.95,2.99,3.00,3.02,3.04,3.04,3.04,3.07,3.10,3.10,3.10,3.14,3.18,3.20,3.20,3.24,3.28,3.30,3.30,3.35,3.38,3.40,3.41,3.45,3.49,3.50,3.51,3.56,3.59,3.60,3.62,3.66,3.69,3.70,3.72,3.77,3.80,3.80,3.83,3.87,3.90,3.90,3.93,3.97,4.00,4.00,4.04,4.08,4.10,4.10,4.10,4.15,4.20,4.20,4.20,4.26,4.30,4.30,4.30,4.37,4.40,4.40,4.40,4.48,4.50,4.50,4.51,4.59,4.60,4.60,4.62,4.70,4.70,4.70,4.73,4.80,4.80,4.80,4.84,4.90,4.90,4.90,5.30,6.12,7.32,8.43,9.57,10.96,12.70,14.68,17.17,19.16,20.45,21.19,21.83,21.98,21.78,21.45,21.29,21.12,20.95,20.80,20.67,21.72,23.44,25.61,27.96,29.87,30.71,31.04,31.44,33.08,35.12,37.16,39.24,41.77,45.10,47.97,50.84,54.30,58.29,61.63,64.51,66.85,68.15,69.26,70.12,70.96,72.11,73.01,73.76,74.43,75.15,76.54,78.72,81.42,84.49,87.79,90.97,93.94,94.94,92.29,88.99,83.95,79.37,76.14,73.68,71.83,70.91,71.14,72.71,74.88,77.16,79.98,83.59,87.62,91.74,95.70,99.36,102.66,105.80,109.34,113.52,118.52,123.84,129.03,133.90,138.68,144.84,150.96,155.53,158.56,160.67,159.87,157.43,153.66,149.10,145.96,144.11,142.67,141.38,140.33,138.77,137.91,137.50,137.12,137.85,139.52,142.22,145.86,150.04,156.12,160.44,162.56,163.15,164.90,167.09,169.57,172.11,173.47,172.34,170.68,169.36,168.95,170.63,172.74,174.88
1.43,1.50,1.50,1.56,1.60,1.60,1.60,1.67,1.70,1.72,1.80,1.80,1.86,1.90,1.90,1.90,1.97,2.00,2.02,2.10,2.10,2.15,2.20,2.20,2.20,2.26,2.30,2.31,2.39,2.40,2.45,2.50,2.50,2.50,2.56,2.60,2.61,2.69,2.70,2.74,2.80,2.80,2.80,2.85,2.90,2.91,2.98,3.00,3.00,3.00,3.00,3.00,3.04,3.10,3.10,3.10,3.10,3.10,3.10,3.10,3.10,3.14,3.20,3.20,3.20,3.25,3.30,3.30,3.30,3.36,3.40,3.40,3.40,3.46,3.50,3.50,3.50,3.57,3.60,3.60,3.61,3.68,3.70,3.70,3.72,3.79,3.80,3.80,3.82,3.90,3.90,3.90,3.93,4.00,4.00,4.00,4.04,4.10,4.10,4.10,4.15,4.20,4.20,4.20,4.26,4.30,4.30,4.30,4.37,4.40,4.40,4.40,4.48,4.50,4.50,4.51,4.59,4.60,4.60,4.62,4.70,4.70,4.70,4.73,4.80,4.80,4.80,4.84,4.90,4.90,4.90,5.26,6.11,7.51,8.90,10.30,11.89,13.74,15.66,17.38,18.86,20.02,20.71,21.04,21.09,20.91,20.55,20.40,20.19,20.00,19.86,19.78,20.25,21.68,23.77,25.93,27.54,28.26,28.66,29.32,31.25,33.51,35.92,38.48,41.33,44.52,47.11,49.38,51.85,55.98,59.62,62.46,64.39,65.53,66.08,66.63,67.29,68.06,68.92,69.57,70.54,72.19,74.44,76.94,79.85,83.17,86.82,90.58,93.60,94.24,91.06,85.94,80.33,75.61,72.29,69.76,68.60,68.96,70.62,73.11,76.04,78.74,82.91,89.13,92.06,95.06,98.06,100.86,103.00,105.85,109.30,113.41,118.20,123.14,128.18,132.97,137.46,142.19,147.60,151.49,153.98,156.04,157.77,158.49,157.11,153.29,150.88,149.30,147.84,146.42,145.40,142.94,141.75,141.46,141.24,141.17,141.86,143.78,147.11,151.67,157.79,162.67,166.04,168.47,170.02,171.02,172.02,173.15,171.49,169.06,166.78,164.92,163.36,163.95,165.77,168.28
1.49,1.57,1.57,1.62,1.67,1.67,1.67,1.73,1.77,1.79,1.87,1.87,1.92,1.97,1.97,1.97,2.03,2.07,2.08,2.16,2.17,2.22,2.27,2.27,2.27,2.32,2.37,2.38,2.46,2.47,2.51,2.57,2.57,2.57,2.62,2.67,2.67,2.75,2.77,2.81,2.87,2.87,2.87,2.91,2.97,2.97,3.05,3.07,3.04,3.01,3.06,3.07,3.08,3.10,3.10,3.15,3.17,3.17,3.17,3.17,3.17,3.18,3.20,3.20,3.20,3.25,3.30,3.30,3.30,3.32,3.36,3.40,3.40,3.42,3.46,3.50,3.50,3.53,3.57,3.60,3.61,3.68,3.70,3.70,3.72,3.79,3.80,3.80,3.82,3.90,3.90,3.90,3.93,4.00,4.00,4.00,4.04,4.10,4.10,4.10,4.15,4.20,4.20,4.20,4.26,4.30,4.30,4.30,4.37,4.40,4.40,4.40,4.48,4.50,4.50,4.51,4.59,4.60,4.60,4.62,4.70,4.70,4.70,4.73,4.80,4.80,4.80,4.84,4.90,4.90,4.90,5.18,5.97,7.51,9.00,10.57,12.17,13.77,15.39,16.74,17.87,18.79,19.44,19.67,19.69,19.59,19.47,19.52,19.40,19.23,19.11,19.13,19.61,20.61,22.14,24.20,25.62,26.76,27.90,29.26,31.25,33.71,36.32,38.92,41.47,44.05,46.24,48.16,50.01,53.21,56.69,59.70,61.77,62.52,62.93,63.38,63.97,64.74,65.94,66.94,68.41,70.76,73.41,76.06,78.89,82.09,86.03,89.68,91.76,91.58,88.61,82.95,77.69,73.27,69.95,67.97,67.81,69.00,71.27,74.25,77.34,81.95,87.27,92.38,95.27,98.13,100.80,103.10,104.64,106.81,109.72,113.55,118.38,123.07,127.68,131.76,135.21,138.67,141.26,144.13,147.35,150.64,153.03,154.36,154.56,153.75,152.87,151.95,150.87,149.62,148.36,144.70,142.85,142.42,142.39,142.32,143.66,145.57,147.96,152.62,158.03,162.60,166.25,169.47,170.56,171.04,171.00,170.39,167.84,165.27,162.94,160.88,158.93,158.54,159.59,161.81
1.56,1.63,1.63,1.69,1.73,1.73,1.73,1.80,1.83,1.85,1.93,1.93,1.98,2.03,2.03,2.03,2.09,2.13,2.15,2.22,2.23,2.28,2.33,2.33,2.33,2.39,2.43,2.44,2.52,2.53,2.57,2.63,2.63,2.63,2.68,2.73,2.74,2.82,2.83,2.87,2.93,2.93,2.93,2.98,3.03,3.03,3.09,3.08,3.06,3.04,3.09,3.10,3.11,3.13,3.13,3.18,3.20,3.20,3.20,3.20,3.20,3.20,3.20,3.20,3.20,3.25,3.30,3.30,3.30,3.30,3.33,3.40,3.40,3.40,3.44,3.50,3.50,3.50,3.55,3.60,3.60,3.66,3.69,3.70,3.71,3.76,3.79,3.80,3.82,3.87,3.89,3.90,3.92,3.97,4.00,4.00,4.03,4.08,4.10,4.10,4.14,4.18,4.20,4.20,4.24,4.28,4.30,4.30,4.35,4.38,4.40,4.40,4.48,4.50,4.50,4.51,4.59,4.60,4.60,4.61,4.67,4.69,4.70,4.72,4.77,4.79,4.80,4.83,4.87,4.90,4.90,5.06,5.73,7.33,8.87,10.48,12.04,13.48,14.76,15.82,16.75,17.53,18.10,18.32,18.37,18.36,18.40,18.67,18.64,18.55,18.56,18.77,19.26,19.99,21.16,23.06,24.51,26.03,27.67,29.46,31.56,34.10,36.72,39.25,41.53,43.51,45.32,46.97,48.48,50.76,53.39,55.87,57.81,58.49,59.21,59.94,60.73,61.69,63.21,65.00,67.28,70.09,72.88,75.60,78.37,81.46,85.44,89.00,90.40,89.50,86.39,80.73,75.51,71.26,68.21,66.35,67.38,69.44,72.19,75.55,79.18,84.96,90.86,95.31,98.24,100.93,103.36,105.37,106.63,108.46,111.12,114.74,119.29,123.49,127.44,130.50,132.56,134.48,135.19,136.82,139.44,142.49,145.73,148.14,149.93,151.23,151.41,151.19,150.73,149.88,148.07,144.17,142.12,141.62,141.79,141.92,143.44,145.32,147.45,152.12,156.83,161.19,165.12,168.63,169.87,170.09,169.25,167.30,163.99,160.92,158.36,156.24,154.22,153.33,153.85,155.74
1.62,1.69,1.69,1.75,1.79,1.79,1.79,1.86,1.89,1.92,1.99,1.99,2.05,2.09,2.09,2.09,2.16,2.19,2.21,2.29,2.29,2.34,2.39,2.39,2.39,2.45,2.49,2.51,2.58,2.59,2.64,2.69,2.69,2.69,2.75,2.79,2.80,2.88,2.89,2.93,2.99,2.99,2.99,3.04,3.09,3.09,3.10,3.05,3.04,3.09,3.10,3.10,3.14,3.19,3.19,3.20,3.20,3.20,3.20,3.20,3.20,3.20,3.20,3.20,3.20,3.25,3.30,3.30,3.30,3.30,3.33,3.40,3.40,3.40,3.44,3.50,3.50,3.50,3.55,3.60,3.60,3.60,3.66,3.70,3.70,3.71,3.77,3.80,3.80,3.81,3.88,3.90,3.90,3.92,3.99,4.00,4.00,4.02,4.10,4.10,4.10,4.13,4.20,4.20,4.20,4.24,4.30,4.30,4.30,4.35,4.40,4.40,4.48,4.50,4.50,4.51,4.59,4.60,4.60,4.60,4.61,4.68,4.70,4.70,4.71,4.78,4.80,4.80,4.82,4.89,4.90,4.91,5.40,6.94,8.49,9.99,11.46,12.86,13.75,14.61,15.47,16.23,16.70,17.01,17.16,17.23,17.33,17.85,17.91,17.96,18.23,18.74,19.21,19.87,20.90,22.55,24.29,26.15,28.03,29.93,32.22,34.68,37.12,39.45,41.48,42.89,44.33,45.82,47.28,48.67,49.67,50.87,52.36,53.34,54.88,56.29,57.58,58.94,60.76,63.85,67.25,70.27,72.91,75.60,78.35,81.34,85.07,88.57,89.58,88.09,84.44,79.37,73.85,69.62,67.13,64.92,67.32,70.31,73.40,77.01,81.62,87.74,93.60,97.88,100.96,103.44,105.70,107.68,108.99,110.86,113.61,117.08,120.98,124.45,127.47,129.19,129.47,129.56,129.42,129.55,130.12,131.29,135.60,139.62,142.98,145.40,146.12,146.64,147.10,146.89,144.19,141.12,139.37,138.88,139.25,139.83,140.99,142.79,145.46,150.03,154.05,158.31,162.50,165.76,167.81,168.07,166.67,163.86,159.90,155.97,152.95,150.94,149.21,148.35,148.60,150.12
1.68,1.76,1.76,1.82,1.86,1.86,1.86,1.93,1.96,1.98,2.06,2.06,2.11,2.16,2.16,2.16,2.22,2.26,2.28,2.35,2.36,2.41,2.46,2.46,2.46,2.52,2.56,2.57,2.65,2.66,2.70,2.76,2.76,2.76,2.81,2.86,2.87,2.94,2.96,3.00,3.06,3.06,3.06,3.11,3.16,3.15,3.07,3.05,3.07,3.11,3.15,3.16,3.18,3.21,3.26,3.26,3.26,3.26,3.26,3.26,3.26,3.26,3.26,3.26,3.26,3.28,3.30,3.30,3.30,3.33,3.37,3.40,3.40,3.40,3.44,3.50,3.50,3.50,3.52,3.56,3.60,3.60,3.63,3.66,3.70,3.70,3.73,3.77,3.80,3.80,3.83,3.87,3.90,3.90,3.94,3.98,4.00,4.01,4.04,4.08,4.10,4.11,4.15,4.19,4.20,4.24,4.30,4.30,4.30,4.35,4.40,4.40,4.43,4.47,4.50,4.50,4.54,4.58,4.60,4.60,4.60,4.67,4.70,4.70,4.71,4.78,4.80,4.80,4.81,4.89,4.90,4.90,5.26,6.44,7.95,9.39,10.64,11.64,12.49,13.34,14.19,14.94,15.36,15.67,15.92,16.13,16.36,16.90,17.28,17.69,18.20,18.79,19.31,20.05,21.19,22.91,24.64,26.45,28.31,30.25,32.53,34.70,36.82,38.82,40.56,41.82,43.17,44.58,45.95,47.17,47.89,48.72,49.89,51.21,53.10,55.05,56.91,58.57,61.00,64.47,68.22,71.63,74.30,76.89,79.45,82.16,85.42,87.55,87.22,85.10,82.01,77.12,72.01,67.81,65.19,64.84,67.61,70.98,74.51,78.19,84.12,89.98,95.25,99.58,102.85,105.61,108.16,110.56,112.68,114.83,117.22,119.89,122.82,124.74,125.19,124.23,122.46,122.43,122.80,123.59,124.72,126.09,128.66,131.27,133.89,136.38,137.65,138.44,138.89,138.64,136.63,134.72,133.46,132.96,133.27,133.89,134.82,136.40,139.08,144.13,148.63,153.47,158.37,162.52,164.71,165.13,164.01,161.53,156.97,152.06,147.75,144.58,143.15,143.06,144.09,146.03
1.75,1.82,1.82,1.88,1.92,1.92,1.92,1.99,2.02,2.04,2.12,2.12,2.18,2.22,2.22,2.22,2.28,2.32,2.34,2.42,2.42,2.47,2.52,2.52,2.52,2.58,2.62,2.63,2.71,2.72,2.77,2.82,2.82,2.82,2.87,2.92,2.93,3.01,3.02,3.06,3.12,3.12,3.12,3.16,3.19,3.17,3.05,3.08,3.12,3.13,3.19,3.21,3.22,3.24,3.30,3.32,3.32,3.32,3.32,3.32,3.32,3.32,3.32,3.32,3.32,3.32,3.32,3.32,3.32,3.37,3.40,3.40,3.40,3.41,3.46,3.50,3.50,3.50,3.51,3.54,3.60,3.60,3.60,3.64,3.70,3.70,3.70,3.74,3.78,3.80,3.80,3.84,3.89,3.90,3.90,3.95,3.99,4.00,4.00,4.07,4.10,4.10,4.11,4.18,4.20,4.23,4.28,4.30,4.30,4.34,4.38,4.40,4.40,4.44,4.49,4.50,4.50,4.55,4.59,4.60,4.60,4.66,4.69,4.70,4.70,4.76,4.79,4.80,4.81,4.87,4.89,4.90,5.13,5.89,7.36,8.76,9.89,10.69,11.47,12.25,13.03,13.75,14.25,14.65,15.06,15.47,15.91,16.49,17.05,17.63,18.23,18.85,19.40,20.26,21.54,23.26,24.95,26.67,28.47,30.38,32.54,34.47,36.32,38.06,39.53,40.70,41.97,43.29,44.58,45.70,46.57,47.50,48.67,50.28,52.36,54.65,56.89,58.79,61.88,65.62,69.53,73.20,76.00,78.45,80.77,83.12,85.82,86.36,84.91,82.30,79.37,74.59,69.81,65.71,63.20,64.56,67.82,71.56,75.42,79.25,86.11,91.56,96.12,100.23,103.68,107.05,110.24,113.26,116.21,118.31,120.08,121.77,123.55,123.95,122.29,119.39,116.31,115.90,116.57,117.89,119.53,121.07,122.29,123.74,125.51,127.55,128.94,129.79,130.21,130.09,129.08,128.21,127.36,126.82,126.88,127.55,128.58,130.20,132.79,137.69,142.85,148.34,153.84,158.73,161.47,162.28,161.42,159.07,154.26,148.51,143.15,139.09,137.62,137.99,139.60,141.97
1.81,1.89,1.89,1.94,1.99,1.99,1.99,2.05,2.09,2.11,2.18,2.19,2.24,2.29,2.29,2.29,2.35,2.39,2.40,2.48,2.49,2.53,2.59,2.59,2.59,2.64,2.69,2.70,2.78,2.79,2.83,2.89,2.89,2.89,2.94,2.99,2.99,3.07,3.09,3.13,3.19,3.19,3.19,3.19,3.18,3.11,3.09,3.14,3.19,3.19,3.20,3.26,3.29,3.29,3.30,3.36,3.39,3.39,3.39,3.39,3.39,3.39,3.39,3.39,3.39,3.39,3.39,3.39,3.39,3.39,3.40,3.40,3.40,3.46,3.49,3.50,3.50,3.50,3.54,3.59,3.60,3.60,3.60,3.64,3.70,3.70,3.70,3.71,3.74,3.80,3.80,3.81,3.84,3.90,3.90,3.91,3.95,4.00,4.00,4.07,4.10,4.10,4.11,4.18,4.20,4.21,4.23,4.29,4.30,4.31,4.33,4.40,4.40,4.41,4.44,4.50,4.50,4.51,4.55,4.60,4.60,4.61,4.66,4.70,4.70,4.71,4.77,4.80,4.80,4.81,4.87,4.90,4.98,5.25,6.72,8.08,9.31,10.34,10.93,11.51,12.10,12.74,13.59,14.25,14.93,15.66,16.43,17.10,17.58,17.94,18.30,18.91,19.46,20.47,21.88,23.46,25.09,26.73,28.41,30.16,32.07,33.84,35.56,37.18,38.46,39.57,40.72,41.93,43.17,44.19,45.75,47.50,49.28,51.09,53.15,55.38,57.63,59.69,63.46,67.41,71.30,74.95,78.06,80.32,82.29,84.18,86.19,84.98,82.96,80.16,76.43,71.71,66.94,63.11,61.26,63.66,67.82,71.97,75.97,80.14,87.10,91.97,95.66,99.03,102.63,107.18,111.58,115.52,119.15,120.53,121.28,121.75,122.16,121.22,118.64,115.48,112.55,110.95,111.25,112.43,113.97,115.26,116.43,117.73,118.88,119.69,120.39,120.99,121.50,121.94,122.26,122.09,121.52,120.83,120.37,121.19,122.91,125.07,127.53,130.95,136.90,143.05,148.81,154.00,158.18,159.77,158.98,156.17,151.75,145.42,139.63,135.44,133.28,133.40,135.03,137.69
1.88,1.95,1.95,2.01,2.05,2.05,2.05,2.12,2.15,2.17,2.25,2.25,2.30,2.35,2.35,2.35,2.41,2.45,2.47,2.54,2.55,2.60,2.65,2.65,2.65,2.71,2.75,2.76,2.84,2.85,2.89,2.95,2.95,2.95,3.00,3.05,3.06,3.13,3.15,3.19,3.24,3.20,3.20,3.18,3.14,3.10,3.14,3.18,3.20,3.21,3.24,3.28,3.30,3.31,3.35,3.39,3.40,3.40,3.40,3.40,3.40,3.40,3.40,3.40,3.40,3.40,3.40,3.40,3.40,3.40,3.40,3.40,3.40,3.47,3.50,3.50,3.50,3.50,3.55,3.60,3.60,3.60,3.60,3.64,3.70,3.70,3.70,3.70,3.72,3.80,3.80,3.80,3.83,3.90,3.90,3.90,3.94,4.00,4.00,4.04,4.08,4.10,4.10,4.14,4.18,4.20,4.21,4.25,4.28,4.30,4.31,4.35,4.39,4.40,4.42,4.46,4.49,4.50,4.52,4.56,4.60,4.60,4.63,4.66,4.70,4.70,4.73,4.77,4.80,4.80,4.87,4.90,4.92,5.01,6.05,7.32,8.67,9.93,10.59,11.18,11.82,12.59,13.59,14.45,15.28,16.09,16.89,17.67,18.23,18.62,18.93,19.39,19.92,20.90,22.24,23.75,25.33,26.91,28.44,29.87,31.34,33.00,34.66,36.17,37.33,38.53,39.75,41.05,42.48,43.95,45.97,48.08,50.09,52.14,54.25,56.42,58.71,61.22,65.19,69.27,73.25,76.88,79.51,81.54,83.13,84.23,84.59,83.03,80.50,77.08,72.85,68.14,63.89,60.94,59.89,61.63,66.99,71.87,75.94,79.84,86.30,90.84,94.21,97.14,100.39,105.22,110.31,114.99,118.58,118.23,117.30,116.52,116.31,115.69,113.57,110.82,108.21,107.16,107.45,108.26,109.23,110.01,111.27,112.52,113.45,113.92,114.38,115.00,115.73,116.52,117.21,117.06,116.44,115.66,115.05,115.90,118.03,120.69,123.58,127.36,133.16,139.02,144.69,150.45,155.00,156.99,156.40,153.44,148.62,142.17,136.37,131.83,127.98,127.49,129.28,132.40
