46.13,46.08,45.85,45.61,45.38,45.15,44.92,44.69,44.28,43.67,42.84,41.91,40.93,40.00,39.18,38.47,37.77,37.07,36.36,35.59,34.88,34.15,33.43,32.77,32.18,31.62,31.10,30.65,30.43,30.42,30.47,30.55,30.63,30.54,30.27,29.92,29.57,29.30,28.99,28.76,28.61,28.45,28.30,28.08,27.81,27.50,27.19,27.02,26.90,26.76,26.61,26.45,26.47,26.63,26.78,27.06,27.35,27.65,27.96,28.27,28.53,28.81,29.12,29.43,29.71,30.15,30.75,31.46,31.82,32.12,32.45,32.85,33.34,33.92,34.52,35.16,35.83,36.53,37.31,38.07,38.75,39.90,41.12,42.99,45.24,46.39,48.11,49.70,51.18,52.65,51.27,49.14,46.96,45.36,45.44,47.17,49.04,50.96,53.38,55.90,58.46,61.34,64.71,67.94,71.03,73.92,76.56,78.81,81.15,83.66,86.33,89.09,92.78,96.75,100.31,103.13,105.70,108.16,110.74,113.55,116.67,120.08,123.94,127.74,130.96,132.88,135.43,137.93,139.96,141.00,141.23,141.18,141.10,141.24,141.29,141.28,141.44,141.96,142.97,144.04,144.91,145.14,143.89,142.64,141.05,139.44,138.15,137.06,136.37,135.43,134.08,132.77,130.84,128.07,124.46,120.12,114.08,108.71,104.06,100.11,96.71,94.84,93.63,92.61,91.22,88.69,85.44,81.73,77.93,75.39,73.74,72.73,72.22,72.15,72.06,71.82,71.43,70.91,69.21,67.17,64.83,62.22,59.49,56.43,53.11,49.89,47.67,45.61,43.67,42.03,40.85,39.86,38.75,37.62,36.53,35.48,34.50,34.29,34.83,35.82,36.76,37.73,38.93,40.47,42.09,43.78,45.47,47.16,48.90,50.43,51.98,53.54,55.11,56.60,58.06,59.52,60.95,62.25,63.86,65.65,67.52,69.29,70.94,72.64,74.31,75.86,76.90,77.55,78.18,78.94,79.96,80.94,82.66,85.04,87.83,90.83,93.50,96.40,99.84,104.00,103.54,100.63,96.71,93.57,91.60,91.02,91.24,91.79,93.17,95.10,98.17,102.70,109.04,110.03,109.03,107.06
45.52,45.37,45.14,44.91,44.68,44.45,44.22,43.98,43.69,43.33,42.90,41.98,41.00,40.08,39.30,38.54,37.83,37.13,36.42,35.65,34.95,34.25,33.53,32.78,32.23,31.69,31.21,30.87,30.85,30.91,30.98,31.06,31.14,31.20,30.91,30.45,30.01,29.64,29.31,29.08,28.93,28.77,28.62,28.37,28.07,27.76,27.45,27.21,27.05,26.95,26.80,26.64,26.66,26.82,26.97,27.21,27.45,27.71,28.02,28.33,28.63,28.94,29.25,29.56,29.93,30.61,31.53,32.49,32.94,33.23,33.54,33.95,34.48,35.02,35.61,36.23,36.85,37.55,38.30,39.04,39.86,42.05,44.57,47.12,49.36,50.66,51.76,53.08,54.44,55.50,52.94,50.45,48.30,46.69,45.73,46.76,48.21,49.95,52.42,55.22,58.05,61.14,64.65,67.82,70.98,74.12,77.17,79.97,82.58,84.99,87.45,90.31,94.50,98.57,101.95,104.48,107.10,109.65,112.28,115.06,118.08,121.53,125.28,128.76,131.50,133.91,135.70,136.95,137.77,138.36,138.19,137.95,137.78,137.73,137.52,137.51,137.80,138.45,139.45,140.52,141.77,143.18,144.70,145.05,143.99,142.45,141.38,140.77,140.17,139.32,138.05,136.05,134.04,132.11,129.76,126.26,119.48,112.42,106.55,102.56,98.82,97.62,97.11,96.42,94.69,91.22,87.29,83.32,79.70,78.05,77.07,76.47,76.09,75.88,75.72,75.12,74.22,73.40,71.85,69.96,67.53,64.42,60.75,56.88,53.04,49.80,48.32,46.73,44.92,43.28,42.17,40.68,39.34,38.11,36.96,35.81,35.03,35.10,35.89,37.04,38.17,39.40,40.84,42.52,44.14,45.82,47.49,49.16,51.00,52.63,54.24,55.86,57.47,59.01,60.60,62.20,63.73,64.84,66.33,68.14,70.17,72.29,73.99,75.74,77.42,78.92,79.86,80.81,81.81,82.95,84.51,86.13,87.79,89.49,91.24,93.01,95.36,98.10,101.27,105.58,104.50,101.13,97.19,94.64,93.36,92.87,92.97,93.49,94.68,96.41,100.32,106.42,113.10,114.44,113.35,111.01
45.32,44.95,44.58,44.29,44.03,43.80,43.57,43.34,43.06,42.74,42.40,41.82,41.01,40.15,39.38,38.60,37.89,37.20,36.50,35.77,35.03,34.32,33.61,32.89,32.30,31.78,31.44,31.30,31.34,31.42,31.52,31.63,31.70,31.78,31.43,30.89,30.39,29.92,29.58,29.37,29.25,29.09,28.90,28.63,28.32,28.01,27.70,27.45,27.25,27.10,26.98,26.84,26.83,26.97,27.16,27.35,27.57,27.81,28.08,28.35,28.61,28.88,29.15,29.46,29.92,30.70,31.67,32.62,33.39,34.05,34.59,35.04,35.62,36.17,36.73,37.32,37.93,38.63,39.61,41.01,42.93,45.51,48.01,50.38,52.50,54.12,55.69,57.02,57.70,57.30,54.42,51.59,49.33,47.95,47.47,47.92,48.65,49.76,51.76,54.54,57.35,60.42,63.94,67.50,70.85,74.15,77.42,80.58,83.38,85.98,88.89,92.71,97.17,100.66,103.46,105.88,108.50,111.14,113.81,116.45,118.90,121.95,125.15,128.16,130.65,131.95,132.97,133.59,133.87,134.19,134.03,133.85,133.73,133.65,133.50,133.64,134.14,135.00,136.04,137.34,138.74,140.27,142.00,143.02,143.31,143.10,142.67,142.17,141.55,140.75,139.75,138.53,136.69,134.65,132.28,129.36,122.96,116.37,110.55,106.14,103.05,101.98,101.16,99.98,98.20,93.84,89.37,85.45,82.58,81.42,80.78,80.35,79.94,79.45,78.76,77.80,76.65,75.45,73.82,71.96,69.59,66.55,62.85,58.37,54.18,50.84,48.89,47.39,45.80,44.20,42.72,41.09,39.66,38.37,37.21,36.27,35.88,36.18,37.01,38.08,39.37,40.97,42.68,44.34,46.01,47.70,49.45,51.27,53.16,54.77,56.37,57.97,59.50,61.05,63.04,64.96,66.55,67.67,69.08,70.80,72.80,75.01,76.93,79.02,81.15,83.18,84.93,86.30,87.42,88.44,89.54,90.68,91.82,93.02,94.34,95.70,97.46,100.28,104.37,109.13,109.12,104.52,98.41,96.33,95.23,94.75,94.77,95.20,96.19,97.65,102.78,111.40,119.73,120.20,118.25,115.33
45.34,44.82,44.34,43.96,43.65,43.35,43.04,42.74,42.44,42.13,41.82,41.51,40.92,40.17,39.38,38.62,37.93,37.24,36.55,35.85,35.11,34.39,33.69,32.99,32.38,31.94,31.75,31.78,31.87,31.95,32.06,32.18,32.26,32.31,31.91,31.32,30.77,30.23,29.90,29.71,29.60,29.42,29.17,28.89,28.58,28.27,27.98,27.72,27.47,27.25,27.15,27.03,27.03,27.16,27.39,27.55,27.75,27.98,28.24,28.46,28.67,28.87,29.09,29.41,29.95,30.78,31.76,32.69,33.68,34.63,35.41,35.99,36.64,37.21,37.78,38.38,39.06,40.01,41.31,43.28,46.08,48.69,51.04,53.22,55.26,57.16,59.00,60.18,60.24,58.74,55.79,52.97,50.88,49.84,49.86,49.93,50.02,50.41,51.61,54.10,56.76,59.72,63.16,67.11,70.74,74.23,77.65,81.05,84.06,86.86,90.25,95.20,99.57,102.53,104.91,107.28,109.87,112.39,114.71,116.81,118.73,121.39,123.94,126.30,128.33,128.76,129.28,129.56,129.58,129.72,129.61,129.52,129.45,129.36,129.29,129.53,130.20,131.35,132.76,134.30,135.82,137.32,138.89,140.41,141.82,142.76,142.90,142.56,142.03,141.37,140.66,140.11,138.16,135.75,133.20,130.76,125.09,119.47,114.21,109.73,107.42,106.25,104.90,103.10,101.09,96.34,91.66,87.92,85.76,84.97,84.55,84.20,83.72,82.89,81.66,80.32,78.91,77.41,75.70,73.83,71.54,68.63,65.05,59.99,55.55,52.21,49.68,48.09,46.57,44.95,43.18,41.48,39.98,38.69,37.65,36.97,36.81,37.22,38.09,39.20,40.70,42.60,44.51,46.16,47.96,49.66,51.47,53.40,55.31,56.89,58.45,59.99,61.44,63.02,65.37,67.65,69.45,70.81,72.21,73.82,75.67,77.78,79.89,82.31,84.86,87.33,89.57,91.25,92.49,93.39,94.08,94.79,95.55,96.45,97.59,98.96,100.60,103.67,108.47,113.49,114.55,109.93,102.59,98.66,97.24,96.64,96.60,96.93,97.95,101.18,108.74,119.38,127.29,126.28,123.31,119.81
45.74,45.26,44.73,44.27,43.81,43.31,42.75,42.25,41.87,41.56,41.25,40.94,40.62,40.08,39.26,38.55,37.91,37.24,36.55,35.85,35.20,34.49,33.75,33.06,32.44,32.23,32.22,32.29,32.44,32.52,32.61,32.69,32.77,32.72,32.32,31.75,31.15,30.61,30.36,30.20,30.03,29.74,29.45,29.14,28.83,28.53,28.28,28.00,27.70,27.43,27.29,27.25,27.32,27.48,27.71,27.87,28.03,28.27,28.62,28.79,28.95,29.05,29.16,29.53,30.12,30.97,31.95,32.88,33.82,34.80,35.75,36.65,37.39,38.02,38.66,39.39,40.27,42.03,43.77,45.94,48.78,50.85,53.20,55.44,57.46,59.51,60.88,61.51,61.20,59.70,56.95,54.94,53.69,53.17,53.24,53.31,53.06,52.63,52.50,54.23,56.46,59.18,62.41,66.66,70.71,74.47,77.97,81.37,84.69,87.60,91.35,97.55,101.09,103.85,106.27,108.67,111.17,113.13,114.22,114.95,116.57,118.98,120.80,122.15,123.22,123.81,124.35,124.75,124.97,125.06,124.99,124.95,124.90,124.76,124.74,124.92,125.68,127.26,129.70,131.51,133.07,134.53,135.96,137.84,139.65,140.95,141.39,141.44,141.27,140.96,140.52,139.92,137.18,134.18,131.45,129.35,124.82,120.65,116.66,113.01,111.44,109.84,107.82,105.35,102.60,98.55,94.34,90.97,89.28,88.69,88.32,87.94,87.35,86.07,84.44,82.68,80.93,79.33,77.57,75.69,73.43,70.63,67.19,61.60,57.06,53.96,50.99,49.00,47.21,45.47,43.69,41.99,40.38,39.19,38.53,38.15,37.81,38.12,39.08,40.54,42.38,44.39,46.32,48.05,50.13,51.86,53.64,55.56,57.43,59.00,60.47,61.89,63.30,64.98,67.49,70.15,72.56,74.56,76.09,77.55,79.07,80.72,82.93,85.58,88.34,90.87,92.61,94.34,95.73,96.71,97.41,98.16,98.97,99.95,101.25,103.32,105.94,109.57,114.25,119.02,120.68,118.87,112.97,102.18,99.51,98.56,98.46,98.70,100.27,109.71,122.21,133.50,136.08,132.65,128.57,124.51
46.32,45.85,45.31,44.80,44.25,43.63,42.97,42.38,41.88,41.42,40.96,40.61,40.27,39.80,39.13,38.44,37.77,37.12,36.45,35.76,35.13,34.44,33.73,33.08,32.73,32.69,32.77,32.85,32.97,33.05,33.15,33.25,33.33,33.18,32.74,32.17,31.65,31.29,31.07,30.76,30.34,29.89,29.56,29.28,28.99,28.69,28.46,28.17,27.87,27.62,27.47,27.51,27.63,27.79,27.99,28.18,28.37,28.62,28.96,29.23,29.35,29.33,29.32,29.66,30.33,31.19,32.14,33.07,34.00,34.98,35.98,36.97,37.85,38.57,39.37,40.43,41.98,44.08,46.20,48.41,50.74,52.56,54.92,57.22,59.26,61.13,62.39,62.70,62.16,61.01,59.16,57.99,57.29,56.89,56.67,56.42,55.94,55.30,54.69,55.15,56.65,58.97,62.01,66.63,70.75,74.60,78.26,81.73,85.17,88.54,92.82,99.19,102.14,104.75,107.19,109.46,110.86,111.61,111.94,112.31,113.60,115.52,116.95,117.84,118.25,118.68,118.68,118.76,119.00,118.93,119.25,119.62,120.01,120.44,120.41,120.69,121.47,122.88,125.14,127.36,129.53,131.52,133.02,134.65,136.23,137.59,138.54,138.95,139.04,138.81,138.20,137.06,134.26,131.29,128.72,127.04,123.75,120.59,117.56,114.81,113.08,111.19,108.73,105.75,102.70,99.55,96.57,94.20,92.83,91.88,91.17,90.38,89.38,88.10,86.61,84.86,82.98,81.25,79.47,77.59,75.33,72.55,69.45,64.14,59.28,55.50,52.37,49.84,47.82,46.07,44.30,42.60,41.07,40.12,39.76,39.19,38.81,39.34,40.72,42.59,44.42,46.32,48.38,50.64,52.99,54.66,56.26,57.91,59.46,60.91,62.31,63.70,65.11,66.88,69.68,72.62,75.25,77.71,80.04,82.09,83.84,85.39,86.85,88.72,90.92,93.31,95.19,97.13,98.91,100.41,101.55,102.53,103.53,104.68,106.10,108.34,111.45,115.16,119.26,123.45,126.10,127.33,125.98,120.05,118.40,118.30,118.95,119.92,122.80,129.71,137.37,143.10,142.56,138.14,133.46,128.85
46.96,46.49,45.93,45.37,44.74,44.04,43.35,42.72,42.11,41.50,40.88,40.46,39.99,39.49,38.98,38.31,37.61,36.96,36.32,35.63,35.00,34.34,33.70,33.17,33.12,33.21,33.33,33.41,33.49,33.57,33.69,33.82,33.89,33.65,33.17,32.63,32.22,32.05,31.80,31.29,30.58,29.95,29.62,29.36,29.10,28.79,28.56,28.27,28.00,27.79,27.68,27.79,27.95,28.10,28.25,28.48,28.71,28.98,29.31,29.77,29.83,29.67,29.51,29.81,30.54,31.41,32.33,33.26,34.20,35.18,36.19,37.19,38.20,39.02,40.03,41.49,43.71,45.93,48.29,50.48,52.25,53.95,56.24,58.54,60.56,62.18,63.50,63.81,63.36,62.69,61.98,61.73,61.55,61.19,60.56,59.83,59.04,58.19,57.25,56.54,57.19,59.12,62.22,67.23,71.28,75.05,78.76,82.32,85.78,89.60,94.31,100.41,102.95,105.40,107.64,109.36,109.28,108.71,108.57,109.05,110.15,111.61,112.84,113.52,113.47,113.61,112.96,112.61,112.73,112.47,113.21,114.08,115.05,116.20,116.26,116.78,117.61,118.71,120.43,122.93,125.66,128.17,129.80,131.06,132.27,133.52,134.81,135.49,135.74,135.47,134.59,132.94,130.40,127.76,125.52,124.23,122.15,119.80,117.52,115.50,113.48,111.37,108.61,105.32,102.14,99.63,97.80,96.46,95.34,94.01,92.93,91.75,90.39,89.22,87.99,86.42,84.63,82.92,81.22,79.38,77.14,74.38,71.61,67.01,61.82,56.94,53.71,50.63,48.43,46.69,44.94,43.28,41.90,41.26,41.21,40.38,40.05,40.87,42.66,44.89,46.62,48.50,50.82,53.67,56.09,57.70,59.11,60.47,61.65,62.88,64.17,65.52,66.92,68.84,71.94,75.10,77.86,80.71,83.90,86.62,88.72,90.22,90.85,91.70,93.12,95.28,97.46,99.78,102.08,104.19,105.83,107.09,108.31,109.63,111.16,113.46,116.81,120.39,123.82,127.39,131.03,134.96,138.43,140.04,140.06,141.03,142.42,143.91,147.45,149.52,150.34,149.84,147.64,143.00,138.08,132.96
47.60,47.12,46.47,45.76,45.06,44.36,43.67,43.04,42.46,41.88,41.26,40.70,40.04,39.37,38.74,38.16,37.49,36.83,36.20,35.50,34.88,34.25,33.75,33.56,33.66,33.75,33.84,33.93,34.06,34.15,34.24,34.33,34.40,34.06,33.65,33.27,32.98,32.71,32.24,31.51,30.63,29.96,29.67,29.39,29.10,28.79,28.56,28.27,28.02,27.89,27.97,28.11,28.27,28.42,28.57,28.75,29.00,29.32,29.73,30.58,30.53,30.12,29.75,30.00,30.73,31.60,32.53,33.45,34.44,35.44,36.44,37.45,38.45,39.36,40.74,42.61,44.74,46.81,49.03,51.10,52.82,54.52,56.43,58.38,60.23,61.80,63.43,64.80,65.58,65.46,65.94,66.95,67.64,67.51,66.38,65.00,63.31,61.41,59.52,58.78,58.64,60.32,64.68,70.03,73.81,77.06,80.30,83.85,87.23,90.89,95.27,100.79,103.34,105.54,106.65,106.26,104.45,103.06,103.02,104.19,105.78,107.31,108.66,109.45,109.41,109.06,108.19,107.49,107.14,106.74,107.50,108.75,110.26,111.86,112.66,113.71,114.82,115.92,117.35,119.27,121.49,123.71,125.39,126.65,127.73,128.59,129.18,129.76,129.88,129.48,128.56,127.16,125.26,123.37,121.73,120.59,119.34,117.59,115.58,113.56,111.88,109.63,106.96,103.96,100.74,97.49,95.34,94.07,93.25,92.27,91.27,90.27,89.23,88.01,86.78,85.55,84.41,83.49,82.24,80.64,78.54,75.92,73.20,70.02,64.71,58.34,54.76,51.38,49.00,47.24,45.59,44.12,42.95,42.66,43.08,42.41,42.36,43.27,45.01,47.19,49.07,51.60,54.56,57.56,59.23,60.82,62.35,63.73,64.61,65.41,66.35,67.47,68.79,71.11,74.42,77.75,80.73,83.98,87.18,89.90,91.97,93.23,93.80,94.20,95.04,96.75,99.03,102.25,105.28,107.73,109.47,111.05,112.37,113.72,115.45,118.10,121.25,124.45,127.54,130.76,134.82,139.59,144.41,148.10,149.23,150.48,151.28,151.21,151.35,151.31,151.08,150.65,149.87,146.44,141.98,136.59
48.15,47.56,46.87,46.14,45.40,44.69,44.02,43.40,42.79,42.17,41.49,40.81,40.09,39.35,38.64,38.04,37.36,36.70,36.07,35.41,34.79,34.29,34.00,34.02,34.21,34.31,34.39,34.48,34.60,34.68,34.76,34.85,34.95,34.58,34.21,33.88,33.58,33.24,32.56,31.67,30.72,29.96,29.69,29.41,29.11,28.83,28.57,28.27,28.09,28.08,28.24,28.42,28.58,28.74,28.89,29.05,29.33,29.81,30.56,31.60,31.33,30.66,30.14,30.43,31.13,31.91,32.75,33.65,34.65,35.68,36.71,37.74,38.75,39.66,41.11,43.04,45.09,47.10,49.10,50.98,52.69,54.42,56.14,57.89,59.64,61.21,62.94,64.73,66.23,67.08,68.34,70.17,71.60,72.14,72.02,71.23,69.72,67.75,65.91,64.41,62.81,63.37,67.77,73.01,76.70,79.97,83.27,86.70,89.84,93.12,96.78,101.01,103.35,104.75,104.67,102.86,99.75,98.02,97.88,99.07,100.91,102.90,104.57,105.58,105.70,105.28,104.28,103.30,102.57,101.96,102.61,103.89,105.55,107.32,108.65,110.20,111.76,113.16,114.44,116.11,117.95,119.77,121.23,122.22,123.04,123.60,123.85,124.12,124.05,123.59,122.74,121.61,120.11,118.71,117.58,116.87,116.40,115.16,113.46,111.46,108.76,105.82,103.31,101.01,97.98,94.66,92.63,91.45,90.51,89.60,88.99,88.35,87.53,86.57,85.37,84.30,83.44,82.80,81.87,80.57,78.74,76.33,73.84,71.27,66.48,60.29,56.21,52.49,49.82,47.92,46.43,45.10,44.06,43.95,44.65,44.43,44.86,45.93,47.61,49.81,52.52,55.49,58.51,61.30,62.79,64.28,65.76,67.06,67.84,68.52,69.38,70.54,72.15,74.65,77.85,80.99,83.88,87.21,90.30,92.94,94.96,96.11,96.64,96.85,97.29,98.48,101.34,105.03,108.41,111.04,112.79,114.47,115.97,117.70,120.14,122.98,125.77,128.54,131.37,134.46,138.88,143.93,148.89,152.73,154.06,154.32,153.66,152.31,151.31,150.70,150.33,150.13,150.11,148.07,144.23,138.98
48.65,47.88,47.19,46.49,45.76,45.01,44.38,43.76,43.09,42.37,41.60,40.82,40.11,39.38,38.62,37.93,37.23,36.58,35.96,35.35,34.74,34.43,34.38,34.54,34.77,34.89,34.96,35.04,35.12,35.20,35.27,35.37,35.52,35.15,34.82,34.48,34.09,33.69,32.80,31.80,30.83,29.98,29.69,29.41,29.13,28.89,28.58,28.28,28.18,28.33,28.49,28.71,28.90,29.06,29.21,29.38,29.71,30.43,31.65,32.73,32.22,31.29,30.63,31.01,31.67,32.33,33.02,33.88,34.86,35.90,36.97,38.04,39.05,39.93,41.24,43.00,45.01,47.01,48.75,50.39,52.09,53.87,55.52,57.18,58.87,60.49,62.19,63.98,65.89,67.89,69.67,72.04,74.14,75.64,77.36,77.93,77.29,75.87,74.62,71.96,68.60,67.60,71.27,76.10,79.83,83.43,87.11,90.35,93.18,95.92,98.60,101.15,103.07,103.33,101.97,99.15,95.15,93.41,93.06,93.86,95.77,98.42,100.54,101.84,102.20,101.99,100.94,99.74,98.70,97.83,98.26,99.36,100.91,102.71,104.39,106.39,108.44,110.31,111.60,113.23,114.81,116.18,117.26,117.83,118.32,118.68,118.81,118.65,118.38,117.88,117.15,116.27,115.00,113.93,113.26,113.12,113.35,112.55,111.11,109.09,104.65,100.76,98.42,96.99,94.32,91.37,89.70,88.62,87.32,86.34,86.30,86.13,85.49,84.97,83.83,82.83,82.02,81.30,80.58,79.60,78.09,75.94,73.79,71.34,67.48,62.50,57.90,53.87,50.83,48.73,47.39,46.17,45.22,45.19,46.03,46.44,47.45,48.74,50.39,52.63,56.55,59.80,62.57,64.96,66.60,67.98,69.29,70.49,71.27,72.05,72.99,74.39,76.54,79.05,81.91,84.64,87.21,90.43,93.33,95.85,97.83,99.04,99.54,99.75,99.93,100.58,104.23,108.07,111.50,114.23,115.95,117.62,119.39,121.71,125.04,127.94,130.29,132.62,135.25,138.40,143.15,148.09,152.41,155.19,156.06,154.60,152.06,149.70,148.92,148.68,148.67,148.79,149.09,148.51,145.42,140.61
48.92,48.20,47.51,46.77,46.01,45.24,44.47,43.69,42.93,42.17,41.34,40.57,39.88,39.21,38.49,37.80,37.19,36.58,35.96,35.35,34.97,34.87,34.96,35.11,35.29,35.40,35.47,35.56,35.69,35.77,35.85,35.93,36.04,35.66,35.33,34.99,34.57,33.87,32.93,31.95,31.01,30.11,29.73,29.44,29.17,28.89,28.63,28.42,28.37,28.53,28.74,28.97,29.16,29.32,29.53,29.84,30.52,31.50,32.66,33.64,33.19,32.31,31.61,31.79,32.44,33.15,33.93,34.83,35.41,36.06,36.88,37.93,39.03,40.01,41.15,42.62,44.63,46.44,47.98,49.48,51.13,52.86,54.50,56.16,57.86,59.53,61.23,63.05,64.99,67.00,68.93,71.88,74.98,77.68,79.79,81.18,81.66,81.16,79.62,76.71,73.53,72.41,75.12,79.20,83.16,86.96,90.55,93.74,96.56,98.69,100.28,101.64,101.93,100.49,97.41,93.29,90.92,89.91,89.51,89.81,91.38,93.78,96.26,98.11,98.78,98.96,98.23,97.19,96.08,94.87,94.64,95.28,96.75,98.94,100.27,101.71,103.54,105.84,108.17,109.97,111.55,112.90,113.88,114.49,115.00,115.34,115.42,115.27,114.95,114.36,113.41,111.99,110.43,109.70,109.63,109.73,109.96,109.12,107.02,103.68,99.98,96.51,93.76,91.65,89.68,87.56,85.90,84.50,83.12,82.54,83.04,83.42,83.25,83.13,82.21,81.35,80.50,79.39,78.23,76.97,75.46,73.61,71.76,69.68,66.88,63.34,59.33,55.84,52.72,50.16,48.36,47.28,46.41,46.38,47.25,48.11,49.47,51.34,53.53,55.77,59.68,63.11,66.06,68.57,70.56,72.04,73.36,74.54,75.47,76.40,77.77,79.88,82.90,84.67,86.79,88.87,90.92,93.80,96.53,99.26,101.84,103.94,104.84,105.25,105.72,106.80,109.26,112.11,114.91,117.43,119.50,122.06,124.70,127.28,129.69,131.84,133.92,136.15,138.86,143.04,147.94,152.22,155.28,156.58,155.29,153.13,150.86,149.11,148.13,147.53,147.30,147.37,147.63,147.49,145.65,142.37
49.15,48.46,47.69,46.90,46.09,45.27,44.42,43.57,42.75,41.94,41.12,40.32,39.65,39.01,38.34,37.72,37.16,36.58,35.97,35.40,35.28,35.35,35.50,35.66,35.81,35.93,36.02,36.10,36.23,36.32,36.41,36.50,36.55,36.17,35.84,35.47,34.97,34.10,33.14,32.19,31.27,30.39,29.88,29.53,29.27,28.99,28.75,28.56,28.54,28.73,28.96,29.17,29.36,29.57,29.85,30.47,31.42,32.54,33.65,34.55,34.12,33.30,32.60,32.61,33.31,34.11,34.96,35.87,36.28,36.72,37.30,38.09,39.03,40.06,41.09,42.30,44.10,45.68,47.10,48.54,50.17,51.85,53.48,55.13,56.80,58.45,60.06,61.82,63.71,65.70,67.90,71.02,74.74,78.62,81.35,83.49,84.97,85.50,84.57,81.55,78.05,76.35,78.21,82.04,86.10,90.01,93.60,96.84,99.24,100.75,101.57,102.02,101.35,98.53,94.18,89.34,87.60,86.89,86.56,86.79,88.25,90.32,92.65,94.54,95.41,95.89,95.47,94.62,93.51,92.02,91.10,91.46,93.00,95.42,96.65,97.95,99.67,102.01,104.74,106.74,108.41,109.77,110.62,111.23,111.71,111.99,112.01,111.88,111.42,110.59,109.32,107.47,105.86,105.53,106.04,106.47,106.56,105.54,103.07,99.26,95.97,92.71,89.80,87.40,85.68,83.94,82.13,80.38,78.86,78.60,79.45,80.33,80.79,80.96,80.21,79.34,78.34,77.01,75.62,74.22,72.72,71.04,69.32,67.68,65.73,63.24,59.97,57.08,54.15,51.44,49.28,48.16,47.35,47.37,48.30,49.50,51.28,53.55,56.13,58.70,62.67,66.32,69.49,72.15,74.43,76.09,77.65,79.20,80.59,82.20,83.90,85.94,88.52,89.72,91.23,92.84,94.64,97.42,100.25,103.21,106.08,108.51,109.62,110.22,110.90,112.13,113.98,116.41,119.04,121.67,124.08,126.71,129.38,131.81,133.71,135.51,137.70,140.20,143.24,148.00,152.78,155.87,157.05,156.63,154.21,151.80,149.81,148.46,147.38,146.55,146.07,145.95,146.13,146.24,145.45,143.57
49.35,48.64,47.72,46.86,45.98,45.07,44.22,43.37,42.53,41.70,40.92,40.08,39.39,38.77,38.17,37.69,37.16,36.58,36.00,35.53,35.68,35.86,36.01,36.17,36.32,36.47,36.59,36.67,36.75,36.83,36.95,37.06,37.06,36.68,36.35,35.92,35.29,34.36,33.43,32.51,31.61,30.83,30.14,29.69,29.41,29.18,28.95,28.72,28.69,28.92,29.15,29.32,29.52,29.79,30.17,31.27,32.41,33.54,34.60,35.46,35.02,34.24,33.59,33.45,34.27,35.19,36.11,37.03,37.48,37.89,38.23,38.53,39.03,40.08,41.07,42.06,43.41,44.74,46.11,47.58,49.21,50.83,52.46,54.08,55.69,57.24,58.66,60.26,62.04,63.99,66.58,69.45,73.40,78.41,81.98,84.84,87.18,88.84,89.49,86.49,82.15,79.38,80.53,84.61,88.64,92.55,96.25,99.64,101.16,102.07,102.46,102.27,101.36,97.51,92.34,87.37,85.24,84.38,84.24,84.85,86.46,88.11,89.74,91.12,92.10,92.78,92.67,92.05,90.98,89.29,87.65,87.89,89.70,92.16,93.54,95.12,96.89,98.84,101.34,103.54,105.40,106.79,107.50,108.05,108.45,108.63,108.56,108.48,107.77,106.54,104.86,102.72,101.29,101.44,102.52,103.34,103.13,101.78,99.29,95.88,92.63,89.39,86.58,84.29,82.37,80.52,78.39,76.27,74.53,74.51,75.50,76.85,78.07,78.44,77.81,76.78,75.52,74.13,72.74,71.35,69.86,68.22,66.45,65.32,63.99,62.16,59.78,57.55,55.11,52.57,50.17,48.80,48.04,48.16,49.17,50.62,52.86,55.37,58.17,61.44,65.52,69.43,72.87,75.69,78.22,80.13,82.18,84.49,86.67,89.52,91.45,92.60,93.36,94.16,95.20,96.55,98.37,101.30,104.54,107.71,110.55,112.73,113.84,114.64,115.44,116.54,118.39,120.98,123.93,126.98,129.74,131.59,133.40,135.24,137.10,138.95,141.62,144.79,148.43,153.29,157.66,159.01,157.68,155.28,152.81,150.63,148.93,147.76,146.68,145.73,144.98,144.52,144.61,144.75,144.80,144.18
49.36,48.48,47.55,46.68,45.80,44.88,44.03,43.18,42.36,41.55,40.73,39.97,39.34,38.83,38.38,37.87,37.34,36.78,36.24,35.83,36.09,36.37,36.58,36.74,36.89,37.01,37.13,37.24,37.32,37.40,37.49,37.57,37.57,37.19,36.83,36.34,35.61,34.73,33.81,32.93,32.10,31.28,30.45,29.89,29.54,29.31,29.13,28.91,28.84,28.99,29.23,29.43,29.65,30.03,30.83,31.98,33.17,34.34,35.46,36.44,36.07,35.34,34.70,34.41,35.36,36.33,37.26,38.18,38.69,39.00,39.35,39.87,40.79,42.03,43.18,44.06,44.51,45.04,45.72,46.82,48.47,49.86,51.33,52.88,54.49,56.03,57.44,58.90,60.58,62.62,65.47,68.59,72.53,77.36,81.58,84.86,88.13,91.13,92.95,90.73,87.17,84.23,83.66,87.03,90.90,94.90,98.73,101.99,103.52,104.20,103.98,102.69,101.13,97.02,91.69,86.37,83.11,81.94,81.89,82.61,83.92,85.18,86.47,87.69,88.71,89.22,88.99,88.14,86.79,85.18,84.22,84.95,86.94,89.32,91.25,93.12,94.98,96.91,99.01,100.94,102.61,103.91,104.61,104.98,105.22,105.27,105.09,104.74,103.81,102.28,100.21,97.73,96.76,97.41,98.88,99.91,99.59,98.41,96.32,93.37,89.98,86.60,83.69,81.24,78.90,76.55,74.24,72.21,70.72,70.77,71.95,73.37,74.52,74.99,74.46,73.59,72.43,70.90,68.74,66.93,65.52,64.48,63.39,62.50,61.43,59.98,58.02,56.30,54.70,52.85,50.47,48.99,48.25,48.46,49.71,51.86,54.18,56.69,59.71,63.76,68.22,72.33,76.05,79.33,81.97,84.50,87.00,89.45,91.78,94.07,95.69,96.69,97.28,98.33,99.95,101.77,103.78,106.62,109.29,111.98,114.45,116.25,117.35,118.66,120.26,122.17,124.48,126.66,128.86,131.08,133.18,134.91,136.68,138.70,141.10,143.55,146.68,150.46,154.67,158.35,159.44,158.59,156.44,153.93,151.51,149.67,148.27,147.11,145.93,144.92,144.06,143.42,143.22,143.34,143.28,142.84
49.19,48.24,47.37,46.50,45.60,44.69,43.84,43.02,42.25,41.50,40.72,40.05,39.48,39.05,38.75,38.23,37.68,37.13,36.61,36.19,36.49,36.82,37.10,37.29,37.44,37.55,37.67,37.80,37.87,37.97,38.05,38.10,38.08,37.70,37.27,36.69,35.91,35.08,34.17,33.30,32.48,31.59,30.66,30.02,29.65,29.42,29.26,29.06,28.98,29.08,29.29,29.52,29.79,30.35,31.61,32.75,33.95,35.14,36.30,37.38,37.14,36.49,35.80,35.28,36.35,37.43,38.48,39.69,40.83,41.59,42.23,42.94,43.87,44.88,45.81,46.38,46.13,46.01,46.01,46.52,47.79,48.99,50.29,51.75,53.35,54.97,56.43,57.86,59.50,61.63,64.75,68.11,72.03,76.59,81.26,85.10,89.12,93.06,95.93,95.02,92.36,89.32,87.39,89.93,93.65,97.69,101.50,104.46,105.98,106.26,105.19,102.67,100.15,95.92,90.67,85.15,81.20,79.71,79.45,79.96,80.88,81.95,83.10,84.21,85.12,85.38,84.94,83.92,82.52,81.19,81.00,82.23,84.40,86.74,89.09,91.20,93.19,95.11,96.96,98.66,100.09,101.17,101.76,101.98,102.08,101.99,101.59,100.80,99.41,97.52,95.25,92.93,92.48,93.40,94.96,96.14,95.90,94.99,93.34,90.89,87.33,83.89,81.00,78.50,75.82,73.03,70.62,68.70,67.38,67.33,68.49,69.78,70.70,71.26,70.71,69.88,68.71,66.91,64.46,62.55,61.27,60.59,59.99,59.29,58.44,57.32,55.69,54.51,53.66,52.52,50.54,49.07,48.42,48.75,50.18,52.87,55.37,58.02,61.28,65.69,70.26,74.47,78.45,82.21,85.21,88.18,90.95,93.52,96.02,98.65,100.61,101.91,102.75,103.93,105.92,108.06,110.14,112.65,114.73,116.87,118.96,120.57,121.82,123.38,125.26,127.45,129.77,131.53,133.14,134.78,136.49,138.47,140.56,142.91,145.72,148.71,152.27,156.32,160.27,161.50,159.99,157.65,155.06,152.57,150.36,148.82,147.62,146.44,145.22,144.15,143.19,142.41,141.93,141.63,140.49,139.19
48.73,47.93,47.20,46.33,45.41,44.50,43.65,42.92,42.25,41.62,41.04,40.41,39.89,39.54,39.33,38.86,38.28,37.70,37.17,36.65,36.84,37.17,37.52,37.80,37.96,38.10,38.22,38.31,38.38,38.52,38.63,38.66,38.60,38.22,37.65,36.95,36.17,35.39,34.49,33.57,32.65,31.67,30.67,30.05,29.71,29.48,29.33,29.16,29.11,29.20,29.36,29.59,29.97,30.80,32.56,33.66,34.81,35.97,37.13,38.21,38.25,37.72,36.87,35.95,37.17,38.41,39.82,41.84,44.67,46.81,48.23,48.95,49.05,49.04,49.05,48.93,48.44,47.97,47.39,47.04,47.21,48.31,49.43,50.76,52.37,54.18,55.80,57.35,59.07,61.25,64.66,68.21,72.12,76.48,81.25,85.93,90.37,94.50,98.26,99.46,97.70,94.60,92.05,93.70,97.30,101.30,104.84,107.20,108.57,108.10,105.77,101.82,97.86,93.67,88.79,83.38,79.63,77.80,76.86,76.59,77.07,78.30,79.59,80.63,81.20,81.11,80.37,79.36,78.35,77.61,78.14,79.82,82.18,84.56,87.02,89.33,91.46,93.38,95.24,96.85,98.00,98.67,98.96,99.07,99.11,98.85,98.03,96.55,94.28,91.87,89.75,88.53,88.63,89.41,90.57,91.79,91.95,91.40,90.24,88.37,84.56,81.25,78.60,76.29,73.46,70.44,68.00,66.14,64.81,64.41,65.15,66.00,66.56,67.17,66.41,65.36,63.90,61.61,59.84,58.48,57.42,56.57,56.02,55.45,54.82,53.98,52.55,52.03,51.70,51.23,50.29,49.02,48.60,49.10,50.59,53.49,56.35,59.46,62.96,66.98,71.15,75.31,79.50,83.70,87.54,90.55,93.30,96.01,98.81,103.69,107.23,109.52,111.12,112.15,113.99,116.03,117.94,119.72,121.31,122.93,124.63,126.45,128.14,129.39,130.56,131.90,133.39,134.78,136.27,137.97,139.92,142.69,145.58,148.49,151.35,154.75,158.66,162.36,164.58,161.27,158.80,156.31,153.70,151.16,149.48,148.15,146.96,145.74,144.57,143.43,142.40,141.52,140.80,139.35,135.56,131.70
48.39,47.66,46.97,46.19,45.38,44.59,43.94,43.35,42.77,42.19,41.61,41.04,40.51,40.11,39.86,39.39,38.77,38.12,37.48,36.94,37.26,37.60,37.91,38.22,38.49,38.64,38.76,38.87,38.95,39.06,39.15,39.18,39.11,38.61,37.98,37.25,36.46,35.53,34.58,33.57,32.53,31.53,30.53,29.98,29.74,29.55,29.39,29.27,29.24,29.32,29.48,29.67,30.19,31.26,33.16,34.60,35.80,36.89,38.00,39.05,39.35,38.93,37.96,36.95,37.91,39.58,41.82,44.62,47.71,49.72,50.87,51.36,51.28,51.27,51.38,51.38,50.80,49.84,48.87,48.07,47.68,48.52,49.65,51.06,52.70,54.44,56.11,57.72,59.58,62.03,65.39,68.98,72.81,76.94,81.58,86.87,91.90,96.37,100.12,102.35,101.45,99.19,97.48,98.40,101.53,105.10,108.23,110.28,111.00,109.47,105.65,99.81,95.29,90.93,86.36,81.65,78.72,76.79,75.27,74.17,73.73,74.29,75.03,75.79,76.45,76.57,76.40,75.82,75.04,74.89,75.84,77.68,80.03,82.39,84.86,87.25,89.53,91.66,93.51,94.98,95.98,96.52,96.72,96.61,96.39,95.78,94.50,92.68,90.36,88.08,86.16,85.00,85.17,85.95,87.09,88.36,88.95,88.80,87.81,85.87,82.44,79.04,76.35,74.21,71.78,68.88,66.22,63.98,62.33,61.64,61.87,62.28,62.51,62.54,61.84,60.96,59.84,58.23,56.80,55.59,54.53,53.59,52.81,52.19,51.65,51.08,50.24,50.00,49.83,49.61,49.26,48.65,48.53,49.08,50.55,53.60,56.65,59.90,63.39,67.09,71.06,75.23,79.63,84.26,88.74,91.86,94.62,97.55,101.15,106.74,111.22,114.64,117.44,119.26,121.14,123.14,125.12,126.35,127.52,128.60,129.69,130.92,132.26,133.32,134.29,135.36,136.63,138.37,140.47,142.85,145.40,148.24,151.19,154.11,156.87,160.23,163.55,165.15,164.11,160.29,157.56,154.94,152.39,150.16,148.74,147.51,146.32,145.09,143.93,142.74,141.64,140.09,136.37,134.10,131.12,128.34
48.18,47.51,46.84,46.16,45.47,44.81,44.35,43.88,43.38,42.82,42.22,41.67,41.12,40.65,40.28,39.79,39.15,38.42,37.72,37.28,37.76,38.11,38.37,38.66,39.03,39.19,39.32,39.48,39.59,39.69,39.78,39.80,39.69,39.03,38.31,37.54,36.71,35.63,34.60,33.52,32.41,31.40,30.37,29.90,29.75,29.60,29.46,29.38,29.37,29.45,29.59,29.75,30.44,31.76,33.67,35.47,36.78,37.86,38.94,39.97,40.47,40.08,38.97,37.96,38.70,40.79,43.76,47.07,49.96,51.63,52.50,52.85,52.87,53.09,53.52,53.77,53.18,51.79,50.46,49.31,48.48,49.07,50.26,51.78,53.46,55.09,56.78,58.49,60.51,63.15,66.39,69.96,73.74,77.71,82.20,87.94,93.56,98.44,101.98,104.83,104.80,103.66,103.16,103.75,106.43,109.42,111.89,113.42,113.02,110.37,105.32,97.93,93.03,88.57,84.30,80.34,78.12,76.09,74.09,72.26,70.91,70.61,70.72,71.18,71.92,72.24,72.65,72.57,72.10,72.42,73.63,75.56,77.92,80.31,82.68,85.07,87.47,89.81,91.73,93.07,93.96,94.47,94.61,94.28,93.73,92.72,91.06,89.03,86.85,84.81,83.08,81.79,81.92,82.76,83.98,85.27,86.23,86.46,85.60,83.50,80.47,76.93,74.13,72.04,69.82,67.39,64.70,62.12,60.06,59.02,58.83,58.87,58.75,58.14,57.50,56.82,56.08,55.23,54.09,53.02,52.03,51.12,50.21,49.51,48.97,48.58,48.26,48.15,48.02,47.94,47.98,48.11,48.26,48.85,50.25,53.22,56.36,59.62,63.01,66.55,70.53,74.76,79.36,84.35,89.41,92.65,95.44,98.55,102.87,108.62,113.78,118.28,122.26,125.25,127.63,129.82,131.81,132.48,133.19,133.79,134.31,134.91,135.86,136.89,137.95,139.06,140.63,142.83,145.45,148.35,151.32,153.97,156.70,159.43,162.02,165.21,167.35,166.57,162.68,159.23,156.33,153.59,151.12,149.29,148.05,146.86,145.67,144.45,143.28,142.07,140.50,137.76,131.78,129.12,127.48,126.24
48.28,47.71,47.13,46.51,45.85,45.19,44.73,44.27,43.76,43.23,42.73,42.13,41.53,40.95,40.40,39.81,39.19,38.48,37.88,37.88,38.44,38.85,39.11,39.30,39.56,39.78,39.98,40.20,40.46,40.67,40.80,40.79,40.53,39.62,38.68,37.74,36.77,35.69,34.62,33.57,32.53,31.47,30.34,29.86,29.75,29.60,29.57,29.54,29.54,29.57,29.67,29.81,30.75,32.37,34.18,36.08,37.66,38.95,40.04,41.16,41.60,41.04,39.74,38.73,39.69,41.96,44.93,47.89,50.23,52.23,53.65,54.44,54.85,55.26,55.78,56.10,55.60,54.12,52.40,50.74,49.49,49.93,51.25,52.84,54.49,56.17,57.82,59.82,62.06,64.36,67.60,71.14,74.93,78.99,83.53,89.36,95.41,100.79,104.28,107.27,108.21,108.36,108.98,110.46,113.14,115.33,116.41,116.50,113.83,110.12,104.93,97.48,92.08,87.84,84.05,80.44,77.97,75.65,73.38,71.25,69.40,68.38,68.16,68.43,68.83,68.85,69.12,69.42,69.68,70.05,71.26,73.28,75.84,78.51,80.44,82.74,85.17,87.55,89.76,91.07,91.92,92.41,92.50,91.99,91.01,89.63,87.92,85.79,83.62,81.68,80.10,78.91,79.09,80.03,81.33,82.52,83.63,84.15,83.53,81.51,78.44,74.81,71.88,69.46,66.30,65.20,63.32,60.88,58.38,56.84,56.53,56.38,55.89,54.99,54.17,53.43,52.69,51.84,51.09,50.52,50.02,49.50,48.98,48.24,47.56,47.03,46.66,46.51,46.36,46.34,46.60,47.27,47.60,48.24,49.53,51.61,54.63,57.72,60.98,64.82,69.34,73.77,78.48,83.70,89.25,92.66,95.50,98.61,102.87,108.30,113.83,119.08,123.79,128.42,132.72,135.84,137.37,137.25,137.39,137.64,137.99,138.49,139.58,141.06,142.72,144.50,147.49,149.86,152.11,154.44,156.92,159.16,161.41,163.70,166.04,168.98,168.76,166.21,162.20,158.50,155.18,152.27,149.96,148.58,147.40,146.19,144.99,143.81,142.59,141.40,138.04,132.91,129.50,127.66,126.15,124.77
48.36,47.82,47.28,46.70,46.08,45.44,44.91,44.38,43.83,43.26,42.69,42.08,41.44,40.80,40.18,39.60,39.09,38.68,38.47,38.76,39.38,39.92,40.34,40.66,41.02,41.24,41.36,41.46,41.70,41.96,42.10,41.90,41.07,39.94,38.87,37.84,36.80,35.71,34.66,33.62,32.57,31.49,30.67,30.11,29.81,29.73,29.73,29.73,29.73,29.73,29.78,30.14,31.35,33.18,34.99,36.88,38.56,39.95,41.04,42.16,42.79,42.27,40.81,39.64,40.60,42.81,45.58,48.16,50.29,52.44,54.40,55.98,56.72,57.39,58.06,58.48,58.15,56.55,54.75,52.90,51.25,51.34,52.59,54.14,55.73,57.43,59.41,61.66,63.88,65.74,68.85,72.41,76.25,80.35,85.13,91.53,97.77,103.11,106.91,110.33,112.32,113.62,115.00,116.71,118.82,120.10,119.99,118.19,114.00,109.38,103.99,97.07,91.57,87.49,83.94,80.51,77.92,75.44,73.01,70.66,68.52,66.84,66.09,65.97,66.10,66.06,66.18,66.55,67.13,67.71,69.35,71.58,74.16,76.81,78.52,80.49,82.62,84.82,87.04,88.40,89.35,89.94,90.01,89.25,88.08,86.57,84.75,82.62,80.56,78.79,77.37,76.27,76.52,77.54,78.99,80.41,81.57,82.11,81.42,79.15,75.77,72.14,68.85,65.89,62.84,62.12,60.93,59.08,56.69,54.63,54.04,53.65,52.91,52.04,51.28,50.75,50.34,49.81,49.36,49.03,48.69,48.26,47.71,46.92,46.15,45.53,45.11,44.88,44.72,44.79,45.26,46.41,46.89,47.56,48.78,50.29,53.16,56.42,59.95,63.86,68.14,72.62,77.47,82.76,88.12,91.55,94.47,97.70,102.18,107.30,112.89,118.57,124.00,130.06,135.67,139.83,142.22,143.54,144.46,144.49,143.88,143.19,144.15,145.94,148.11,150.40,153.42,155.75,157.66,159.38,161.34,163.14,165.14,167.63,170.77,170.38,168.41,165.37,161.66,157.95,154.47,151.49,149.22,147.91,146.72,145.50,144.29,143.13,141.89,139.68,135.44,130.26,128.34,126.86,125.40,123.96
48.41,47.86,47.31,46.77,46.18,45.57,44.95,44.33,43.71,43.07,42.37,41.75,41.08,40.43,39.83,39.33,39.02,39.04,39.36,39.85,40.55,41.26,41.90,42.44,42.97,43.15,43.12,43.01,43.15,43.41,43.49,42.99,41.44,40.10,38.95,37.88,36.80,35.71,34.69,33.65,32.60,31.59,31.22,30.60,30.06,30.03,30.03,30.04,30.04,30.04,30.03,30.64,32.07,34.02,35.89,37.75,39.45,40.88,41.98,43.06,43.99,43.64,42.12,40.77,41.57,43.51,45.93,48.15,50.24,52.47,54.93,57.40,58.47,59.45,60.32,60.90,60.83,59.16,57.36,55.41,53.42,53.05,54.11,55.57,57.09,58.84,61.37,63.81,65.84,67.24,70.20,73.81,77.74,81.92,87.05,94.13,100.41,105.44,109.72,113.69,116.68,119.00,120.97,122.62,123.91,124.17,122.86,119.02,113.77,108.36,102.74,96.64,91.28,87.33,83.90,80.54,77.91,75.35,72.79,70.28,67.94,65.68,64.30,63.67,63.58,63.55,63.54,63.84,64.53,65.46,67.70,70.19,72.70,75.14,76.76,78.32,80.00,81.91,83.93,85.35,86.45,87.16,87.23,86.24,85.03,83.51,81.58,79.52,77.62,76.02,74.75,73.76,74.06,75.18,76.81,78.59,79.78,80.20,79.22,76.58,72.84,69.20,65.47,61.97,59.54,58.71,58.03,56.91,54.89,52.42,51.51,50.86,49.99,49.31,48.68,48.46,48.49,48.43,48.23,48.02,47.70,47.18,46.41,45.57,44.77,44.06,43.58,43.25,43.09,43.25,43.94,45.48,46.14,46.87,48.06,49.24,51.97,55.55,59.53,63.37,67.06,71.48,76.45,81.69,86.45,89.81,92.86,96.34,101.17,106.01,111.46,117.31,123.32,130.63,137.25,142.50,146.34,150.11,152.53,152.58,150.84,148.68,149.36,151.34,153.91,156.50,158.90,161.02,162.56,163.68,165.13,166.58,168.53,171.45,175.49,170.55,167.24,164.32,161.09,157.47,153.97,150.98,148.70,147.30,146.04,144.80,143.59,142.42,141.18,137.37,132.78,128.82,127.74,126.38,124.95,123.48
48.33,47.73,47.14,46.50,45.86,45.25,44.63,44.01,43.36,42.68,41.99,41.31,40.70,40.17,39.74,39.58,39.74,40.22,40.96,41.75,42.65,43.46,44.12,44.61,45.09,45.11,44.99,44.90,44.83,44.91,44.36,43.16,41.50,40.02,38.89,37.88,36.80,35.71,34.65,33.66,32.88,32.62,32.26,31.93,31.64,31.37,31.37,31.41,31.47,31.49,31.33,31.46,32.51,34.31,36.27,38.23,40.00,41.53,42.81,43.89,45.09,45.22,44.24,43.23,43.48,44.41,45.96,48.09,50.23,52.72,55.40,58.00,59.66,61.06,62.31,63.34,64.06,62.94,60.39,57.67,55.86,54.90,55.68,57.01,58.59,60.83,64.04,66.36,67.89,69.10,72.25,75.88,80.19,85.22,90.59,97.38,103.28,108.12,112.64,116.82,120.11,122.88,125.46,127.41,128.38,127.16,123.57,118.45,112.93,107.08,101.22,95.75,90.89,87.08,83.67,80.34,77.66,75.09,72.48,69.83,67.18,64.77,62.85,61.67,61.32,61.05,60.95,61.29,62.26,64.03,66.40,68.88,71.27,73.41,74.98,76.46,77.92,79.40,80.78,81.97,82.92,83.50,83.53,82.81,81.84,80.48,78.66,76.79,75.01,73.39,72.03,71.19,71.55,72.83,74.65,76.48,78.02,78.05,76.57,73.76,70.46,66.38,62.53,59.39,57.41,56.33,55.32,54.01,52.12,50.44,49.49,48.78,48.09,47.51,46.89,46.62,46.62,46.70,46.80,46.81,46.53,45.84,45.01,44.21,43.42,42.68,42.06,41.63,41.43,41.68,42.60,44.14,45.17,46.31,47.78,49.21,52.19,55.95,60.00,63.70,67.14,71.21,75.82,80.69,84.36,87.55,91.06,95.29,100.56,105.21,110.10,115.24,120.66,128.46,136.13,142.40,147.14,152.28,156.55,158.11,157.43,156.01,156.47,158.37,160.58,162.32,164.77,165.99,166.75,167.47,168.66,170.68,173.39,175.88,176.91,170.49,166.61,163.58,160.40,156.82,153.33,150.48,148.35,146.85,145.40,144.13,142.93,141.72,140.42,134.73,130.18,128.18,127.10,125.83,124.44,122.97
48.14,47.50,46.88,46.22,45.57,44.94,44.40,43.86,43.31,42.74,42.15,41.56,41.06,40.63,40.30,40.45,40.99,41.74,42.65,43.68,44.74,45.65,46.35,46.81,47.11,47.04,46.86,46.71,46.45,45.96,44.78,43.10,41.40,39.87,38.69,37.70,36.76,35.71,34.80,34.10,33.69,33.74,33.42,33.35,33.33,33.06,33.06,33.12,33.17,33.15,32.92,32.80,33.27,34.46,36.45,38.45,40.24,41.84,43.32,44.61,46.00,46.64,46.39,45.72,45.66,45.95,46.71,48.13,50.43,53.12,55.96,58.71,60.80,62.61,64.23,65.72,67.09,66.75,64.34,61.05,58.06,56.85,57.30,58.68,60.77,63.67,66.89,69.05,70.48,71.94,75.08,78.88,83.46,88.78,94.40,100.50,105.95,110.80,115.67,119.79,123.22,126.27,129.17,131.36,131.23,128.35,123.09,117.25,111.44,105.37,99.49,94.45,90.11,86.60,83.35,80.12,77.44,74.82,72.18,69.47,66.66,64.05,61.79,60.23,59.62,59.21,59.12,59.55,60.66,62.66,65.04,67.42,69.68,71.65,73.15,74.53,75.83,77.07,78.12,79.09,79.84,80.24,80.13,79.52,78.62,77.38,75.76,74.06,72.47,71.00,69.73,68.90,69.40,70.81,72.71,74.51,76.21,76.13,74.57,71.88,68.60,64.21,60.40,57.62,55.74,54.21,52.86,51.50,49.98,48.83,47.89,47.06,46.31,45.72,45.10,44.75,44.69,44.87,45.26,45.62,45.49,44.66,43.75,42.89,42.08,41.35,40.76,40.36,40.21,40.49,41.41,43.35,45.06,46.68,48.24,49.66,52.61,56.34,60.27,63.75,67.07,70.96,75.38,80.05,83.25,86.38,90.09,94.62,100.11,104.62,109.16,113.87,118.90,126.83,134.85,141.89,147.68,153.53,158.57,161.43,162.46,162.77,164.01,165.93,167.72,168.89,170.65,171.21,171.54,172.10,173.21,175.57,178.75,180.12,176.80,170.28,166.25,163.14,159.97,156.21,152.69,149.99,148.05,146.51,144.96,143.59,142.30,140.81,137.15,131.94,128.60,127.54,126.46,125.28,123.94,122.53
47.87,47.18,46.56,45.94,45.29,44.65,44.25,43.86,43.52,43.18,42.79,42.39,42.06,41.71,41.41,41.87,42.70,43.54,44.42,45.65,46.81,47.82,48.59,49.03,49.04,48.93,48.74,48.47,48.01,46.64,44.81,42.84,41.14,39.67,38.36,37.37,36.70,35.70,35.12,34.91,34.96,34.96,34.68,34.84,35.12,35.04,35.04,35.10,35.11,35.01,34.78,34.61,34.31,34.52,36.45,38.45,40.20,41.85,43.55,45.23,46.74,47.92,48.57,48.25,48.08,48.04,48.08,48.27,50.81,53.64,56.60,59.52,61.91,64.09,66.11,68.03,69.95,70.58,69.09,65.38,60.04,58.88,58.95,60.55,63.55,67.24,69.91,71.86,73.56,75.65,78.59,82.69,87.44,92.59,98.45,103.51,108.43,113.47,118.79,122.64,126.07,129.22,132.19,134.58,132.68,127.96,121.58,115.48,109.39,103.29,97.58,92.80,89.00,85.92,82.97,79.87,77.24,74.55,71.89,69.20,66.35,63.50,61.05,59.29,58.41,57.94,57.96,58.51,59.64,61.35,63.61,65.84,67.93,69.86,71.26,72.54,73.75,74.89,75.90,76.65,77.15,77.32,77.01,76.34,75.40,74.23,72.89,71.34,69.97,68.79,67.80,66.87,67.57,69.09,70.95,72.66,74.36,74.42,73.16,70.81,67.19,62.62,59.00,56.55,54.47,52.33,50.63,49.34,48.40,47.54,46.63,45.64,44.63,43.94,43.31,42.88,42.73,42.96,43.64,44.43,44.56,43.62,42.62,41.62,40.74,40.05,39.66,39.41,39.37,39.64,40.36,43.04,45.71,47.87,49.35,50.52,53.23,56.71,60.38,63.56,66.88,70.73,75.10,79.74,82.98,86.16,89.84,94.30,99.79,104.21,108.59,113.10,117.94,125.67,133.46,141.00,148.02,153.96,158.85,162.83,166.11,169.04,171.93,173.96,175.30,176.11,176.54,176.63,176.87,177.48,178.63,181.13,184.52,184.19,175.37,169.93,166.11,162.97,159.78,155.63,152.05,149.52,147.80,146.25,144.71,143.17,141.69,139.72,131.67,129.03,127.92,126.90,125.82,124.73,123.46,122.17
47.85,47.30,46.73,46.19,45.61,45.01,44.62,44.65,44.76,44.78,44.54,44.15,43.82,43.48,43.13,43.12,44.02,45.13,46.25,47.39,48.90,49.96,50.57,50.83,50.78,50.62,50.41,50.03,48.90,47.08,44.95,42.79,40.95,39.48,38.13,37.11,36.53,36.29,36.18,36.15,36.18,36.18,36.16,36.47,36.83,36.90,36.99,37.08,37.04,36.86,36.63,36.30,35.83,35.65,36.48,38.32,40.05,41.75,43.50,45.29,46.98,48.54,49.77,50.13,50.06,49.90,49.80,49.93,52.00,54.67,57.57,60.39,62.64,64.86,67.05,69.19,71.27,72.54,71.70,69.30,66.03,63.20,62.91,64.63,67.76,71.04,73.31,75.22,77.17,79.62,83.27,87.20,91.47,96.13,101.24,106.02,110.97,116.18,121.60,125.32,129.30,133.26,136.57,135.85,132.14,126.25,119.27,113.64,106.95,100.96,95.76,91.08,87.87,85.01,82.23,79.44,76.91,74.27,71.61,68.92,66.21,63.54,61.12,59.22,58.02,57.03,56.97,57.58,58.68,59.99,61.69,63.48,65.28,67.02,68.41,70.00,71.49,72.70,73.56,74.28,74.62,74.54,74.14,73.23,72.23,71.18,70.09,68.74,67.64,66.67,65.76,64.88,66.06,67.80,69.70,71.55,73.01,73.00,71.91,69.89,66.07,61.73,58.28,55.76,53.34,51.16,49.47,48.24,47.36,46.36,45.38,44.40,43.43,42.49,41.63,41.09,41.04,41.66,42.64,43.46,43.61,42.84,41.79,40.78,39.99,39.47,39.13,38.84,38.94,39.36,40.09,42.93,46.07,48.77,50.71,51.96,54.09,57.03,60.39,63.55,66.78,70.50,74.79,79.43,82.77,86.20,90.02,94.46,99.85,104.26,108.60,113.07,117.89,125.23,132.99,140.51,147.41,153.36,158.16,162.43,166.60,171.24,175.76,178.39,179.73,180.39,181.06,181.85,182.39,183.00,184.87,187.48,189.17,186.42,175.94,170.39,166.47,163.15,159.70,155.38,151.62,149.09,147.47,145.88,144.28,142.66,140.02,135.66,130.29,128.29,127.22,126.20,125.12,124.08,122.91,121.89
48.04,47.55,47.01,46.52,45.98,45.42,45.03,45.23,45.57,45.85,45.83,45.65,45.49,45.25,44.89,44.56,45.26,46.44,47.82,49.10,50.55,51.46,51.91,52.08,51.98,51.78,51.53,51.08,49.68,47.60,45.25,42.87,40.76,39.28,37.94,36.98,36.64,36.99,37.22,37.35,37.42,37.44,37.68,38.11,38.56,38.81,39.02,39.12,39.03,38.75,38.44,37.97,37.40,36.93,36.86,38.32,39.98,41.75,43.57,45.42,47.25,49.09,50.80,51.83,51.83,51.69,51.61,51.75,53.44,55.88,58.60,61.28,63.48,65.73,68.01,70.28,72.44,74.33,74.26,72.98,71.17,68.10,67.74,69.32,72.14,74.93,76.93,78.88,81.07,83.76,87.58,91.17,94.99,99.26,103.81,108.52,113.55,118.86,124.31,128.21,132.69,136.88,139.54,136.59,131.17,124.32,117.14,111.73,104.55,98.71,94.03,89.67,86.88,84.17,81.54,78.97,76.52,73.94,71.37,68.82,66.25,63.74,61.34,59.34,57.91,56.52,56.01,56.40,57.46,58.44,59.70,61.06,62.47,63.89,65.24,66.76,68.16,69.28,70.27,71.46,71.91,71.62,71.16,70.19,69.19,68.21,67.27,66.13,65.19,64.36,63.63,62.96,64.45,66.35,68.35,70.38,71.64,71.58,70.54,68.60,64.66,60.81,57.65,55.08,52.43,50.22,48.51,47.24,46.31,45.28,44.25,43.23,42.23,41.19,40.25,39.77,39.89,40.74,41.93,42.52,42.50,41.94,41.04,40.12,39.41,38.94,38.59,38.35,38.60,39.17,39.91,42.78,46.21,49.29,51.56,53.02,54.85,57.37,60.41,63.55,66.72,70.37,74.56,79.16,82.72,86.41,90.37,94.74,99.81,104.19,108.53,112.98,117.72,124.61,132.07,139.37,146.13,152.30,157.05,161.65,166.66,172.62,178.35,181.58,183.18,184.04,184.91,186.19,187.23,188.25,190.45,192.95,193.88,189.58,176.76,171.18,167.12,163.54,159.77,155.37,151.34,148.65,146.98,145.34,143.68,141.96,138.40,132.18,129.17,127.62,126.53,125.50,124.41,123.66,122.87,122.26
48.53,48.00,47.46,46.93,46.39,45.86,45.48,45.46,45.70,46.07,46.40,46.71,46.97,47.00,46.67,46.29,46.38,47.33,49.02,50.79,51.54,52.01,52.31,52.52,52.38,52.17,51.87,51.39,50.33,48.26,45.78,43.14,40.58,39.09,37.78,37.05,37.18,37.83,38.19,38.48,38.71,38.78,39.24,39.77,40.30,40.79,41.16,41.26,41.10,40.70,40.20,39.61,39.00,38.38,37.77,38.54,40.05,41.92,43.83,45.68,47.58,49.60,51.63,53.31,53.32,53.37,53.54,53.72,55.22,57.31,59.71,62.19,64.49,66.80,69.07,71.30,73.46,75.97,76.84,76.31,74.84,73.75,73.77,74.82,76.70,78.95,80.85,82.96,85.38,88.16,91.28,94.32,97.76,101.79,106.14,111.03,116.20,121.52,126.87,131.43,136.31,139.83,140.37,136.64,129.65,122.13,115.31,109.71,102.24,96.58,92.44,88.72,86.07,83.48,80.95,78.47,76.07,73.54,71.20,68.98,66.57,64.15,61.76,59.68,58.15,56.56,55.09,54.86,55.88,56.62,57.63,58.56,59.44,60.37,61.63,62.52,63.25,64.04,65.58,67.97,68.93,68.49,68.03,67.24,66.31,65.33,64.41,63.52,62.55,61.79,61.34,61.11,62.66,64.65,66.83,69.10,70.21,70.15,68.99,66.74,62.80,59.80,57.14,54.56,51.86,49.60,47.78,46.34,45.23,44.35,43.28,42.14,41.03,40.09,39.34,39.14,39.51,40.35,41.65,41.61,41.13,40.84,40.38,39.70,39.04,38.47,38.02,37.96,38.38,39.06,39.84,42.57,46.07,49.27,51.68,53.48,55.45,57.76,60.46,63.55,66.72,70.37,74.49,78.94,82.90,86.87,90.94,95.17,99.60,103.93,108.30,112.74,117.31,123.66,130.43,137.24,143.92,150.63,155.36,160.40,166.24,172.99,179.31,183.10,185.34,186.92,187.84,189.24,191.05,193.11,195.01,197.08,198.73,194.20,177.85,172.42,168.18,164.24,160.09,155.69,151.28,148.20,146.26,144.57,142.81,141.00,136.90,129.69,128.21,126.98,125.87,124.79,123.71,123.58,123.58,123.56
48.99,48.45,47.91,47.34,46.79,46.31,45.93,45.69,45.83,46.22,46.60,46.99,47.35,47.60,47.70,47.73,47.76,48.38,49.65,51.34,52.05,52.60,53.02,53.24,53.08,52.72,52.23,51.59,50.50,48.24,45.53,42.68,40.02,38.44,37.42,37.14,37.66,38.52,39.04,39.49,39.97,40.46,41.07,41.70,42.32,42.94,43.32,43.52,43.39,42.94,42.31,41.52,40.69,39.88,39.10,39.15,40.24,41.99,44.04,46.02,47.99,50.10,52.37,54.72,55.13,55.38,55.62,55.80,56.98,58.91,61.17,63.51,65.78,67.95,70.29,72.78,75.28,77.70,78.93,79.17,78.74,78.38,79.07,80.12,81.42,83.42,85.17,87.16,89.53,92.40,95.41,97.95,101.01,105.01,109.17,113.81,118.94,124.39,129.80,134.94,138.79,140.80,140.47,136.02,128.01,120.16,113.63,107.45,100.70,95.44,91.49,88.24,85.70,83.09,80.51,78.05,75.95,73.71,71.59,69.49,67.10,64.62,62.17,60.02,58.33,56.42,54.51,53.65,54.00,54.62,55.47,56.04,56.52,57.28,57.90,58.31,58.69,59.24,60.49,62.46,63.88,64.50,64.45,63.95,63.25,62.42,61.53,60.60,59.83,59.33,59.18,59.53,61.21,63.25,65.41,67.56,67.81,67.45,66.60,65.18,61.86,59.14,56.60,54.10,51.65,49.28,47.31,45.65,44.19,43.30,42.30,41.23,40.15,39.22,38.53,38.63,39.34,40.19,41.13,40.73,40.03,39.76,39.45,39.00,38.49,37.95,37.40,37.67,38.26,38.98,39.77,42.48,46.02,49.29,51.78,53.75,55.79,57.97,60.48,63.61,66.90,70.50,74.43,78.65,82.79,87.07,91.18,95.04,98.71,102.71,107.06,111.50,115.81,120.86,127.28,134.03,140.73,147.94,153.30,158.91,165.15,172.03,178.77,183.44,186.69,189.21,191.25,193.33,195.51,197.73,199.75,201.95,202.67,198.09,184.68,176.00,169.80,164.88,160.42,155.73,151.22,147.99,145.82,143.87,142.13,138.29,133.48,129.03,127.83,126.60,125.58,124.90,124.65,124.85,125.04,125.09
49.42,48.88,48.34,47.74,47.20,46.76,46.37,45.99,46.01,46.34,46.73,47.12,47.50,47.91,48.36,48.76,48.89,49.29,50.17,51.69,52.50,53.21,53.73,53.91,53.71,53.15,52.47,51.68,50.29,47.70,44.77,41.86,39.37,37.79,37.25,37.53,38.36,39.35,40.03,40.63,41.30,42.14,42.92,43.66,44.37,45.06,45.49,45.80,45.72,45.18,44.40,43.40,42.38,41.43,40.58,40.08,40.72,42.26,44.36,46.43,48.49,50.73,53.26,56.13,56.88,57.29,57.64,58.02,59.44,61.38,63.44,65.42,67.44,69.47,71.84,74.51,77.23,79.37,80.74,81.60,82.17,82.22,83.52,84.80,85.88,87.61,89.19,91.06,93.40,96.39,99.43,101.76,104.61,108.50,112.41,116.66,121.61,127.09,132.52,137.84,140.65,141.40,140.43,135.27,126.57,118.46,111.98,105.28,99.44,94.67,90.95,88.16,85.71,83.10,80.48,78.03,76.23,74.26,72.27,70.20,67.83,65.28,62.75,60.45,58.51,56.34,54.13,52.64,52.16,52.58,53.19,53.45,53.62,54.19,54.25,54.33,54.49,54.85,55.79,57.27,59.00,60.51,60.89,60.59,60.03,59.32,58.53,57.54,57.08,56.98,57.25,58.21,60.02,62.05,64.01,65.61,65.03,64.39,63.89,63.36,61.02,58.67,56.27,53.88,51.60,49.14,47.00,45.08,43.27,42.23,41.30,40.35,39.35,38.42,37.85,38.21,39.16,40.04,40.57,39.94,39.11,38.71,38.48,38.19,37.81,37.35,36.83,37.45,38.22,38.99,39.78,42.50,46.00,49.26,51.82,53.89,55.96,58.04,60.40,63.50,67.01,70.60,74.31,78.21,82.36,86.88,91.00,94.53,97.58,101.17,105.42,109.86,113.96,117.98,124.00,130.74,137.61,144.92,151.19,157.42,163.87,170.68,177.62,183.07,187.40,191.04,194.51,197.20,199.55,201.75,203.89,206.22,206.26,202.53,193.82,181.54,172.90,166.48,161.22,155.99,151.25,147.84,145.48,143.29,141.49,135.81,130.46,128.70,127.58,126.33,125.53,125.40,125.92,126.36,126.62,126.56
49.80,49.26,48.72,48.12,47.60,47.21,46.82,46.43,46.31,46.47,46.86,47.24,47.63,48.02,48.43,48.88,49.22,49.76,50.66,52.08,53.07,53.81,54.27,54.35,53.95,53.19,52.43,51.55,49.32,46.15,43.03,40.42,38.72,37.34,37.68,38.74,39.70,40.64,41.46,42.17,42.82,43.61,44.66,45.57,46.35,47.04,47.62,48.08,48.02,47.31,46.23,45.06,44.01,43.09,42.24,41.64,41.92,43.07,45.00,47.02,49.18,51.72,54.61,57.53,58.28,58.76,59.41,60.56,63.76,66.10,67.67,68.69,69.93,71.87,74.16,76.63,79.16,80.86,82.08,83.15,84.23,84.48,86.10,87.94,89.56,90.85,92.21,94.09,96.59,99.78,102.92,105.81,108.89,112.35,115.86,119.50,124.03,129.28,134.51,138.97,141.49,142.01,140.43,134.48,125.73,117.38,110.34,103.45,98.52,94.43,91.17,88.86,86.52,84.00,81.44,79.01,77.41,75.47,73.40,71.24,68.97,66.38,63.74,61.14,58.70,56.53,54.13,51.99,50.54,50.52,50.64,50.70,50.74,50.87,50.88,50.94,51.06,51.34,52.33,53.94,55.61,56.99,57.61,57.24,56.52,55.77,55.21,54.27,54.27,54.83,55.84,57.49,59.34,61.23,62.61,62.74,61.71,61.05,60.77,60.74,60.03,58.53,56.54,54.22,51.80,49.33,46.97,44.72,42.61,41.18,40.23,39.44,38.65,37.72,37.45,37.92,38.87,39.85,40.03,39.41,38.50,37.75,37.52,37.23,36.90,36.60,36.42,37.34,38.31,39.18,39.97,42.74,46.00,49.12,51.75,53.77,55.79,57.82,60.07,62.92,66.87,70.56,74.03,77.41,81.22,85.78,89.90,93.28,96.19,99.26,103.25,107.64,111.79,115.81,121.17,127.78,135.16,141.54,149.12,156.05,162.40,168.96,175.61,181.47,186.83,191.96,197.11,199.98,202.19,204.29,206.32,208.51,209.42,208.78,206.19,191.09,179.65,170.63,163.24,156.97,151.53,147.79,145.33,143.04,140.90,134.81,129.44,128.33,127.36,126.21,125.91,126.53,127.24,127.83,128.15,127.80
50.20,49.69,49.08,48.51,48.04,47.65,47.27,46.88,46.62,46.60,46.99,47.37,47.76,48.14,48.54,48.96,49.39,50.04,50.99,52.21,53.36,54.11,54.44,54.39,53.85,53.00,51.92,50.43,47.47,44.10,41.34,39.33,37.89,37.61,38.48,39.78,40.91,41.87,42.80,43.62,44.34,45.08,46.21,47.26,48.16,48.89,49.40,49.90,49.84,49.02,47.89,46.70,45.64,44.70,43.81,43.25,43.35,44.24,45.94,47.88,50.31,53.31,56.56,59.11,60.27,61.34,62.80,65.04,67.84,69.70,70.78,71.40,72.61,74.48,76.61,78.78,80.73,82.15,83.29,84.44,85.78,86.61,88.24,90.04,91.68,92.87,94.43,96.29,98.61,101.59,104.96,108.18,111.51,115.06,118.49,121.81,125.72,130.18,134.79,138.71,140.98,141.56,140.31,134.31,125.82,117.23,109.47,102.59,98.28,94.92,92.42,90.88,88.74,86.31,83.62,80.85,78.71,76.68,74.57,72.37,70.17,67.49,64.66,61.85,59.23,56.83,54.23,51.76,49.86,49.57,49.38,49.25,49.15,49.08,49.08,49.16,49.28,49.48,50.24,51.37,52.64,53.80,54.53,54.03,53.23,52.47,52.01,51.68,52.28,53.32,54.66,56.51,58.24,59.77,60.56,59.86,58.39,57.31,56.83,56.98,57.10,57.18,56.49,54.86,52.36,49.75,47.21,44.74,42.36,40.53,39.40,38.57,37.81,36.92,36.87,37.43,38.36,39.29,39.34,38.73,37.84,37.01,36.63,36.34,36.07,35.93,36.28,37.27,38.32,39.34,40.44,43.22,46.25,49.13,51.63,53.60,55.46,57.31,59.37,61.95,66.57,70.46,73.79,76.81,79.99,84.33,88.30,91.59,94.55,97.55,101.22,105.34,109.58,113.66,118.61,125.31,133.33,138.95,146.48,153.74,160.50,167.09,173.22,178.79,184.11,189.44,195.25,199.30,202.07,204.13,206.63,209.17,210.56,211.11,211.11,202.55,191.77,180.27,169.00,158.55,152.01,147.94,145.32,142.79,138.61,133.10,128.98,128.09,127.19,126.54,126.64,127.45,128.26,129.28,129.30,128.26
50.58,50.09,49.42,48.91,48.49,48.10,47.71,47.32,46.93,46.76,47.11,47.50,47.89,48.27,48.66,49.04,49.49,50.24,51.26,52.28,53.52,54.22,54.40,54.22,53.62,52.63,51.08,48.78,45.22,41.94,39.78,38.45,37.19,38.16,39.40,40.74,42.06,43.07,44.08,45.01,45.85,46.56,47.67,48.79,49.79,50.55,50.96,51.47,51.42,50.58,49.49,48.34,47.27,46.28,45.36,44.88,44.88,45.56,47.02,48.91,51.66,55.10,58.63,60.72,62.45,64.27,66.59,69.79,71.46,72.62,73.34,73.89,75.33,77.09,79.01,80.83,82.16,83.37,84.45,85.63,87.09,88.55,90.08,91.63,93.12,94.36,96.20,98.01,100.04,102.68,106.13,109.42,112.90,116.66,120.16,123.33,126.60,130.13,133.99,137.52,139.64,140.49,139.97,134.46,126.56,117.82,109.32,102.50,98.57,95.89,94.23,93.47,91.52,89.08,86.20,83.00,80.12,77.92,75.73,73.47,71.25,68.50,65.49,62.55,59.94,57.31,54.56,51.89,49.74,49.19,48.76,48.43,48.17,47.96,47.97,48.07,48.18,48.30,48.78,49.27,50.02,50.92,51.65,51.06,50.25,49.51,49.10,49.52,50.71,52.12,53.58,55.39,56.91,58.01,58.23,57.02,55.18,53.59,52.75,52.91,53.55,55.25,56.11,55.47,53.04,50.28,47.59,44.96,42.36,40.16,38.81,37.86,37.05,36.16,36.21,36.82,37.70,38.53,38.53,37.96,37.13,36.30,35.78,35.50,35.33,35.43,36.29,37.27,38.31,39.50,40.98,43.73,46.53,49.15,51.46,53.37,55.03,56.71,58.57,60.82,66.06,70.20,73.49,76.23,78.77,82.74,86.50,89.70,92.79,95.87,99.21,102.98,107.30,111.59,116.35,123.21,131.81,136.84,143.71,151.03,158.26,164.94,170.48,175.51,180.30,185.16,190.98,196.19,199.78,202.21,205.59,208.70,210.54,211.58,212.55,212.90,204.73,191.61,176.05,160.44,152.65,148.20,145.34,142.52,135.76,131.22,128.78,127.93,127.14,127.06,127.50,128.28,129.16,130.73,130.24,128.25
50.87,50.29,49.77,49.33,48.93,48.54,48.10,47.70,47.32,47.08,47.24,47.63,48.01,48.40,48.79,49.17,49.58,50.38,51.54,52.66,53.59,54.03,54.06,53.84,53.33,51.78,49.38,46.28,42.73,40.39,38.86,37.99,37.62,38.71,40.11,41.65,43.15,44.27,45.30,46.28,47.22,48.08,49.12,49.99,50.75,51.52,52.07,52.62,52.76,52.29,51.10,49.94,48.86,47.90,47.02,46.50,46.45,46.95,48.07,50.26,53.22,56.66,60.04,62.12,64.35,66.50,68.78,71.44,72.97,74.31,75.45,76.49,77.78,79.27,80.72,82.13,83.56,84.58,85.67,86.87,88.24,89.71,91.19,92.76,94.34,95.57,97.23,98.88,100.81,103.42,105.64,108.13,111.05,114.45,118.15,121.43,124.51,127.56,130.88,134.15,136.65,138.24,138.65,135.12,128.88,120.62,111.53,104.62,100.32,97.90,96.78,96.22,94.12,91.29,88.12,84.90,81.87,79.27,76.72,74.15,71.59,68.82,65.97,63.24,60.80,58.67,55.99,53.13,50.59,49.44,48.77,48.19,47.61,47.00,47.06,47.11,47.14,47.23,47.80,48.07,48.52,49.12,49.49,49.07,48.52,47.98,47.58,48.19,49.66,51.18,52.51,54.08,55.18,55.97,55.96,54.40,52.66,50.99,49.91,49.80,51.13,52.95,54.57,55.22,53.63,50.87,48.13,45.49,42.92,40.42,39.04,38.03,37.01,35.88,35.59,35.96,36.70,37.38,37.33,36.91,36.21,35.36,34.93,34.75,35.02,35.70,36.60,37.49,38.47,39.70,41.36,43.85,46.37,48.80,51.05,52.81,54.50,56.22,57.99,59.80,64.75,69.17,72.73,75.33,77.82,81.26,84.69,87.84,90.87,93.91,96.98,100.47,104.78,109.91,115.10,122.08,130.60,135.68,141.59,148.16,155.00,161.44,166.63,171.24,175.28,178.89,183.28,187.10,191.38,196.37,201.78,205.51,208.51,210.58,211.40,212.05,209.54,199.61,181.64,162.77,153.79,148.61,145.20,142.08,133.73,130.00,128.78,127.97,127.57,127.77,128.28,129.02,130.10,132.32,130.85,127.31
51.57,50.81,50.06,49.56,49.16,48.76,48.30,47.90,47.51,47.24,47.26,47.64,48.05,48.45,48.84,49.23,49.64,50.49,51.72,52.85,53.52,53.78,53.73,53.45,52.67,50.58,47.63,44.22,41.01,39.37,38.30,37.78,38.09,39.20,40.73,42.44,44.11,45.44,46.53,47.55,48.52,49.36,50.25,50.98,51.60,52.13,52.50,52.86,53.13,53.19,52.90,52.18,51.21,50.06,48.84,48.17,48.05,48.46,49.46,51.69,54.78,58.06,61.06,63.06,65.41,67.50,69.42,71.36,72.68,74.02,75.43,76.95,78.44,80.04,81.37,82.53,83.82,84.82,85.69,86.55,87.58,89.62,91.10,92.36,93.55,94.79,96.22,97.58,99.43,102.40,103.75,105.58,108.24,111.82,115.67,118.81,121.40,123.71,126.23,129.37,132.34,134.70,135.92,134.30,130.28,123.34,114.61,108.23,103.73,101.15,99.85,98.88,96.12,92.77,89.33,86.11,83.08,80.23,77.33,74.36,71.37,68.80,66.27,63.84,61.62,59.83,57.35,54.55,51.82,49.94,49.01,48.25,47.52,46.75,46.39,46.17,46.08,46.16,46.61,46.77,47.07,47.45,47.63,47.30,46.89,46.46,46.10,46.88,48.37,49.84,51.05,52.26,53.15,53.91,53.95,52.45,50.75,49.03,47.83,47.64,49.29,51.12,53.00,54.37,54.08,51.43,48.81,46.27,43.71,41.09,39.50,38.29,37.13,35.83,35.05,35.08,35.62,36.16,36.05,35.80,35.26,34.45,34.15,34.31,34.92,35.84,36.74,37.67,38.65,39.90,41.65,43.93,46.19,48.42,50.55,52.28,53.93,55.63,57.35,59.00,63.09,67.74,71.74,74.36,76.86,79.81,82.92,86.07,89.14,92.23,95.37,98.83,102.94,108.33,113.66,120.27,128.11,134.01,139.22,145.09,151.37,157.16,161.30,165.28,168.76,171.62,174.92,177.98,182.38,188.32,194.89,200.46,204.75,207.69,209.31,210.42,210.73,204.67,189.53,166.23,155.37,149.22,145.26,141.79,132.82,129.45,128.80,128.18,128.12,128.50,129.74,131.70,133.54,133.34,130.43,126.33
52.56,51.54,50.30,49.65,49.22,48.82,48.36,47.96,47.58,47.28,47.20,47.58,48.02,48.45,48.84,49.23,49.68,50.58,51.84,52.92,53.36,53.50,53.39,53.04,51.71,49.13,45.87,42.46,39.85,38.76,38.00,37.74,38.59,39.66,41.27,43.13,44.96,46.59,47.78,48.82,49.76,50.44,51.14,51.82,52.34,52.48,52.40,52.44,52.75,53.47,54.77,54.83,54.04,52.61,50.79,49.94,49.72,50.11,51.13,53.20,56.32,59.33,61.78,63.63,65.82,67.58,68.92,69.99,71.08,72.27,73.85,75.84,77.77,79.78,81.24,82.25,83.25,84.32,84.83,85.08,85.60,88.58,90.07,90.77,91.27,92.51,93.68,94.70,96.47,100.03,100.81,102.11,104.76,108.91,112.84,115.67,117.58,118.94,120.48,123.56,127.09,130.20,132.15,132.40,130.97,125.98,118.30,112.91,108.34,105.29,103.27,101.44,97.65,93.70,90.02,86.82,83.88,80.88,77.66,74.24,70.76,68.54,66.44,64.39,62.41,60.86,58.66,56.08,53.31,50.61,49.41,48.54,47.77,47.00,45.92,45.28,45.04,45.11,45.26,45.41,45.64,45.90,45.97,45.68,45.33,44.94,44.63,45.55,46.89,48.21,49.30,50.07,50.91,51.81,52.13,50.97,49.27,47.52,46.31,46.17,47.87,49.64,51.41,53.08,54.40,51.97,49.57,47.23,44.68,42.05,40.12,38.63,37.36,35.97,34.58,34.17,34.50,34.88,34.73,34.63,34.27,33.57,33.43,34.09,34.98,35.89,36.74,37.81,38.84,40.10,41.89,43.98,46.01,48.01,49.98,51.75,53.33,54.97,56.66,58.36,61.19,66.01,70.57,73.34,75.88,78.37,81.20,84.37,87.54,90.77,94.21,97.81,101.58,106.83,112.07,117.95,124.67,131.92,136.67,141.87,147.46,152.32,154.91,158.07,161.13,163.59,166.05,168.84,172.97,178.71,185.82,194.05,199.71,203.44,206.50,208.19,209.27,207.50,198.96,170.52,157.30,149.97,145.48,141.62,132.75,129.40,128.86,128.53,128.76,129.29,131.74,135.76,138.71,133.92,129.26,125.31
53.03,51.73,50.34,49.65,49.20,48.76,48.29,47.90,47.48,47.16,47.14,47.52,47.96,48.41,48.85,49.28,49.70,50.58,51.82,52.80,53.18,53.21,53.01,52.62,50.51,47.57,44.25,41.09,39.46,38.55,38.07,38.11,38.91,39.98,41.49,43.29,45.25,47.17,48.74,49.77,50.30,50.54,50.93,51.20,51.35,51.39,51.27,51.18,51.24,51.51,52.07,52.19,52.45,52.94,53.54,54.33,54.24,54.02,54.35,55.29,57.74,60.06,61.80,63.40,64.58,65.73,66.71,67.31,68.59,69.99,71.57,73.32,75.05,77.70,79.84,81.28,82.23,82.92,82.80,82.38,82.23,83.14,84.23,85.27,86.30,87.59,88.76,89.96,91.63,94.23,95.70,98.45,102.25,106.65,109.99,112.73,114.61,115.72,116.36,118.42,121.99,125.42,127.36,129.34,129.40,126.23,120.58,116.42,112.24,108.27,104.48,100.80,96.91,93.15,89.70,86.62,83.69,80.69,77.36,73.77,70.19,68.43,67.05,65.56,63.59,61.44,59.33,56.91,54.17,51.62,49.95,48.86,48.08,47.25,46.42,45.82,45.28,44.70,44.11,44.01,44.12,44.29,44.31,44.02,43.70,43.32,42.95,43.47,44.68,45.86,46.74,47.46,48.16,49.20,49.76,48.60,46.95,45.25,44.30,44.64,46.34,48.10,49.83,51.44,52.86,52.15,50.63,48.54,46.08,43.30,40.77,38.81,37.43,36.04,34.69,33.79,33.42,33.60,33.45,33.35,33.15,32.88,33.37,34.20,35.09,35.97,36.87,37.80,38.77,39.99,41.64,43.67,45.61,47.47,49.26,50.94,52.59,54.26,55.96,57.66,59.76,63.74,68.16,71.85,74.20,76.77,79.74,83.02,86.13,89.23,92.61,96.13,99.64,104.40,109.37,114.69,120.49,127.15,132.58,137.91,143.03,147.35,149.54,151.09,152.33,153.54,155.22,158.64,164.58,172.49,180.15,187.57,193.58,198.39,202.40,204.05,205.48,205.04,199.17,175.12,159.92,150.78,145.68,141.87,134.01,130.36,129.32,129.17,129.40,133.73,137.42,138.80,137.85,132.49,127.36,123.13
53.23,51.74,50.30,49.59,49.13,48.67,48.20,47.79,47.36,47.06,47.10,47.50,47.95,48.41,48.88,49.34,49.87,50.74,51.85,52.71,53.02,52.95,52.67,52.21,49.51,46.41,43.15,40.22,39.21,38.40,38.12,38.39,39.14,40.17,41.64,43.41,45.32,47.16,48.73,49.61,49.83,49.85,50.03,50.05,49.98,49.93,49.73,49.53,49.44,49.50,49.63,49.78,50.50,51.75,53.31,54.76,55.26,55.40,55.73,56.37,58.23,59.94,61.19,62.48,63.05,63.79,64.49,64.80,65.97,67.40,68.97,70.64,72.41,75.34,77.99,79.99,81.23,81.61,80.85,79.58,78.39,77.36,77.86,79.12,80.70,82.21,83.43,84.79,86.51,88.75,91.05,94.92,99.52,104.05,106.97,109.52,111.18,111.94,112.03,113.62,117.24,121.13,123.79,126.57,127.66,126.21,122.65,119.37,115.43,110.53,105.21,100.25,96.37,92.73,89.42,86.43,83.50,80.50,77.20,73.81,70.82,69.46,68.37,67.02,65.03,62.45,60.19,57.77,55.10,52.63,50.55,49.24,48.46,47.74,47.13,46.57,45.86,44.92,43.98,43.50,43.21,42.99,42.70,42.37,42.05,41.73,41.41,41.63,42.46,43.34,44.06,44.75,45.38,46.41,47.05,46.09,44.49,42.98,42.35,43.05,44.77,46.56,48.26,49.86,51.35,51.85,51.19,49.58,47.30,44.26,41.28,39.00,37.55,36.16,34.80,33.55,32.67,32.53,32.40,32.30,32.22,32.23,33.01,33.91,34.81,35.70,36.65,37.52,38.45,39.63,41.23,43.20,45.05,46.79,48.46,50.06,51.71,53.41,55.16,56.90,58.62,61.85,65.92,70.03,72.38,75.11,78.26,81.65,84.76,87.78,91.05,94.43,97.79,101.91,106.52,111.36,116.44,122.21,127.84,133.09,137.69,141.26,143.27,144.03,144.33,144.89,146.22,150.48,157.97,167.46,175.37,182.05,187.95,193.13,197.55,199.57,201.28,201.65,198.24,182.18,163.55,151.70,146.22,142.64,136.84,133.82,132.78,132.78,133.12,137.89,140.89,140.19,136.54,130.84,125.44,121.15
53.09,51.55,50.16,49.46,49.00,48.54,48.07,47.62,47.20,46.96,47.10,47.55,48.01,48.48,48.94,49.40,50.21,51.10,51.94,52.65,52.86,52.73,52.38,51.82,48.77,45.73,42.69,39.99,39.13,38.34,38.17,38.57,39.27,40.21,41.71,43.46,45.14,46.44,47.54,48.08,48.11,48.19,48.27,48.26,48.16,48.01,47.71,47.42,47.31,47.45,47.53,47.68,48.08,48.72,49.43,50.34,52.00,53.67,54.83,56.22,57.56,58.78,59.83,60.73,61.17,61.72,62.23,62.48,63.16,64.42,65.99,67.75,69.87,72.64,75.59,78.32,80.25,80.41,79.01,76.66,73.96,71.15,70.85,72.15,74.33,76.29,77.59,79.09,81.06,83.66,86.94,91.55,96.51,101.02,103.75,105.97,107.17,107.49,107.43,109.26,112.93,117.44,121.72,124.15,125.71,125.86,124.46,121.63,117.73,111.91,105.35,99.80,96.08,92.47,89.18,86.24,83.31,80.31,77.23,74.48,72.92,71.87,70.53,68.86,66.80,63.97,61.28,58.67,56.13,53.65,51.22,49.70,48.93,48.51,48.10,47.60,46.87,45.89,45.10,44.07,43.04,42.07,41.14,40.72,40.39,40.15,40.06,40.08,40.22,40.61,41.25,41.94,42.57,43.39,43.92,43.41,41.86,40.71,40.47,41.40,43.17,45.00,46.73,48.33,49.87,50.99,51.16,50.27,48.30,44.87,41.60,39.20,37.74,36.35,34.90,33.50,32.34,31.70,31.61,31.53,31.51,31.64,32.27,33.14,34.07,35.01,36.00,36.93,37.81,38.96,40.65,42.52,44.27,45.94,47.56,49.11,50.66,52.38,54.23,56.07,57.84,60.44,63.86,67.82,70.42,73.39,76.74,80.25,83.41,86.44,89.52,92.71,96.03,99.37,103.47,107.95,112.54,117.08,122.33,127.22,131.22,133.81,135.89,136.85,137.32,137.95,139.47,144.84,153.53,163.86,171.67,177.71,182.95,187.60,191.77,194.68,196.58,197.11,195.93,192.26,168.39,152.75,147.17,144.03,141.60,140.33,139.91,140.02,140.61,141.71,141.64,139.55,134.67,128.95,123.50,119.41
52.64,51.04,49.95,49.34,48.87,48.42,48.00,47.54,47.10,46.87,47.15,47.61,48.08,48.54,49.00,49.47,50.73,51.85,52.57,53.01,52.98,52.68,52.20,51.54,48.27,45.33,42.45,39.87,39.10,38.41,38.19,38.47,39.12,39.78,40.85,42.07,43.25,44.39,44.97,45.23,45.33,45.45,45.57,45.65,45.66,45.59,45.32,45.12,45.15,45.42,45.58,45.81,46.22,46.79,47.46,48.30,49.50,50.75,51.84,53.27,54.58,55.80,56.92,57.86,58.41,58.91,59.35,59.68,60.38,61.55,63.20,65.28,67.53,70.07,73.01,75.92,77.93,78.37,76.90,74.31,71.35,68.16,67.42,68.13,69.67,71.24,72.63,74.41,76.65,79.34,82.92,87.46,92.21,96.48,99.14,100.91,101.68,101.71,101.59,104.32,108.97,114.30,119.08,121.82,123.58,124.60,124.56,122.13,119.53,114.24,107.91,103.19,98.69,94.06,89.99,86.83,84.29,81.47,79.11,77.40,76.32,75.35,73.63,71.24,68.36,65.46,62.57,59.92,57.56,55.48,53.48,52.02,50.80,49.33,49.03,48.53,47.86,47.07,46.21,45.14,43.92,42.59,41.15,40.37,39.94,39.75,39.67,39.63,39.64,39.81,40.13,40.47,40.79,41.18,41.42,41.18,40.42,39.82,39.73,40.37,41.75,43.49,45.17,46.76,48.34,49.57,50.22,49.90,48.26,45.04,41.77,39.31,37.81,36.38,34.91,33.52,32.24,31.16,30.98,30.94,30.98,31.09,31.44,32.16,33.04,34.01,34.97,35.74,36.41,37.59,39.80,41.65,43.29,44.86,46.43,47.93,49.35,50.92,52.73,54.89,56.98,59.23,62.00,65.35,67.89,70.56,73.35,76.64,81.33,84.35,87.34,90.37,93.40,96.69,100.46,104.47,108.53,112.23,116.17,120.14,123.71,126.27,128.50,130.14,131.77,133.95,137.59,143.79,152.20,161.48,168.28,173.47,177.68,181.02,183.60,185.34,186.36,186.69,186.36,185.38,168.81,155.12,147.64,145.24,143.52,142.76,142.59,142.70,143.15,142.54,140.94,138.02,132.78,127.04,122.14,118.67
52.10,50.48,49.72,49.19,48.73,48.27,47.89,47.43,47.01,46.83,47.24,47.68,48.14,48.61,49.07,49.53,51.18,52.52,53.17,53.37,53.09,52.63,52.05,51.30,47.93,44.99,42.21,39.79,39.13,38.51,38.21,38.35,38.97,39.42,40.04,40.72,41.37,42.24,42.42,42.49,42.61,42.73,42.86,42.99,43.08,43.08,42.89,42.85,43.03,43.40,43.65,43.99,44.45,45.03,45.73,46.56,47.28,48.03,48.96,50.28,51.46,52.63,53.75,54.67,55.20,55.67,56.15,56.70,57.65,58.90,60.69,63.03,65.38,67.78,70.61,73.48,75.44,76.21,74.83,72.14,68.97,65.46,64.40,64.65,65.62,66.86,68.41,70.37,72.74,75.48,79.43,83.89,88.29,92.09,94.39,95.58,95.94,95.81,95.67,99.46,105.13,111.18,116.25,119.34,121.45,123.09,123.95,122.31,120.81,116.48,110.94,106.89,101.51,96.06,91.56,88.48,86.29,83.68,81.87,80.81,79.79,78.59,76.33,73.20,69.55,66.66,63.76,61.28,59.35,57.77,56.35,55.19,53.90,51.92,51.28,50.35,49.31,48.29,47.33,46.22,44.87,43.28,41.48,40.30,39.74,39.54,39.41,39.32,39.30,39.33,39.41,39.49,39.57,39.62,39.63,39.56,39.42,39.21,39.20,39.59,40.54,42.03,43.58,45.08,46.61,47.82,48.73,48.83,47.62,44.86,41.77,39.36,37.85,36.38,34.93,33.56,32.21,30.77,30.45,30.41,30.49,30.57,30.71,31.20,31.99,32.94,33.75,34.34,34.94,36.22,38.72,40.62,42.21,43.72,45.25,46.70,48.02,49.42,51.09,53.25,55.57,57.79,60.36,63.44,65.88,68.05,70.16,72.89,77.78,81.61,84.90,87.79,90.48,93.57,97.01,100.73,104.50,107.60,110.32,113.31,116.44,119.24,121.91,124.62,127.68,131.42,136.72,143.27,150.92,158.82,164.81,168.88,171.82,173.86,175.21,175.98,176.47,176.73,176.81,176.81,168.33,157.34,148.22,146.56,145.15,144.58,144.37,144.13,144.05,142.45,139.85,136.20,130.89,125.21,120.93,118.11
51.43,49.92,49.46,49.00,48.53,48.08,47.70,47.24,46.93,46.91,47.36,47.76,48.21,48.67,49.13,49.60,51.45,52.90,53.53,53.63,53.12,52.53,51.90,51.11,47.84,44.70,41.92,39.81,39.25,38.63,38.26,38.29,38.90,39.31,39.61,39.85,40.03,40.20,40.29,40.33,40.35,40.38,40.40,40.47,40.53,40.53,40.49,40.66,41.00,41.43,41.73,42.20,42.73,43.31,44.00,44.79,45.42,46.08,46.90,47.96,48.71,49.52,50.44,51.12,51.27,51.70,52.47,53.53,55.01,56.70,58.73,61.12,63.57,66.03,68.64,71.14,72.95,74.05,72.92,70.21,66.63,62.52,61.30,61.49,62.43,63.67,65.52,67.41,69.56,72.36,77.05,81.61,85.54,88.43,89.69,90.05,90.09,90.00,89.91,94.94,101.43,107.93,113.20,116.54,119.40,121.35,122.28,122.27,121.12,118.26,114.31,110.20,103.93,98.45,94.47,92.14,90.10,87.76,85.98,84.64,83.08,81.00,77.92,74.11,70.00,67.26,64.67,62.82,61.76,60.83,60.10,59.66,59.19,58.24,56.31,54.06,51.71,49.56,48.50,47.21,45.66,43.90,42.06,40.46,39.71,39.42,39.15,39.01,38.98,39.01,39.09,39.17,39.25,39.25,39.19,39.11,39.02,38.83,38.82,39.16,39.72,40.69,41.90,43.22,44.46,45.51,46.33,46.61,46.00,44.03,41.43,39.27,37.85,36.38,34.97,33.62,32.23,30.64,30.08,29.96,30.04,30.12,30.21,30.37,30.94,31.77,32.24,32.67,33.53,35.03,37.26,39.31,40.97,42.50,44.03,45.43,46.70,47.97,49.29,50.71,53.01,55.78,59.10,62.79,65.14,66.52,67.87,69.47,71.30,77.68,82.08,84.87,87.19,89.54,92.65,96.41,100.44,103.35,105.27,107.34,109.94,113.28,117.02,121.46,126.26,131.18,136.62,142.62,148.90,155.22,161.11,163.51,164.77,165.72,167.03,167.80,168.84,169.42,169.33,169.33,167.13,158.86,149.21,148.14,146.94,146.23,145.45,144.15,142.83,141.22,138.32,134.03,129.01,123.58,119.89,117.64
50.89,49.68,49.26,48.83,48.41,47.98,47.56,47.13,46.91,46.97,47.39,47.82,48.24,48.67,49.10,49.56,51.07,52.38,53.11,53.30,52.81,52.29,51.57,50.35,47.29,44.32,41.74,39.86,39.28,38.70,38.32,38.29,38.79,39.04,39.22,39.33,39.36,39.36,39.42,39.46,39.45,39.42,39.41,39.49,39.59,39.66,39.74,39.90,40.13,40.39,40.55,40.85,41.17,41.58,42.28,42.98,43.54,44.14,44.87,45.57,45.97,46.59,47.41,47.81,48.04,48.65,49.66,51.01,52.75,54.76,56.98,59.35,61.78,64.22,66.68,69.00,70.89,71.86,70.44,67.30,63.31,60.37,59.35,59.42,60.15,61.17,63.11,65.29,67.74,70.63,75.24,79.53,82.94,85.11,85.96,86.00,85.85,85.83,86.31,91.27,97.01,103.00,108.78,112.74,116.08,118.59,120.22,121.01,120.49,118.75,115.87,111.95,107.25,102.32,98.40,96.03,94.02,91.60,89.34,87.31,85.39,82.49,78.96,74.94,70.70,68.03,66.32,65.33,64.78,64.08,63.43,62.96,62.44,61.48,59.76,57.52,54.83,51.91,49.83,48.16,46.50,44.69,42.65,40.61,39.70,39.39,39.09,38.86,38.69,38.65,38.72,38.80,38.88,38.84,38.74,38.66,38.59,38.40,38.42,38.81,39.23,39.83,40.54,41.33,42.12,43.04,43.77,44.10,43.84,42.51,40.59,38.82,37.42,35.95,34.71,33.34,31.82,30.27,29.91,29.78,29.76,29.77,29.84,29.92,30.23,30.68,30.92,31.12,31.98,33.53,35.69,37.74,39.60,41.29,42.80,44.16,45.41,46.64,47.87,49.07,50.82,54.04,58.01,61.91,63.74,65.03,66.26,67.54,68.70,72.95,77.62,81.71,84.41,86.65,89.25,92.26,95.60,98.87,100.56,102.40,105.30,110.15,115.10,120.26,125.48,130.64,135.68,140.43,145.17,149.87,154.21,155.72,156.57,157.42,158.78,160.18,161.77,162.88,163.30,163.60,163.49,157.69,149.90,148.82,146.91,145.61,144.41,142.86,141.23,138.84,135.58,131.59,127.51,122.42,119.11,117.15
50.41,49.53,49.07,48.67,48.27,47.88,47.44,47.08,46.90,46.98,47.37,47.82,48.23,48.62,49.01,49.44,50.34,51.38,52.31,52.69,52.34,51.95,51.16,49.48,46.66,43.97,41.64,39.92,39.30,38.75,38.39,38.30,38.63,38.71,38.82,38.90,38.89,38.89,38.95,39.00,39.00,38.96,38.97,39.07,39.23,39.38,39.54,39.63,39.71,39.77,39.77,39.83,39.91,40.13,40.75,41.30,41.75,42.24,42.83,43.17,43.29,43.73,44.42,44.60,45.13,46.00,47.21,48.78,50.62,52.85,55.21,57.55,59.94,62.33,64.68,66.90,68.86,69.54,67.79,64.34,60.19,58.61,57.81,57.76,58.30,59.11,61.08,63.62,66.51,69.52,73.81,77.67,80.49,82.02,82.63,82.53,82.27,82.32,83.43,88.07,92.84,98.08,103.99,108.43,112.14,115.24,117.64,118.92,119.05,118.37,116.58,113.33,110.58,106.52,102.74,100.12,98.00,95.31,92.41,89.64,87.49,84.01,80.27,76.24,71.97,69.26,68.37,68.11,67.88,67.32,66.59,65.84,64.90,63.51,62.22,60.30,57.62,54.28,51.16,49.13,47.32,45.42,43.15,40.75,39.71,39.39,39.08,38.77,38.46,38.31,38.35,38.43,38.49,38.43,38.30,38.22,38.14,37.96,38.02,38.46,38.84,39.15,39.41,39.68,40.04,40.77,41.35,41.66,41.59,40.79,39.52,38.09,36.65,35.19,34.06,32.75,31.29,29.90,29.80,29.67,29.54,29.48,29.54,29.61,29.69,29.77,29.86,29.88,30.58,32.02,34.11,36.12,38.18,40.03,41.57,42.88,44.13,45.36,46.55,47.70,48.86,52.19,56.52,60.60,62.15,63.57,64.88,66.12,67.36,68.70,72.98,78.17,81.64,84.12,86.30,88.47,90.94,94.44,96.26,98.33,101.81,108.06,114.06,119.58,124.76,129.71,134.05,137.47,140.73,143.89,146.44,147.41,148.23,149.21,150.54,152.59,154.61,156.27,157.44,158.24,158.80,155.43,150.27,148.58,145.89,144.06,142.57,140.89,139.02,135.85,132.42,129.11,126.01,121.44,118.49,116.66
50.07,49.28,48.87,48.44,48.02,47.65,47.36,47.14,46.88,46.80,47.24,47.65,48.04,48.43,48.80,49.09,48.96,49.60,50.92,51.70,51.66,51.41,50.65,48.98,46.36,43.89,41.73,40.04,39.37,38.86,38.49,38.29,38.32,38.34,38.37,38.37,38.32,38.32,38.38,38.48,38.59,38.69,38.80,38.94,39.10,39.25,39.41,39.51,39.56,39.58,39.64,39.66,39.72,39.83,40.06,40.26,40.37,40.49,40.70,40.79,40.83,40.95,41.19,41.52,42.56,43.79,45.18,46.79,48.59,50.74,53.06,55.44,57.83,60.23,62.54,64.66,66.38,66.71,65.25,62.52,59.21,57.43,56.44,56.34,56.99,57.94,59.97,62.72,65.88,69.13,73.28,76.45,78.54,79.53,79.70,79.53,79.29,79.42,80.68,85.70,90.80,95.48,99.47,103.32,107.32,110.82,113.46,114.93,115.49,116.02,116.16,115.25,112.70,110.08,107.43,104.77,102.06,98.82,95.35,92.15,90.04,86.99,83.50,79.60,75.39,72.24,71.06,70.67,70.49,70.23,69.61,68.53,66.89,64.66,62.67,60.52,58.02,55.14,52.33,50.18,48.02,45.70,43.29,40.83,39.74,39.39,39.08,38.77,38.42,38.15,38.03,38.11,38.08,38.01,37.90,37.77,37.69,37.59,37.66,38.01,38.33,38.60,38.84,39.08,39.35,39.55,39.79,39.89,39.69,39.13,38.11,36.70,35.06,33.65,32.18,31.36,30.83,29.83,29.69,29.54,29.42,29.34,29.30,29.36,29.44,29.53,29.66,29.78,30.05,30.88,32.65,34.65,36.68,38.59,40.29,41.61,42.85,44.02,45.13,46.23,47.39,49.53,53.05,57.78,60.57,62.23,63.54,64.79,66.08,67.55,69.85,73.34,78.23,81.54,83.90,85.95,88.08,90.50,93.28,96.51,100.66,106.47,112.70,118.47,123.46,127.49,130.70,133.34,135.63,137.65,139.41,140.23,140.89,141.59,142.48,144.33,146.30,148.31,150.30,152.09,153.00,152.26,149.76,145.65,143.17,141.71,140.23,137.90,134.69,131.80,129.21,126.75,123.99,120.58,118.10,116.28
49.87,49.06,48.64,48.24,47.91,47.69,47.52,47.26,46.92,46.74,47.08,47.46,47.76,47.90,47.85,47.71,47.14,47.24,48.10,49.09,49.56,49.51,49.04,48.25,46.01,43.85,41.83,40.13,39.43,38.99,38.66,38.44,38.36,38.33,38.28,38.19,38.05,37.96,38.03,38.16,38.31,38.47,38.62,38.78,38.93,39.09,39.24,39.36,39.42,39.43,39.47,39.51,39.56,39.63,39.68,39.76,39.71,39.65,39.66,39.66,39.66,39.66,39.71,39.98,40.83,41.91,43.17,44.61,46.48,48.63,50.91,53.25,55.64,58.04,60.31,62.30,63.73,63.81,62.69,60.65,58.09,56.23,55.07,54.90,55.70,57.11,59.20,62.04,65.34,68.70,72.52,75.15,76.71,77.29,77.08,76.85,76.78,77.31,79.15,83.92,88.59,92.57,95.59,98.85,102.50,105.98,108.97,111.10,112.32,113.49,114.45,114.83,113.65,112.15,110.27,107.99,105.30,101.48,97.90,95.11,93.46,90.82,87.61,83.72,79.18,75.74,74.18,73.46,73.02,72.37,71.17,69.49,67.30,64.57,62.11,59.92,57.70,55.32,53.05,50.93,48.62,46.11,43.58,41.08,39.87,39.43,39.12,38.78,38.40,38.06,37.81,37.77,37.66,37.58,37.48,37.36,37.28,37.18,37.22,37.47,37.75,37.99,38.24,38.47,38.61,38.59,38.68,38.67,38.33,37.84,36.97,35.70,34.11,32.50,31.02,30.41,30.27,29.72,29.54,29.39,29.29,29.21,29.10,29.14,29.24,29.35,29.47,29.65,29.79,30.27,31.49,33.37,35.26,37.10,38.84,40.27,41.43,42.52,43.60,44.65,45.99,47.76,50.60,54.70,58.04,60.48,62.23,63.55,64.95,66.52,68.09,70.51,74.60,78.51,81.44,83.77,85.78,87.82,90.56,94.04,98.43,104.04,110.15,115.87,120.78,124.55,127.00,128.93,130.44,131.70,133.11,133.98,134.76,135.45,136.05,137.27,138.86,140.55,142.18,143.76,144.72,144.96,143.96,140.82,138.87,137.32,135.52,133.00,129.94,127.80,125.98,124.16,121.96,119.11,117.05,115.48
49.79,48.87,48.42,48.08,47.92,47.91,47.82,47.40,46.98,46.74,46.87,47.21,47.34,47.10,46.41,45.71,45.07,44.56,44.46,45.50,46.54,46.70,46.69,47.23,45.56,43.78,41.93,40.20,39.50,39.14,38.88,38.69,38.61,38.53,38.40,38.21,37.98,37.75,37.82,37.97,38.12,38.28,38.43,38.58,38.74,38.89,39.05,39.20,39.29,39.29,39.29,39.36,39.43,39.49,39.49,39.57,39.49,39.36,39.28,39.28,39.28,39.28,39.30,39.37,39.65,40.28,41.20,42.35,44.28,46.41,48.65,50.95,53.40,55.80,58.01,59.86,61.02,60.93,60.15,58.76,56.84,55.00,53.70,53.46,54.43,56.45,58.61,61.48,64.82,68.22,71.60,73.81,74.97,75.22,74.65,74.36,74.57,75.67,78.31,82.46,86.26,89.50,92.10,94.76,97.67,100.88,104.25,107.28,109.29,110.76,111.90,112.94,113.73,113.17,111.88,110.23,107.97,103.69,100.33,98.39,97.35,95.11,92.14,88.16,83.10,79.46,77.45,76.24,75.29,73.85,71.68,69.28,66.63,63.63,60.90,58.80,56.92,55.03,53.41,51.42,49.11,46.57,43.96,41.41,40.06,39.49,39.18,38.79,38.40,38.01,37.65,37.42,37.25,37.14,37.06,36.98,36.90,36.77,36.74,36.89,37.12,37.36,37.63,37.86,37.85,37.78,37.85,37.79,37.31,36.77,36.00,34.95,33.53,31.62,30.31,29.75,29.67,29.59,29.37,29.24,29.16,29.07,28.92,28.96,29.07,29.21,29.29,29.51,29.69,29.97,30.55,32.21,33.90,35.60,37.29,38.90,39.92,40.93,41.98,42.99,44.62,46.52,48.80,51.57,55.04,58.50,60.93,62.38,63.93,65.55,67.17,68.92,71.00,75.27,78.94,81.76,83.80,85.89,88.04,91.17,95.49,101.01,106.77,112.27,117.12,120.98,122.95,124.31,125.20,125.94,127.21,128.20,129.22,130.05,130.44,130.85,131.91,132.91,133.55,134.25,135.06,135.30,135.06,134.75,133.49,131.64,129.39,126.97,124.90,123.74,122.65,121.32,119.78,117.18,115.51,114.34
49.88,48.69,48.48,48.36,48.31,48.26,47.97,47.53,47.08,46.68,46.36,45.96,45.53,45.01,44.36,43.67,42.99,42.14,41.43,41.78,42.13,42.51,43.09,43.98,44.03,43.29,41.93,40.32,39.57,39.34,39.14,38.92,38.74,38.61,38.43,38.21,37.98,37.75,37.70,37.78,37.93,38.08,38.24,38.39,38.55,38.70,38.86,39.01,39.12,39.16,39.16,39.23,39.28,39.31,39.36,39.44,39.32,39.15,39.02,38.92,38.94,38.96,38.97,38.99,39.18,39.56,40.06,40.59,41.29,42.55,44.69,47.75,51.04,53.48,55.62,57.43,58.59,58.83,58.17,56.85,55.13,53.38,52.18,52.06,53.21,55.53,57.85,60.65,63.89,67.38,70.47,72.45,73.40,73.37,72.41,71.89,72.39,74.08,77.02,80.47,83.76,86.58,88.73,90.70,92.99,95.73,98.86,102.08,104.69,106.74,108.46,110.13,111.22,111.56,111.34,110.67,109.40,106.81,104.37,102.40,100.77,98.63,95.07,90.52,85.58,81.68,78.82,76.48,74.39,72.21,69.56,66.74,63.89,61.15,59.15,57.40,55.66,53.83,52.31,50.54,48.61,46.52,44.26,41.73,40.25,39.54,39.17,38.73,38.34,37.95,37.57,37.24,37.01,36.88,36.79,36.66,36.53,36.38,36.29,36.32,36.55,36.78,37.00,37.13,37.03,36.95,37.02,36.92,36.35,35.76,35.17,34.24,32.87,31.20,30.19,29.72,29.60,29.47,29.29,29.14,29.01,28.89,28.78,28.87,28.99,29.08,29.16,29.33,29.50,29.71,30.07,31.09,32.62,34.32,35.98,37.45,38.49,39.44,40.39,41.39,43.26,45.38,47.70,50.28,53.54,56.81,59.49,61.51,63.16,64.78,66.41,68.07,69.88,73.10,76.40,79.34,81.77,83.90,86.02,88.48,91.76,96.49,101.80,106.78,111.00,114.21,116.98,118.96,119.98,120.29,120.81,121.25,121.70,122.14,122.59,123.29,124.29,125.25,126.02,126.77,127.29,127.52,127.44,127.08,126.20,124.98,123.33,121.24,119.31,118.34,117.69,116.93,115.49,114.02,112.71,111.51
50.78,49.18,48.79,48.69,48.66,48.53,48.12,47.62,47.08,46.49,45.85,45.08,44.35,43.66,43.01,42.34,41.63,40.73,39.89,39.84,39.86,40.20,40.81,41.57,42.20,42.06,41.31,40.22,39.64,39.45,39.27,39.04,38.80,38.65,38.44,38.21,37.98,37.75,37.60,37.62,37.77,37.92,38.08,38.23,38.39,38.54,38.70,38.85,38.96,39.01,39.03,39.08,39.12,39.16,39.23,39.29,39.15,38.95,38.79,38.64,38.61,38.61,38.61,38.61,38.73,38.97,39.25,39.48,39.56,40.14,41.77,44.65,48.38,51.10,53.37,55.16,56.23,56.73,56.24,55.03,53.41,51.76,50.77,50.82,52.03,54.38,56.86,59.61,62.67,66.04,68.98,70.88,71.75,71.58,70.37,69.62,70.17,72.08,75.05,78.13,81.11,83.66,85.57,87.19,89.00,91.16,93.69,96.45,99.43,102.07,104.37,106.44,107.53,108.49,109.12,109.35,109.28,108.11,106.47,104.61,102.68,100.65,96.76,91.85,86.92,82.83,79.28,76.12,73.22,70.43,67.25,64.14,61.33,59.00,57.36,55.92,54.38,52.62,51.18,49.66,48.00,46.16,44.13,41.79,40.33,39.55,39.14,38.70,38.30,37.92,37.53,37.15,36.87,36.68,36.51,36.31,36.16,36.00,35.86,35.77,35.98,36.21,36.35,36.35,36.20,36.12,36.14,35.99,35.39,34.77,34.24,33.45,32.28,30.74,30.02,29.68,29.52,29.37,29.22,29.06,28.90,28.73,28.65,28.74,28.86,28.95,29.03,29.18,29.33,29.51,29.73,30.28,31.47,33.01,34.65,35.97,37.06,37.99,38.92,40.05,42.04,44.28,46.63,49.07,52.09,55.21,58.08,60.53,62.35,64.01,65.64,67.27,68.95,71.36,74.30,77.11,79.52,81.75,83.86,86.02,88.58,92.10,96.86,101.40,105.20,108.01,110.76,112.63,113.57,113.83,114.13,114.43,114.65,115.00,115.69,116.71,117.81,118.80,119.61,120.31,120.63,120.77,120.67,120.24,119.39,118.39,117.07,115.33,113.77,113.03,112.63,112.15,110.91,109.98,108.80,107.56
52.51,50.36,49.33,49.07,48.97,48.71,48.25,47.66,46.96,46.18,45.35,44.57,43.80,43.06,42.38,41.76,41.02,40.35,39.87,39.72,39.78,39.83,39.89,40.01,40.05,40.10,40.05,39.90,39.72,39.50,39.27,39.04,38.80,38.65,38.44,38.21,37.98,37.75,37.52,37.49,37.64,37.80,37.95,38.11,38.26,38.41,38.57,38.72,38.81,38.82,38.90,38.91,38.95,39.03,39.11,39.11,38.96,38.75,38.60,38.45,38.30,38.23,38.23,38.23,38.30,38.52,38.81,39.03,39.11,39.22,39.91,41.66,45.44,48.66,51.25,53.07,53.93,54.62,54.36,53.31,51.69,50.14,49.49,49.73,50.89,53.00,55.63,58.34,61.16,64.19,67.13,69.10,70.02,69.84,68.54,67.56,67.92,69.65,72.38,75.45,78.29,80.72,82.63,84.25,85.72,87.19,88.74,90.37,93.49,96.73,99.62,101.83,102.63,103.93,105.20,106.21,107.58,107.55,106.60,105.00,103.07,101.13,97.17,92.13,87.10,82.86,78.82,75.14,71.79,68.50,64.74,61.48,58.95,57.21,55.52,54.35,53.08,51.41,50.02,48.80,47.30,45.49,43.55,41.59,40.30,39.54,39.08,38.69,38.30,37.92,37.53,37.15,36.83,36.53,36.23,35.93,35.77,35.62,35.43,35.25,35.41,35.63,35.67,35.52,35.37,35.29,35.22,34.98,34.43,33.82,33.20,32.57,31.77,30.23,29.81,29.61,29.46,29.31,29.15,29.00,28.81,28.60,28.52,28.57,28.69,28.83,28.90,29.05,29.21,29.36,29.53,29.78,30.45,31.67,33.28,34.45,35.61,36.59,37.58,38.96,40.95,43.23,45.59,47.95,50.68,53.70,56.70,59.43,61.50,63.22,64.87,66.52,68.22,70.04,72.65,75.08,77.05,79.43,81.56,83.77,85.97,87.86,91.95,96.12,99.73,102.37,104.28,105.27,105.94,106.54,107.14,107.73,108.10,108.62,109.76,111.13,112.50,113.61,114.35,114.90,115.12,115.07,114.77,114.24,113.04,111.87,110.62,109.24,108.28,107.82,107.47,106.97,106.03,105.03,103.75,102.46
54.12,51.90,50.13,49.49,49.13,48.63,47.99,47.36,46.71,46.02,45.31,44.58,43.82,43.06,42.33,41.67,40.92,40.29,39.87,39.71,39.64,39.65,39.71,39.78,39.83,39.83,39.81,39.76,39.66,39.48,39.27,39.04,38.80,38.65,38.44,38.21,37.98,37.75,37.51,37.41,37.45,37.61,37.76,37.92,38.07,38.23,38.38,38.54,38.64,38.69,38.72,38.76,38.80,38.84,38.92,38.92,38.80,38.60,38.41,38.25,38.06,37.92,37.85,37.90,37.93,38.08,38.30,38.53,38.65,38.74,39.12,40.18,43.00,46.00,48.70,50.82,52.04,52.84,52.81,52.01,50.58,49.27,48.57,48.77,49.86,51.62,54.20,56.83,59.49,62.27,64.70,66.31,67.01,66.80,65.85,65.23,65.67,67.23,69.70,72.46,75.15,77.56,79.50,81.03,82.38,83.70,85.03,86.39,88.40,90.60,92.73,94.51,96.15,98.29,100.75,103.28,104.93,105.28,105.17,104.63,103.24,101.21,97.29,92.35,87.33,82.85,78.73,74.84,71.10,67.50,63.59,60.15,57.40,55.42,53.68,52.61,51.58,50.23,49.07,47.95,46.63,45.07,43.32,41.40,40.18,39.51,39.13,38.70,38.30,37.92,37.54,37.20,36.97,36.75,36.53,36.32,36.02,35.70,35.31,34.90,34.87,34.90,34.85,34.70,34.59,34.47,34.32,34.00,33.42,32.80,32.21,31.62,30.95,30.05,29.74,29.55,29.40,29.24,29.09,28.93,28.75,28.53,28.40,28.44,28.56,28.70,28.78,28.88,29.05,29.23,29.39,29.62,29.99,30.71,31.83,33.03,34.32,35.67,37.11,38.64,40.60,42.79,45.08,47.34,49.50,52.03,54.80,57.64,60.32,62.14,63.84,65.52,67.21,68.85,70.72,72.62,74.53,76.74,78.76,80.86,82.88,84.47,86.90,90.21,93.38,95.64,97.13,97.69,98.42,99.49,100.38,101.40,102.57,103.87,105.30,106.55,107.77,108.76,109.43,109.74,109.88,109.72,109.26,108.53,107.13,105.92,104.81,103.74,103.13,102.72,102.24,101.48,100.19,99.08,97.92,96.86
55.78,53.52,51.22,50.02,49.29,48.65,47.91,47.25,46.59,45.94,45.28,44.57,43.82,43.05,42.28,41.57,40.80,40.21,39.84,39.69,39.52,39.51,39.60,39.68,39.72,39.69,39.65,39.62,39.56,39.44,39.25,39.04,38.80,38.63,38.43,38.21,37.98,37.75,37.51,37.34,37.28,37.42,37.57,37.73,37.88,38.04,38.19,38.34,38.46,38.53,38.55,38.60,38.64,38.67,38.75,38.74,38.63,38.44,38.22,38.06,37.85,37.65,37.53,37.56,37.56,37.64,37.81,38.04,38.20,38.29,38.47,39.02,40.95,43.54,46.18,48.54,50.19,51.07,51.23,50.68,49.53,48.39,47.65,47.82,48.91,50.36,52.73,55.25,57.78,60.25,62.17,63.38,63.84,63.63,63.08,62.86,63.41,64.85,67.16,69.64,72.08,74.35,76.32,77.83,79.18,80.40,81.53,82.65,83.78,85.17,86.72,88.24,90.42,93.13,96.45,100.11,102.34,103.09,103.63,103.92,103.17,101.16,97.34,92.50,87.50,82.83,78.60,74.53,70.54,66.75,62.81,59.29,56.31,53.91,51.99,50.97,50.15,49.11,48.14,47.08,45.87,44.50,42.95,41.16,40.06,39.49,39.17,38.73,38.33,37.97,37.65,37.39,37.23,37.07,36.91,36.74,36.35,35.89,35.36,34.83,34.57,34.37,34.15,33.92,33.80,33.65,33.42,33.03,32.42,31.86,31.35,30.83,30.29,29.90,29.65,29.46,29.30,29.13,28.98,28.82,28.64,28.44,28.28,28.30,28.40,28.53,28.62,28.72,28.90,29.11,29.26,29.50,29.67,30.02,30.72,31.97,33.41,35.05,36.79,38.43,40.34,42.44,44.58,46.62,48.35,50.42,52.91,55.77,58.86,60.96,62.77,64.45,66.09,67.55,68.81,70.17,71.76,73.58,75.15,76.76,78.32,79.55,80.58,82.98,85.77,88.14,90.06,90.71,91.58,92.92,93.99,95.25,96.84,98.59,100.23,101.52,102.72,103.64,104.18,104.33,104.37,104.12,103.56,102.71,101.18,99.95,98.91,97.91,96.73,96.34,95.75,94.70,93.41,92.43,91.77,91.24
57.55,55.23,52.79,50.78,49.48,48.86,48.22,47.48,46.73,45.97,45.22,44.46,43.69,42.92,42.15,41.38,40.61,40.07,39.78,39.62,39.41,39.42,39.54,39.61,39.55,39.53,39.49,39.44,39.43,39.35,39.22,39.04,38.80,38.58,38.40,38.21,37.98,37.75,37.51,37.29,37.14,37.23,37.38,37.53,37.69,37.84,38.00,38.15,38.27,38.35,38.42,38.43,38.48,38.55,38.62,38.56,38.43,38.25,38.02,37.87,37.65,37.46,37.31,37.19,37.18,37.23,37.36,37.59,37.75,37.85,37.94,38.23,39.51,41.46,43.79,46.24,48.38,49.28,49.54,49.25,48.51,47.42,46.65,46.89,48.09,49.30,51.24,53.59,55.99,58.06,59.54,60.34,60.58,60.43,60.27,60.44,61.14,62.55,64.86,67.15,69.16,71.09,73.07,74.67,76.20,77.38,78.21,79.04,79.87,81.06,82.54,84.14,86.18,88.96,92.47,96.50,99.96,101.24,102.11,102.75,102.69,100.95,97.31,92.57,87.56,82.79,78.34,74.12,70.09,66.31,62.49,59.06,55.92,52.89,50.57,49.51,48.87,48.10,47.23,46.18,44.98,43.66,42.30,40.85,39.97,39.49,39.18,38.78,38.39,38.10,37.93,37.82,37.67,37.52,37.35,37.12,36.74,36.20,35.68,35.25,34.69,34.19,33.67,33.19,32.98,32.82,32.53,32.08,31.47,31.05,30.70,30.32,29.94,29.75,29.52,29.34,29.16,28.94,28.79,28.63,28.47,28.31,28.15,28.13,28.18,28.28,28.43,28.57,28.77,28.98,29.14,29.37,29.54,29.76,30.21,31.52,33.13,34.86,36.61,38.30,40.16,42.15,44.02,45.65,47.23,48.91,51.11,53.86,56.95,59.63,61.69,63.32,64.80,66.01,67.00,67.81,68.58,69.66,70.19,70.69,71.24,71.83,72.07,73.55,76.09,79.43,83.23,84.81,85.95,87.16,88.18,89.34,90.65,92.16,93.92,95.55,97.02,97.97,98.30,98.45,98.37,98.05,97.49,96.64,95.11,93.88,92.78,91.46,88.11,87.69,87.08,85.70,85.10,84.73,85.18,85.67
59.32,56.65,54.14,51.68,49.91,48.98,48.24,47.48,46.70,45.92,45.11,44.33,43.56,42.79,42.02,41.24,40.47,39.98,39.77,39.61,39.35,39.35,39.45,39.44,39.41,39.37,39.33,39.29,39.25,39.21,39.13,39.00,38.80,38.57,38.39,38.21,37.98,37.75,37.51,37.28,37.10,37.10,37.24,37.39,37.55,37.70,37.86,38.01,38.13,38.20,38.24,38.28,38.34,38.41,38.45,38.37,38.24,38.07,37.88,37.69,37.49,37.30,37.11,36.96,36.87,36.87,36.96,37.15,37.30,37.40,37.48,37.69,38.69,40.11,42.10,44.41,46.50,47.39,47.77,47.70,47.20,46.32,45.71,46.05,47.27,48.47,49.98,51.94,54.10,56.09,57.28,58.00,58.28,58.21,58.22,58.58,59.32,60.54,62.38,64.60,66.51,68.27,70.07,71.65,73.20,74.47,75.40,76.17,77.09,78.18,79.42,80.77,82.58,85.25,88.67,92.62,96.36,98.81,100.51,101.54,101.82,100.41,97.10,92.58,87.57,82.74,78.03,73.46,69.11,65.21,61.51,58.31,55.41,52.48,50.20,49.00,48.17,47.27,46.34,45.32,44.22,43.06,41.91,40.68,39.90,39.44,39.13,38.78,38.49,38.32,38.25,38.21,38.11,37.94,37.74,37.51,37.04,36.58,36.12,35.64,35.06,34.51,33.95,33.42,33.03,32.56,32.07,31.58,31.13,30.78,30.43,30.10,29.82,29.62,29.43,29.24,29.04,28.85,28.66,28.49,28.32,28.13,27.98,27.95,28.01,28.13,28.29,28.48,28.70,28.92,29.11,29.30,29.49,29.69,30.04,31.24,32.91,34.64,36.37,38.07,39.80,41.59,43.30,44.84,46.39,47.87,49.56,51.67,54.44,57.47,60.03,61.98,63.31,64.15,64.88,65.47,65.99,66.84,67.29,67.63,68.02,68.60,68.77,69.62,71.10,73.14,76.25,78.78,80.82,82.36,83.24,84.27,85.55,87.02,88.55,89.94,91.12,91.93,92.30,92.38,92.16,91.80,90.92,88.76,87.01,85.95,85.24,84.43,82.31,81.67,81.03,80.19,80.04,79.81,80.29,80.91
61.11,57.99,55.37,52.60,50.43,49.10,48.25,47.47,46.69,45.89,45.06,44.27,43.49,42.71,41.93,41.15,40.37,39.91,39.76,39.60,39.31,39.29,39.36,39.27,39.26,39.21,39.16,39.14,39.08,39.06,39.02,38.93,38.79,38.57,38.39,38.21,37.98,37.75,37.51,37.28,37.08,36.98,37.10,37.25,37.41,37.56,37.71,37.87,37.99,38.07,38.07,38.14,38.21,38.26,38.27,38.19,38.06,37.90,37.73,37.50,37.33,37.14,36.92,36.77,36.61,36.53,36.55,36.68,36.85,36.95,37.03,37.23,38.03,39.06,40.68,42.71,44.63,45.54,46.03,46.10,45.76,45.11,44.73,45.17,46.39,47.60,48.76,50.34,52.22,54.12,55.10,55.83,56.21,56.26,56.38,56.89,57.68,58.74,60.10,62.12,63.92,65.56,67.17,68.68,70.21,71.57,72.70,73.56,74.61,75.65,76.69,77.81,79.40,81.84,85.00,88.71,92.50,96.00,98.53,99.99,100.50,99.46,96.53,92.28,87.40,82.45,77.37,72.41,67.78,63.76,60.34,57.48,54.92,52.29,50.13,48.79,47.75,46.68,45.66,44.64,43.63,42.63,41.64,40.61,39.89,39.42,39.10,38.82,38.66,38.59,38.59,38.59,38.52,38.36,38.13,37.89,37.37,37.00,36.60,36.06,35.52,34.97,34.42,33.87,33.28,32.48,31.77,31.24,30.92,30.61,30.26,29.95,29.73,29.50,29.33,29.14,28.93,28.77,28.54,28.35,28.17,27.95,27.79,27.75,27.84,28.01,28.17,28.40,28.62,28.85,29.08,29.24,29.46,29.66,29.97,30.99,32.65,34.36,36.05,37.74,39.35,40.95,42.52,44.04,45.55,46.90,48.17,49.62,51.87,54.77,57.67,60.05,61.43,62.09,62.62,63.05,63.49,64.29,64.90,65.39,65.87,66.53,66.84,67.32,67.84,68.47,70.44,73.41,76.07,77.92,78.73,79.70,81.00,82.44,83.75,84.75,85.53,86.15,86.58,86.63,86.26,85.86,84.80,81.83,80.13,79.33,79.00,78.73,78.10,77.21,76.51,76.17,76.16,75.90,76.14,76.65
63.02,59.31,56.40,53.45,50.99,49.30,48.45,47.66,46.86,46.04,45.25,44.41,43.58,42.77,41.99,41.16,40.33,39.87,39.75,39.54,39.29,39.26,39.27,39.14,39.08,39.05,39.01,38.96,38.94,38.89,38.85,38.82,38.72,38.55,38.39,38.21,37.98,37.75,37.51,37.28,37.06,36.86,36.93,37.06,37.21,37.37,37.52,37.68,37.82,37.94,37.94,38.01,38.05,38.08,38.14,38.07,37.90,37.70,37.54,37.31,37.14,36.95,36.73,36.58,36.42,36.25,36.14,36.17,36.39,36.50,36.61,36.81,37.42,38.38,39.57,41.03,42.91,43.91,44.43,44.49,44.11,43.66,43.60,44.17,45.28,46.39,47.55,48.92,50.45,52.01,52.90,53.63,54.12,54.37,54.63,55.33,56.29,57.43,58.63,59.90,61.33,62.86,64.41,65.77,67.23,68.64,69.96,71.16,72.25,73.28,74.37,75.64,77.07,78.98,81.57,84.94,88.79,92.41,95.36,97.36,98.07,97.50,94.90,91.03,86.67,81.38,75.65,70.33,65.73,61.72,59.09,56.82,54.62,52.29,50.18,48.82,47.75,46.67,45.60,44.54,43.51,42.52,41.57,40.73,40.05,39.53,39.17,39.05,38.99,38.97,38.97,38.97,38.91,38.77,38.57,38.27,37.86,37.51,37.11,36.57,36.03,35.44,34.87,34.27,33.49,32.48,31.65,31.03,30.67,30.36,30.04,29.78,29.60,29.37,29.21,29.01,28.80,28.64,28.41,28.19,27.99,27.82,27.60,27.56,27.68,27.89,28.11,28.34,28.53,28.72,28.95,29.17,29.40,29.62,29.93,30.70,32.24,33.89,35.53,37.16,38.73,40.25,41.72,43.13,44.49,45.82,47.06,48.26,49.58,50.94,53.51,56.40,58.51,59.66,60.13,60.41,60.82,61.72,62.52,63.34,64.11,64.62,65.22,65.82,66.41,67.08,68.56,70.28,72.16,73.93,74.88,76.09,77.37,78.67,79.96,80.62,81.13,81.53,81.82,82.06,81.56,81.10,80.56,79.41,78.87,78.43,78.11,77.81,76.78,75.68,74.84,74.23,73.47,72.97,72.98,73.34
64.42,60.51,57.27,54.07,51.36,49.40,48.55,47.74,46.93,46.12,45.31,44.46,43.61,42.79,42.01,41.16,40.31,39.84,39.70,39.43,39.29,39.19,39.10,39.01,38.93,38.89,38.85,38.81,38.78,38.73,38.70,38.66,38.62,38.50,38.37,38.21,37.98,37.75,37.51,37.28,37.05,36.82,36.78,36.87,37.02,37.18,37.33,37.49,37.64,37.78,37.81,37.85,37.89,37.93,37.97,37.90,37.71,37.51,37.35,37.16,36.97,36.77,36.58,36.39,36.23,36.03,35.85,35.79,35.96,36.06,36.17,36.36,36.77,37.68,38.69,39.83,41.32,42.31,42.81,42.85,42.51,42.33,42.43,43.01,44.02,45.10,46.34,47.56,48.78,50.07,50.82,51.49,52.02,52.45,52.99,53.90,54.98,56.11,57.17,58.08,59.21,60.42,61.61,62.86,64.22,65.52,66.76,68.17,69.43,70.69,72.00,73.38,74.87,76.64,78.86,81.61,84.88,88.48,91.70,94.06,94.90,95.01,93.32,90.09,85.64,80.01,73.67,67.94,63.33,59.94,57.74,55.76,53.78,51.65,49.96,48.73,47.65,46.54,45.46,44.40,43.45,42.65,42.09,41.33,40.63,40.01,39.45,39.38,39.36,39.36,39.36,39.36,39.32,39.21,39.00,38.66,38.30,37.96,37.55,37.04,36.50,35.92,35.24,34.43,33.51,32.44,31.50,30.81,30.45,30.15,29.86,29.61,29.39,29.20,29.01,28.81,28.62,28.43,28.23,28.01,27.81,27.65,27.41,27.40,27.53,27.77,28.00,28.23,28.41,28.59,28.83,29.06,29.29,29.52,29.80,30.29,31.74,33.33,34.91,36.46,37.94,39.39,40.78,42.10,43.42,44.68,45.90,47.03,47.97,48.83,50.57,52.64,54.30,55.61,56.26,56.67,57.22,58.51,59.93,61.30,62.40,62.96,63.65,64.34,65.01,65.72,67.00,68.20,69.44,70.68,71.65,73.11,74.64,76.04,77.13,77.67,78.10,78.40,78.60,78.81,78.42,78.27,78.27,77.92,77.76,77.50,77.11,76.56,75.40,74.24,73.23,72.33,71.19,70.29,69.75,69.67
65.47,61.54,57.98,54.53,51.59,49.45,48.61,47.76,46.95,46.15,45.30,44.46,43.61,42.79,42.01,41.16,40.31,39.82,39.62,39.32,39.29,39.10,38.90,38.88,38.81,38.73,38.69,38.67,38.60,38.59,38.54,38.49,38.49,38.41,38.34,38.20,37.98,37.75,37.51,37.28,37.05,36.82,36.65,36.68,36.83,36.99,37.14,37.29,37.45,37.59,37.67,37.68,37.73,37.78,37.79,37.71,37.53,37.33,37.17,37.01,36.80,36.60,36.43,36.20,36.04,35.84,35.63,35.48,35.54,35.62,35.73,35.89,36.11,36.99,37.95,38.89,39.88,40.77,41.22,41.26,41.01,41.08,41.28,41.80,42.67,43.75,45.08,46.18,47.16,48.22,48.84,49.40,49.96,50.58,51.43,52.54,53.69,54.77,55.67,56.45,57.28,58.09,58.82,59.98,61.23,62.34,63.38,64.90,66.38,67.95,69.53,71.02,72.73,74.60,76.56,78.60,81.02,84.40,87.73,90.36,91.42,92.21,91.68,89.23,84.51,78.59,71.74,65.56,60.89,58.34,56.34,54.50,52.66,50.71,49.58,48.55,47.49,46.35,45.27,44.32,43.55,43.06,43.02,42.36,41.67,40.93,40.18,40.08,40.06,40.06,40.05,40.00,39.93,39.77,39.50,39.05,38.75,38.38,37.96,37.49,36.94,36.37,35.52,34.46,33.46,32.38,31.34,30.58,30.26,29.95,29.70,29.44,29.16,29.00,28.78,28.59,28.41,28.18,28.03,27.82,27.62,27.45,27.22,27.25,27.41,27.64,27.86,28.10,28.28,28.47,28.70,28.93,29.16,29.40,29.63,29.86,31.19,32.71,34.23,35.69,37.07,38.45,39.77,41.02,42.33,43.52,44.71,45.86,46.71,47.55,48.34,49.07,49.77,51.03,51.90,52.54,53.25,55.05,57.24,59.20,60.66,61.39,62.11,62.87,63.61,64.37,65.57,66.60,67.32,67.87,68.77,70.50,72.37,73.94,74.76,75.30,75.73,76.02,76.16,76.24,76.07,76.38,76.89,76.89,76.74,76.54,76.08,75.21,74.05,72.90,71.74,70.51,69.04,67.70,66.53,65.88
65.66,61.73,58.07,54.52,51.53,49.40,48.60,47.76,46.92,46.09,45.24,44.44,43.61,42.77,41.95,41.15,40.31,39.76,39.50,39.25,39.18,39.07,38.92,38.76,38.68,38.60,38.56,38.55,38.47,38.46,38.41,38.36,38.36,38.28,38.24,38.16,37.98,37.75,37.51,37.28,37.05,36.82,36.61,36.56,36.64,36.79,36.95,37.10,37.26,37.40,37.48,37.53,37.57,37.60,37.66,37.53,37.37,37.18,36.97,36.82,36.60,36.41,36.24,36.01,35.85,35.65,35.44,35.29,35.20,35.23,35.32,35.43,35.61,36.40,37.31,38.21,39.05,39.56,39.91,40.07,40.05,40.12,40.32,40.70,41.32,42.35,43.36,44.38,45.42,46.43,47.00,47.58,48.32,49.24,50.14,51.26,52.30,53.17,53.82,54.59,55.07,55.53,56.26,57.42,58.40,59.36,60.39,61.67,63.21,64.85,66.51,68.15,70.65,72.78,74.70,76.55,78.42,80.60,83.16,85.88,88.23,89.13,89.23,87.66,83.69,78.02,71.11,64.62,59.55,57.00,55.00,53.13,51.41,49.95,49.06,48.21,47.28,46.23,45.14,44.76,44.66,44.74,45.04,45.16,44.70,44.11,43.81,43.51,43.44,43.44,43.35,42.80,42.06,41.34,40.55,39.57,39.26,38.89,38.48,37.99,37.34,36.47,35.46,34.40,33.39,32.32,31.25,30.41,30.00,29.75,29.51,29.27,29.02,28.81,28.59,28.40,28.22,27.99,27.83,27.63,27.43,27.26,27.03,27.10,27.28,27.50,27.68,27.90,28.12,28.34,28.57,28.80,29.07,29.34,29.57,29.80,30.70,31.98,33.45,34.86,36.14,37.42,38.69,39.93,41.19,42.41,43.58,44.64,45.49,46.29,46.97,47.55,48.09,48.80,49.28,49.61,50.15,52.14,54.54,56.72,58.45,59.53,60.55,61.37,62.14,63.00,63.85,64.69,65.32,65.77,66.37,68.29,70.20,71.65,72.33,72.87,73.34,73.63,73.74,73.87,73.92,74.36,75.11,75.85,75.72,75.59,75.19,74.31,73.21,72.11,70.92,69.31,66.36,64.85,63.62,62.62
65.47,61.65,57.96,54.42,51.45,49.37,48.57,47.73,46.89,46.06,45.21,44.41,43.58,42.74,41.92,41.15,40.33,39.71,39.33,39.21,39.18,39.10,38.96,38.73,38.60,38.49,38.42,38.39,38.34,38.31,38.27,38.22,38.20,38.15,38.11,38.06,37.95,37.74,37.51,37.28,37.05,36.82,36.59,36.47,36.48,36.64,36.79,36.95,37.10,37.24,37.32,37.37,37.41,37.45,37.53,37.35,37.19,37.01,36.78,36.63,36.43,36.24,36.05,35.85,35.67,35.47,35.27,35.09,34.91,34.86,34.90,35.01,35.14,35.81,36.65,37.49,38.13,38.47,38.81,39.05,39.12,39.20,39.40,39.68,40.11,40.93,41.68,42.64,43.69,44.61,45.34,46.14,47.08,48.14,49.04,50.00,50.83,51.48,51.91,52.44,52.67,52.99,53.74,54.84,55.83,56.85,57.96,59.14,60.50,61.93,63.48,65.25,68.22,70.74,72.83,74.54,76.16,77.78,79.79,82.19,84.80,85.97,86.76,86.09,82.98,78.06,71.44,64.94,59.64,56.64,54.09,51.98,50.38,49.39,48.70,47.95,47.12,46.25,45.54,45.59,45.93,46.37,46.84,47.35,47.50,47.63,48.06,48.10,47.97,47.68,47.16,46.06,44.86,43.74,42.58,41.18,40.34,39.59,38.94,38.34,37.51,36.48,35.40,34.34,33.36,32.31,31.17,30.24,29.82,29.56,29.32,29.09,28.86,28.63,28.39,28.19,28.00,27.80,27.62,27.42,27.23,27.07,26.87,26.93,27.13,27.37,27.52,27.75,27.98,28.21,28.44,28.67,28.94,29.20,29.43,29.67,30.23,31.25,32.59,33.93,35.16,36.40,37.64,38.87,40.08,41.29,42.42,43.42,44.25,44.90,45.46,45.96,46.42,46.80,47.07,47.38,48.01,49.97,52.23,54.33,56.08,57.29,58.48,59.35,60.20,61.24,62.07,62.77,63.28,63.64,64.02,65.35,66.51,67.44,68.22,69.14,70.09,70.69,70.86,71.23,71.85,72.72,73.75,74.78,74.69,74.58,74.27,73.61,72.66,71.58,69.97,67.52,63.73,61.78,60.21,58.86
64.96,61.33,57.70,54.24,51.37,49.36,48.51,47.66,46.86,46.06,45.21,44.36,43.51,42.69,41.92,41.15,40.37,39.64,39.12,39.19,39.27,39.20,39.02,38.79,38.56,38.39,38.27,38.20,38.20,38.14,38.10,38.08,38.01,38.00,37.95,37.90,37.89,37.73,37.51,37.28,37.05,36.82,36.59,36.41,36.35,36.51,36.66,36.82,36.97,37.11,37.19,37.20,37.25,37.32,37.40,37.18,37.00,36.82,36.59,36.44,36.28,36.09,35.87,35.72,35.49,35.31,35.13,34.90,34.67,34.50,34.48,34.62,34.70,35.24,35.99,36.72,37.11,37.50,37.88,38.15,38.23,38.31,38.50,38.74,39.02,39.49,40.03,40.95,41.98,42.77,43.84,45.02,46.19,47.24,48.09,48.75,49.29,49.70,49.94,50.03,50.11,50.45,51.24,52.24,53.48,54.75,55.98,57.22,58.19,59.17,60.44,62.31,65.48,68.52,70.93,72.56,74.18,75.80,77.43,79.17,81.19,82.75,84.28,84.51,82.36,78.63,72.57,66.33,60.96,57.11,53.55,51.02,49.56,49.01,48.46,47.75,47.01,46.40,46.38,46.76,47.34,47.97,48.44,49.04,50.09,51.43,52.84,53.67,53.45,52.63,51.40,49.71,48.22,46.85,45.43,43.74,41.91,40.45,39.37,38.57,37.49,36.41,35.33,34.29,33.36,32.36,31.11,30.07,29.69,29.38,29.13,28.90,28.67,28.43,28.20,27.97,27.76,27.61,27.38,27.20,27.04,26.89,26.73,26.77,26.96,27.24,27.39,27.62,27.85,28.08,28.31,28.55,28.78,29.01,29.24,29.47,29.78,30.54,31.67,32.91,34.14,35.38,36.61,37.84,39.00,40.16,41.24,42.20,42.97,43.39,43.83,44.30,44.75,44.98,45.22,45.72,46.70,48.40,50.25,52.02,53.58,54.74,55.97,56.89,57.87,59.15,60.23,60.82,61.21,61.50,61.74,61.79,61.53,61.60,62.69,64.29,66.12,67.29,67.59,68.36,69.83,71.40,72.77,73.70,73.65,73.52,73.33,73.05,72.35,71.29,68.92,65.22,61.14,58.53,56.36,54.66
