23.78,23.09,22.47,21.91,21.33,20.72,20.16,19.73,19.37,19.03,18.66,18.33,18.01,17.68,17.32,16.99,16.68,16.33,15.96,15.65,15.29,15.00,14.75,14.52,14.29,14.06,13.86,13.69,13.46,13.23,13.01,12.81,12.63,12.40,12.22,12.05,11.84,11.60,11.43,11.27,11.10,10.94,10.79,10.58,10.39,10.26,10.18,10.10,10.06,10.06,10.06,10.10,10.14,10.17,10.23,10.25,10.26,10.28,10.33,10.35,10.36,10.39,10.42,10.36,10.29,10.21,10.08,9.83,9.89,9.84,9.80,9.80,9.83,9.83,9.83,9.83,9.83,9.88,9.90,9.90,9.90,9.90,9.90,9.90,9.90,9.90,9.90,9.89,9.85,9.80,9.80,9.80,9.81,9.84,9.89,9.90,9.90,9.90,9.90,9.88,9.87,9.86,9.83,9.89,9.88,9.88,9.90,9.90,9.90,9.90,9.90,9.90,9.90,9.90,9.90,9.90,9.90,9.90,9.90,9.90,9.90,9.90,9.90,9.90,9.90,9.90,9.88,9.88,9.90,9.90,9.90,9.90,9.92,10.00,10.13,10.24,10.36,10.49,10.64,10.80,10.90,10.92,10.85,10.72,10.57,10.44,10.36,10.21,10.11,10.01,9.90,9.90,9.90,9.90,9.90,9.90,9.90,9.90,9.90,9.90,9.90,9.96,10.12,10.34,10.49,10.72,10.90,11.08,11.31,11.54,11.72,11.91,12.13,12.31,12.51,12.70,12.89,13.10,13.33,13.51,13.69,13.93,14.16,14.33,14.52,14.73,14.89,15.12,15.35,15.58,15.81,16.04,16.26,16.44,16.60,16.75,16.91,17.06,17.21,17.37,17.47,17.59,17.73,17.88,17.98,18.12,18.24,18.35,18.55,18.66,18.78,18.92,19.07,19.17,19.30,19.44,19.60,19.75,19.86,20.01,20.19,20.37,20.60,20.78,20.92,21.03,21.08,21.15,21.19,21.20,21.28,21.34,21.41,21.48,21.53,21.54,21.47,21.39,21.33,21.23,21.17,21.10,21.04,21.01,20.94,20.86,20.81,20.82,20.86,21.12,21.39,21.62,21.85,22.15,22.41,22.65
23.50,22.83,22.24,21.67,21.08,20.47,19.96,19.58,19.24,18.89,18.50,18.19,17.88,17.55,17.20,16.89,16.58,16.23,15.86,15.55,15.20,14.92,14.69,14.46,14.22,13.99,13.78,13.60,13.39,13.16,12.93,12.72,12.57,12.34,12.14,11.95,11.74,11.51,11.32,11.15,11.00,10.84,10.69,10.49,10.28,10.13,10.05,9.99,9.97,9.97,9.97,10.03,10.07,10.08,10.13,10.16,10.17,10.19,10.27,10.27,10.27,10.29,10.32,10.27,10.19,10.12,10.01,9.84,9.89,9.86,9.83,9.83,9.80,9.80,9.80,9.80,9.80,9.85,9.87,9.87,9.87,9.87,9.89,9.90,9.90,9.90,9.90,9.90,9.88,9.80,9.80,9.80,9.80,9.81,9.86,9.89,9.90,9.90,9.90,9.90,9.90,9.88,9.84,9.89,9.90,9.90,9.90,9.90,9.90,9.90,9.90,9.90,9.90,9.90,9.90,9.90,9.90,9.90,9.90,9.90,9.90,9.90,9.90,9.90,9.90,9.90,9.90,9.89,9.87,9.90,9.90,9.90,9.94,10.07,10.20,10.31,10.42,10.55,10.71,10.86,10.98,11.02,10.94,10.79,10.65,10.53,10.43,10.30,10.19,10.06,9.93,9.90,9.90,9.90,9.90,9.90,9.90,9.90,9.90,9.90,9.90,9.99,10.14,10.34,10.52,10.73,10.92,11.11,11.31,11.54,11.72,11.91,12.13,12.28,12.50,12.71,12.89,13.10,13.33,13.51,13.69,13.92,14.13,14.31,14.52,14.73,14.89,15.12,15.35,15.58,15.81,16.04,16.27,16.48,16.66,16.81,16.95,17.09,17.24,17.36,17.44,17.55,17.68,17.80,17.88,18.00,18.10,18.21,18.44,18.58,18.74,18.93,19.10,19.21,19.35,19.50,19.65,19.78,19.89,20.08,20.30,20.43,20.61,20.73,20.83,20.90,20.90,20.96,21.00,21.01,21.09,21.17,21.24,21.32,21.40,21.50,21.51,21.49,21.46,21.41,21.34,21.26,21.20,21.17,21.09,21.02,20.97,20.97,20.97,21.19,21.45,21.68,21.91,22.22,22.48,22.71
23.19,22.58,22.04,21.44,20.82,20.23,19.76,19.43,19.08,18.69,18.31,18.00,17.69,17.38,17.07,16.76,16.45,16.10,15.73,15.43,15.12,14.85,14.62,14.39,14.16,13.93,13.70,13.48,13.32,13.10,12.87,12.66,12.50,12.27,12.04,11.84,11.68,11.45,11.22,11.02,10.87,10.71,10.56,10.36,10.15,10.00,9.92,9.90,9.90,9.90,9.90,9.97,10.00,10.00,10.00,10.08,10.10,10.13,10.20,10.20,10.20,10.20,10.20,10.20,10.13,10.05,9.98,9.90,9.90,9.90,9.90,9.89,9.81,9.80,9.80,9.80,9.80,9.80,9.80,9.80,9.80,9.80,9.86,9.90,9.90,9.90,9.90,9.90,9.88,9.80,9.80,9.80,9.80,9.80,9.80,9.87,9.90,9.90,9.90,9.90,9.90,9.90,9.90,9.90,9.90,9.90,9.90,9.90,9.90,9.90,9.90,9.90,9.90,9.90,9.90,9.90,9.90,9.90,9.90,9.90,9.90,9.90,9.90,9.90,9.90,9.90,9.90,9.86,9.82,9.89,9.90,9.90,9.97,10.20,10.28,10.41,10.53,10.62,10.77,10.93,11.04,11.08,11.00,10.85,10.75,10.64,10.49,10.42,10.28,10.13,9.99,9.91,9.90,9.90,9.90,9.90,9.90,9.90,9.90,9.90,9.90,10.03,10.18,10.35,10.58,10.74,10.95,11.15,11.31,11.54,11.72,11.91,12.13,12.28,12.50,12.73,12.94,13.10,13.33,13.51,13.69,13.92,14.07,14.29,14.52,14.73,14.89,15.12,15.35,15.58,15.81,16.04,16.27,16.51,16.72,16.88,16.97,17.09,17.22,17.30,17.38,17.46,17.53,17.61,17.69,17.77,17.84,17.95,18.19,18.42,18.65,18.88,19.11,19.26,19.41,19.57,19.71,19.79,19.93,20.17,20.42,20.50,20.58,20.60,20.63,20.70,20.70,20.77,20.80,20.82,20.90,20.97,21.05,21.13,21.21,21.36,21.46,21.53,21.60,21.60,21.53,21.45,21.38,21.30,21.22,21.15,21.10,21.10,21.10,21.28,21.51,21.75,21.98,22.28,22.54,22.77
22.75,22.13,21.59,21.03,20.46,19.92,19.50,19.09,18.76,18.47,18.18,17.82,17.50,17.19,16.88,16.57,16.26,15.94,15.61,15.30,14.99,14.76,14.56,14.33,14.10,13.86,13.63,13.41,13.26,13.04,12.81,12.58,12.38,12.19,11.98,11.76,11.56,11.37,11.15,10.96,10.79,10.59,10.43,10.23,10.04,9.94,9.91,9.90,9.90,9.90,9.90,9.92,9.94,9.95,10.00,10.03,10.04,10.07,10.14,10.14,10.14,10.14,10.13,10.08,10.05,9.99,9.93,9.90,9.90,9.90,9.90,9.90,9.87,9.86,9.84,9.80,9.80,9.80,9.80,9.80,9.80,9.80,9.82,9.84,9.84,9.84,9.84,9.84,9.83,9.80,9.80,9.80,9.80,9.80,9.80,9.82,9.86,9.90,9.90,9.90,9.90,9.90,9.90,9.90,9.90,9.90,9.90,9.90,9.90,9.90,9.90,9.90,9.90,9.90,9.90,9.90,9.90,9.90,9.90,9.90,9.90,9.90,9.90,9.90,9.90,9.90,9.90,9.89,9.87,9.90,9.90,9.93,10.03,10.26,10.39,10.50,10.62,10.74,10.90,11.01,11.13,11.21,11.13,10.98,10.88,10.77,10.62,10.49,10.31,10.13,9.99,9.91,9.90,9.90,9.90,9.90,9.90,9.90,9.90,9.91,9.95,10.05,10.18,10.34,10.53,10.73,10.92,11.11,11.31,11.49,11.69,11.89,12.07,12.27,12.50,12.73,12.94,13.10,13.33,13.54,13.74,13.92,14.13,14.31,14.52,14.73,14.89,15.12,15.32,15.52,15.75,15.98,16.21,16.44,16.65,16.76,16.84,16.91,16.97,17.05,17.12,17.20,17.28,17.36,17.43,17.47,17.58,17.75,17.93,18.16,18.39,18.63,18.86,19.06,19.26,19.47,19.66,19.84,20.00,20.13,20.23,20.31,20.34,20.38,20.44,20.51,20.51,20.57,20.64,20.69,20.77,20.85,20.92,21.00,21.08,21.23,21.33,21.41,21.48,21.53,21.60,21.61,21.57,21.49,21.41,21.34,21.27,21.23,21.23,21.33,21.54,21.81,22.04,22.34,22.61,22.84
22.30,21.69,21.15,20.60,20.08,19.60,19.22,18.78,18.44,18.18,17.97,17.61,17.29,16.99,16.66,16.37,16.07,15.76,15.45,15.14,14.87,14.66,14.48,14.26,14.03,13.80,13.57,13.35,13.17,12.96,12.74,12.51,12.28,12.12,11.91,11.68,11.46,11.30,11.09,10.88,10.70,10.47,10.30,10.11,9.95,9.90,9.90,9.90,9.90,9.90,9.90,9.90,9.90,9.92,9.97,9.97,9.97,9.99,10.05,10.07,10.07,10.06,10.03,9.98,9.97,9.94,9.90,9.90,9.90,9.90,9.90,9.90,9.90,9.90,9.87,9.83,9.83,9.81,9.80,9.80,9.80,9.80,9.82,9.82,9.80,9.80,9.80,9.80,9.80,9.80,9.80,9.80,9.80,9.80,9.80,9.80,9.83,9.88,9.90,9.90,9.90,9.90,9.90,9.90,9.90,9.90,9.90,9.90,9.90,9.90,9.90,9.90,9.90,9.90,9.90,9.90,9.90,9.90,9.90,9.90,9.90,9.92,9.93,9.92,9.90,9.90,9.90,9.90,9.90,9.90,9.90,9.97,10.12,10.33,10.48,10.60,10.71,10.85,11.00,11.11,11.24,11.34,11.26,11.11,10.99,10.87,10.72,10.54,10.34,10.15,10.01,9.91,9.90,9.90,9.90,9.90,9.90,9.90,9.90,9.91,10.01,10.09,10.20,10.34,10.49,10.72,10.90,11.08,11.31,11.46,11.68,11.87,12.04,12.27,12.50,12.72,12.92,13.10,13.33,13.56,13.76,13.93,14.16,14.34,14.54,14.74,14.91,15.12,15.30,15.48,15.71,15.94,16.16,16.37,16.55,16.59,16.64,16.68,16.71,16.79,16.87,16.93,17.00,17.07,17.15,17.20,17.33,17.53,17.71,17.91,18.14,18.37,18.60,18.83,19.07,19.31,19.55,19.76,19.93,19.99,20.01,20.09,20.09,20.16,20.25,20.32,20.32,20.38,20.46,20.54,20.61,20.71,20.79,20.87,20.95,21.11,21.20,21.28,21.36,21.44,21.56,21.64,21.66,21.63,21.59,21.53,21.45,21.38,21.36,21.41,21.60,21.87,22.11,22.39,22.66,22.90
21.85,21.24,20.70,20.16,19.68,19.28,18.90,18.50,18.12,17.81,17.65,17.33,17.07,16.78,16.41,16.17,15.88,15.57,15.26,14.95,14.77,14.57,14.36,14.20,13.97,13.74,13.50,13.27,13.05,12.88,12.68,12.45,12.21,12.06,11.85,11.62,11.39,11.24,11.02,10.80,10.57,10.34,10.18,10.02,9.91,9.90,9.90,9.90,9.90,9.90,9.90,9.90,9.90,9.90,9.91,9.91,9.91,9.91,9.92,9.99,10.01,9.97,9.92,9.91,9.91,9.90,9.90,9.90,9.90,9.90,9.90,9.90,9.90,9.90,9.90,9.89,9.89,9.82,9.80,9.80,9.80,9.80,9.86,9.86,9.80,9.80,9.80,9.80,9.80,9.80,9.80,9.80,9.80,9.80,9.80,9.80,9.80,9.83,9.90,9.90,9.90,9.90,9.90,9.90,9.90,9.90,9.90,9.90,9.90,9.90,9.90,9.90,9.90,9.90,9.90,9.90,9.90,9.90,9.90,9.90,9.90,9.97,9.99,9.97,9.90,9.90,9.90,9.90,9.90,9.90,9.90,10.03,10.23,10.39,10.55,10.70,10.82,10.91,11.06,11.21,11.36,11.46,11.39,11.24,11.09,10.94,10.78,10.55,10.38,10.22,10.06,9.92,9.90,9.90,9.90,9.90,9.90,9.90,9.90,9.92,10.06,10.15,10.24,10.34,10.49,10.72,10.90,11.08,11.31,11.46,11.68,11.87,12.04,12.27,12.50,12.69,12.87,13.10,13.33,13.56,13.76,13.93,14.16,14.38,14.57,14.75,14.98,15.14,15.30,15.48,15.71,15.94,16.12,16.28,16.41,16.35,16.34,16.39,16.46,16.54,16.61,16.64,16.68,16.75,16.83,16.96,17.11,17.29,17.51,17.68,17.88,18.11,18.35,18.58,18.81,19.07,19.35,19.51,19.67,19.74,19.76,19.84,19.84,19.94,20.06,20.13,20.13,20.19,20.27,20.34,20.42,20.56,20.67,20.74,20.82,20.98,21.08,21.15,21.23,21.31,21.39,21.51,21.63,21.69,21.75,21.72,21.64,21.57,21.50,21.54,21.70,21.94,22.17,22.41,22.69,22.96
21.38,20.85,20.30,19.80,19.35,18.96,18.58,18.19,17.80,17.46,17.22,17.00,16.77,16.49,16.16,15.93,15.63,15.34,15.09,14.86,14.66,14.47,14.28,14.08,13.89,13.67,13.44,13.21,12.98,12.78,12.58,12.38,12.15,11.95,11.76,11.55,11.33,11.13,10.94,10.73,10.50,10.26,10.10,9.98,9.90,9.90,9.90,9.90,9.90,9.90,9.90,9.90,9.90,9.90,9.90,9.90,9.90,9.90,9.90,9.94,9.95,9.93,9.90,9.90,9.90,9.90,9.90,9.90,9.90,9.90,9.90,9.90,9.90,9.90,9.90,9.90,9.90,9.87,9.85,9.84,9.80,9.80,9.83,9.83,9.81,9.85,9.85,9.85,9.84,9.80,9.80,9.80,9.80,9.80,9.80,9.80,9.80,9.81,9.84,9.89,9.90,9.90,9.90,9.90,9.90,9.90,9.90,9.90,9.90,9.90,9.90,9.90,9.90,9.90,9.90,9.90,9.90,9.90,9.90,9.92,10.01,10.08,10.11,10.07,9.95,9.91,9.90,9.90,9.90,9.90,9.98,10.12,10.30,10.46,10.65,10.79,10.90,11.03,11.18,11.34,11.49,11.58,11.46,11.31,11.13,10.95,10.79,10.60,10.44,10.28,10.13,9.97,9.92,9.90,9.90,9.90,9.90,9.90,9.92,9.97,10.08,10.20,10.30,10.38,10.49,10.68,10.87,11.07,11.26,11.45,11.64,11.84,12.04,12.27,12.50,12.69,12.87,13.10,13.33,13.56,13.78,13.98,14.16,14.39,14.60,14.80,14.99,15.14,15.30,15.46,15.66,15.89,16.06,16.20,16.28,16.20,16.15,16.16,16.19,16.23,16.30,16.36,16.41,16.49,16.57,16.71,16.88,17.08,17.27,17.42,17.63,17.86,18.09,18.32,18.55,18.80,19.05,19.21,19.36,19.45,19.50,19.58,19.58,19.66,19.76,19.83,19.87,19.98,20.10,20.22,20.34,20.45,20.54,20.62,20.69,20.81,20.92,21.03,21.10,21.18,21.26,21.35,21.47,21.59,21.67,21.70,21.70,21.71,21.67,21.69,21.80,22.00,22.23,22.43,22.64,22.85
20.92,20.44,19.93,19.46,19.03,18.64,18.26,17.87,17.48,17.12,16.79,16.62,16.42,16.17,15.88,15.65,15.37,15.12,14.93,14.77,14.55,14.37,14.19,13.97,13.81,13.60,13.38,13.14,12.91,12.68,12.49,12.30,12.09,11.85,11.67,11.48,11.26,11.03,10.85,10.65,10.43,10.20,10.04,9.94,9.90,9.90,9.90,9.90,9.90,9.90,9.90,9.90,9.90,9.90,9.90,9.90,9.90,9.90,9.90,9.90,9.90,9.90,9.90,9.90,9.90,9.90,9.90,9.90,9.90,9.90,9.90,9.90,9.90,9.90,9.90,9.90,9.90,9.90,9.90,9.88,9.82,9.80,9.80,9.80,9.81,9.88,9.88,9.89,9.88,9.82,9.82,9.82,9.81,9.80,9.80,9.80,9.80,9.80,9.82,9.88,9.90,9.90,9.90,9.90,9.90,9.90,9.90,9.90,9.90,9.90,9.90,9.90,9.90,9.90,9.90,9.90,9.90,9.91,9.93,9.98,10.13,10.21,10.21,10.13,9.99,9.92,9.89,9.89,9.90,9.92,10.06,10.21,10.37,10.54,10.76,10.88,11.00,11.16,11.31,11.47,11.61,11.68,11.53,11.36,11.16,10.96,10.81,10.65,10.50,10.34,10.17,10.02,9.93,9.90,9.90,9.90,9.90,9.90,9.94,10.03,10.10,10.23,10.34,10.42,10.51,10.65,10.85,11.05,11.21,11.44,11.62,11.81,12.04,12.27,12.49,12.68,12.87,13.10,13.33,13.56,13.79,14.00,14.17,14.39,14.62,14.83,14.99,15.14,15.30,15.45,15.61,15.83,15.99,16.09,16.13,16.07,16.00,15.95,15.94,15.93,16.00,16.08,16.15,16.22,16.31,16.45,16.64,16.86,17.01,17.18,17.38,17.60,17.84,18.07,18.30,18.52,18.73,18.89,19.04,19.16,19.25,19.32,19.33,19.38,19.46,19.55,19.66,19.81,19.96,20.11,20.27,20.35,20.43,20.51,20.58,20.66,20.78,20.90,20.99,21.07,21.15,21.22,21.32,21.46,21.55,21.63,21.71,21.78,21.80,21.80,21.87,22.02,22.23,22.38,22.54,22.69
20.52,20.00,19.59,19.14,18.71,18.32,17.94,17.55,17.16,16.78,16.41,16.19,16.01,15.81,15.56,15.33,15.09,14.92,14.80,14.65,14.42,14.24,14.08,13.91,13.69,13.51,13.31,13.08,12.85,12.62,12.39,12.19,12.02,11.79,11.57,11.37,11.20,10.96,10.74,10.55,10.37,10.14,9.98,9.91,9.90,9.90,9.90,9.90,9.90,9.90,9.90,9.90,9.90,9.90,9.90,9.90,9.90,9.90,9.90,9.90,9.90,9.90,9.90,9.90,9.90,9.90,9.90,9.90,9.90,9.90,9.90,9.90,9.90,9.90,9.90,9.90,9.90,9.90,9.90,9.89,9.88,9.81,9.80,9.80,9.80,9.82,9.82,9.86,9.90,9.88,9.88,9.88,9.85,9.80,9.80,9.80,9.80,9.82,9.88,9.90,9.90,9.90,9.90,9.90,9.90,9.90,9.90,9.90,9.90,9.90,9.90,9.90,9.90,9.90,9.90,9.90,9.90,9.95,10.02,10.10,10.26,10.34,10.24,10.08,9.99,9.92,9.85,9.85,9.91,9.98,10.12,10.27,10.45,10.67,10.83,10.98,11.13,11.28,11.44,11.59,11.71,11.75,11.59,11.38,11.19,11.03,10.87,10.72,10.56,10.38,10.17,10.02,9.93,9.90,9.90,9.90,9.90,9.90,9.96,10.09,10.17,10.26,10.34,10.43,10.57,10.67,10.85,11.05,11.21,11.44,11.62,11.81,12.04,12.27,12.45,12.64,12.87,13.10,13.33,13.56,13.77,13.94,14.16,14.39,14.62,14.83,14.99,15.14,15.30,15.45,15.61,15.78,15.89,15.94,15.95,15.94,15.87,15.80,15.73,15.67,15.75,15.82,15.88,15.90,16.04,16.19,16.39,16.60,16.76,16.97,17.16,17.35,17.58,17.81,18.04,18.25,18.41,18.57,18.72,18.87,18.99,19.07,19.07,19.12,19.22,19.37,19.58,19.74,19.90,20.05,20.20,20.29,20.37,20.44,20.52,20.60,20.68,20.80,20.93,21.01,21.08,21.16,21.24,21.33,21.47,21.57,21.65,21.72,21.79,21.80,21.85,21.94,22.04,22.19,22.35,22.50
20.15,19.65,19.26,18.82,18.39,18.00,17.62,17.23,16.82,16.42,16.07,15.80,15.61,15.43,15.21,15.04,14.88,14.75,14.63,14.52,14.33,14.13,13.96,13.80,13.57,13.39,13.20,12.98,12.78,12.55,12.32,12.11,11.96,11.73,11.49,11.29,11.13,10.90,10.67,10.48,10.31,10.12,9.96,9.90,9.90,9.90,9.90,9.90,9.90,9.90,9.90,9.90,9.90,9.90,9.90,9.90,9.90,9.89,9.85,9.85,9.85,9.85,9.86,9.90,9.90,9.90,9.90,9.90,9.90,9.90,9.88,9.86,9.89,9.90,9.90,9.90,9.90,9.90,9.90,9.90,9.89,9.82,9.80,9.80,9.80,9.80,9.80,9.83,9.85,9.85,9.85,9.88,9.88,9.85,9.85,9.85,9.85,9.86,9.90,9.90,9.90,9.90,9.90,9.90,9.90,9.90,9.90,9.90,9.90,9.90,9.90,9.90,9.90,9.90,9.90,9.91,9.98,10.06,10.15,10.28,10.43,10.38,10.22,10.06,9.95,9.91,9.87,9.87,9.92,10.03,10.18,10.34,10.51,10.70,10.89,11.06,11.23,11.41,11.57,11.72,11.81,11.81,11.65,11.46,11.27,11.09,10.94,10.78,10.63,10.45,10.27,10.11,9.99,9.93,9.90,9.90,9.90,9.93,10.00,10.11,10.23,10.31,10.39,10.47,10.59,10.71,10.85,11.02,11.21,11.41,11.60,11.81,12.03,12.23,12.42,12.63,12.87,13.10,13.33,13.54,13.73,13.93,14.16,14.39,14.62,14.83,14.99,15.14,15.30,15.45,15.60,15.69,15.74,15.78,15.80,15.77,15.69,15.62,15.54,15.46,15.50,15.54,15.58,15.63,15.78,15.97,16.16,16.36,16.55,16.74,16.93,17.13,17.32,17.56,17.76,17.94,18.09,18.25,18.40,18.56,18.70,18.81,18.81,18.94,19.14,19.37,19.60,19.80,19.97,20.11,20.19,20.27,20.35,20.43,20.50,20.62,20.70,20.80,20.91,20.99,21.07,21.16,21.27,21.34,21.46,21.55,21.63,21.70,21.75,21.73,21.73,21.78,21.85,22.00,22.16,22.31
19.81,19.33,18.93,18.49,18.07,17.68,17.30,16.91,16.48,16.06,15.74,15.44,15.25,15.07,14.87,14.79,14.72,14.60,14.46,14.39,14.24,14.03,13.83,13.67,13.45,13.27,13.08,12.86,12.70,12.49,12.26,12.05,11.88,11.66,11.43,11.23,11.06,10.83,10.61,10.42,10.27,10.11,9.96,9.90,9.90,9.90,9.90,9.90,9.90,9.90,9.90,9.90,9.90,9.90,9.90,9.89,9.89,9.86,9.80,9.80,9.80,9.80,9.81,9.88,9.89,9.89,9.89,9.90,9.90,9.90,9.87,9.82,9.88,9.90,9.90,9.90,9.90,9.90,9.90,9.90,9.88,9.81,9.80,9.80,9.80,9.80,9.80,9.80,9.80,9.80,9.80,9.85,9.89,9.89,9.90,9.90,9.90,9.90,9.90,9.90,9.90,9.90,9.90,9.90,9.90,9.90,9.90,9.90,9.90,9.90,9.90,9.90,9.90,9.90,9.91,9.94,10.10,10.19,10.31,10.46,10.59,10.38,10.19,10.04,9.90,9.90,9.90,9.90,9.93,10.08,10.24,10.40,10.56,10.71,10.94,11.13,11.31,11.53,11.69,11.85,11.92,11.87,11.72,11.56,11.37,11.18,11.02,10.87,10.71,10.56,10.40,10.25,10.10,9.99,9.93,9.92,9.92,9.98,10.05,10.14,10.28,10.37,10.45,10.53,10.61,10.75,10.85,10.99,11.21,11.36,11.58,11.81,12.03,12.18,12.40,12.63,12.87,13.10,13.33,13.51,13.69,13.93,14.16,14.39,14.62,14.83,14.99,15.14,15.29,15.44,15.58,15.58,15.58,15.61,15.66,15.58,15.51,15.44,15.36,15.28,15.27,15.26,15.29,15.38,15.54,15.75,15.94,16.12,16.34,16.50,16.70,16.91,17.07,17.29,17.47,17.63,17.78,17.95,18.11,18.27,18.42,18.59,18.61,18.83,19.13,19.43,19.66,19.90,20.09,20.21,20.21,20.28,20.36,20.44,20.52,20.66,20.76,20.83,20.91,21.00,21.08,21.19,21.32,21.40,21.47,21.55,21.62,21.68,21.68,21.62,21.58,21.59,21.66,21.81,21.96,22.12
19.63,19.01,18.56,18.15,17.75,17.36,16.98,16.59,16.16,15.73,15.36,15.11,14.96,14.86,14.74,14.67,14.59,14.47,14.33,14.26,14.11,13.91,13.70,13.54,13.37,13.17,12.97,12.79,12.58,12.40,12.19,11.97,11.76,11.58,11.37,11.14,10.93,10.76,10.59,10.42,10.27,10.11,9.96,9.90,9.90,9.90,9.90,9.90,9.90,9.90,9.90,9.90,9.90,9.90,9.90,9.84,9.83,9.82,9.80,9.80,9.80,9.80,9.80,9.82,9.83,9.83,9.84,9.90,9.90,9.90,9.89,9.87,9.83,9.87,9.90,9.90,9.90,9.90,9.90,9.88,9.82,9.80,9.80,9.80,9.80,9.80,9.80,9.80,9.80,9.80,9.80,9.81,9.83,9.83,9.89,9.90,9.90,9.90,9.90,9.90,9.90,9.90,9.90,9.90,9.90,9.90,9.90,9.90,9.90,9.90,9.90,9.90,9.90,9.90,9.95,10.07,10.22,10.36,10.51,10.62,10.60,10.38,10.16,9.99,9.90,9.90,9.90,9.90,9.93,10.08,10.24,10.43,10.62,10.78,11.01,11.23,11.42,11.60,11.81,11.98,12.02,11.94,11.78,11.63,11.50,11.37,11.21,11.06,10.90,10.75,10.60,10.44,10.34,10.22,10.11,10.05,10.05,10.10,10.18,10.26,10.36,10.44,10.51,10.59,10.67,10.77,10.89,11.04,11.21,11.36,11.58,11.81,12.03,12.18,12.40,12.63,12.87,13.10,13.33,13.51,13.69,13.93,14.16,14.39,14.59,14.77,14.99,15.14,15.26,15.36,15.45,15.45,15.45,15.46,15.46,15.39,15.36,15.31,15.23,15.15,15.10,15.04,15.03,15.12,15.34,15.52,15.71,15.92,16.09,16.25,16.45,16.65,16.81,16.98,17.19,17.37,17.54,17.75,17.96,18.14,18.31,18.52,18.69,18.92,19.19,19.50,19.73,19.96,20.15,20.27,20.27,20.35,20.42,20.50,20.58,20.67,20.76,20.83,20.92,21.05,21.14,21.23,21.32,21.40,21.47,21.55,21.59,21.55,21.55,21.49,21.45,21.46,21.48,21.62,21.77,21.93
19.72,19.07,18.54,18.06,17.57,17.08,16.66,16.27,15.84,15.42,15.09,14.89,14.77,14.69,14.62,14.54,14.46,14.34,14.21,14.13,13.98,13.80,13.60,13.42,13.26,13.05,12.85,12.69,12.49,12.30,12.11,11.90,11.67,11.48,11.28,11.08,10.89,10.73,10.58,10.42,10.27,10.11,9.96,9.90,9.90,9.90,9.90,9.90,9.90,9.90,9.90,9.90,9.90,9.90,9.90,9.85,9.82,9.80,9.80,9.80,9.80,9.80,9.80,9.80,9.80,9.80,9.82,9.86,9.86,9.86,9.87,9.89,9.85,9.85,9.88,9.90,9.90,9.90,9.88,9.84,9.80,9.80,9.80,9.80,9.80,9.80,9.80,9.80,9.80,9.80,9.80,9.80,9.80,9.81,9.85,9.86,9.88,9.90,9.90,9.90,9.90,9.90,9.90,9.90,9.90,9.90,9.90,9.90,9.90,9.90,9.90,9.90,9.90,9.94,10.04,10.20,10.38,10.54,10.67,10.71,10.61,10.38,10.17,10.00,9.90,9.90,9.90,9.91,9.97,10.12,10.28,10.48,10.69,10.88,11.08,11.30,11.50,11.67,11.90,12.07,12.13,12.08,11.92,11.77,11.65,11.52,11.37,11.21,11.08,10.94,10.79,10.63,10.55,10.42,10.29,10.21,10.19,10.21,10.27,10.35,10.42,10.50,10.58,10.66,10.73,10.81,10.92,11.05,11.21,11.36,11.58,11.79,11.99,12.18,12.40,12.63,12.87,13.10,13.30,13.49,13.68,13.88,14.09,14.31,14.50,14.68,14.91,15.07,15.17,15.24,15.29,15.29,15.29,15.29,15.28,15.23,15.20,15.14,15.07,15.02,14.95,14.91,14.93,15.02,15.22,15.41,15.62,15.83,15.99,16.17,16.38,16.59,16.75,16.93,17.15,17.35,17.51,17.74,17.98,18.16,18.34,18.57,18.80,19.03,19.28,19.56,19.79,20.02,20.22,20.34,20.37,20.42,20.49,20.56,20.64,20.72,20.80,20.87,20.96,21.08,21.17,21.24,21.32,21.40,21.45,21.49,21.49,21.42,21.42,21.36,21.32,21.32,21.32,21.44,21.58,21.73
19.99,19.38,18.76,18.14,17.48,16.82,16.35,15.96,15.53,15.13,14.90,14.74,14.64,14.57,14.49,14.41,14.33,14.21,14.08,14.00,13.85,13.70,13.52,13.29,13.13,12.92,12.73,12.57,12.42,12.20,12.01,11.84,11.61,11.37,11.20,11.04,10.89,10.73,10.58,10.42,10.27,10.11,9.96,9.90,9.90,9.90,9.90,9.90,9.90,9.90,9.90,9.90,9.90,9.90,9.90,9.90,9.85,9.80,9.80,9.80,9.80,9.80,9.80,9.80,9.80,9.80,9.80,9.80,9.80,9.80,9.83,9.90,9.90,9.84,9.84,9.90,9.90,9.90,9.85,9.80,9.80,9.80,9.80,9.80,9.80,9.80,9.80,9.80,9.80,9.80,9.80,9.80,9.80,9.80,9.80,9.80,9.84,9.90,9.90,9.90,9.90,9.90,9.90,9.90,9.90,9.90,9.90,9.90,9.90,9.90,9.90,9.90,9.90,10.02,10.17,10.34,10.57,10.74,10.80,10.76,10.61,10.38,10.20,10.05,9.90,9.90,9.90,9.94,10.03,10.18,10.34,10.54,10.77,11.00,11.16,11.37,11.57,11.73,11.96,12.13,12.24,12.27,12.11,11.96,11.81,11.65,11.50,11.34,11.25,11.13,10.98,10.82,10.74,10.62,10.48,10.40,10.33,10.30,10.34,10.41,10.49,10.57,10.64,10.72,10.80,10.88,10.95,11.06,11.21,11.36,11.57,11.77,11.94,12.17,12.40,12.63,12.86,13.09,13.25,13.46,13.66,13.81,13.97,14.19,14.38,14.55,14.78,14.94,15.04,15.09,15.10,15.10,15.09,15.09,15.09,15.10,15.03,14.95,14.90,14.90,14.82,14.85,14.93,15.02,15.17,15.39,15.62,15.84,15.99,16.22,16.45,16.65,16.81,17.05,17.28,17.47,17.64,17.87,18.10,18.29,18.47,18.70,18.93,19.16,19.39,19.63,19.86,20.09,20.28,20.42,20.50,20.50,20.55,20.63,20.70,20.78,20.86,20.94,21.01,21.09,21.17,21.24,21.32,21.40,21.40,21.40,21.37,21.30,21.30,21.23,21.20,21.20,21.19,21.26,21.39,21.54
20.09,19.57,18.90,18.19,17.46,16.73,16.12,15.70,15.30,14.95,14.77,14.67,14.55,14.44,14.35,14.23,14.14,14.05,13.95,13.87,13.72,13.57,13.39,13.16,13.01,12.83,12.64,12.44,12.29,12.11,11.95,11.80,11.67,11.44,11.26,11.11,10.95,10.80,10.64,10.49,10.33,10.18,10.02,9.93,9.90,9.90,9.90,9.90,9.90,9.90,9.90,9.90,9.90,9.90,9.90,9.90,9.88,9.87,9.86,9.81,9.80,9.80,9.80,9.80,9.80,9.80,9.80,9.80,9.80,9.80,9.81,9.83,9.83,9.86,9.85,9.85,9.90,9.85,9.82,9.80,9.80,9.80,9.80,9.80,9.80,9.80,9.80,9.80,9.80,9.80,9.80,9.80,9.80,9.80,9.80,9.80,9.84,9.90,9.90,9.85,9.87,9.90,9.90,9.90,9.90,9.90,9.90,9.90,9.90,9.90,9.90,9.90,10.00,10.18,10.36,10.53,10.76,10.93,10.92,10.76,10.61,10.43,10.26,10.11,9.96,9.91,9.90,9.94,10.04,10.24,10.40,10.60,10.82,11.00,11.21,11.39,11.59,11.79,12.03,12.19,12.33,12.41,12.30,12.15,12.00,11.84,11.69,11.53,11.40,11.26,11.11,11.01,10.93,10.81,10.66,10.53,10.45,10.43,10.46,10.54,10.62,10.70,10.77,10.85,10.93,11.00,11.05,11.10,11.21,11.36,11.54,11.73,11.94,12.17,12.36,12.57,12.79,12.97,13.12,13.33,13.53,13.69,13.90,14.08,14.27,14.47,14.66,14.81,14.88,14.92,14.97,14.97,14.93,14.90,14.91,14.96,14.90,14.85,14.82,14.77,14.79,14.85,14.95,15.09,15.29,15.52,15.72,15.91,16.12,16.35,16.55,16.73,16.94,17.17,17.40,17.60,17.77,18.00,18.23,18.45,18.66,18.89,19.07,19.29,19.52,19.76,20.10,20.23,20.34,20.49,20.62,20.59,20.61,20.69,20.77,20.85,20.92,21.00,21.08,21.15,21.23,21.28,21.31,21.33,21.28,21.27,21.24,21.17,21.17,21.11,21.07,21.06,21.01,21.07,21.20,21.35
20.14,19.66,18.95,18.20,17.44,16.68,15.96,15.47,15.10,14.83,14.67,14.59,14.48,14.37,14.29,14.15,14.05,13.95,13.85,13.75,13.60,13.44,13.27,13.06,12.93,12.80,12.64,12.44,12.31,12.16,12.02,11.89,11.76,11.56,11.38,11.22,11.04,10.89,10.72,10.55,10.40,10.24,10.09,9.97,9.90,9.90,9.90,9.90,9.90,9.90,9.90,9.90,9.90,9.90,9.90,9.90,9.90,9.90,9.90,9.84,9.81,9.80,9.80,9.80,9.80,9.80,9.80,9.80,9.80,9.80,9.80,9.80,9.80,9.85,9.84,9.81,9.87,9.82,9.80,9.80,9.80,9.80,9.80,9.80,9.80,9.80,9.80,9.80,9.80,9.80,9.80,9.80,9.80,9.80,9.80,9.80,9.83,9.87,9.87,9.84,9.87,9.90,9.90,9.88,9.89,9.90,9.90,9.90,9.90,9.90,9.91,9.93,10.11,10.31,10.51,10.69,10.92,11.07,11.02,10.82,10.67,10.51,10.36,10.21,10.08,10.01,9.99,10.02,10.10,10.31,10.47,10.67,10.88,11.03,11.26,11.44,11.63,11.86,12.06,12.25,12.41,12.52,12.49,12.34,12.19,12.03,11.88,11.73,11.57,11.43,11.30,11.20,11.12,11.00,10.84,10.69,10.59,10.56,10.58,10.64,10.72,10.79,10.87,10.95,11.03,11.10,11.14,11.19,11.27,11.42,11.54,11.69,11.88,12.11,12.28,12.47,12.68,12.84,13.02,13.22,13.41,13.59,13.80,13.98,14.18,14.37,14.50,14.65,14.72,14.76,14.81,14.81,14.77,14.74,14.75,14.83,14.79,14.76,14.73,14.70,14.78,14.85,14.98,15.18,15.42,15.63,15.82,16.01,16.24,16.47,16.66,16.84,17.07,17.30,17.52,17.71,17.90,18.13,18.36,18.59,18.82,19.05,19.23,19.45,19.71,20.01,20.30,20.36,20.43,20.56,20.69,20.67,20.69,20.76,20.83,20.91,20.97,21.03,21.11,21.16,21.22,21.25,21.27,21.27,21.17,21.14,21.11,21.04,21.04,20.98,20.94,20.92,20.85,20.89,21.01,21.16
20.14,19.66,18.89,18.18,17.44,16.67,15.91,15.28,14.93,14.76,14.61,14.53,14.45,14.37,14.29,14.21,14.07,13.92,13.77,13.62,13.47,13.31,13.16,13.00,12.92,12.84,12.72,12.57,12.49,12.35,12.23,12.11,11.89,11.73,11.58,11.39,11.17,11.02,10.81,10.62,10.46,10.31,10.15,10.00,9.90,9.90,9.90,9.90,9.90,9.90,9.90,9.90,9.90,9.90,9.90,9.90,9.90,9.90,9.90,9.89,9.84,9.80,9.80,9.80,9.80,9.80,9.80,9.80,9.80,9.80,9.80,9.80,9.80,9.80,9.80,9.80,9.81,9.80,9.80,9.80,9.80,9.80,9.80,9.80,9.80,9.80,9.80,9.80,9.80,9.80,9.80,9.80,9.80,9.80,9.80,9.80,9.80,9.81,9.81,9.87,9.90,9.90,9.89,9.82,9.86,9.90,9.90,9.90,9.90,9.90,9.92,10.00,10.22,10.40,10.59,10.82,11.05,11.16,11.11,10.95,10.80,10.64,10.49,10.36,10.28,10.20,10.18,10.18,10.22,10.38,10.53,10.73,10.94,11.10,11.33,11.50,11.69,11.91,12.07,12.29,12.48,12.61,12.68,12.54,12.38,12.23,12.07,11.92,11.76,11.64,11.55,11.40,11.31,11.19,11.04,10.88,10.73,10.69,10.69,10.70,10.78,10.86,10.93,11.01,11.09,11.17,11.24,11.31,11.40,11.55,11.59,11.64,11.75,11.98,12.15,12.35,12.56,12.71,12.94,13.12,13.30,13.52,13.68,13.90,14.09,14.23,14.31,14.46,14.56,14.61,14.62,14.62,14.61,14.61,14.62,14.70,14.71,14.66,14.63,14.70,14.78,14.85,15.02,15.31,15.54,15.72,15.91,16.14,16.37,16.60,16.78,16.97,17.20,17.43,17.61,17.80,18.02,18.26,18.49,18.72,18.95,19.18,19.41,19.64,19.96,20.37,20.47,20.49,20.53,20.61,20.69,20.76,20.79,20.82,20.90,20.97,21.00,21.03,21.10,21.11,21.11,21.15,21.21,21.21,21.06,21.01,20.98,20.91,20.91,20.85,20.81,20.80,20.72,20.72,20.81,20.97
20.08,19.60,18.83,18.12,17.39,16.62,15.89,15.22,14.88,14.78,14.72,14.64,14.56,14.48,14.41,14.33,14.19,14.04,13.88,13.73,13.57,13.45,13.34,13.23,13.10,13.02,12.92,12.81,12.69,12.58,12.46,12.31,12.08,11.92,11.74,11.54,11.36,11.20,10.99,10.79,10.63,10.43,10.27,10.12,9.99,9.90,9.90,9.90,9.90,9.90,9.90,9.90,9.90,9.90,9.90,9.90,9.90,9.90,9.90,9.90,9.84,9.80,9.80,9.80,9.80,9.80,9.80,9.80,9.80,9.80,9.80,9.80,9.80,9.80,9.80,9.80,9.80,9.80,9.80,9.80,9.80,9.80,9.80,9.80,9.80,9.80,9.80,9.80,9.80,9.80,9.80,9.80,9.80,9.80,9.80,9.80,9.80,9.80,9.80,9.83,9.87,9.90,9.90,9.86,9.88,9.90,9.89,9.85,9.84,9.87,9.92,10.00,10.23,10.44,10.66,10.88,11.07,11.24,11.23,11.09,10.98,10.83,10.67,10.56,10.53,10.45,10.40,10.37,10.39,10.45,10.60,10.80,11.00,11.16,11.39,11.57,11.75,11.98,12.13,12.31,12.48,12.63,12.75,12.70,12.57,12.42,12.26,12.11,11.96,11.84,11.75,11.59,11.47,11.35,11.23,11.07,10.92,10.84,10.82,10.82,10.90,10.98,11.06,11.13,11.21,11.29,11.37,11.46,11.58,11.74,11.77,11.81,11.89,11.99,12.10,12.25,12.44,12.64,12.83,12.99,13.18,13.40,13.56,13.77,13.94,14.05,14.18,14.29,14.38,14.44,14.48,14.48,14.48,14.50,14.55,14.58,14.58,14.57,14.58,14.70,14.78,14.88,15.04,15.27,15.50,15.70,15.90,16.09,16.32,16.56,16.77,16.98,17.21,17.39,17.59,17.78,17.98,18.21,18.44,18.65,18.85,19.08,19.31,19.51,19.77,20.12,20.24,20.34,20.45,20.55,20.58,20.66,20.71,20.77,20.84,20.88,20.92,20.96,20.98,20.98,21.02,21.09,21.15,21.20,21.05,20.97,20.91,20.84,20.79,20.72,20.68,20.67,20.59,20.58,20.65,20.78
20.03,19.59,18.88,18.18,17.45,16.69,15.98,15.30,14.94,14.86,14.82,14.76,14.70,14.63,14.56,14.46,14.32,14.16,14.01,13.85,13.72,13.62,13.54,13.46,13.32,13.22,13.13,13.04,12.91,12.81,12.68,12.50,12.27,12.11,11.91,11.70,11.55,11.38,11.17,10.99,10.82,10.58,10.42,10.26,10.09,9.94,9.91,9.90,9.90,9.90,9.90,9.91,9.93,9.95,9.96,9.95,9.92,9.90,9.90,9.90,9.85,9.81,9.80,9.80,9.80,9.80,9.80,9.80,9.80,9.80,9.80,9.80,9.80,9.80,9.80,9.80,9.80,9.80,9.80,9.80,9.80,9.80,9.80,9.80,9.80,9.80,9.80,9.80,9.80,9.80,9.80,9.80,9.80,9.80,9.80,9.81,9.81,9.80,9.80,9.80,9.84,9.88,9.88,9.90,9.90,9.90,9.89,9.83,9.82,9.86,9.92,9.98,10.23,10.47,10.70,10.92,11.09,11.32,11.36,11.24,11.15,11.01,10.87,10.78,10.76,10.70,10.63,10.58,10.57,10.57,10.67,10.86,11.07,11.22,11.45,11.63,11.82,12.04,12.20,12.35,12.50,12.66,12.81,12.85,12.76,12.61,12.46,12.30,12.15,12.03,11.94,11.78,11.63,11.52,11.42,11.27,11.11,11.00,10.94,10.93,11.01,11.09,11.16,11.24,11.34,11.42,11.50,11.62,11.77,11.93,11.98,12.02,12.07,12.07,12.12,12.21,12.36,12.55,12.71,12.88,13.06,13.28,13.45,13.64,13.77,13.87,14.02,14.11,14.18,14.27,14.36,14.36,14.36,14.39,14.46,14.46,14.47,14.49,14.54,14.70,14.78,14.91,15.06,15.22,15.42,15.62,15.80,15.99,16.22,16.45,16.68,16.91,17.14,17.30,17.48,17.67,17.85,18.06,18.29,18.49,18.67,18.89,19.12,19.31,19.53,19.81,20.00,20.16,20.31,20.44,20.46,20.53,20.60,20.68,20.76,20.77,20.82,20.86,20.86,20.88,20.93,21.00,21.08,21.15,21.04,20.95,20.87,20.79,20.70,20.62,20.57,20.54,20.46,20.46,20.49,20.58
20.00,19.66,19.15,18.50,17.77,17.00,16.24,15.59,15.21,15.02,14.89,14.87,14.86,14.83,14.74,14.60,14.45,14.29,14.14,13.98,13.89,13.81,13.73,13.65,13.56,13.44,13.32,13.24,13.15,13.02,12.87,12.69,12.46,12.31,12.10,11.90,11.74,11.51,11.34,11.18,11.01,10.78,10.62,10.42,10.22,10.07,9.93,9.90,9.90,9.90,9.90,9.96,10.02,10.09,10.16,10.09,9.98,9.90,9.90,9.90,9.89,9.85,9.80,9.80,9.80,9.80,9.80,9.80,9.80,9.80,9.80,9.80,9.80,9.80,9.80,9.80,9.80,9.80,9.80,9.80,9.80,9.80,9.80,9.80,9.80,9.80,9.80,9.80,9.80,9.80,9.80,9.80,9.80,9.80,9.80,9.86,9.85,9.80,9.80,9.80,9.81,9.81,9.82,9.89,9.90,9.90,9.90,9.89,9.89,9.89,9.90,9.92,10.22,10.47,10.70,10.93,11.15,11.38,11.47,11.42,11.28,11.19,11.10,11.02,10.96,10.95,10.88,10.81,10.76,10.76,10.78,10.92,11.13,11.29,11.52,11.70,11.88,12.10,12.26,12.41,12.57,12.72,12.88,13.01,12.96,12.80,12.65,12.49,12.34,12.22,12.13,11.98,11.82,11.71,11.61,11.46,11.30,11.16,11.04,10.99,11.07,11.15,11.23,11.32,11.46,11.54,11.66,11.81,11.97,12.12,12.21,12.25,12.26,12.26,12.27,12.28,12.33,12.43,12.58,12.78,12.98,13.15,13.37,13.50,13.58,13.68,13.83,13.91,13.99,14.09,14.23,14.23,14.23,14.26,14.33,14.33,14.39,14.45,14.54,14.70,14.78,14.91,15.06,15.21,15.31,15.41,15.57,15.79,16.03,16.26,16.49,16.72,16.95,17.10,17.22,17.37,17.58,17.75,17.97,18.20,18.40,18.57,18.80,19.02,19.25,19.50,19.79,19.97,20.12,20.26,20.32,20.40,20.48,20.55,20.63,20.70,20.72,20.73,20.74,20.80,20.82,20.87,20.95,21.03,21.01,20.95,20.87,20.79,20.64,20.55,20.48,20.41,20.34,20.33,20.34,20.39
19.94,19.63,19.24,18.74,18.11,17.37,16.60,15.99,15.64,15.45,15.30,15.26,15.19,15.09,14.93,14.74,14.57,14.42,14.27,14.16,14.08,14.00,13.92,13.85,13.77,13.66,13.55,13.44,13.36,13.22,13.06,12.89,12.65,12.46,12.27,12.09,11.93,11.69,11.52,11.35,11.16,10.96,10.81,10.60,10.40,10.24,10.13,10.07,10.05,10.05,10.05,10.11,10.19,10.26,10.30,10.19,10.04,9.93,9.90,9.90,9.90,9.88,9.84,9.80,9.80,9.80,9.80,9.80,9.80,9.80,9.80,9.80,9.80,9.80,9.80,9.80,9.80,9.80,9.80,9.80,9.80,9.80,9.80,9.80,9.80,9.80,9.80,9.80,9.80,9.80,9.80,9.80,9.80,9.80,9.80,9.87,9.88,9.84,9.80,9.80,9.80,9.80,9.80,9.84,9.85,9.87,9.90,9.90,9.90,9.90,9.90,9.90,10.25,10.52,10.75,10.97,11.17,11.39,11.56,11.61,11.46,11.41,11.35,11.27,11.20,11.16,11.09,11.03,10.99,10.95,10.95,11.04,11.20,11.35,11.58,11.76,11.95,12.17,12.32,12.48,12.63,12.79,12.94,13.10,13.07,12.96,12.84,12.68,12.53,12.41,12.32,12.17,12.01,11.88,11.77,11.65,11.49,11.34,11.20,11.11,11.19,11.26,11.36,11.48,11.59,11.71,11.85,12.00,12.16,12.27,12.39,12.45,12.45,12.45,12.45,12.45,12.46,12.50,12.58,12.71,12.86,13.02,13.22,13.31,13.41,13.53,13.64,13.76,13.85,13.94,14.05,14.09,14.13,14.19,14.26,14.29,14.37,14.44,14.53,14.65,14.76,14.88,15.01,15.16,15.24,15.31,15.45,15.64,15.84,16.07,16.30,16.52,16.71,16.86,16.99,17.12,17.28,17.47,17.70,17.91,18.10,18.30,18.53,18.76,18.99,19.23,19.50,19.71,19.88,20.03,20.14,20.26,20.35,20.45,20.60,20.60,20.60,20.62,20.66,20.70,20.73,20.79,20.87,20.95,20.99,20.95,20.87,20.79,20.63,20.54,20.46,20.38,20.26,20.22,20.18,20.19
19.88,19.57,19.26,18.89,18.39,17.73,16.98,16.43,16.13,15.98,15.81,15.71,15.56,15.36,15.13,14.90,14.71,14.55,14.41,14.35,14.27,14.19,14.11,14.04,13.97,13.89,13.78,13.64,13.56,13.41,13.25,13.07,12.84,12.61,12.43,12.28,12.11,11.88,11.72,11.52,11.31,11.15,10.99,10.79,10.59,10.45,10.37,10.30,10.25,10.24,10.24,10.30,10.38,10.43,10.41,10.25,10.10,9.97,9.90,9.90,9.90,9.90,9.89,9.82,9.80,9.80,9.80,9.80,9.80,9.80,9.80,9.80,9.80,9.80,9.80,9.80,9.80,9.80,9.80,9.80,9.80,9.80,9.80,9.80,9.80,9.80,9.80,9.80,9.80,9.80,9.80,9.80,9.80,9.80,9.80,9.87,9.90,9.88,9.82,9.81,9.81,9.80,9.80,9.80,9.80,9.83,9.89,9.90,9.90,9.90,9.90,9.90,10.27,10.55,10.78,11.01,11.16,11.38,11.61,11.76,11.66,11.64,11.59,11.52,11.45,11.37,11.29,11.25,11.23,11.15,11.14,11.18,11.27,11.42,11.65,11.82,12.01,12.23,12.39,12.54,12.70,12.85,13.00,13.16,13.18,13.11,13.02,12.87,12.72,12.60,12.50,12.36,12.20,12.05,11.91,11.83,11.68,11.53,11.38,11.25,11.32,11.40,11.52,11.66,11.74,11.89,12.04,12.19,12.34,12.42,12.56,12.64,12.64,12.64,12.64,12.65,12.65,12.65,12.65,12.70,12.79,12.93,13.08,13.18,13.29,13.43,13.51,13.65,13.75,13.83,13.90,13.98,14.07,14.15,14.23,14.30,14.38,14.46,14.54,14.61,14.76,14.85,14.96,15.09,15.17,15.26,15.37,15.52,15.66,15.88,16.11,16.31,16.47,16.61,16.76,16.89,16.99,17.20,17.43,17.63,17.81,18.03,18.26,18.50,18.74,18.97,19.20,19.43,19.62,19.78,19.93,20.10,20.22,20.36,20.58,20.51,20.48,20.51,20.57,20.57,20.64,20.72,20.80,20.88,20.96,20.94,20.87,20.79,20.64,20.54,20.46,20.37,20.21,20.12,20.04,20.01
19.82,19.51,19.20,18.83,18.44,18.00,17.35,16.90,16.66,16.54,16.32,16.13,15.87,15.62,15.39,15.15,14.89,14.68,14.55,14.53,14.46,14.38,14.31,14.23,14.21,14.11,13.99,13.90,13.82,13.62,13.41,13.21,13.04,12.81,12.63,12.45,12.24,12.07,11.91,11.71,11.50,11.34,11.14,10.95,10.80,10.71,10.63,10.55,10.48,10.43,10.43,10.45,10.53,10.60,10.48,10.27,10.10,9.97,9.90,9.90,9.90,9.90,9.90,9.88,9.82,9.80,9.80,9.80,9.80,9.80,9.80,9.80,9.80,9.80,9.80,9.80,9.80,9.80,9.80,9.80,9.80,9.80,9.80,9.80,9.80,9.80,9.80,9.80,9.80,9.80,9.80,9.80,9.80,9.80,9.80,9.87,9.90,9.90,9.88,9.88,9.84,9.80,9.80,9.80,9.80,9.81,9.83,9.89,9.90,9.90,9.90,9.90,10.17,10.45,10.72,10.94,11.10,11.32,11.55,11.76,11.90,11.85,11.78,11.73,11.70,11.63,11.55,11.48,11.42,11.34,11.33,11.34,11.38,11.48,11.71,11.89,12.07,12.30,12.45,12.61,12.76,12.91,13.07,13.22,13.31,13.28,13.15,13.05,12.91,12.77,12.64,12.54,12.40,12.24,12.09,11.95,11.86,11.72,11.57,11.43,11.45,11.57,11.71,11.85,11.93,12.08,12.23,12.39,12.54,12.61,12.75,12.83,12.83,12.83,12.83,12.87,12.91,12.91,12.91,12.92,12.95,12.99,13.15,13.24,13.36,13.49,13.57,13.67,13.75,13.83,13.90,13.98,14.10,14.21,14.29,14.37,14.44,14.52,14.60,14.68,14.77,14.85,14.94,15.03,15.11,15.23,15.35,15.44,15.54,15.70,15.91,16.12,16.27,16.37,16.51,16.65,16.79,16.90,17.11,17.33,17.54,17.71,17.94,18.21,18.48,18.71,18.94,19.18,19.37,19.52,19.68,19.89,20.09,20.30,20.52,20.44,20.38,20.38,20.45,20.45,20.51,20.59,20.68,20.82,20.90,20.91,20.87,20.79,20.70,20.57,20.46,20.37,20.21,20.08,19.98,19.93
19.75,19.44,19.10,18.75,18.42,18.08,17.62,17.26,17.03,16.85,16.59,16.35,16.07,15.79,15.56,15.33,15.06,14.84,14.72,14.69,14.64,14.58,14.50,14.42,14.42,14.33,14.22,14.11,14.03,13.82,13.59,13.38,13.23,13.00,12.82,12.63,12.41,12.25,12.07,11.88,11.69,11.54,11.31,11.15,11.04,10.96,10.89,10.81,10.73,10.67,10.67,10.67,10.72,10.73,10.55,10.32,10.11,9.97,9.90,9.90,9.90,9.90,9.90,9.90,9.86,9.82,9.80,9.80,9.80,9.80,9.80,9.80,9.80,9.80,9.80,9.80,9.80,9.80,9.80,9.80,9.80,9.80,9.80,9.80,9.80,9.80,9.80,9.80,9.80,9.80,9.80,9.80,9.80,9.80,9.80,9.87,9.90,9.90,9.90,9.90,9.87,9.84,9.84,9.81,9.80,9.80,9.81,9.85,9.86,9.88,9.90,9.90,10.13,10.40,10.66,10.88,11.07,11.29,11.53,11.76,11.99,11.99,11.97,11.95,11.92,11.84,11.79,11.73,11.65,11.57,11.57,11.55,11.54,11.58,11.75,11.93,12.14,12.36,12.51,12.67,12.82,12.98,13.13,13.29,13.41,13.45,13.36,13.25,13.11,12.97,12.85,12.74,12.59,12.45,12.32,12.17,12.06,11.94,11.80,11.65,11.56,11.72,11.91,12.04,12.12,12.27,12.42,12.58,12.73,12.81,12.94,13.02,13.02,13.02,13.05,13.09,13.12,13.12,13.12,13.12,13.14,13.18,13.34,13.43,13.55,13.68,13.72,13.80,13.87,13.94,13.98,14.03,14.13,14.25,14.35,14.43,14.51,14.59,14.66,14.74,14.79,14.85,14.93,15.01,15.12,15.24,15.36,15.46,15.54,15.68,15.85,16.00,16.12,16.16,16.27,16.40,16.55,16.66,16.82,17.02,17.24,17.43,17.66,17.95,18.22,18.46,18.69,18.89,19.09,19.27,19.46,19.66,19.90,20.16,20.42,20.40,20.32,20.28,20.32,20.35,20.42,20.50,20.59,20.71,20.79,20.84,20.84,20.79,20.68,20.54,20.40,20.29,20.13,20.01,19.93,19.91
19.69,19.38,19.00,18.68,18.37,18.07,17.84,17.54,17.28,17.02,16.71,16.48,16.20,15.92,15.69,15.46,15.24,15.05,14.91,14.83,14.82,14.77,14.69,14.62,14.62,14.56,14.45,14.31,14.22,14.01,13.78,13.57,13.41,13.19,13.01,12.82,12.60,12.45,12.23,12.04,11.88,11.73,11.51,11.37,11.30,11.22,11.14,11.06,10.99,10.92,10.92,10.92,10.91,10.84,10.61,10.37,10.14,9.97,9.90,9.90,9.90,9.90,9.90,9.90,9.90,9.85,9.80,9.80,9.80,9.80,9.80,9.80,9.80,9.80,9.80,9.80,9.80,9.80,9.80,9.80,9.80,9.80,9.80,9.80,9.80,9.80,9.80,9.80,9.80,9.80,9.80,9.80,9.80,9.80,9.80,9.86,9.90,9.90,9.90,9.90,9.90,9.90,9.89,9.82,9.81,9.80,9.80,9.80,9.80,9.84,9.90,9.90,10.13,10.36,10.60,10.83,11.06,11.29,11.53,11.76,11.99,12.07,12.15,12.18,12.11,12.04,12.02,11.98,11.90,11.83,11.82,11.77,11.72,11.72,11.79,11.97,12.20,12.42,12.57,12.73,12.88,13.04,13.20,13.35,13.51,13.61,13.60,13.46,13.30,13.18,13.09,12.94,12.78,12.67,12.57,12.42,12.27,12.16,12.05,11.89,11.66,11.86,12.09,12.23,12.31,12.46,12.62,12.77,12.91,13.00,13.13,13.22,13.22,13.22,13.28,13.32,13.32,13.32,13.32,13.32,13.35,13.44,13.59,13.68,13.80,13.92,13.92,13.99,14.07,14.12,14.12,14.12,14.17,14.28,14.42,14.50,14.57,14.65,14.73,14.80,14.81,14.87,14.96,15.06,15.21,15.30,15.42,15.55,15.64,15.79,15.89,15.97,16.04,16.04,16.09,16.20,16.35,16.50,16.58,16.74,16.95,17.17,17.41,17.69,17.97,18.20,18.43,18.60,18.80,19.03,19.26,19.42,19.68,19.98,20.28,20.37,20.28,20.20,20.20,20.28,20.36,20.44,20.52,20.59,20.67,20.75,20.80,20.78,20.62,20.47,20.31,20.16,20.00,19.92,19.90,19.93
19.64,19.38,19.05,18.78,18.50,18.20,17.97,17.67,17.40,17.15,16.84,16.61,16.36,16.09,15.83,15.70,15.58,15.44,15.29,15.16,15.10,14.99,14.88,14.81,14.81,14.75,14.66,14.55,14.36,14.18,13.98,13.75,13.54,13.36,13.17,12.97,12.79,12.64,12.42,12.23,12.07,11.92,11.74,11.63,11.55,11.47,11.40,11.32,11.24,11.18,11.18,11.13,11.02,10.84,10.61,10.37,10.14,9.97,9.90,9.90,9.90,9.90,9.90,9.90,9.90,9.89,9.85,9.80,9.80,9.80,9.80,9.80,9.80,9.80,9.80,9.80,9.80,9.80,9.80,9.80,9.80,9.80,9.80,9.80,9.80,9.80,9.80,9.80,9.80,9.80,9.80,9.80,9.80,9.80,9.80,9.82,9.86,9.90,9.90,9.90,9.90,9.90,9.90,9.87,9.87,9.84,9.80,9.80,9.80,9.81,9.85,9.90,10.08,10.34,10.60,10.83,11.06,11.29,11.53,11.76,11.99,12.07,12.19,12.28,12.31,12.28,12.24,12.17,12.10,12.08,12.03,11.99,11.96,11.91,11.93,12.07,12.24,12.42,12.57,12.73,12.88,13.05,13.26,13.42,13.57,13.69,13.74,13.69,13.56,13.42,13.29,13.19,13.04,12.90,12.78,12.68,12.52,12.38,12.27,12.14,11.86,11.97,12.21,12.43,12.50,12.65,12.81,12.94,13.05,13.18,13.32,13.41,13.41,13.41,13.48,13.51,13.51,13.51,13.51,13.51,13.56,13.69,13.79,13.87,13.99,14.11,14.11,14.18,14.26,14.31,14.31,14.31,14.33,14.38,14.48,14.56,14.64,14.71,14.79,14.87,14.92,15.10,15.34,15.56,15.67,15.79,15.91,16.01,16.14,16.30,16.40,16.46,16.48,16.48,16.54,16.61,16.66,16.76,16.80,16.82,16.85,16.92,17.15,17.43,17.71,17.94,18.18,18.35,18.54,18.77,19.00,19.21,19.48,19.76,19.96,20.25,20.26,20.15,20.07,20.15,20.27,20.37,20.45,20.53,20.61,20.72,20.76,20.65,20.49,20.34,20.18,20.03,19.88,19.84,19.86,19.96
19.63,19.42,19.14,18.89,18.62,18.33,18.10,17.80,17.53,17.28,16.97,16.74,16.52,16.31,16.09,16.04,15.97,15.87,15.73,15.58,15.45,15.30,15.16,15.06,15.04,14.96,14.86,14.76,14.53,14.37,14.17,13.94,13.70,13.55,13.34,13.14,12.98,12.80,12.60,12.42,12.26,12.08,11.95,11.85,11.78,11.73,11.65,11.56,11.45,11.35,11.28,11.18,11.00,10.78,10.57,10.34,10.11,9.95,9.90,9.90,9.90,9.90,9.90,9.90,9.90,9.90,9.88,9.80,9.80,9.80,9.80,9.80,9.80,9.80,9.80,9.80,9.80,9.80,9.82,9.82,9.80,9.80,9.80,9.80,9.81,9.83,9.81,9.80,9.80,9.80,9.80,9.80,9.80,9.80,9.80,9.80,9.83,9.87,9.90,9.90,9.90,9.90,9.90,9.90,9.90,9.87,9.83,9.80,9.80,9.80,9.82,9.87,10.08,10.34,10.60,10.83,11.06,11.27,11.49,11.72,11.96,12.06,12.20,12.33,12.40,12.45,12.45,12.40,12.33,12.30,12.23,12.20,12.18,12.13,12.11,12.17,12.30,12.45,12.61,12.76,12.92,13.09,13.32,13.48,13.63,13.77,13.87,13.87,13.79,13.66,13.51,13.41,13.29,13.14,13.00,12.90,12.77,12.62,12.49,12.36,12.05,12.08,12.30,12.56,12.69,12.84,13.00,13.13,13.21,13.36,13.52,13.60,13.60,13.60,13.67,13.70,13.70,13.70,13.72,13.73,13.79,13.94,14.02,14.10,14.20,14.30,14.30,14.37,14.43,14.47,14.47,14.47,14.47,14.49,14.55,14.62,14.70,14.79,14.90,15.03,15.13,15.40,15.72,16.01,16.14,16.27,16.38,16.50,16.65,16.78,16.88,16.93,16.93,16.93,16.99,17.03,17.04,17.12,17.09,17.02,16.96,16.93,17.06,17.24,17.46,17.69,17.92,18.11,18.32,18.55,18.78,19.01,19.28,19.53,19.71,20.02,20.08,20.02,19.95,20.05,20.18,20.28,20.36,20.46,20.54,20.65,20.67,20.52,20.34,20.18,20.04,19.91,19.78,19.79,19.86,20.01
19.65,19.49,19.25,19.02,18.75,18.46,18.22,17.92,17.66,17.41,17.10,16.87,16.69,16.56,16.48,16.48,16.42,16.34,16.24,16.09,15.87,15.68,15.53,15.38,15.31,15.17,15.06,14.95,14.72,14.56,14.36,14.13,13.90,13.74,13.53,13.33,13.17,12.94,12.77,12.61,12.44,12.21,12.12,12.04,11.99,11.99,11.91,11.78,11.62,11.46,11.24,11.07,10.88,10.66,10.51,10.28,10.05,9.90,9.90,9.90,9.90,9.90,9.90,9.90,9.90,9.90,9.88,9.80,9.80,9.80,9.80,9.80,9.80,9.80,9.80,9.80,9.80,9.80,9.85,9.87,9.80,9.80,9.80,9.80,9.81,9.89,9.83,9.80,9.80,9.80,9.80,9.80,9.80,9.80,9.80,9.80,9.80,9.82,9.90,9.90,9.90,9.90,9.90,9.90,9.90,9.90,9.88,9.81,9.80,9.80,9.80,9.81,10.11,10.37,10.60,10.83,11.06,11.23,11.43,11.66,11.89,12.05,12.20,12.33,12.41,12.56,12.65,12.65,12.57,12.50,12.42,12.39,12.39,12.39,12.31,12.29,12.36,12.52,12.67,12.83,12.98,13.15,13.38,13.54,13.70,13.85,13.99,13.99,13.99,13.92,13.76,13.61,13.52,13.40,13.24,13.09,13.01,12.88,12.73,12.56,12.25,12.19,12.36,12.65,12.88,13.04,13.19,13.32,13.40,13.55,13.71,13.79,13.79,13.79,13.86,13.89,13.89,13.89,13.97,13.99,14.05,14.20,14.27,14.35,14.43,14.49,14.49,14.56,14.59,14.59,14.59,14.59,14.59,14.60,14.61,14.69,14.76,14.88,15.06,15.28,15.44,15.75,16.10,16.41,16.63,16.74,16.86,17.01,17.16,17.25,17.33,17.38,17.38,17.38,17.44,17.48,17.49,17.57,17.45,17.34,17.26,17.19,17.12,17.11,17.20,17.43,17.67,17.90,18.13,18.36,18.59,18.82,19.05,19.29,19.51,19.68,19.77,19.81,19.83,19.98,20.07,20.15,20.25,20.40,20.48,20.56,20.55,20.39,20.16,19.99,19.87,19.79,19.71,19.77,19.89,20.07
19.59,19.43,19.25,19.03,18.80,18.58,18.35,18.05,17.79,17.56,17.35,17.21,17.09,16.98,16.85,16.71,16.54,16.37,16.19,15.99,15.76,15.58,15.44,15.34,15.26,15.16,15.02,14.86,14.72,14.57,14.39,14.22,14.09,13.89,13.70,13.52,13.36,13.13,12.96,12.80,12.64,12.46,12.37,12.30,12.20,12.06,11.88,11.69,11.49,11.29,11.10,10.91,10.71,10.52,10.32,10.14,9.98,9.90,9.90,9.90,9.90,9.90,9.90,9.90,9.90,9.90,9.89,9.86,9.81,9.80,9.80,9.80,9.80,9.80,9.80,9.80,9.80,9.80,9.82,9.85,9.86,9.86,9.86,9.84,9.81,9.84,9.85,9.83,9.80,9.80,9.85,9.86,9.84,9.80,9.80,9.80,9.80,9.81,9.84,9.88,9.90,9.90,9.90,9.90,9.90,9.90,9.89,9.86,9.86,9.83,9.81,9.86,10.08,10.31,10.54,10.77,11.00,11.21,11.43,11.66,11.89,12.05,12.20,12.33,12.41,12.57,12.66,12.73,12.78,12.75,12.68,12.62,12.58,12.58,12.55,12.51,12.51,12.58,12.73,12.89,13.07,13.27,13.45,13.61,13.76,13.92,14.06,14.11,14.12,14.09,14.02,13.86,13.73,13.62,13.50,13.34,13.22,13.14,13.00,12.75,12.44,12.27,12.36,12.66,12.94,13.19,13.38,13.51,13.59,13.75,13.90,13.98,13.99,14.04,14.07,14.08,14.10,14.14,14.17,14.25,14.35,14.45,14.48,14.58,14.66,14.68,14.68,14.75,14.78,14.78,14.78,14.73,14.72,14.72,14.73,14.76,14.91,15.13,15.36,15.54,15.79,16.13,16.49,16.79,17.07,17.23,17.37,17.51,17.62,17.74,17.81,17.83,17.83,17.88,17.91,17.93,17.92,17.91,17.81,17.72,17.65,17.57,17.44,17.37,17.34,17.35,17.44,17.64,17.90,18.17,18.40,18.63,18.86,19.08,19.26,19.42,19.51,19.56,19.58,19.73,19.86,19.99,20.13,20.33,20.41,20.40,20.30,20.14,20.01,19.89,19.78,19.68,19.70,19.81,19.96,20.14
19.54,19.37,19.21,19.01,18.82,18.64,18.43,18.16,17.92,17.70,17.50,17.39,17.27,17.13,16.95,16.72,16.49,16.26,16.02,15.79,15.56,15.38,15.25,15.17,15.09,15.00,14.85,14.66,14.56,14.43,14.29,14.15,14.05,13.86,13.71,13.58,13.46,13.26,13.10,12.95,12.79,12.64,12.52,12.40,12.25,12.02,11.79,11.55,11.32,11.10,10.95,10.74,10.55,10.37,10.16,10.02,9.94,9.90,9.90,9.90,9.90,9.90,9.90,9.90,9.90,9.89,9.88,9.87,9.82,9.80,9.80,9.80,9.80,9.80,9.80,9.80,9.80,9.80,9.80,9.82,9.88,9.90,9.90,9.87,9.82,9.82,9.86,9.85,9.82,9.80,9.88,9.90,9.87,9.82,9.80,9.80,9.80,9.80,9.80,9.86,9.89,9.90,9.90,9.90,9.90,9.90,9.90,9.90,9.90,9.87,9.85,9.95,10.09,10.28,10.50,10.73,10.96,11.19,11.43,11.66,11.89,12.05,12.20,12.33,12.41,12.57,12.66,12.77,12.91,12.95,12.90,12.84,12.79,12.77,12.77,12.73,12.70,12.71,12.81,12.97,13.16,13.36,13.52,13.67,13.83,13.98,14.13,14.21,14.24,14.25,14.23,14.09,13.96,13.84,13.74,13.60,13.46,13.40,13.25,12.94,12.63,12.37,12.40,12.70,13.01,13.31,13.55,13.70,13.78,13.94,14.09,14.17,14.19,14.27,14.27,14.29,14.32,14.40,14.40,14.51,14.63,14.70,14.72,14.83,14.91,14.92,14.92,15.00,15.02,15.03,15.05,14.97,14.92,14.89,14.88,14.92,15.11,15.38,15.65,15.82,16.15,16.50,16.85,17.18,17.49,17.69,17.85,18.00,18.09,18.22,18.29,18.30,18.30,18.36,18.37,18.37,18.34,18.26,18.18,18.09,18.00,17.93,17.77,17.67,17.56,17.42,17.40,17.52,17.73,17.97,18.21,18.42,18.64,18.85,19.00,19.14,19.25,19.31,19.35,19.52,19.67,19.81,19.98,20.17,20.23,20.17,20.05,19.92,19.86,19.79,19.69,19.62,19.72,19.87,20.03,20.22
19.52,19.30,19.15,18.99,18.80,18.58,18.42,18.25,18.04,17.80,17.50,17.29,17.07,16.86,16.63,16.40,16.17,15.94,15.70,15.47,15.24,15.06,14.93,14.85,14.78,14.65,14.49,14.33,14.19,14.09,13.97,13.82,13.67,13.57,13.49,13.43,13.40,13.31,13.16,13.01,12.86,12.70,12.49,12.28,12.06,11.83,11.59,11.36,11.13,10.91,10.76,10.59,10.40,10.19,10.03,9.94,9.91,9.90,9.90,9.90,9.90,9.90,9.90,9.90,9.90,9.86,9.81,9.81,9.80,9.80,9.80,9.80,9.80,9.80,9.80,9.80,9.80,9.80,9.80,9.80,9.82,9.89,9.90,9.90,9.89,9.89,9.83,9.85,9.87,9.80,9.88,9.90,9.90,9.88,9.81,9.80,9.80,9.80,9.80,9.81,9.86,9.90,9.90,9.90,9.90,9.90,9.90,9.90,9.90,9.89,9.93,10.08,10.16,10.31,10.50,10.73,10.96,11.19,11.43,11.66,11.89,12.05,12.20,12.33,12.41,12.57,12.66,12.77,12.93,13.06,13.07,13.06,13.03,12.97,12.97,12.96,12.96,12.95,12.90,13.07,13.26,13.43,13.58,13.73,13.89,14.04,14.19,14.27,14.34,14.38,14.36,14.28,14.19,14.07,13.94,13.86,13.77,13.65,13.44,13.13,12.82,12.52,12.50,12.76,13.07,13.38,13.68,13.89,13.97,14.13,14.28,14.37,14.38,14.46,14.47,14.51,14.58,14.65,14.66,14.76,14.89,14.96,15.03,15.11,15.19,15.24,15.24,15.32,15.34,15.37,15.43,15.35,15.23,15.12,15.09,15.23,15.39,15.63,15.92,16.14,16.52,16.85,17.19,17.56,17.87,18.11,18.30,18.45,18.60,18.69,18.77,18.81,18.81,18.82,18.82,18.79,18.72,18.64,18.57,18.45,18.32,18.25,18.09,17.99,17.88,17.74,17.67,17.62,17.65,17.78,18.01,18.18,18.39,18.60,18.75,18.83,18.96,19.07,19.17,19.39,19.50,19.62,19.76,19.85,19.86,19.86,19.81,19.73,19.72,19.66,19.61,19.63,19.78,19.93,20.13,20.33
19.47,19.24,19.09,18.93,18.74,18.52,18.37,18.21,18.01,17.77,17.50,17.27,17.01,16.75,16.52,16.29,16.06,15.83,15.59,15.31,15.08,14.82,14.60,14.48,14.36,14.25,14.13,14.01,13.86,13.73,13.62,13.49,13.34,13.26,13.18,13.14,13.13,13.10,13.03,12.92,12.76,12.61,12.42,12.18,11.92,11.68,11.41,11.17,10.94,10.72,10.56,10.37,10.18,10.02,9.95,9.91,9.90,9.90,9.90,9.90,9.90,9.90,9.90,9.90,9.90,9.85,9.80,9.80,9.80,9.80,9.80,9.80,9.80,9.80,9.80,9.80,9.80,9.80,9.80,9.80,9.80,9.84,9.88,9.90,9.90,9.90,9.87,9.88,9.89,9.85,9.89,9.90,9.90,9.90,9.86,9.82,9.80,9.80,9.80,9.80,9.82,9.86,9.90,9.90,9.90,9.90,9.90,9.90,9.94,9.98,10.04,10.15,10.27,10.39,10.53,10.72,10.92,11.14,11.37,11.60,11.84,12.03,12.20,12.34,12.46,12.57,12.69,12.81,12.93,13.08,13.14,13.20,13.25,13.21,13.21,13.18,13.16,13.15,13.12,13.20,13.34,13.49,13.64,13.80,13.95,14.11,14.26,14.33,14.41,14.47,14.50,14.46,14.39,14.29,14.18,14.06,14.02,13.87,13.63,13.32,13.01,12.70,12.64,12.82,13.13,13.44,13.75,14.02,14.22,14.33,14.48,14.56,14.57,14.65,14.69,14.76,14.83,14.91,14.95,15.07,15.21,15.33,15.40,15.48,15.56,15.63,15.67,15.70,15.74,15.81,15.92,15.88,15.79,15.69,15.64,15.71,15.79,15.97,16.24,16.51,16.86,17.21,17.57,17.95,18.26,18.54,18.75,18.90,19.06,19.14,19.22,19.27,19.27,19.27,19.24,19.18,19.10,19.03,18.92,18.80,18.68,18.57,18.41,18.31,18.20,18.05,17.93,17.85,17.83,17.87,17.94,18.01,18.16,18.34,18.49,18.61,18.73,18.86,19.02,19.21,19.31,19.43,19.56,19.64,19.68,19.69,19.66,19.59,19.55,19.55,19.59,19.68,19.84,19.99,20.22,20.48
19.40,19.18,19.02,18.87,18.68,18.46,18.30,18.15,17.95,17.72,17.49,17.24,16.96,16.69,16.46,16.23,16.00,15.76,15.52,15.22,14.99,14.66,14.33,14.14,13.96,13.86,13.78,13.69,13.54,13.38,13.27,13.16,13.02,12.93,12.86,12.82,12.82,12.82,12.82,12.75,12.62,12.48,12.31,12.07,11.79,11.56,11.25,10.99,10.76,10.53,10.37,10.16,9.99,9.90,9.90,9.90,9.90,9.90,9.90,9.90,9.90,9.90,9.90,9.90,9.89,9.84,9.80,9.80,9.80,9.80,9.80,9.80,9.80,9.80,9.80,9.80,9.80,9.80,9.80,9.80,9.80,9.80,9.85,9.89,9.90,9.90,9.90,9.90,9.90,9.90,9.90,9.90,9.90,9.90,9.90,9.85,9.81,9.80,9.80,9.80,9.80,9.82,9.88,9.90,9.90,9.90,9.90,9.90,9.99,10.08,10.16,10.24,10.38,10.48,10.59,10.74,10.88,11.09,11.33,11.56,11.79,12.02,12.20,12.36,12.51,12.58,12.72,12.84,12.93,13.08,13.17,13.29,13.41,13.43,13.45,13.40,13.36,13.35,13.35,13.35,13.42,13.55,13.71,13.86,14.02,14.17,14.32,14.40,14.49,14.57,14.63,14.63,14.58,14.50,14.41,14.28,14.27,14.09,13.82,13.51,13.21,12.90,12.77,12.87,13.18,13.49,13.80,14.11,14.41,14.52,14.67,14.76,14.78,14.86,14.95,15.03,15.10,15.17,15.26,15.39,15.55,15.69,15.78,15.86,15.94,16.02,16.09,16.11,16.17,16.29,16.43,16.43,16.39,16.32,16.27,16.25,16.25,16.36,16.58,16.88,17.20,17.57,17.95,18.33,18.65,18.96,19.19,19.35,19.49,19.57,19.64,19.68,19.68,19.68,19.63,19.55,19.49,19.40,19.25,19.13,19.02,18.87,18.73,18.62,18.51,18.37,18.21,18.11,18.07,18.05,17.99,17.98,18.06,18.19,18.30,18.45,18.53,18.66,18.87,19.03,19.13,19.25,19.39,19.46,19.54,19.57,19.54,19.46,19.41,19.47,19.59,19.75,19.90,20.07,20.34,20.67
19.34,19.11,18.96,18.80,18.61,18.39,18.24,18.08,17.89,17.65,17.42,17.13,16.87,16.63,16.40,16.16,15.93,15.70,15.46,15.22,14.99,14.66,14.29,13.95,13.67,13.54,13.46,13.37,13.22,13.06,12.92,12.79,12.70,12.56,12.51,12.50,12.50,12.50,12.50,12.48,12.44,12.35,12.14,11.90,11.66,11.43,11.12,10.87,10.61,10.33,10.18,10.01,9.92,9.90,9.90,9.90,9.90,9.90,9.90,9.90,9.90,9.90,9.90,9.90,9.84,9.81,9.80,9.80,9.80,9.80,9.80,9.80,9.80,9.80,9.80,9.80,9.80,9.80,9.80,9.80,9.80,9.80,9.81,9.85,9.90,9.90,9.90,9.90,9.90,9.90,9.90,9.90,9.90,9.90,9.90,9.89,9.85,9.80,9.80,9.80,9.80,9.81,9.82,9.89,9.90,9.90,9.90,9.90,10.08,10.21,10.29,10.36,10.45,10.58,10.70,10.79,10.88,11.09,11.33,11.56,11.79,12.02,12.20,12.36,12.51,12.58,12.72,12.84,12.93,13.08,13.17,13.29,13.44,13.56,13.62,13.63,13.60,13.54,13.54,13.54,13.56,13.62,13.77,13.93,14.08,14.24,14.39,14.46,14.59,14.70,14.76,14.76,14.75,14.70,14.63,14.60,14.54,14.32,14.02,13.71,13.40,13.09,12.88,12.87,13.18,13.49,13.80,14.11,14.41,14.68,14.86,14.97,15.04,15.11,15.24,15.35,15.41,15.42,15.56,15.71,15.87,16.02,16.16,16.25,16.32,16.40,16.48,16.54,16.65,16.80,16.95,16.95,16.93,16.92,16.90,16.83,16.83,16.85,16.95,17.20,17.57,17.95,18.34,18.72,19.09,19.36,19.59,19.78,19.88,19.96,19.99,20.00,20.00,20.00,19.95,19.90,19.86,19.72,19.57,19.42,19.28,19.13,19.03,18.91,18.79,18.69,18.53,18.39,18.32,18.32,18.30,18.30,18.32,18.33,18.30,18.40,18.43,18.51,18.68,18.84,18.98,19.13,19.26,19.34,19.41,19.44,19.41,19.34,19.39,19.51,19.66,19.81,19.97,20.18,20.53,20.94
19.24,19.05,18.89,18.74,18.55,18.33,18.18,18.02,17.82,17.59,17.36,17.05,16.82,16.61,16.38,16.14,15.91,15.70,15.49,15.26,15.03,14.70,14.31,13.93,13.59,13.31,13.13,13.01,12.85,12.73,12.59,12.46,12.38,12.23,12.18,12.18,12.18,12.18,12.18,12.18,12.18,12.21,12.00,11.77,11.53,11.30,10.99,10.71,10.44,10.18,9.99,9.89,9.86,9.86,9.86,9.89,9.90,9.90,9.90,9.90,9.90,9.90,9.89,9.86,9.82,9.80,9.80,9.80,9.80,9.80,9.80,9.80,9.80,9.80,9.80,9.80,9.80,9.80,9.80,9.80,9.80,9.80,9.80,9.82,9.86,9.90,9.90,9.90,9.90,9.90,9.90,9.90,9.90,9.90,9.90,9.90,9.88,9.84,9.80,9.80,9.80,9.80,9.80,9.85,9.88,9.90,9.91,9.94,10.12,10.27,10.38,10.49,10.57,10.68,10.78,10.86,10.97,11.13,11.33,11.55,11.75,11.98,12.18,12.36,12.51,12.58,12.72,12.84,12.93,13.08,13.17,13.29,13.45,13.60,13.68,13.72,13.74,13.73,13.73,13.73,13.73,13.75,13.84,13.99,14.15,14.30,14.45,14.56,14.68,14.78,14.85,14.89,14.89,14.86,14.84,14.88,14.77,14.54,14.25,13.94,13.63,13.30,13.03,12.94,13.18,13.52,13.84,14.16,14.51,14.81,15.03,15.20,15.34,15.41,15.56,15.65,15.70,15.77,15.92,16.05,16.19,16.34,16.49,16.61,16.71,16.78,16.86,17.00,17.15,17.31,17.46,17.49,17.53,17.53,17.49,17.45,17.45,17.43,17.43,17.52,17.87,18.24,18.64,19.06,19.45,19.68,19.88,20.05,20.13,20.17,20.19,20.19,20.19,20.19,20.13,20.09,20.07,19.95,19.83,19.71,19.58,19.43,19.35,19.22,19.08,18.97,18.85,18.70,18.62,18.62,18.62,18.62,18.60,18.56,18.52,18.57,18.58,18.62,18.70,18.79,18.87,18.98,19.10,19.21,19.29,19.31,19.32,19.35,19.43,19.57,19.72,19.87,19.99,20.15,20.50,20.95
19.13,18.98,18.82,18.67,18.48,18.26,18.10,17.95,17.75,17.53,17.30,17.00,16.80,16.61,16.38,16.15,15.92,15.73,15.55,15.33,15.09,14.77,14.38,13.99,13.61,13.17,12.84,12.66,12.48,12.39,12.26,12.13,12.05,11.90,11.85,11.85,11.85,11.86,11.86,11.86,11.90,12.06,11.87,11.64,11.41,11.17,10.87,10.56,10.29,10.06,9.83,9.80,9.80,9.80,9.80,9.87,9.89,9.89,9.90,9.90,9.90,9.90,9.88,9.81,9.80,9.80,9.80,9.80,9.80,9.80,9.80,9.80,9.80,9.80,9.80,9.80,9.80,9.80,9.80,9.80,9.80,9.80,9.80,9.80,9.81,9.88,9.90,9.90,9.90,9.90,9.90,9.90,9.90,9.90,9.90,9.90,9.90,9.88,9.81,9.80,9.80,9.80,9.80,9.80,9.86,9.89,9.92,10.00,10.15,10.30,10.45,10.60,10.68,10.76,10.84,10.94,11.08,11.17,11.33,11.54,11.69,11.92,12.15,12.36,12.51,12.58,12.72,12.84,12.93,13.08,13.17,13.30,13.45,13.60,13.68,13.76,13.84,13.91,13.92,13.93,13.93,13.93,13.93,14.06,14.21,14.36,14.52,14.67,14.77,14.85,14.93,15.00,15.01,15.02,15.04,15.11,14.96,14.76,14.50,14.19,13.88,13.52,13.22,13.06,13.19,13.56,13.89,14.23,14.60,14.91,15.16,15.40,15.61,15.70,15.86,15.94,15.99,16.14,16.30,16.40,16.51,16.67,16.82,16.97,17.09,17.18,17.26,17.48,17.66,17.82,17.97,18.06,18.13,18.14,18.09,18.09,18.09,18.04,17.96,17.88,18.15,18.50,18.91,19.36,19.74,19.94,20.08,20.22,20.29,20.31,20.31,20.32,20.32,20.32,20.26,20.22,20.20,20.13,20.05,19.97,19.88,19.74,19.66,19.54,19.38,19.23,19.14,19.01,18.94,18.94,18.94,18.94,18.89,18.84,18.83,18.83,18.83,18.83,18.83,18.83,18.83,18.87,18.96,19.10,19.18,19.20,19.27,19.42,19.49,19.63,19.78,19.92,19.99,20.07,20.38,20.83
19.00,18.85,18.69,18.54,18.37,18.19,17.98,17.82,17.65,17.48,17.30,17.05,16.83,16.63,16.45,16.22,15.98,15.76,15.56,15.39,15.16,14.86,14.50,14.06,13.67,13.27,12.87,12.50,12.18,12.02,11.91,11.80,11.67,11.57,11.50,11.47,11.47,11.53,11.54,11.57,11.66,11.87,11.77,11.55,11.28,11.05,10.79,10.50,10.22,10.00,9.83,9.80,9.80,9.80,9.80,9.82,9.83,9.85,9.90,9.90,9.90,9.87,9.82,9.80,9.80,9.80,9.80,9.80,9.80,9.80,9.80,9.80,9.80,9.80,9.80,9.80,9.80,9.80,9.80,9.80,9.80,9.80,9.80,9.80,9.80,9.83,9.88,9.90,9.90,9.90,9.90,9.90,9.90,9.90,9.90,9.90,9.90,9.89,9.87,9.82,9.80,9.80,9.80,9.80,9.82,9.85,9.93,10.06,10.21,10.33,10.45,10.60,10.74,10.83,10.93,11.06,11.16,11.24,11.37,11.54,11.69,11.92,12.15,12.36,12.51,12.58,12.72,12.84,12.93,13.08,13.22,13.36,13.50,13.60,13.73,13.83,13.90,13.99,14.10,14.12,14.12,14.12,14.12,14.16,14.27,14.43,14.58,14.74,14.87,14.98,15.05,15.07,15.12,15.14,15.15,15.17,15.07,14.92,14.69,14.38,14.07,13.79,13.51,13.27,13.20,13.51,13.86,14.20,14.47,14.78,15.07,15.34,15.57,15.81,16.08,16.22,16.31,16.46,16.62,16.76,16.90,17.05,17.14,17.29,17.46,17.64,17.77,17.94,18.14,18.33,18.49,18.62,18.71,18.74,18.72,18.72,18.72,18.68,18.59,18.45,18.48,18.72,19.08,19.48,19.87,20.02,20.12,20.22,20.29,20.35,20.41,20.44,20.44,20.44,20.39,20.34,20.33,20.26,20.18,20.10,20.03,19.99,19.97,19.86,19.70,19.54,19.36,19.28,19.26,19.26,19.26,19.21,19.18,19.14,19.09,19.09,19.09,19.09,19.09,19.09,19.04,19.06,19.13,19.17,19.19,19.24,19.33,19.48,19.56,19.65,19.78,19.92,19.99,20.07,20.32,20.70
18.90,18.72,18.57,18.41,18.26,18.09,17.89,17.70,17.54,17.38,17.23,17.03,16.80,16.60,16.44,16.24,16.04,15.82,15.60,15.41,15.19,14.90,14.54,14.08,13.70,13.31,12.90,12.47,12.06,11.79,11.61,11.48,11.32,11.24,11.17,11.12,11.12,11.17,11.23,11.32,11.47,11.67,11.65,11.45,11.18,10.92,10.69,10.42,10.16,9.94,9.82,9.80,9.78,9.77,9.80,9.80,9.80,9.82,9.86,9.86,9.86,9.84,9.80,9.80,9.80,9.80,9.80,9.80,9.80,9.80,9.80,9.80,9.80,9.80,9.80,9.80,9.80,9.80,9.80,9.80,9.80,9.80,9.80,9.80,9.80,9.80,9.84,9.88,9.90,9.90,9.90,9.90,9.90,9.90,9.90,9.90,9.90,9.90,9.90,9.85,9.82,9.80,9.80,9.80,9.82,9.86,9.93,10.08,10.24,10.36,10.48,10.60,10.76,10.88,11.00,11.15,11.22,11.32,11.44,11.57,11.69,11.92,12.15,12.36,12.51,12.58,12.72,12.85,12.96,13.09,13.24,13.39,13.53,13.64,13.76,13.87,13.97,14.05,14.18,14.22,14.27,14.31,14.31,14.28,14.37,14.53,14.68,14.81,14.95,15.07,15.14,15.17,15.24,15.27,15.26,15.24,15.16,15.03,14.84,14.61,14.30,14.03,13.75,13.47,13.32,13.49,13.79,14.12,14.38,14.66,14.94,15.21,15.48,15.82,16.13,16.36,16.53,16.74,16.93,17.07,17.21,17.36,17.46,17.61,17.83,18.09,18.24,18.37,18.57,18.78,18.96,19.15,19.27,19.34,19.36,19.36,19.34,19.28,19.19,19.07,18.99,19.10,19.34,19.64,19.94,20.06,20.15,20.25,20.33,20.41,20.48,20.55,20.57,20.57,20.52,20.47,20.46,20.38,20.31,20.24,20.20,20.17,20.17,20.09,19.96,19.83,19.65,19.60,19.58,19.58,19.55,19.47,19.45,19.42,19.35,19.35,19.35,19.33,19.31,19.31,19.27,19.27,19.30,19.27,19.27,19.31,19.40,19.54,19.62,19.70,19.81,19.95,20.03,20.08,20.26,20.58
18.82,18.59,18.44,18.28,18.13,17.97,17.82,17.60,17.41,17.26,17.10,16.95,16.74,16.54,16.38,16.23,16.07,15.88,15.65,15.42,15.19,14.90,14.54,14.08,13.70,13.31,12.92,12.53,12.06,11.67,11.37,11.16,11.00,10.92,10.85,10.80,10.80,10.80,10.92,11.12,11.33,11.49,11.50,11.36,11.10,10.79,10.56,10.33,10.10,9.89,9.81,9.80,9.76,9.72,9.80,9.80,9.80,9.80,9.80,9.80,9.80,9.80,9.80,9.80,9.80,9.80,9.80,9.80,9.80,9.80,9.80,9.80,9.80,9.80,9.80,9.80,9.80,9.80,9.80,9.80,9.80,9.80,9.80,9.80,9.80,9.80,9.80,9.85,9.90,9.90,9.90,9.90,9.90,9.90,9.90,9.90,9.90,9.90,9.90,9.90,9.85,9.80,9.80,9.80,9.86,9.90,9.93,10.08,10.24,10.39,10.52,10.60,10.76,10.91,11.07,11.21,11.29,11.43,11.54,11.62,11.70,11.92,12.15,12.36,12.51,12.58,12.72,12.87,13.01,13.09,13.24,13.39,13.55,13.70,13.78,13.91,14.03,14.11,14.19,14.26,14.38,14.50,14.50,14.43,14.50,14.66,14.81,14.88,15.02,15.14,15.21,15.29,15.37,15.40,15.38,15.30,15.22,15.09,14.97,14.86,14.56,14.25,13.94,13.67,13.51,13.50,13.70,14.01,14.31,14.54,14.78,15.04,15.37,15.75,16.07,16.38,16.69,17.00,17.23,17.35,17.46,17.62,17.77,17.93,18.20,18.54,18.69,18.77,18.95,19.18,19.41,19.64,19.82,19.94,20.00,20.00,19.93,19.86,19.78,19.70,19.63,19.60,19.66,19.82,19.97,20.06,20.18,20.32,20.39,20.47,20.55,20.63,20.70,20.70,20.64,20.60,20.59,20.51,20.43,20.40,20.38,20.30,20.30,20.25,20.17,20.09,20.02,19.94,19.90,19.88,19.81,19.73,19.70,19.68,19.60,19.60,19.60,19.57,19.50,19.50,19.50,19.50,19.48,19.40,19.40,19.40,19.46,19.61,19.68,19.76,19.88,20.02,20.09,20.10,20.19,20.45
18.64,18.46,18.31,18.15,18.00,17.85,17.69,17.47,17.28,17.13,16.97,16.82,16.65,16.45,16.26,16.10,15.95,15.78,15.60,15.41,15.19,14.87,14.51,14.15,13.76,13.34,12.92,12.53,12.12,11.73,11.38,11.05,10.75,10.62,10.53,10.48,10.49,10.59,10.73,10.90,11.09,11.29,11.40,11.29,11.05,10.79,10.56,10.33,10.10,9.89,9.81,9.80,9.78,9.77,9.80,9.80,9.77,9.75,9.80,9.80,9.80,9.80,9.80,9.80,9.80,9.80,9.80,9.80,9.80,9.80,9.80,9.80,9.80,9.80,9.80,9.80,9.80,9.80,9.80,9.80,9.80,9.80,9.80,9.80,9.80,9.80,9.80,9.82,9.84,9.84,9.89,9.90,9.90,9.90,9.90,9.90,9.90,9.90,9.90,9.90,9.88,9.85,9.80,9.80,9.86,9.92,9.99,10.15,10.26,10.39,10.54,10.67,10.82,10.94,11.07,11.22,11.34,11.49,11.61,11.70,11.82,11.95,12.12,12.31,12.51,12.64,12.75,12.87,13.02,13.15,13.26,13.39,13.55,13.70,13.83,13.94,14.05,14.17,14.25,14.33,14.42,14.52,14.62,14.60,14.63,14.72,14.87,15.00,15.11,15.20,15.28,15.36,15.48,15.50,15.44,15.36,15.29,15.16,15.03,14.94,14.73,14.44,14.18,13.97,13.77,13.62,13.70,13.93,14.19,14.47,14.71,14.96,15.23,15.57,15.88,16.19,16.50,16.80,17.09,17.33,17.55,17.76,18.01,18.30,18.65,19.00,19.20,19.29,19.40,19.55,19.73,19.86,19.93,19.98,20.01,20.06,20.00,19.95,19.92,19.89,19.87,19.86,19.88,19.94,20.04,20.13,20.22,20.32,20.39,20.47,20.55,20.64,20.77,20.82,20.77,20.73,20.72,20.64,20.56,20.53,20.51,20.43,20.43,20.38,20.30,20.23,20.20,20.17,20.13,20.09,20.06,19.99,19.96,19.93,19.86,19.86,19.82,19.78,19.75,19.70,19.69,19.66,19.62,19.59,19.59,19.59,19.61,19.67,19.69,19.80,19.92,20.02,20.09,20.15,20.20,20.37
18.46,18.31,18.18,18.03,17.87,17.72,17.56,17.34,17.15,17.00,16.85,16.69,16.54,16.35,16.13,15.97,15.82,15.66,15.51,15.36,15.13,14.81,14.46,14.13,13.76,13.36,12.95,12.57,12.18,11.78,11.38,10.99,10.61,10.38,10.25,10.20,10.23,10.39,10.54,10.69,10.86,11.07,11.21,11.17,11.00,10.79,10.56,10.33,10.10,9.89,9.84,9.81,9.80,9.80,9.80,9.78,9.75,9.75,9.80,9.80,9.78,9.78,9.80,9.80,9.80,9.80,9.80,9.80,9.80,9.80,9.80,9.80,9.80,9.80,9.80,9.80,9.80,9.80,9.80,9.80,9.80,9.80,9.82,9.82,9.80,9.80,9.80,9.80,9.80,9.80,9.86,9.89,9.90,9.90,9.90,9.90,9.90,9.90,9.90,9.90,9.90,9.87,9.80,9.80,9.88,9.97,10.06,10.21,10.32,10.44,10.58,10.73,10.88,10.98,11.09,11.25,11.40,11.54,11.65,11.77,11.92,12.00,12.13,12.30,12.51,12.67,12.76,12.87,13.03,13.18,13.29,13.41,13.55,13.70,13.86,13.97,14.08,14.21,14.29,14.36,14.45,14.55,14.67,14.71,14.73,14.78,14.94,15.09,15.19,15.26,15.35,15.44,15.57,15.58,15.51,15.43,15.35,15.22,15.10,15.01,14.88,14.64,14.42,14.23,14.00,13.79,13.76,13.88,14.12,14.40,14.65,14.87,15.10,15.41,15.70,16.00,16.30,16.61,16.92,17.23,17.52,17.78,18.09,18.44,18.82,19.19,19.53,19.65,19.68,19.74,19.93,19.99,20.02,20.03,20.04,20.09,20.05,20.03,20.03,20.03,20.03,20.03,20.03,20.04,20.11,20.19,20.27,20.34,20.42,20.50,20.58,20.67,20.80,20.88,20.87,20.86,20.84,20.77,20.69,20.66,20.64,20.59,20.56,20.50,20.43,20.38,20.38,20.38,20.35,20.28,20.28,20.23,20.20,20.17,20.11,20.11,20.07,20.03,20.00,19.92,19.91,19.87,19.80,19.76,19.76,19.76,19.76,19.75,19.73,19.85,19.96,20.02,20.09,20.17,20.21,20.33
18.27,18.12,18.04,17.90,17.74,17.59,17.44,17.21,17.03,16.87,16.72,16.56,16.41,16.22,16.00,15.85,15.69,15.54,15.38,15.23,15.00,14.72,14.38,14.00,13.69,13.37,13.02,12.63,12.24,11.80,11.38,10.99,10.61,10.24,10.02,9.96,10.04,10.19,10.35,10.50,10.66,10.82,10.91,10.97,10.95,10.79,10.56,10.33,10.10,9.90,9.89,9.83,9.80,9.80,9.80,9.73,9.75,9.79,9.80,9.80,9.74,9.74,9.80,9.80,9.80,9.80,9.80,9.80,9.80,9.80,9.80,9.80,9.80,9.80,9.80,9.80,9.80,9.80,9.80,9.80,9.80,9.80,9.86,9.86,9.80,9.80,9.80,9.80,9.80,9.80,9.81,9.86,9.90,9.90,9.90,9.90,9.90,9.90,9.90,9.90,9.90,9.87,9.80,9.80,9.92,10.03,10.12,10.28,10.43,10.53,10.64,10.79,10.95,11.05,11.16,11.31,11.47,11.56,11.68,11.83,11.98,12.07,12.19,12.35,12.51,12.67,12.76,12.87,13.03,13.18,13.33,13.44,13.55,13.70,13.86,14.01,14.13,14.21,14.29,14.36,14.48,14.60,14.61,14.74,14.79,14.85,15.00,15.16,15.25,15.33,15.42,15.57,15.66,15.65,15.57,15.49,15.41,15.28,15.16,15.08,15.00,14.85,14.65,14.42,14.19,14.03,13.88,13.88,14.11,14.35,14.58,14.78,14.97,15.28,15.52,15.80,16.11,16.42,16.73,17.04,17.35,17.65,17.96,18.27,18.62,19.06,19.64,19.82,19.74,19.71,19.99,20.00,20.05,20.09,20.09,20.10,20.09,20.09,20.09,20.09,20.09,20.09,20.09,20.10,20.18,20.25,20.33,20.41,20.49,20.56,20.64,20.72,20.80,20.88,20.95,20.98,20.97,20.89,20.82,20.78,20.78,20.78,20.71,20.63,20.58,20.58,20.58,20.58,20.54,20.48,20.48,20.47,20.42,20.37,20.37,20.37,20.36,20.33,20.26,20.18,20.17,20.13,20.03,19.89,19.88,19.88,19.88,19.88,19.81,19.91,20.00,20.02,20.09,20.17,20.24,20.35
18.08,17.93,17.85,17.72,17.58,17.46,17.31,17.12,16.93,16.74,16.59,16.44,16.28,16.10,15.87,15.72,15.56,15.41,15.25,15.10,14.79,14.45,14.09,13.71,13.40,13.06,12.71,12.39,12.17,11.78,11.38,10.99,10.61,10.22,9.99,9.91,9.95,10.02,10.12,10.25,10.40,10.51,10.63,10.75,10.80,10.68,10.54,10.33,10.10,9.90,9.90,9.87,9.83,9.80,9.80,9.77,9.75,9.76,9.80,9.80,9.77,9.77,9.79,9.75,9.78,9.80,9.80,9.80,9.80,9.80,9.80,9.80,9.80,9.80,9.80,9.80,9.80,9.80,9.80,9.80,9.80,9.85,9.88,9.88,9.86,9.86,9.82,9.80,9.80,9.80,9.80,9.82,9.84,9.85,9.89,9.90,9.90,9.90,9.90,9.90,9.90,9.89,9.86,9.90,10.00,10.09,10.19,10.34,10.49,10.60,10.70,10.86,11.01,11.11,11.22,11.38,11.53,11.62,11.74,11.89,12.05,12.13,12.26,12.41,12.56,12.67,12.79,12.91,13.03,13.18,13.34,13.47,13.60,13.76,13.87,14.01,14.15,14.27,14.34,14.42,14.52,14.61,14.65,14.76,14.86,14.95,15.07,15.22,15.32,15.41,15.53,15.64,15.76,15.77,15.68,15.56,15.48,15.38,15.28,15.20,15.08,14.96,14.81,14.62,14.44,14.24,14.07,13.99,14.06,14.29,14.49,14.68,14.88,15.10,15.37,15.64,15.92,16.23,16.54,16.85,17.16,17.47,17.77,18.08,18.41,18.78,19.22,19.48,19.61,19.75,20.00,20.00,20.06,20.12,20.16,20.16,20.16,20.16,20.16,20.16,20.11,20.13,20.16,20.16,20.24,20.32,20.37,20.43,20.55,20.63,20.70,20.78,20.86,20.94,21.01,21.08,21.10,21.02,20.98,20.94,20.91,20.91,20.84,20.79,20.77,20.77,20.77,20.77,20.75,20.71,20.67,20.67,20.62,20.58,20.63,20.67,20.65,20.59,20.52,20.48,20.63,20.69,20.62,20.46,20.50,20.52,20.48,20.39,20.23,20.31,20.44,20.52,20.60,20.67,20.75,20.80
17.87,17.74,17.64,17.50,17.38,17.30,17.16,17.02,16.83,16.62,16.46,16.31,16.15,15.97,15.74,15.59,15.44,15.28,15.12,14.93,14.55,14.16,13.77,13.37,13.06,12.69,12.33,12.05,11.97,11.68,11.34,10.97,10.59,10.20,9.98,9.89,9.88,9.88,9.93,10.03,10.16,10.23,10.38,10.53,10.60,10.54,10.49,10.31,10.08,9.90,9.90,9.90,9.87,9.82,9.80,9.80,9.76,9.74,9.78,9.80,9.80,9.80,9.79,9.73,9.78,9.80,9.80,9.78,9.78,9.79,9.80,9.80,9.80,9.80,9.80,9.80,9.80,9.80,9.80,9.81,9.83,9.89,9.90,9.90,9.90,9.90,9.84,9.81,9.80,9.80,9.80,9.80,9.80,9.81,9.87,9.89,9.90,9.91,9.94,9.94,9.94,9.94,9.95,10.02,10.10,10.18,10.27,10.41,10.56,10.67,10.77,10.92,11.08,11.18,11.29,11.44,11.59,11.68,11.80,11.96,12.11,12.19,12.32,12.48,12.63,12.70,12.84,12.96,13.05,13.20,13.34,13.49,13.65,13.80,13.89,14.02,14.16,14.31,14.40,14.48,14.56,14.64,14.72,14.79,14.92,15.05,15.13,15.28,15.38,15.49,15.63,15.71,15.86,15.87,15.78,15.64,15.55,15.47,15.39,15.30,15.16,15.08,14.96,14.80,14.65,14.44,14.26,14.13,14.05,14.25,14.42,14.60,14.80,14.94,15.22,15.48,15.75,16.06,16.37,16.68,17.00,17.34,17.66,17.98,18.30,18.61,18.94,19.25,19.56,19.82,20.00,20.02,20.07,20.14,20.20,20.22,20.21,20.20,20.20,20.20,20.14,20.16,20.21,20.23,20.29,20.36,20.41,20.45,20.59,20.67,20.75,20.83,20.92,21.00,21.08,21.15,21.21,21.15,21.14,21.10,21.04,21.04,20.98,20.96,20.96,20.96,20.98,20.97,20.96,20.95,20.88,20.87,20.82,20.80,20.88,20.96,20.93,20.87,20.80,20.84,21.10,21.26,21.24,21.10,21.17,21.21,21.16,21.00,20.80,20.87,21.01,21.13,21.21,21.29,21.36,21.34
17.63,17.54,17.40,17.25,17.13,17.05,16.96,16.87,16.70,16.49,16.33,16.18,16.03,15.84,15.62,15.46,15.31,15.15,14.97,14.69,14.25,13.84,13.43,12.98,12.67,12.31,11.93,11.60,11.52,11.40,11.20,10.91,10.52,10.14,9.95,9.87,9.82,9.82,9.83,9.88,9.96,10.04,10.19,10.30,10.36,10.35,10.40,10.24,10.04,9.90,9.90,9.90,9.89,9.87,9.80,9.80,9.79,9.76,9.72,9.79,9.80,9.80,9.80,9.78,9.80,9.80,9.78,9.72,9.72,9.76,9.80,9.80,9.80,9.80,9.80,9.80,9.80,9.80,9.80,9.82,9.88,9.90,9.90,9.90,9.90,9.90,9.89,9.84,9.80,9.80,9.80,9.80,9.80,9.80,9.81,9.87,9.90,9.93,10.06,10.07,10.07,10.07,10.07,10.15,10.23,10.31,10.38,10.47,10.62,10.73,10.83,10.99,11.14,11.24,11.35,11.50,11.66,11.75,11.87,12.02,12.18,12.26,12.39,12.54,12.69,12.77,12.90,13.02,13.11,13.27,13.36,13.49,13.65,13.80,13.94,14.05,14.16,14.32,14.46,14.55,14.63,14.70,14.78,14.86,14.98,15.11,15.19,15.35,15.44,15.56,15.70,15.77,15.92,15.94,15.86,15.77,15.63,15.53,15.45,15.37,15.28,15.20,15.09,14.93,14.78,14.61,14.45,14.30,14.17,14.28,14.42,14.58,14.73,14.82,15.05,15.32,15.62,15.93,16.24,16.55,16.91,17.34,17.71,18.09,18.43,18.75,19.13,19.44,19.75,19.96,20.00,20.07,20.09,20.14,20.21,20.28,20.23,20.20,20.20,20.20,20.19,20.19,20.23,20.29,20.30,20.36,20.43,20.50,20.59,20.67,20.75,20.85,20.99,21.06,21.14,21.22,21.28,21.27,21.27,21.22,21.17,21.17,21.16,21.15,21.15,21.16,21.22,21.18,21.15,21.15,21.14,21.08,21.04,21.06,21.14,21.22,21.23,21.19,21.14,21.27,21.55,21.76,21.83,21.74,21.81,21.88,21.86,21.71,21.61,21.66,21.75,21.84,21.92,21.99,22.03,21.97
17.42,17.30,17.19,17.04,16.90,16.80,16.72,16.64,16.54,16.40,16.21,16.05,15.90,15.73,15.53,15.34,15.18,14.99,14.73,14.39,13.93,13.52,13.10,12.65,12.30,11.92,11.54,11.19,11.04,10.95,10.85,10.70,10.46,10.07,9.90,9.84,9.80,9.76,9.75,9.79,9.87,9.95,10.03,10.10,10.17,10.21,10.25,10.11,9.97,9.90,9.90,9.90,9.90,9.89,9.85,9.81,9.80,9.78,9.75,9.79,9.77,9.77,9.80,9.80,9.80,9.80,9.79,9.75,9.75,9.78,9.80,9.80,9.80,9.80,9.80,9.80,9.80,9.80,9.82,9.86,9.90,9.90,9.90,9.90,9.90,9.90,9.90,9.88,9.85,9.85,9.81,9.80,9.80,9.80,9.80,9.87,9.94,10.03,10.14,10.15,10.15,10.16,10.20,10.28,10.36,10.43,10.51,10.59,10.70,10.79,10.90,11.05,11.20,11.30,11.41,11.57,11.72,11.81,11.93,12.09,12.24,12.32,12.45,12.60,12.75,12.83,12.97,13.08,13.18,13.33,13.42,13.52,13.65,13.80,13.96,14.08,14.21,14.36,14.48,14.59,14.69,14.77,14.84,14.92,15.05,15.18,15.26,15.41,15.54,15.65,15.77,15.88,16.00,16.02,15.97,15.90,15.78,15.69,15.60,15.49,15.41,15.30,15.17,15.02,14.90,14.75,14.60,14.44,14.30,14.34,14.44,14.55,14.67,14.79,14.97,15.23,15.56,15.94,16.29,16.64,17.02,17.44,17.82,18.24,18.62,18.98,19.36,19.68,19.89,20.01,20.05,20.09,20.13,20.17,20.21,20.29,20.26,20.25,20.25,20.25,20.25,20.25,20.28,20.35,20.35,20.41,20.49,20.56,20.64,20.72,20.80,20.89,21.00,21.08,21.16,21.23,21.31,21.39,21.40,21.35,21.30,21.30,21.30,21.35,21.39,21.39,21.44,21.41,21.37,21.34,21.34,21.31,21.31,21.36,21.44,21.52,21.51,21.47,21.47,21.70,22.00,22.26,22.42,22.38,22.45,22.58,22.61,22.47,22.47,22.50,22.50,22.50,22.62,22.70,22.68,22.56
17.20,17.06,16.97,16.84,16.69,16.55,16.47,16.40,16.36,16.29,16.08,15.92,15.77,15.61,15.45,15.22,15.04,14.78,14.44,14.06,13.61,13.19,12.78,12.32,11.93,11.54,11.15,10.79,10.56,10.46,10.43,10.41,10.34,10.01,9.85,9.80,9.78,9.70,9.69,9.73,9.80,9.88,9.89,9.94,10.01,10.08,10.08,9.98,9.90,9.90,9.90,9.90,9.90,9.90,9.90,9.83,9.81,9.80,9.80,9.80,9.75,9.74,9.79,9.80,9.80,9.80,9.80,9.80,9.80,9.80,9.80,9.80,9.80,9.80,9.80,9.80,9.80,9.80,9.85,9.90,9.90,9.90,9.90,9.90,9.90,9.90,9.90,9.90,9.90,9.90,9.83,9.81,9.80,9.80,9.81,9.88,10.00,10.13,10.22,10.21,10.21,10.24,10.32,10.39,10.47,10.55,10.64,10.72,10.79,10.87,10.97,11.11,11.27,11.37,11.48,11.63,11.79,11.88,12.00,12.15,12.30,12.39,12.51,12.67,12.82,12.89,13.03,13.15,13.24,13.39,13.48,13.56,13.66,13.81,13.96,14.11,14.26,14.41,14.50,14.63,14.75,14.83,14.91,14.99,15.12,15.24,15.33,15.48,15.63,15.75,15.84,15.99,16.08,16.12,16.10,16.02,15.95,15.87,15.76,15.61,15.54,15.40,15.25,15.10,15.02,14.87,14.72,14.57,14.42,14.43,14.49,14.56,14.65,14.79,14.95,15.21,15.57,16.02,16.41,16.79,17.18,17.57,17.95,18.40,18.82,19.21,19.61,19.90,20.01,20.03,20.10,20.11,20.16,20.20,20.22,20.30,20.31,20.31,20.31,20.31,20.31,20.31,20.34,20.40,20.41,20.47,20.55,20.63,20.71,20.78,20.86,20.94,21.01,21.09,21.17,21.25,21.33,21.48,21.51,21.47,21.42,21.42,21.42,21.53,21.63,21.64,21.64,21.64,21.60,21.55,21.55,21.56,21.61,21.68,21.76,21.84,21.80,21.77,21.83,22.14,22.45,22.75,22.99,23.02,23.09,23.28,23.38,23.26,23.34,23.35,23.28,23.18,23.31,23.38,23.30,23.12
16.96,16.87,16.73,16.58,16.45,16.36,16.28,16.21,16.14,16.07,15.95,15.80,15.64,15.49,15.32,15.09,14.83,14.48,14.06,13.67,13.27,12.84,12.41,12.00,11.56,11.16,10.77,10.41,10.18,10.08,10.05,10.04,10.02,9.93,9.85,9.78,9.72,9.64,9.62,9.66,9.74,9.82,9.82,9.87,9.93,9.95,9.95,9.92,9.90,9.90,9.90,9.90,9.90,9.90,9.90,9.88,9.84,9.80,9.80,9.80,9.79,9.76,9.74,9.79,9.80,9.80,9.80,9.80,9.80,9.80,9.80,9.80,9.80,9.80,9.80,9.80,9.80,9.80,9.85,9.90,9.90,9.90,9.90,9.90,9.90,9.90,9.90,9.90,9.90,9.90,9.88,9.83,9.80,9.81,9.87,9.99,10.10,10.21,10.35,10.30,10.28,10.30,10.38,10.46,10.54,10.64,10.77,10.84,10.92,11.00,11.08,11.18,11.33,11.43,11.54,11.70,11.85,11.94,12.06,12.21,12.37,12.45,12.58,12.73,12.88,12.96,13.10,13.21,13.30,13.46,13.54,13.62,13.72,13.88,13.97,14.11,14.26,14.42,14.55,14.66,14.77,14.89,14.97,15.10,15.21,15.32,15.46,15.55,15.69,15.81,15.90,16.06,16.14,16.21,16.23,16.15,16.07,16.00,15.89,15.74,15.67,15.57,15.41,15.22,15.08,14.93,14.81,14.70,14.55,14.61,14.64,14.69,14.77,14.86,15.06,15.36,15.74,16.15,16.53,16.92,17.31,17.69,18.08,18.53,18.95,19.35,19.80,19.95,20.04,20.08,20.10,20.16,20.19,20.23,20.29,20.37,20.38,20.38,20.38,20.38,20.38,20.38,20.38,20.41,20.46,20.54,20.62,20.69,20.77,20.85,20.92,21.00,21.08,21.16,21.23,21.31,21.39,21.49,21.55,21.56,21.55,21.55,21.55,21.66,21.77,21.83,21.83,21.83,21.82,21.80,21.80,21.86,21.93,22.00,22.08,22.16,22.12,22.13,22.28,22.58,22.89,23.20,23.48,23.65,23.73,23.95,24.12,24.09,24.17,24.18,24.11,23.98,23.96,23.97,23.85,23.65
16.74,16.63,16.48,16.35,16.23,16.13,16.05,15.97,15.90,15.82,15.74,15.62,15.50,15.36,15.19,14.90,14.57,14.16,13.72,13.33,12.92,12.49,12.07,11.68,11.22,10.81,10.44,10.12,9.98,9.92,9.88,9.86,9.86,9.83,9.79,9.73,9.66,9.61,9.60,9.62,9.68,9.75,9.79,9.83,9.86,9.86,9.89,9.90,9.90,9.90,9.90,9.90,9.90,9.90,9.90,9.87,9.83,9.80,9.80,9.80,9.80,9.78,9.74,9.76,9.79,9.80,9.80,9.80,9.83,9.82,9.80,9.80,9.80,9.80,9.80,9.80,9.80,9.83,9.87,9.90,9.90,9.90,9.90,9.90,9.90,9.90,9.90,9.90,9.90,9.90,9.90,9.89,9.88,9.89,9.97,10.08,10.18,10.28,10.43,10.39,10.38,10.41,10.48,10.56,10.64,10.74,10.85,10.93,11.04,11.13,11.20,11.28,11.40,11.50,11.61,11.76,11.91,12.00,12.12,12.28,12.43,12.51,12.64,12.80,12.94,13.02,13.16,13.28,13.37,13.52,13.61,13.69,13.79,13.94,14.02,14.15,14.29,14.42,14.57,14.69,14.81,14.93,15.03,15.19,15.31,15.42,15.55,15.65,15.77,15.88,15.97,16.12,16.21,16.29,16.33,16.28,16.20,16.12,16.03,15.91,15.80,15.69,15.53,15.35,15.23,15.07,14.93,14.81,14.72,14.77,14.78,14.83,14.94,15.08,15.30,15.60,15.95,16.28,16.66,17.07,17.47,17.86,18.25,18.67,19.08,19.48,19.91,19.98,20.05,20.10,20.10,20.18,20.22,20.26,20.31,20.39,20.40,20.40,20.40,20.40,20.43,20.44,20.44,20.45,20.52,20.58,20.64,20.72,20.79,20.87,20.95,21.04,21.14,21.22,21.30,21.37,21.45,21.53,21.61,21.66,21.68,21.68,21.68,21.78,21.92,22.02,22.05,22.03,22.03,22.06,22.10,22.17,22.25,22.32,22.40,22.45,22.42,22.49,22.72,23.03,23.34,23.65,23.95,24.21,24.35,24.52,24.64,24.64,24.69,24.70,24.65,24.57,24.52,24.52,24.39,24.21
16.53,16.38,16.23,16.13,16.02,15.88,15.80,15.72,15.64,15.56,15.49,15.41,15.33,15.22,15.04,14.65,14.27,13.84,13.40,13.01,12.55,12.14,11.75,11.36,10.90,10.51,10.16,9.91,9.90,9.90,9.86,9.80,9.80,9.73,9.70,9.67,9.61,9.61,9.60,9.60,9.62,9.69,9.77,9.80,9.80,9.80,9.88,9.90,9.90,9.90,9.90,9.90,9.90,9.90,9.90,9.82,9.80,9.80,9.80,9.80,9.80,9.80,9.78,9.71,9.77,9.80,9.80,9.80,9.88,9.84,9.80,9.80,9.80,9.80,9.80,9.80,9.80,9.88,9.90,9.90,9.90,9.90,9.90,9.90,9.90,9.90,9.90,9.90,9.90,9.91,9.91,9.96,10.00,10.02,10.09,10.17,10.25,10.34,10.50,10.50,10.51,10.54,10.61,10.69,10.77,10.84,10.92,11.00,11.14,11.25,11.33,11.40,11.48,11.56,11.67,11.82,11.98,12.07,12.19,12.34,12.50,12.58,12.71,12.86,13.01,13.09,13.22,13.34,13.43,13.59,13.67,13.75,13.85,14.00,14.08,14.21,14.34,14.42,14.58,14.73,14.84,14.94,15.09,15.25,15.40,15.52,15.61,15.76,15.85,15.93,16.02,16.18,16.26,16.34,16.40,16.41,16.33,16.26,16.18,16.09,15.93,15.78,15.63,15.49,15.41,15.26,15.06,14.91,14.91,14.92,14.92,14.99,15.16,15.39,15.62,15.90,16.18,16.42,16.80,17.23,17.66,18.05,18.43,18.82,19.21,19.59,19.97,20.00,20.05,20.10,20.11,20.18,20.26,20.30,20.32,20.39,20.40,20.40,20.40,20.40,20.48,20.50,20.50,20.51,20.59,20.60,20.64,20.72,20.80,20.87,20.95,21.05,21.20,21.28,21.36,21.43,21.51,21.59,21.67,21.74,21.80,21.80,21.81,21.91,22.07,22.21,22.29,22.25,22.25,22.33,22.41,22.48,22.56,22.64,22.71,22.72,22.72,22.86,23.17,23.48,23.79,24.09,24.40,24.70,24.93,25.00,25.00,25.00,25.00,25.00,25.00,25.00,25.00,25.00,24.91,24.76
16.30,16.19,16.04,15.90,15.78,15.68,15.55,15.46,15.39,15.31,15.23,15.15,15.08,14.93,14.66,14.27,13.88,13.48,13.08,12.69,12.23,11.82,11.42,10.98,10.68,10.43,10.21,10.02,9.91,9.90,9.89,9.87,9.87,9.79,9.77,9.76,9.73,9.73,9.69,9.67,9.67,9.70,9.72,9.77,9.80,9.80,9.83,9.83,9.83,9.84,9.89,9.90,9.90,9.89,9.83,9.81,9.80,9.80,9.80,9.80,9.80,9.80,9.79,9.77,9.74,9.73,9.75,9.80,9.83,9.81,9.82,9.87,9.87,9.82,9.80,9.81,9.87,9.89,9.90,9.90,9.90,9.90,9.90,9.90,9.90,9.90,9.90,9.93,9.98,10.03,10.03,10.05,10.09,10.14,10.16,10.23,10.31,10.41,10.56,10.57,10.60,10.66,10.74,10.82,10.90,10.97,11.05,11.13,11.23,11.31,11.39,11.47,11.60,11.69,11.78,11.89,12.04,12.13,12.25,12.41,12.56,12.64,12.77,12.92,13.07,13.15,13.29,13.40,13.50,13.65,13.74,13.81,13.91,14.07,14.15,14.28,14.40,14.49,14.64,14.75,14.87,14.99,15.09,15.25,15.37,15.46,15.54,15.64,15.72,15.83,15.95,16.05,16.18,16.28,16.38,16.53,16.51,16.45,16.35,16.22,16.06,15.95,15.85,15.73,15.55,15.39,15.25,15.17,15.18,15.28,15.30,15.38,15.54,15.71,15.99,16.25,16.50,16.74,17.07,17.38,17.72,18.11,18.50,18.92,19.34,19.70,19.98,20.05,20.08,20.12,20.17,20.19,20.26,20.32,20.37,20.40,20.45,20.47,20.47,20.47,20.49,20.54,20.57,20.58,20.65,20.67,20.71,20.78,20.86,20.94,21.02,21.10,21.20,21.28,21.36,21.43,21.51,21.59,21.67,21.74,21.81,21.87,21.97,22.07,22.19,22.35,22.48,22.48,22.51,22.59,22.66,22.74,22.82,22.89,22.97,23.02,23.11,23.31,23.62,23.93,24.24,24.49,24.68,24.83,24.96,25.00,25.00,25.00,25.00,25.00,25.00,25.00,25.00,25.00,24.97,24.92
16.23,16.03,15.85,15.69,15.56,15.45,15.32,15.22,15.13,15.05,14.94,14.84,14.74,14.56,14.24,13.85,13.49,13.10,12.70,12.31,11.90,11.59,11.32,10.98,10.80,10.64,10.49,10.36,10.20,10.12,10.09,10.07,10.03,9.93,9.86,9.83,9.83,9.83,9.77,9.73,9.73,9.73,9.73,9.76,9.79,9.77,9.79,9.80,9.80,9.81,9.86,9.87,9.87,9.85,9.80,9.80,9.80,9.80,9.80,9.80,9.80,9.80,9.80,9.77,9.72,9.70,9.72,9.80,9.80,9.80,9.82,9.87,9.90,9.85,9.83,9.85,9.90,9.90,9.90,9.90,9.90,9.90,9.90,9.90,9.90,9.90,9.92,9.98,10.06,10.13,10.13,10.13,10.16,10.23,10.26,10.33,10.41,10.50,10.63,10.65,10.71,10.79,10.87,10.95,11.02,11.10,11.18,11.25,11.33,11.41,11.49,11.56,11.69,11.79,11.87,11.98,12.11,12.20,12.31,12.47,12.62,12.70,12.83,12.99,13.14,13.21,13.35,13.47,13.56,13.69,13.79,13.88,13.98,14.13,14.21,14.34,14.46,14.55,14.68,14.76,14.87,14.99,15.06,15.19,15.29,15.36,15.44,15.52,15.62,15.73,15.86,15.96,16.08,16.20,16.34,16.57,16.62,16.61,16.53,16.38,16.25,16.14,16.04,15.91,15.71,15.55,15.48,15.47,15.50,15.65,15.69,15.76,15.91,16.07,16.34,16.59,16.83,17.09,17.37,17.64,17.92,18.26,18.63,19.01,19.41,19.78,19.99,20.07,20.10,20.13,20.20,20.20,20.26,20.32,20.37,20.40,20.47,20.50,20.51,20.53,20.53,20.58,20.63,20.64,20.69,20.72,20.77,20.85,20.93,21.00,21.06,21.12,21.17,21.25,21.33,21.40,21.48,21.56,21.61,21.69,21.79,21.87,21.97,22.08,22.20,22.35,22.51,22.58,22.66,22.78,22.89,23.01,23.10,23.18,23.26,23.34,23.51,23.74,24.00,24.26,24.50,24.69,24.83,24.93,24.98,25.00,25.01,25.03,25.03,25.03,25.03,25.03,25.03,25.03,25.02,25.00
16.33,15.90,15.67,15.50,15.34,15.21,15.12,14.98,14.87,14.78,14.63,14.47,14.32,14.11,13.79,13.41,13.08,12.69,12.25,11.86,11.54,11.46,11.46,11.37,11.28,11.15,11.03,10.93,10.78,10.57,10.47,10.43,10.28,10.13,9.98,9.90,9.90,9.90,9.83,9.80,9.80,9.80,9.80,9.80,9.78,9.71,9.78,9.80,9.80,9.80,9.80,9.80,9.80,9.80,9.80,9.80,9.80,9.80,9.80,9.80,9.80,9.80,9.78,9.71,9.70,9.70,9.72,9.80,9.80,9.80,9.80,9.82,9.89,9.90,9.90,9.90,9.90,9.90,9.90,9.90,9.90,9.90,9.90,9.90,9.90,9.90,9.97,10.04,10.12,10.20,10.20,10.20,10.23,10.31,10.38,10.46,10.53,10.61,10.69,10.77,10.84,10.92,11.00,11.07,11.15,11.23,11.31,11.38,11.46,11.54,11.61,11.69,11.77,11.85,11.96,12.10,12.18,12.26,12.38,12.53,12.69,12.77,12.90,13.05,13.20,13.28,13.41,13.53,13.61,13.69,13.83,13.94,14.04,14.20,14.27,14.41,14.53,14.61,14.69,14.76,14.84,14.92,15.00,15.08,15.16,15.24,15.31,15.39,15.53,15.64,15.74,15.89,15.98,16.10,16.27,16.50,16.65,16.74,16.72,16.58,16.50,16.36,16.21,16.05,15.90,15.74,15.73,15.80,15.88,16.03,16.07,16.14,16.30,16.45,16.68,16.91,17.16,17.47,17.71,17.99,18.27,18.52,18.83,19.08,19.44,19.83,19.99,20.07,20.10,20.13,20.20,20.20,20.26,20.30,20.32,20.39,20.47,20.50,20.52,20.59,20.60,20.65,20.70,20.70,20.70,20.76,20.83,20.91,20.99,21.07,21.10,21.10,21.11,21.19,21.26,21.34,21.42,21.49,21.51,21.59,21.73,21.80,21.81,21.92,22.07,22.22,22.38,22.53,22.71,22.92,23.07,23.29,23.42,23.50,23.58,23.66,23.90,24.14,24.30,24.46,24.56,24.69,24.84,24.99,25.00,25.00,25.03,25.10,25.10,25.10,25.10,25.10,25.10,25.10,25.05,25.00
16.58,16.12,15.75,15.44,15.19,15.00,14.88,14.73,14.59,14.46,14.31,14.11,13.91,13.64,13.29,12.95,12.67,12.45,12.28,12.16,12.04,12.04,12.07,11.99,11.91,11.78,11.66,11.56,11.36,11.21,11.13,11.01,10.72,10.56,10.41,10.28,10.18,10.05,9.92,9.86,9.86,9.86,9.82,9.80,9.77,9.70,9.73,9.74,9.76,9.80,9.80,9.80,9.80,9.80,9.80,9.80,9.80,9.80,9.80,9.80,9.80,9.80,9.78,9.71,9.70,9.73,9.77,9.80,9.75,9.77,9.80,9.80,9.84,9.88,9.90,9.90,9.90,9.90,9.90,9.90,9.90,9.90,9.90,9.90,9.91,9.95,10.03,10.11,10.18,10.26,10.31,10.32,10.35,10.43,10.51,10.58,10.64,10.68,10.76,10.83,10.91,11.00,11.12,11.20,11.28,11.36,11.43,11.51,11.59,11.66,11.74,11.82,11.90,11.97,12.06,12.17,12.25,12.36,12.48,12.60,12.75,12.83,12.96,13.12,13.26,13.34,13.48,13.60,13.67,13.75,13.90,14.01,14.11,14.26,14.34,14.44,14.53,14.60,14.64,14.70,14.78,14.85,14.88,15.00,15.09,15.17,15.25,15.32,15.42,15.52,15.61,15.76,15.89,16.03,16.20,16.38,16.58,16.76,16.83,16.77,16.69,16.55,16.40,16.24,16.09,16.02,16.08,16.18,16.26,16.37,16.47,16.57,16.67,16.78,17.00,17.26,17.53,17.79,18.07,18.34,18.61,18.88,19.15,19.42,19.68,19.88,19.99,20.07,20.10,20.11,20.14,20.19,20.22,20.26,20.31,20.39,20.43,20.47,20.51,20.54,20.59,20.62,20.66,20.70,20.75,20.78,20.84,20.91,20.94,20.97,21.01,21.04,21.04,21.12,21.16,21.22,21.29,21.37,21.42,21.50,21.59,21.62,21.67,21.76,21.88,22.04,22.19,22.35,22.52,22.71,22.91,23.09,23.27,23.44,23.60,23.73,23.95,24.17,24.32,24.48,24.61,24.75,24.89,25.00,25.00,25.00,25.03,25.10,25.10,25.10,25.10,25.10,25.10,25.10,25.08,25.06
16.83,16.37,15.91,15.47,15.11,14.83,14.65,14.48,14.32,14.16,13.99,13.77,13.57,13.34,13.04,12.79,12.61,12.53,12.55,12.63,12.63,12.68,12.71,12.65,12.56,12.42,12.30,12.19,11.96,11.86,11.76,11.56,11.17,11.01,10.86,10.69,10.51,10.27,10.09,9.99,9.94,9.90,9.85,9.81,9.78,9.72,9.70,9.70,9.73,9.78,9.78,9.79,9.80,9.80,9.80,9.80,9.80,9.80,9.80,9.80,9.80,9.79,9.76,9.71,9.70,9.75,9.80,9.80,9.74,9.77,9.80,9.80,9.80,9.85,9.89,9.90,9.90,9.90,9.90,9.90,9.90,9.90,9.90,9.91,9.94,10.02,10.09,10.17,10.25,10.32,10.40,10.42,10.46,10.53,10.61,10.69,10.73,10.76,10.82,10.90,10.97,11.08,11.23,11.31,11.38,11.46,11.54,11.62,11.71,11.79,11.87,11.95,12.02,12.10,12.18,12.26,12.33,12.46,12.56,12.66,12.82,12.90,13.02,13.18,13.33,13.41,13.54,13.66,13.74,13.81,13.94,14.05,14.14,14.28,14.35,14.43,14.50,14.56,14.57,14.64,14.71,14.76,14.78,14.91,15.00,15.08,15.16,15.24,15.31,15.40,15.50,15.66,15.80,15.94,16.10,16.28,16.51,16.74,16.90,16.94,16.86,16.72,16.56,16.42,16.32,16.33,16.43,16.55,16.64,16.72,16.84,16.96,17.05,17.13,17.34,17.61,17.89,18.14,18.43,18.69,18.95,19.21,19.41,19.67,19.84,19.92,19.99,20.06,20.09,20.10,20.10,20.16,20.19,20.24,20.31,20.37,20.38,20.42,20.48,20.50,20.56,20.58,20.61,20.68,20.76,20.78,20.81,20.86,20.88,20.88,20.91,20.96,20.98,21.04,21.07,21.11,21.19,21.27,21.33,21.40,21.45,21.45,21.51,21.58,21.69,21.85,22.00,22.14,22.29,22.48,22.71,22.87,23.07,23.29,23.49,23.66,23.88,24.08,24.26,24.43,24.60,24.77,24.92,25.00,25.00,25.00,25.02,25.08,25.10,25.10,25.11,25.12,25.12,25.12,25.12,25.12
17.09,16.63,16.16,15.66,15.14,14.69,14.47,14.25,14.06,13.89,13.67,13.50,13.38,13.31,13.25,13.14,13.15,13.17,13.19,13.27,13.27,13.32,13.37,13.35,13.21,13.06,12.94,12.83,12.60,12.50,12.31,12.00,11.62,11.46,11.30,11.12,10.89,10.59,10.41,10.23,10.05,9.91,9.89,9.85,9.80,9.78,9.72,9.70,9.70,9.71,9.71,9.77,9.80,9.80,9.80,9.80,9.80,9.80,9.80,9.80,9.80,9.77,9.71,9.70,9.70,9.75,9.80,9.80,9.79,9.79,9.80,9.80,9.80,9.81,9.85,9.90,9.90,9.90,9.90,9.90,9.90,9.90,9.90,9.93,10.00,10.08,10.16,10.23,10.31,10.39,10.47,10.49,10.52,10.60,10.67,10.75,10.82,10.88,10.89,10.96,11.04,11.14,11.29,11.37,11.45,11.52,11.60,11.68,11.82,11.92,12.00,12.08,12.15,12.23,12.31,12.38,12.46,12.55,12.63,12.73,12.88,12.96,13.09,13.24,13.39,13.47,13.61,13.72,13.80,13.88,13.96,14.05,14.13,14.21,14.29,14.37,14.42,14.43,14.50,14.58,14.62,14.64,14.71,14.80,14.88,14.95,15.03,15.11,15.19,15.29,15.44,15.59,15.69,15.82,15.99,16.21,16.44,16.68,16.90,17.07,16.99,16.85,16.69,16.59,16.63,16.70,16.78,16.89,17.03,17.10,17.19,17.30,17.44,17.51,17.73,17.96,18.22,18.52,18.76,19.04,19.29,19.46,19.56,19.72,19.84,19.92,19.99,20.01,20.06,20.10,20.10,20.11,20.16,20.24,20.30,20.31,20.31,20.36,20.43,20.50,20.51,20.51,20.54,20.62,20.70,20.71,20.72,20.74,20.81,20.81,20.82,20.85,20.91,20.92,20.98,21.05,21.12,21.20,21.22,21.27,21.33,21.33,21.34,21.39,21.50,21.65,21.81,21.91,22.06,22.29,22.52,22.68,22.88,23.07,23.17,23.39,23.62,23.85,24.07,24.29,24.52,24.74,24.92,25.00,25.00,25.00,25.00,25.02,25.09,25.10,25.13,25.19,25.19,25.19,25.19,25.19
17.34,16.88,16.42,15.93,15.33,14.72,14.53,14.37,14.21,14.05,13.86,13.78,13.73,13.71,13.70,13.67,13.72,13.78,13.83,13.90,13.91,13.93,13.96,13.95,13.84,13.72,13.61,13.47,13.24,13.08,12.81,12.46,12.11,11.88,11.70,11.52,11.28,10.97,10.75,10.56,10.36,10.12,9.96,9.85,9.80,9.80,9.76,9.72,9.70,9.70,9.70,9.73,9.75,9.75,9.75,9.79,9.80,9.80,9.80,9.76,9.75,9.73,9.70,9.70,9.70,9.75,9.80,9.80,9.80,9.80,9.80,9.79,9.75,9.78,9.82,9.85,9.85,9.89,9.90,9.90,9.90,9.90,9.93,10.01,10.12,10.19,10.24,10.30,10.38,10.45,10.53,10.58,10.64,10.71,10.75,10.82,10.89,10.95,10.95,11.03,11.10,11.19,11.31,11.43,11.51,11.59,11.67,11.74,11.89,12.00,12.07,12.15,12.23,12.33,12.43,12.51,12.59,12.67,12.74,12.83,12.95,13.02,13.15,13.31,13.46,13.53,13.64,13.74,13.81,13.89,13.93,13.99,14.07,14.15,14.23,14.28,14.31,14.36,14.44,14.48,14.52,14.57,14.64,14.72,14.80,14.86,14.90,14.98,15.06,15.17,15.33,15.48,15.57,15.71,15.92,16.15,16.38,16.61,16.86,17.10,17.15,17.03,16.91,16.87,16.95,17.06,17.16,17.26,17.41,17.49,17.56,17.68,17.82,17.90,18.07,18.31,18.58,18.85,19.01,19.21,19.40,19.51,19.59,19.69,19.79,19.87,19.94,19.99,20.02,20.06,20.10,20.10,20.16,20.22,20.25,20.25,20.28,20.34,20.41,20.45,20.45,20.48,20.51,20.56,20.63,20.65,20.65,20.67,20.74,20.75,20.75,20.76,20.80,20.84,20.88,20.93,21.00,21.04,21.08,21.12,21.15,21.15,21.15,21.20,21.31,21.46,21.57,21.69,21.86,22.09,22.28,22.47,22.64,22.78,22.90,23.09,23.32,23.55,23.78,24.01,24.28,24.53,24.75,24.94,24.99,25.00,25.00,25.01,25.08,25.10,25.12,25.16,25.20,25.20,25.20,25.20
17.84,17.38,16.91,16.41,15.72,14.96,14.76,14.62,14.48,14.33,14.19,14.20,14.20,14.20,14.21,14.22,14.28,14.37,14.45,14.53,14.52,14.52,14.52,14.52,14.44,14.36,14.26,14.11,13.87,13.61,13.29,12.93,12.61,12.30,12.09,11.89,11.65,11.35,11.09,10.89,10.69,10.36,10.02,9.86,9.81,9.80,9.80,9.75,9.71,9.70,9.70,9.71,9.71,9.71,9.70,9.76,9.79,9.79,9.78,9.71,9.70,9.70,9.70,9.70,9.71,9.76,9.80,9.80,9.80,9.80,9.80,9.79,9.72,9.77,9.79,9.79,9.80,9.86,9.89,9.90,9.90,9.90,9.97,10.09,10.23,10.31,10.31,10.36,10.44,10.52,10.59,10.67,10.75,10.81,10.81,10.88,10.96,11.01,11.01,11.10,11.17,11.24,11.33,11.48,11.58,11.65,11.73,11.81,11.95,12.06,12.14,12.22,12.29,12.42,12.54,12.62,12.70,12.78,12.86,12.94,13.03,13.10,13.22,13.35,13.49,13.57,13.64,13.72,13.78,13.86,13.88,13.93,14.00,14.07,14.15,14.18,14.22,14.29,14.37,14.39,14.43,14.50,14.58,14.65,14.72,14.77,14.79,14.87,14.94,15.05,15.20,15.34,15.44,15.61,15.84,16.07,16.31,16.56,16.82,17.11,17.28,17.23,17.18,17.21,17.28,17.43,17.54,17.64,17.78,17.87,17.95,18.06,18.19,18.27,18.41,18.63,18.89,19.10,19.18,19.30,19.42,19.49,19.57,19.65,19.73,19.80,19.88,19.96,19.99,20.02,20.09,20.10,20.15,20.19,20.19,20.20,20.27,20.34,20.39,20.39,20.40,20.45,20.49,20.49,20.57,20.59,20.59,20.60,20.68,20.69,20.69,20.69,20.69,20.75,20.77,20.80,20.87,20.87,20.93,20.96,20.96,20.97,20.97,21.02,21.13,21.26,21.34,21.48,21.67,21.88,22.04,22.26,22.39,22.49,22.65,22.80,23.01,23.24,23.47,23.71,23.99,24.27,24.53,24.83,24.95,24.99,25.00,25.01,25.07,25.09,25.09,25.11,25.18,25.19,25.19,25.20
19.12,18.65,18.19,17.50,16.64,15.76,15.36,14.98,14.76,14.67,14.57,14.63,14.65,14.65,14.66,14.72,14.79,14.90,15.03,15.10,15.05,15.03,15.03,15.03,14.95,14.87,14.82,14.74,14.45,14.10,13.77,13.43,13.06,12.75,12.50,12.26,11.97,11.72,11.44,11.18,10.92,10.49,10.06,9.89,9.86,9.80,9.80,9.79,9.75,9.70,9.70,9.75,9.78,9.76,9.70,9.72,9.72,9.72,9.72,9.70,9.70,9.70,9.70,9.70,9.76,9.79,9.80,9.80,9.80,9.80,9.80,9.80,9.78,9.79,9.77,9.74,9.80,9.82,9.86,9.90,9.90,9.90,10.01,10.16,10.29,10.37,10.38,10.43,10.50,10.58,10.66,10.73,10.81,10.88,10.88,10.94,11.02,11.08,11.08,11.21,11.27,11.31,11.39,11.55,11.64,11.72,11.79,11.87,12.02,12.13,12.20,12.28,12.36,12.45,12.56,12.69,12.77,12.84,12.92,13.01,13.15,13.23,13.28,13.33,13.43,13.50,13.58,13.63,13.66,13.73,13.80,13.87,13.93,13.94,14.02,14.09,14.15,14.23,14.31,14.32,14.36,14.44,14.52,14.54,14.59,14.66,14.73,14.80,14.88,14.97,15.06,15.15,15.34,15.52,15.71,15.94,16.23,16.53,16.80,17.05,17.33,17.45,17.53,17.59,17.67,17.82,17.92,18.01,18.10,18.24,18.33,18.42,18.51,18.58,18.73,18.87,18.99,19.10,19.18,19.27,19.35,19.43,19.51,19.58,19.66,19.74,19.82,19.89,19.96,20.01,20.02,20.08,20.11,20.12,20.13,20.19,20.27,20.31,20.32,20.32,20.38,20.41,20.42,20.43,20.51,20.52,20.52,20.54,20.62,20.62,20.62,20.62,20.62,20.64,20.64,20.68,20.74,20.74,20.76,20.76,20.78,20.84,20.84,20.90,20.98,21.07,21.15,21.29,21.45,21.63,21.85,22.02,22.13,22.24,22.39,22.54,22.76,22.99,23.22,23.45,23.70,24.00,24.33,24.58,24.84,24.96,25.00,25.00,25.02,25.02,25.05,25.10,25.12,25.12,25.16,25.22
19.89,19.55,19.22,18.65,17.84,16.92,16.42,15.89,15.55,15.36,15.22,15.29,15.29,15.27,15.27,15.28,15.35,15.45,15.55,15.60,15.50,15.42,15.37,15.37,15.29,15.24,15.18,15.08,14.81,14.47,14.12,13.77,13.42,13.08,12.77,12.46,12.16,11.86,11.55,11.25,10.92,10.45,10.05,9.90,9.89,9.84,9.81,9.80,9.78,9.74,9.70,9.74,9.78,9.79,9.74,9.74,9.72,9.70,9.70,9.70,9.70,9.70,9.71,9.74,9.78,9.80,9.80,9.80,9.80,9.80,9.80,9.80,9.84,9.81,9.78,9.75,9.80,9.77,9.81,9.86,9.86,9.93,10.04,10.18,10.32,10.43,10.44,10.49,10.57,10.64,10.72,10.80,10.88,10.94,10.94,11.01,11.09,11.15,11.18,11.30,11.34,11.37,11.45,11.61,11.70,11.78,11.86,11.93,12.05,12.17,12.27,12.34,12.42,12.50,12.59,12.71,12.79,12.86,12.94,13.02,13.11,13.19,13.24,13.29,13.36,13.44,13.49,13.53,13.57,13.65,13.73,13.78,13.82,13.86,13.93,14.01,14.08,14.12,14.20,14.24,14.30,14.37,14.41,14.45,14.51,14.58,14.66,14.70,14.77,14.85,14.93,15.01,15.22,15.42,15.64,15.90,16.21,16.49,16.77,17.04,17.34,17.55,17.68,17.76,17.84,17.96,18.05,18.13,18.21,18.33,18.42,18.49,18.57,18.65,18.76,18.86,18.94,19.01,19.09,19.17,19.25,19.33,19.44,19.52,19.60,19.67,19.75,19.83,19.91,19.97,20.00,20.05,20.06,20.07,20.11,20.15,20.22,20.26,20.27,20.30,20.34,20.36,20.37,20.40,20.45,20.46,20.46,20.47,20.51,20.54,20.56,20.56,20.56,20.56,20.56,20.56,20.57,20.57,20.60,20.61,20.63,20.67,20.67,20.72,20.80,20.88,20.96,21.07,21.22,21.41,21.61,21.74,21.85,21.97,22.09,22.28,22.50,22.73,22.96,23.20,23.46,23.75,24.06,24.32,24.60,24.78,24.91,25.00,25.00,25.00,25.02,25.06,25.10,25.10,25.15,25.21
20.37,20.21,20.06,19.74,19.10,18.22,17.68,17.06,16.58,16.24,16.01,16.08,16.04,15.98,15.97,15.88,15.92,15.99,16.05,16.05,15.90,15.74,15.64,15.63,15.55,15.52,15.43,15.26,15.03,14.72,14.36,13.99,13.67,13.28,12.90,12.55,12.23,11.84,11.52,11.17,10.78,10.32,10.01,9.90,9.90,9.90,9.83,9.80,9.80,9.79,9.72,9.70,9.74,9.79,9.80,9.80,9.75,9.71,9.71,9.70,9.70,9.70,9.72,9.79,9.80,9.80,9.80,9.80,9.80,9.80,9.80,9.81,9.89,9.84,9.81,9.81,9.80,9.73,9.76,9.80,9.81,9.97,10.06,10.18,10.33,10.49,10.50,10.55,10.63,10.71,10.79,10.86,10.94,11.01,11.01,11.07,11.15,11.23,11.30,11.38,11.41,11.44,11.52,11.67,11.76,11.84,11.92,12.00,12.08,12.20,12.32,12.40,12.47,12.55,12.63,12.70,12.78,12.86,12.93,12.99,12.99,13.07,13.14,13.22,13.29,13.37,13.39,13.43,13.51,13.58,13.66,13.69,13.72,13.79,13.87,13.94,13.99,14.00,14.08,14.15,14.23,14.29,14.29,14.37,14.44,14.51,14.59,14.59,14.65,14.73,14.80,14.88,15.10,15.33,15.59,15.89,16.20,16.46,16.73,17.04,17.34,17.58,17.73,17.81,17.89,17.97,18.04,18.12,18.20,18.27,18.35,18.43,18.51,18.58,18.66,18.74,18.82,18.89,18.97,19.05,19.12,19.21,19.36,19.45,19.53,19.61,19.69,19.77,19.84,19.92,19.99,19.99,20.00,20.03,20.09,20.10,20.16,20.19,20.21,20.29,20.29,20.30,20.33,20.39,20.39,20.39,20.39,20.39,20.39,20.46,20.49,20.49,20.49,20.49,20.49,20.46,20.39,20.39,20.45,20.48,20.48,20.48,20.48,20.54,20.61,20.69,20.76,20.84,20.99,21.21,21.36,21.44,21.57,21.70,21.78,22.01,22.24,22.47,22.70,22.94,23.23,23.50,23.75,24.06,24.29,24.51,24.74,24.96,24.98,24.99,25.00,25.01,25.09,25.10,25.14,25.19
20.61,20.40,20.25,20.04,19.74,19.30,18.71,18.04,17.57,17.27,17.03,17.05,16.93,16.78,16.66,16.53,16.48,16.51,16.55,16.50,16.30,16.13,16.01,15.95,15.87,15.69,15.48,15.25,14.97,14.57,14.14,13.70,13.28,12.84,12.52,12.23,11.91,11.52,11.20,10.88,10.53,10.12,9.95,9.90,9.90,9.90,9.88,9.83,9.80,9.80,9.77,9.72,9.71,9.74,9.80,9.80,9.78,9.77,9.77,9.71,9.70,9.73,9.78,9.80,9.80,9.80,9.80,9.80,9.80,9.80,9.80,9.81,9.89,9.88,9.87,9.86,9.80,9.78,9.79,9.80,9.81,9.97,10.10,10.22,10.33,10.49,10.55,10.62,10.70,10.77,10.85,10.93,11.00,11.07,11.07,11.14,11.21,11.29,11.37,11.44,11.51,11.55,11.58,11.68,11.80,11.91,11.99,12.06,12.14,12.23,12.32,12.40,12.42,12.48,12.56,12.64,12.72,12.79,12.84,12.87,12.93,13.00,13.08,13.14,13.16,13.24,13.30,13.37,13.43,13.46,13.53,13.59,13.65,13.73,13.81,13.85,13.88,13.94,14.02,14.05,14.10,14.17,14.23,14.30,14.34,14.39,14.46,14.52,14.59,14.64,14.68,14.81,15.03,15.30,15.57,15.83,16.14,16.43,16.73,17.03,17.28,17.52,17.67,17.75,17.82,17.90,17.98,18.06,18.13,18.21,18.29,18.37,18.44,18.52,18.60,18.67,18.75,18.83,18.91,18.98,19.06,19.14,19.24,19.32,19.43,19.55,19.62,19.70,19.78,19.84,19.86,19.92,19.97,20.01,20.04,20.09,20.12,20.13,20.15,20.23,20.23,20.27,20.31,20.33,20.33,20.33,20.33,20.33,20.33,20.35,20.39,20.43,20.43,20.43,20.43,20.39,20.32,20.27,20.28,20.29,20.29,20.29,20.34,20.37,20.42,20.49,20.51,20.62,20.78,20.95,21.10,21.19,21.31,21.44,21.52,21.70,21.92,22.15,22.39,22.68,22.93,23.21,23.48,23.74,23.92,24.10,24.31,24.59,24.75,24.92,25.00,25.00,25.03,25.08,25.11,25.15
20.71,20.56,20.41,20.25,20.09,19.86,19.40,18.83,18.43,18.19,17.99,17.91,17.72,17.52,17.36,17.18,17.08,17.03,16.98,16.85,16.62,16.42,16.25,16.09,15.96,15.70,15.41,15.14,14.78,14.30,13.83,13.37,12.90,12.41,12.08,11.83,11.59,11.20,10.88,10.58,10.30,9.99,9.92,9.90,9.90,9.90,9.90,9.84,9.80,9.80,9.80,9.76,9.72,9.71,9.76,9.79,9.80,9.80,9.80,9.74,9.73,9.76,9.80,9.80,9.80,9.80,9.80,9.80,9.80,9.80,9.81,9.84,9.89,9.90,9.90,9.89,9.84,9.83,9.82,9.80,9.81,9.97,10.12,10.25,10.36,10.49,10.59,10.68,10.76,10.84,10.91,10.99,11.07,11.13,11.13,11.18,11.23,11.28,11.36,11.44,11.52,11.59,11.64,11.69,11.80,11.90,11.98,12.06,12.13,12.20,12.25,12.33,12.36,12.42,12.50,12.57,12.62,12.70,12.75,12.78,12.86,12.94,13.00,13.04,13.07,13.15,13.23,13.29,13.34,13.36,13.43,13.51,13.58,13.63,13.71,13.75,13.80,13.87,13.92,13.95,14.01,14.08,14.16,14.21,14.25,14.29,14.37,14.42,14.49,14.56,14.63,14.78,14.98,15.25,15.54,15.80,16.11,16.40,16.69,16.99,17.22,17.43,17.59,17.68,17.76,17.84,17.92,17.99,18.07,18.15,18.22,18.30,18.38,18.46,18.53,18.61,18.69,18.76,18.84,18.92,19.00,19.07,19.15,19.23,19.33,19.45,19.53,19.60,19.68,19.74,19.77,19.85,19.92,19.98,20.01,20.06,20.07,20.08,20.11,20.16,20.17,20.22,20.27,20.27,20.27,20.27,20.27,20.27,20.27,20.27,20.30,20.34,20.37,20.37,20.35,20.31,20.25,20.18,20.17,20.15,20.13,20.13,20.18,20.20,20.23,20.30,20.30,20.42,20.56,20.69,20.82,20.92,21.04,21.16,21.27,21.42,21.63,21.86,22.11,22.42,22.66,22.92,23.18,23.39,23.52,23.68,23.91,24.21,24.44,24.63,24.78,24.88,24.99,25.05,25.08,25.12
20.70,20.69,20.53,20.38,20.19,19.97,19.81,19.45,19.19,19.04,18.88,18.65,18.42,18.22,18.06,17.83,17.72,17.57,17.34,17.11,16.88,16.65,16.39,16.09,15.86,15.57,15.26,14.93,14.47,13.94,13.44,12.98,12.52,11.98,11.60,11.38,11.27,10.88,10.56,10.29,10.07,9.91,9.90,9.90,9.90,9.90,9.90,9.84,9.80,9.80,9.80,9.80,9.76,9.70,9.70,9.78,9.80,9.80,9.80,9.80,9.80,9.80,9.80,9.80,9.80,9.80,9.80,9.80,9.80,9.80,9.83,9.90,9.90,9.90,9.90,9.90,9.90,9.90,9.85,9.80,9.81,9.97,10.12,10.28,10.41,10.49,10.64,10.75,10.82,10.90,10.98,11.05,11.13,11.20,11.20,11.20,11.20,11.22,11.30,11.38,11.45,11.56,11.70,11.70,11.76,11.84,11.92,11.99,12.07,12.10,12.13,12.20,12.28,12.36,12.43,12.50,12.50,12.57,12.64,12.72,12.80,12.88,12.90,12.93,13.01,13.08,13.16,13.20,13.22,13.29,13.37,13.45,13.50,13.50,13.58,13.66,13.73,13.80,13.80,13.87,13.94,14.02,14.10,14.10,14.15,14.23,14.30,14.30,14.36,14.47,14.63,14.78,14.94,15.18,15.49,15.80,16.11,16.36,16.63,16.93,17.16,17.33,17.48,17.62,17.70,17.77,17.85,17.93,18.01,18.08,18.16,18.24,18.31,18.39,18.47,18.55,18.62,18.70,18.78,18.86,18.93,19.01,19.09,19.16,19.24,19.32,19.40,19.47,19.55,19.63,19.71,19.78,19.86,19.94,20.00,20.00,20.00,20.05,20.10,20.10,20.10,20.15,20.20,20.20,20.20,20.20,20.20,20.20,20.20,20.20,20.20,20.23,20.30,20.30,20.24,20.20,20.19,20.11,20.10,20.06,20.00,20.00,20.00,20.00,20.03,20.10,20.10,20.23,20.34,20.42,20.50,20.65,20.75,20.86,21.01,21.17,21.38,21.61,21.85,22.16,22.40,22.64,22.85,23.00,23.09,23.27,23.53,23.83,24.06,24.17,24.36,24.67,24.97,25.00,25.05,25.10
