72.93,69.29,65.96,62.44,58.71,54.87,51.03,47.34,44.37,41.42,38.50,35.78,32.07,27.16,22.08,17.71,14.96,12.37,10.54,9.57,9.27,8.91,8.35,7.53,6.45,5.34,4.33,3.61,3.23,2.97,2.93,2.89,2.82,2.79,2.76,2.38,1.82,1.24,0.79,e,e,e,e,e,e,e,e,e,e,e,e,e,e,e,e,e,e,e,e,e,e,e,e,e,e,e,e,e,e,e,e,e,e,e,e,e,e,e,e,e,e,e,e,e,e,e,e,e,e,e,e,e,e,e,e,e,e,e,e,e,e,e,e,e,e,e,e,e,e,e,e,e,e,e,e,e,e,e,e,e,e,e,e,e,e,e,e,e,e,e,e,e,e,e,e,e,e,e,e,e,e,e,e,e,e,e,e,e,e,e,e,e,e,e,e,e,e,e,e,e,e,e,e,e,e,e,e,e,e,e,e,e,e,e,e,e,e,e,e,e,e,e,e,e,e,e,e,e,e,e,e,e,e,e,e,e,e,e,e,e,e,e,e,e,e,e,e,e,e,e,e,e,e,e,e,e,e,e,e,e,e,e,e,e,e,e,e,e,e,e,e,e,e,e,e,e,e,e,e,e,e,e,e,e,e,e,e,e,e,e,e,e,e,e,e,e
69.63,66.55,63.59,60.14,56.32,52.34,48.30,44.27,41.14,38.36,35.73,33.08,28.91,23.10,18.18,15.62,12.92,10.77,9.63,9.32,9.01,8.70,8.25,7.53,6.44,5.29,4.49,3.98,3.72,3.64,3.63,3.59,3.51,3.43,3.59,3.27,2.73,2.21,1.91,1.62,1.00,e,e,e,e,e,e,e,e,e,e,e,e,e,e,e,e,e,e,e,e,e,e,e,e,e,e,e,e,e,e,e,e,e,e,e,e,e,e,e,e,e,e,e,e,e,e,e,e,e,e,e,e,e,e,e,e,e,e,e,e,e,e,e,e,e,e,e,e,e,e,e,e,e,e,e,e,e,e,e,e,e,e,e,e,e,e,e,e,e,e,e,e,e,e,e,e,e,e,e,e,e,e,e,e,e,e,e,e,e,e,e,e,e,e,e,e,e,e,e,e,e,e,e,e,e,e,e,e,e,e,e,e,e,e,e,e,e,e,e,e,e,e,e,e,e,e,e,e,e,e,e,e,e,e,e,e,e,e,e,e,e,e,e,e,e,e,e,e,e,e,e,e,e,e,e,e,e,e,e,e,e,e,e,e,e,e,e,e,e,e,e,e,e,e,e,e,e,e,e,e,e,e,e,e,e,e,e,e,e,e,e,e,e,e,e
66.69,63.84,61.00,57.93,54.36,50.31,45.87,41.38,38.50,35.90,33.19,30.15,24.07,19.57,16.25,13.66,11.22,10.03,9.44,9.13,8.82,8.51,8.15,7.51,6.38,5.33,4.78,4.50,4.36,4.34,4.29,4.25,4.21,4.14,4.39,4.13,3.62,3.12,2.97,3.02,2.60,e,e,e,e,e,e,e,e,e,e,e,e,e,e,e,e,e,e,e,e,e,e,e,e,e,e,e,e,e,e,e,e,e,e,e,e,e,e,e,e,e,e,e,e,e,e,e,e,e,e,e,e,e,e,e,e,e,e,e,e,e,e,e,e,e,e,e,e,e,e,e,e,e,e,e,e,e,e,e,e,e,e,e,e,e,e,e,e,e,e,e,e,e,e,e,e,e,e,e,e,e,e,e,e,e,e,e,e,e,e,e,e,e,e,e,e,e,e,e,e,e,e,e,e,e,e,e,e,e,e,e,e,e,e,e,e,e,e,e,e,e,e,e,e,e,e,e,e,e,e,e,e,e,e,e,e,e,e,e,e,e,e,e,e,e,e,e,e,e,e,e,e,e,e,e,e,e,e,e,e,e,e,e,e,e,e,e,e,e,e,e,e,e,e,e,e,e,e,e,e,e,e,e,e,e,e,e,e,e,e,e,e,e,e,e
63.74,61.05,58.36,55.53,52.12,47.96,43.25,39.06,36.29,33.72,30.58,26.03,20.45,17.04,14.53,12.02,10.16,9.56,9.24,8.91,8.60,8.31,8.01,7.44,6.36,5.55,5.22,5.10,5.04,5.04,4.97,4.94,4.92,4.84,5.12,4.97,4.54,4.03,4.02,4.33,4.10,3.27,2.34,1.52,e,e,e,e,e,e,0.93,0.90,e,e,0.94,1.00,1.23,e,e,1.35,1.98,2.56,2.77,2.66,2.72,2.14,1.34,e,e,e,e,e,e,e,e,e,e,e,e,e,e,e,e,e,e,e,e,e,e,e,e,e,e,e,e,e,e,e,e,e,e,e,e,e,e,e,e,e,e,e,e,e,e,e,e,e,e,e,e,e,e,e,e,e,e,e,e,e,e,e,e,e,e,e,e,e,e,e,e,e,e,e,e,e,e,e,e,e,e,e,e,e,e,e,e,e,e,e,e,e,e,e,e,e,e,e,e,e,e,e,e,e,e,e,e,e,e,e,e,e,e,e,e,e,e,e,e,e,e,e,e,e,e,e,e,e,e,e,e,e,e,e,e,e,e,e,e,e,e,e,e,e,e,e,e,e,e,e,e,e,e,e,e,e,e,e,e,e,e,e,e,e,e,e,e,e,e,e,e,e,e,e,e,e,e,e,e,e,e,e,e,e,e,e,e,e
60.77,58.19,55.68,52.90,49.58,45.29,40.43,37.32,34.52,31.84,27.89,20.63,18.15,15.59,13.03,10.72,9.79,9.37,9.02,8.65,8.34,8.10,7.82,7.30,6.38,5.96,5.85,5.80,5.74,5.74,5.67,5.64,5.62,5.54,5.77,5.78,5.48,4.94,5.08,5.53,5.50,4.86,3.94,3.35,e,e,e,e,e,e,2.50,2.71,e,e,2.76,2.48,2.84,e,e,3.23,4.21,4.78,4.94,4.79,4.65,3.87,2.94,e,e,e,e,e,e,e,e,e,e,e,e,e,e,e,e,e,e,e,e,e,e,e,e,e,e,e,e,e,e,e,e,e,e,e,e,e,e,e,e,e,e,e,e,e,e,e,e,e,e,e,e,e,e,e,e,e,e,e,e,e,e,e,e,e,e,e,e,e,e,e,e,e,e,e,e,e,e,e,e,e,e,e,e,e,e,e,e,e,e,e,e,e,e,e,e,e,e,e,e,e,e,e,e,e,e,e,e,e,e,e,e,e,e,e,e,e,e,e,e,e,e,e,e,e,e,e,e,e,e,e,e,e,e,e,e,e,e,e,e,e,e,e,e,e,e,e,e,e,e,e,e,e,e,e,e,e,e,e,e,e,e,e,e,e,e,e,e,e,e,e,e,e,e,e,e,e,e,e,e,e,e,e,e,e,e,e,e,e
57.83,55.33,52.87,49.82,46.24,42.27,38.27,35.30,32.42,28.93,24.57,19.15,17.05,14.85,12.48,10.18,9.64,9.25,8.88,8.51,8.20,7.93,7.63,7.26,6.80,6.59,6.54,6.51,6.44,6.44,6.38,6.34,6.32,6.24,6.43,6.55,6.39,5.90,6.19,6.65,6.80,6.48,5.64,5.54,5.35,4.82,e,e,e,3.14,4.34,4.67,4.56,4.60,4.66,4.30,4.54,4.51,4.64,5.25,6.17,6.87,7.06,6.78,6.35,5.33,4.16,2.89,e,e,e,e,e,e,e,e,e,e,e,e,e,e,e,e,e,e,e,e,e,e,e,e,e,e,e,e,e,e,e,e,e,e,e,e,e,e,e,e,e,e,e,e,e,e,e,e,e,e,e,e,e,e,e,e,e,e,e,e,e,e,e,e,e,e,e,e,e,e,e,e,e,e,e,e,e,e,e,e,e,e,e,e,e,e,e,e,e,e,e,e,e,e,e,e,e,e,e,e,e,e,e,e,e,e,e,e,e,e,e,e,e,e,e,e,e,e,e,e,e,e,e,e,e,e,e,e,e,e,e,e,e,e,e,e,e,e,e,e,e,e,e,e,e,e,e,e,e,e,e,e,e,e,e,e,e,e,e,e,e,e,e,e,e,e,e,e,e,e,e,e,e,e,e,e,e,e,e,e,e,e,e,e,e,e,e,e
54.90,52.51,50.18,46.85,43.17,39.49,36.02,33.00,29.83,25.87,21.67,18.21,16.19,14.18,12.04,9.93,9.59,9.22,8.86,8.52,8.23,7.91,7.61,7.38,7.23,7.19,7.20,7.19,7.14,7.12,7.07,7.03,7.01,6.95,7.08,7.31,7.28,6.90,7.30,7.75,8.07,8.12,7.69,7.97,7.91,7.38,6.37,5.30,4.96,5.39,6.32,6.70,6.72,6.69,6.56,6.18,6.25,6.34,6.63,7.32,8.68,9.63,9.69,8.92,7.93,6.68,5.32,3.93,2.62,0.65,e,e,e,e,e,e,e,e,e,e,e,e,e,e,e,e,e,e,e,e,e,e,e,e,e,e,e,e,e,e,e,e,e,e,e,e,e,e,e,e,e,e,e,e,e,e,e,e,e,e,e,e,e,e,e,e,e,e,e,e,e,e,e,e,e,e,e,e,e,e,e,e,e,e,e,e,e,e,e,e,e,e,e,e,e,e,e,e,e,e,e,e,e,e,e,e,e,e,e,e,e,e,e,e,e,e,e,e,e,e,e,e,e,e,e,e,e,e,e,e,e,e,e,e,e,e,e,e,e,e,e,e,e,e,e,e,e,e,e,e,e,e,e,e,e,e,e,e,e,e,e,e,e,e,e,e,e,e,e,e,e,e,e,e,e,e,e,e,e,e,e,e,e,e,e,e,e,e,e,e,e,e,e,e,e,e
52.00,49.76,47.74,44.16,40.76,37.21,33.49,30.22,26.37,22.71,19.64,17.56,15.55,13.54,11.66,10.11,9.67,9.33,9.04,8.79,8.55,8.18,7.93,7.76,7.62,7.67,7.79,7.86,7.84,7.77,7.75,7.71,7.66,7.65,7.73,8.01,8.12,7.92,8.38,8.84,9.31,9.80,10.36,10.81,10.66,9.99,9.00,8.17,7.90,8.06,8.49,8.87,8.97,8.82,8.48,8.09,7.97,8.16,8.61,9.43,12.28,13.68,13.27,11.38,9.30,7.87,6.40,4.83,3.12,1.06,e,e,e,e,e,e,e,e,e,e,e,e,e,e,e,e,e,e,e,e,e,e,e,e,e,e,e,e,e,e,e,e,e,e,e,e,e,e,e,e,e,e,e,e,e,e,e,e,e,e,e,e,e,e,e,e,e,e,e,e,e,e,e,e,e,e,e,e,e,e,e,e,e,e,e,e,e,e,e,e,e,e,e,e,e,e,e,e,e,e,e,e,e,e,e,e,e,e,e,e,e,e,e,e,e,e,e,e,e,e,e,e,e,e,e,e,e,e,e,e,e,e,e,e,e,e,e,e,e,e,e,e,e,e,e,e,e,e,e,e,e,e,e,e,e,e,e,e,e,e,e,e,e,e,e,e,e,e,e,e,e,e,e,e,e,e,e,e,e,e,e,e,e,e,e,e,e,e,e,e,e,e,e,e,e,e
49.44,47.27,44.97,41.49,38.34,34.98,31.35,28.11,24.39,21.16,18.68,17.02,15.16,13.42,11.90,10.72,10.03,9.59,9.30,9.09,8.82,8.51,8.30,8.13,7.95,8.03,8.17,8.27,8.31,8.34,8.42,8.40,8.35,8.35,8.39,8.67,8.91,9.03,9.84,10.74,11.73,12.76,13.77,14.66,14.80,14.44,13.97,13.43,13.29,13.43,13.73,13.96,13.89,13.58,13.06,12.41,12.62,14.35,16.65,18.68,20.27,18.96,16.58,13.83,10.90,8.92,7.12,5.36,3.54,1.61,e,e,e,e,e,e,e,e,e,e,e,e,e,e,e,e,e,e,e,e,e,e,e,e,e,e,e,e,e,e,e,e,e,e,e,e,e,e,e,e,e,e,e,e,e,e,e,e,e,e,e,e,e,e,e,e,e,e,e,e,e,e,e,e,e,e,e,e,e,e,e,e,e,e,e,e,e,e,e,e,e,e,e,e,e,e,e,e,e,e,e,e,e,e,e,e,e,e,e,e,e,e,e,e,e,e,e,e,e,e,e,e,e,e,e,e,e,e,e,e,e,e,e,e,e,e,e,e,e,e,e,e,e,e,e,e,e,e,e,e,e,e,e,e,e,e,e,e,e,e,e,e,e,e,e,e,e,e,e,e,e,e,e,e,e,e,e,e,e,e,e,e,e,e,e,e,e,e,e,e,e,e,e,e,e,e
47.04,44.89,42.16,38.91,36.00,32.95,29.63,26.41,22.97,20.19,18.13,16.59,15.01,13.62,12.46,11.52,10.58,9.97,9.61,9.39,9.09,8.85,8.67,8.49,8.29,8.35,8.48,8.60,8.69,8.85,8.99,9.03,9.00,9.02,9.04,9.47,10.03,10.59,11.75,13.09,14.58,16.08,17.36,18.65,19.19,19.28,19.37,19.20,19.31,19.56,19.84,19.97,19.77,19.37,18.83,18.20,18.94,21.94,25.63,28.47,27.95,23.79,19.49,15.97,12.47,9.96,7.84,5.94,4.12,2.48,1.53,e,e,e,e,e,e,e,e,e,e,e,e,e,e,e,e,e,e,e,e,e,e,e,e,e,e,e,e,e,e,e,e,e,e,e,e,e,e,e,e,e,e,e,e,e,e,e,e,e,e,e,e,e,e,e,e,e,e,e,e,e,e,e,e,e,e,e,e,e,e,e,e,e,e,e,e,e,e,e,e,e,e,e,e,e,e,e,e,e,e,e,e,e,e,e,e,e,e,e,e,e,e,e,e,e,e,e,e,e,e,e,e,e,e,e,e,e,e,e,e,e,e,e,e,e,e,e,e,e,e,e,e,e,e,e,e,e,e,e,e,e,e,e,e,e,e,e,e,e,e,e,e,e,e,e,e,e,e,e,e,e,e,e,e,e,e,e,e,e,e,e,e,e,e,e,e,e,e,e,e,e,e,e,e,e
44.87,42.60,39.56,36.60,33.99,31.56,29.01,25.55,22.07,19.64,18.00,16.46,15.47,14.50,13.52,12.54,11.55,10.65,10.02,9.65,9.41,9.17,8.99,8.83,8.67,8.68,8.80,8.92,9.01,9.17,9.27,9.37,9.48,9.60,9.72,10.89,12.41,13.72,14.88,16.22,17.75,19.38,20.85,22.07,23.07,23.72,23.93,24.40,25.11,25.69,26.01,26.38,26.43,26.22,26.16,26.91,28.41,30.19,31.92,32.97,30.03,25.74,21.19,16.98,13.73,11.15,8.96,7.07,5.42,4.42,3.60,e,e,e,e,e,e,e,e,e,e,e,e,e,e,e,e,e,e,e,e,e,e,e,e,e,e,e,e,e,e,e,e,e,e,e,e,e,e,e,e,e,e,e,e,e,e,e,e,e,e,e,e,e,e,e,e,e,e,e,e,e,e,e,e,e,e,e,e,e,e,e,e,e,e,e,e,e,e,e,e,e,e,e,e,e,e,e,e,e,e,e,e,e,e,e,e,e,e,e,e,e,e,e,e,e,e,e,e,e,e,e,e,e,e,e,e,e,e,e,e,e,e,e,e,e,e,e,e,e,e,e,e,e,e,e,e,e,e,e,e,e,e,e,e,e,e,e,e,e,e,e,e,e,e,e,e,e,e,e,e,e,e,e,e,e,e,e,e,e,e,e,e,e,e,e,e,e,e,e,e,e,e,e,e,e
42.66,40.33,37.72,35.28,33.04,30.96,28.71,25.16,21.98,19.78,18.34,17.12,16.34,15.53,14.64,13.64,12.63,11.66,10.86,10.27,9.78,9.50,9.31,9.17,9.05,9.05,9.14,9.24,9.33,9.49,9.57,9.97,10.63,11.36,12.09,13.68,15.51,17.04,18.11,19.38,20.88,22.52,24.07,25.32,26.54,27.55,28.14,28.83,29.69,30.43,30.94,31.38,31.94,32.60,33.42,34.49,35.60,36.28,36.19,34.92,31.10,26.65,22.11,17.96,15.02,12.55,10.37,8.56,7.24,6.47,5.58,4.48,e,e,e,e,e,e,e,e,e,e,e,e,e,e,e,e,e,e,e,e,e,e,e,e,e,e,e,e,e,e,e,e,e,e,e,e,e,e,e,e,e,e,e,e,e,e,e,e,e,e,e,e,e,e,e,e,e,e,e,e,e,e,e,e,e,e,e,e,e,e,e,e,e,e,e,e,e,e,e,e,e,e,e,e,e,e,e,e,e,e,e,e,e,e,e,e,e,e,e,e,e,e,e,e,e,e,e,e,e,e,e,e,e,e,e,e,e,e,e,e,e,e,e,e,e,e,e,e,e,e,e,e,e,e,e,e,e,e,e,e,e,e,e,e,e,e,e,e,e,e,e,e,e,e,e,e,e,e,e,e,e,e,e,e,e,e,e,e,e,e,e,e,e,e,e,e,e,e,e,e,e,e,e,e
40.55,38.24,36.41,34.55,32.69,30.81,28.62,25.14,22.45,20.42,19.01,18.19,17.42,16.65,15.79,14.79,13.79,12.85,11.96,11.12,10.28,9.92,9.70,9.55,9.45,9.44,9.50,9.59,9.71,9.89,10.02,10.82,12.21,13.78,15.34,17.16,18.94,20.42,21.37,22.54,23.98,25.59,27.16,28.52,29.85,31.08,32.11,32.79,33.54,34.34,35.12,35.54,36.72,38.50,40.27,41.09,41.24,40.91,39.18,35.57,31.72,27.16,22.79,19.08,16.49,14.24,12.12,10.42,9.47,8.65,7.61,6.50,5.58,5.63,6.05,5.34,3.53,1.30,1.93,e,e,e,e,e,e,e,e,e,e,e,e,e,e,e,e,e,e,e,e,e,e,e,e,e,e,e,e,e,e,e,e,e,e,e,e,e,e,e,e,e,e,e,e,e,e,e,e,e,e,e,e,e,e,e,e,e,e,e,e,e,e,e,e,e,e,e,e,e,e,e,e,e,e,e,e,e,e,e,e,e,e,e,e,e,e,e,e,e,e,e,e,e,e,e,e,e,e,e,e,e,e,e,e,e,e,e,e,e,e,e,e,e,e,e,e,e,e,e,e,e,e,e,e,e,e,e,e,e,e,e,e,e,e,e,e,e,e,e,e,e,e,e,e,e,e,e,e,e,e,e,e,e,e,e,e,e,e,e,e,e,e,e,e,e,e,e,e,e,e,e,e,e,e,e,e,e
39.78,38.04,36.53,34.57,32.69,30.83,28.83,26.24,24.22,22.32,20.58,19.22,18.49,17.77,16.96,16.01,15.00,14.06,13.23,12.47,11.68,11.23,10.88,10.50,10.02,9.91,10.02,10.30,10.72,11.25,11.80,12.89,14.44,16.20,18.01,19.90,21.68,23.19,24.33,25.55,27.01,28.71,30.52,32.22,33.74,34.90,35.55,36.09,36.72,37.47,38.31,39.13,40.28,41.78,43.16,43.59,43.54,42.40,40.24,37.18,33.48,29.38,25.38,21.92,19.78,17.79,15.91,14.28,13.03,11.67,10.77,9.86,8.85,8.55,8.38,7.63,6.43,5.29,5.38,e,e,e,e,e,e,e,e,e,e,e,e,e,e,e,e,e,e,e,e,e,e,e,e,e,e,e,e,e,e,e,e,e,e,e,e,e,e,e,e,e,e,e,e,e,e,e,e,e,e,e,e,e,e,e,e,e,e,e,e,e,e,e,e,e,e,e,e,e,e,e,e,e,e,e,e,e,e,e,e,e,e,e,e,e,e,e,e,e,e,e,e,e,e,e,e,e,e,e,e,e,e,e,e,e,e,e,e,e,e,e,e,e,e,e,e,e,e,e,e,e,e,e,e,e,e,e,e,e,e,e,e,e,e,e,e,e,e,e,e,e,e,e,e,e,e,e,e,e,e,e,e,e,e,e,e,e,e,e,e,e,e,e,e,e,e,e,e,e,e,e,e,e,e,e,e,e
40.66,39.46,38.40,36.96,35.24,33.23,30.93,28.31,26.41,24.55,22.71,21.03,19.95,19.00,18.10,17.19,16.21,15.33,14.56,13.88,13.20,12.75,12.44,12.10,11.58,11.45,11.55,11.87,12.36,13.00,13.74,14.87,16.41,18.26,20.24,22.22,24.04,25.59,26.98,28.74,30.64,32.58,34.43,36.29,37.74,38.72,39.23,39.75,40.34,41.04,41.87,42.87,43.83,44.98,45.97,46.15,45.78,44.13,41.51,38.26,34.71,31.50,28.61,26.14,24.41,22.57,20.65,18.58,16.27,14.64,13.54,12.50,11.42,10.96,10.49,9.90,9.21,8.57,8.30,7.37,6.09,4.85,4.16,3.75,3.17,2.60,3.05,e,e,e,e,e,e,e,e,e,e,e,e,e,e,e,e,e,e,e,e,e,e,e,e,e,e,e,e,e,e,e,e,e,e,e,e,e,e,e,e,e,e,e,e,e,e,e,e,e,e,e,e,e,e,e,e,e,e,e,e,e,e,e,e,e,e,e,e,e,e,e,e,e,e,e,e,e,e,e,e,e,e,e,e,e,e,e,e,e,e,e,e,e,e,e,e,e,e,e,e,e,e,e,e,e,e,e,e,e,e,e,e,e,e,e,e,e,e,e,e,e,e,e,e,e,e,e,e,e,e,e,e,e,e,e,e,e,e,e,e,e,e,e,e,e,e,e,e,e,e,e,e,e,e,e,e,e,e,e,e,e,e,e,e,e,e,e,e,e
43.08,42.39,41.91,41.55,40.16,37.87,34.80,31.30,28.98,27.09,25.36,23.59,21.77,20.32,19.20,18.34,17.41,16.67,15.97,15.32,14.85,14.46,14.35,14.31,14.07,13.99,14.03,14.22,14.58,15.12,15.80,16.77,18.13,19.98,22.06,24.14,26.04,27.67,29.35,32.12,34.85,37.14,38.85,40.69,41.83,42.52,43.13,43.74,44.36,45.01,45.76,46.77,47.39,48.08,48.69,48.77,47.96,46.07,42.98,38.85,35.45,33.53,32.44,31.65,30.32,28.51,26.28,23.28,19.20,17.58,15.93,14.46,13.34,12.87,12.41,12.14,11.88,11.19,10.73,10.09,9.40,8.73,7.89,7.18,6.74,6.35,5.12,e,e,e,e,e,e,e,e,e,e,e,e,e,e,e,e,e,e,e,e,e,e,e,e,e,e,e,e,e,e,e,e,e,e,e,e,e,e,e,e,e,e,e,e,e,e,e,e,e,e,e,e,e,e,e,e,e,e,e,e,e,e,e,e,e,e,e,e,e,e,e,e,e,e,e,e,e,e,e,e,e,e,e,e,e,e,e,e,e,e,e,e,e,e,e,e,e,e,e,e,e,e,e,e,e,e,e,e,e,e,e,e,e,e,e,e,e,e,e,e,e,e,e,e,e,e,e,e,e,e,e,e,e,e,e,e,e,e,e,e,e,e,e,e,e,e,e,e,e,e,e,e,e,e,e,e,e,e,e,e,e,e,e,e,e,e,e,e,e
46.17,45.88,45.61,45.54,44.34,42.21,39.29,35.64,32.19,29.76,28.04,26.26,24.41,22.74,21.22,19.85,18.83,18.07,17.42,16.88,16.56,16.31,16.39,16.58,16.62,16.59,16.61,16.70,16.92,17.36,17.99,19.28,20.94,22.32,24.17,26.11,28.33,30.97,34.36,37.39,40.15,42.52,44.22,45.12,45.83,46.50,47.22,48.07,49.30,50.60,51.71,52.30,52.52,52.26,51.73,51.34,50.18,47.46,43.77,39.90,38.28,37.49,37.10,36.73,35.80,34.36,32.33,29.51,25.72,20.30,17.62,16.21,15.26,14.90,14.57,14.43,14.30,13.74,13.91,13.60,12.97,12.20,11.35,10.63,10.06,9.44,8.08,7.18,6.05,4.46,e,e,e,e,e,e,e,e,e,e,e,e,e,e,e,e,e,e,e,e,e,e,e,e,e,e,e,e,e,e,e,e,e,e,e,e,e,e,e,e,e,e,e,e,e,e,e,e,e,e,e,e,e,e,e,e,e,e,e,e,e,e,e,e,e,e,e,e,e,e,e,e,e,e,e,e,e,e,e,e,e,e,e,e,e,e,e,e,e,e,e,e,e,e,e,e,e,e,e,e,e,e,e,e,e,e,e,e,e,e,e,e,e,e,e,e,e,e,e,e,e,e,e,e,e,e,e,e,e,e,e,e,e,e,e,e,e,e,e,e,e,e,e,e,e,e,e,e,e,e,e,e,e,e,e,e,e,e,e,e,e,e,e,e,e,e
50.42,50.26,49.86,49.76,48.48,46.31,43.27,38.95,35.06,32.49,30.82,29.12,27.23,25.41,23.65,21.97,20.80,19.92,19.27,18.82,18.57,18.61,19.01,19.50,19.72,19.70,19.71,19.69,19.75,20.36,21.42,23.01,24.65,25.50,27.06,29.05,31.74,35.32,39.66,42.92,45.63,47.88,49.46,49.78,50.31,51.06,51.90,53.00,54.74,56.41,57.51,57.49,57.08,55.98,54.54,53.49,51.85,48.98,45.69,42.87,42.54,42.54,42.57,42.40,41.57,39.99,37.79,34.92,31.19,23.78,19.91,18.05,17.22,16.95,16.78,16.76,16.77,16.56,17.22,17.20,16.62,15.73,14.96,14.29,13.68,12.99,11.84,10.90,9.69,7.88,5.20,4.59,3.19,e,e,e,e,e,e,e,e,e,e,e,e,e,e,e,e,e,e,e,e,e,e,e,e,e,e,e,e,e,e,e,e,e,e,e,e,e,e,e,e,e,e,e,e,e,e,e,e,e,e,e,e,e,e,e,e,e,e,e,e,e,e,e,e,e,e,e,e,e,e,e,e,e,e,e,e,e,e,e,e,e,e,e,e,e,e,e,e,e,e,e,e,e,e,e,e,e,e,e,e,e,e,e,e,e,e,e,e,e,e,e,e,e,e,e,e,e,e,e,e,e,e,e,e,e,e,e,e,e,e,e,e,e,e,e,e,e,e,e,e,e,e,e,e,e,e,e,e,e,e,e,e,e,e,e,e,e,e,e,e,e,e,e
56.45,56.02,54.94,54.40,52.64,50.02,46.38,40.49,37.35,35.29,33.75,32.24,30.26,28.41,26.69,25.08,23.65,22.49,21.75,21.37,21.07,21.60,22.58,23.46,23.67,23.61,23.64,23.49,23.35,24.56,26.85,28.67,29.72,29.98,31.19,33.51,36.92,41.22,45.22,48.69,51.31,53.11,54.40,54.83,55.57,56.54,57.53,58.87,60.90,62.44,62.87,62.01,60.60,58.88,56.97,54.98,52.64,50.73,49.45,48.91,48.92,49.14,49.28,49.03,47.86,45.25,42.31,38.89,34.68,28.50,23.21,20.03,19.21,19.04,19.05,19.15,19.37,19.79,20.67,20.88,20.40,19.39,18.81,18.30,17.81,17.33,16.83,15.76,14.99,13.41,9.64,7.85,6.12,e,e,e,e,e,e,e,e,e,e,e,e,e,e,e,e,e,e,e,e,e,e,e,e,e,e,e,e,e,e,e,e,e,e,e,e,e,e,e,e,e,e,e,e,e,e,e,e,e,e,e,e,e,e,e,e,e,e,e,e,e,e,e,e,e,e,e,e,e,e,e,e,e,e,e,e,e,e,e,e,e,e,e,e,e,e,e,e,e,e,e,e,e,e,e,e,e,e,e,e,e,e,e,e,e,e,e,e,e,e,e,e,e,e,e,e,e,e,e,e,e,e,e,e,e,e,e,e,e,e,e,e,e,e,e,e,e,e,e,e,e,e,e,e,e,e,e,e,e,e,e,e,e,e,e,e,e,e,e,e,e,e,e
63.71,62.59,60.86,59.00,56.05,52.48,48.36,43.06,40.28,38.45,37.02,35.47,33.51,31.56,29.78,28.28,27.10,26.52,26.39,26.48,26.41,26.90,27.57,28.08,28.10,27.98,27.59,26.96,26.66,28.86,31.36,33.27,34.54,35.38,36.61,38.80,42.01,46.09,49.82,53.26,56.03,58.15,59.91,61.07,62.29,63.55,64.74,65.57,66.51,66.77,65.99,64.39,62.49,60.49,58.43,56.34,54.75,53.96,53.76,53.88,53.47,53.57,53.26,52.31,50.99,48.75,45.72,41.96,37.49,30.97,25.90,23.05,22.48,22.52,22.70,22.90,23.22,23.88,24.68,24.89,24.34,23.05,22.10,21.67,21.38,21.10,20.71,20.13,19.79,18.86,16.35,14.59,11.81,9.01,6.56,3.48,e,e,e,e,e,e,e,e,e,e,e,e,e,e,e,e,e,e,e,e,e,e,e,e,e,e,e,e,e,e,e,e,e,e,e,e,e,e,e,e,e,e,e,e,e,e,e,e,e,e,e,e,e,e,e,e,e,e,e,e,e,e,e,e,e,e,e,e,e,e,e,e,e,3.18,3.65,3.08,2.84,3.16,2.68,e,e,e,e,e,e,e,e,e,e,3.00,e,e,e,e,e,e,e,e,e,e,e,e,e,e,e,e,e,e,e,e,e,e,e,e,e,e,e,e,e,e,e,e,e,e,e,e,e,e,e,e,e,e,e,e,e,e,e,e,e,e,e,e,e,e,e,e,e,e,e,e,e,e,e,e,e,e,e,e,e,e
70.46,68.79,66.48,63.08,58.89,54.53,50.30,46.23,43.76,42.04,40.61,38.92,36.77,34.66,32.85,31.56,30.91,30.99,31.34,31.67,31.62,31.99,32.28,32.39,32.25,32.07,31.25,30.37,30.28,33.33,35.75,37.66,39.23,40.70,42.03,44.05,46.96,50.76,54.33,57.71,60.71,63.28,65.42,67.18,68.71,70.07,71.27,71.45,71.16,70.17,68.44,66.34,64.17,62.00,59.93,58.08,57.40,57.50,57.94,58.26,57.45,57.21,56.33,54.71,53.20,51.35,48.35,44.36,39.69,32.95,28.56,26.41,26.13,26.37,26.67,26.94,27.32,28.13,28.83,28.94,28.22,26.65,25.26,24.90,24.82,24.68,24.29,24.16,24.09,23.68,22.50,21.01,17.81,14.05,10.43,7.12,4.62,e,e,e,e,e,e,e,e,e,e,e,e,e,e,e,e,e,e,e,e,e,e,e,e,e,e,e,e,e,e,e,e,e,e,e,e,e,e,e,e,e,e,e,e,e,e,e,e,e,e,e,e,e,e,e,e,e,e,e,e,e,e,e,e,e,e,e,e,e,e,e,4.40,6.44,6.99,6.32,5.85,5.81,4.76,2.80,e,e,e,e,e,e,1.93,2.92,4.33,4.62,e,e,e,e,e,e,e,e,e,e,e,e,e,e,e,e,e,e,e,e,e,e,e,e,e,e,e,e,e,e,e,e,e,e,e,e,e,e,e,e,e,e,e,e,e,e,e,e,e,e,e,e,e,e,e,e,e,e,e,e,e,e,e,e,e,e,e,e,e,e
74.87,73.33,70.61,65.68,60.52,56.15,52.94,50.50,48.49,46.67,44.88,42.95,39.92,37.50,35.82,35.00,35.43,35.80,35.81,35.39,34.55,34.91,35.22,35.34,35.24,34.96,34.05,33.81,35.03,38.23,40.41,42.17,43.70,45.17,46.54,48.61,51.62,55.55,59.17,62.60,65.90,68.81,70.55,72.10,73.25,74.09,74.70,74.33,73.28,71.90,70.33,68.47,66.30,64.11,62.21,61.00,60.82,61.01,61.35,61.59,60.93,59.93,58.52,56.71,54.71,52.46,49.33,45.33,40.56,34.95,31.55,30.08,30.10,30.39,30.70,30.96,31.39,32.34,33.05,32.89,31.85,30.07,28.38,28.16,28.23,28.12,27.67,27.45,27.22,26.66,25.44,24.14,22.91,20.95,17.71,12.63,8.69,e,e,e,e,e,e,e,e,e,e,e,e,e,e,e,e,e,e,e,e,e,e,e,e,e,e,e,e,e,e,e,e,e,e,e,e,e,e,e,e,e,e,e,e,e,e,e,e,e,e,e,e,e,e,e,e,e,e,e,e,e,e,e,e,e,e,e,e,e,e,e,8.41,10.08,10.62,9.62,8.80,8.41,6.58,4.26,e,e,e,e,e,e,4.87,6.39,7.79,7.44,e,e,e,e,e,e,e,e,e,e,e,e,e,e,e,e,e,e,e,e,e,e,e,e,e,e,e,e,e,e,e,e,e,e,e,e,e,e,e,e,e,e,e,e,e,e,e,e,e,e,e,e,e,e,e,e,e,e,e,e,e,e,e,e,e,e,e,e,e,e
78.81,76.73,72.84,67.64,63.01,59.36,56.75,54.81,53.16,51.38,49.38,47.11,43.79,41.30,39.84,39.51,40.42,40.51,39.93,38.81,37.46,37.96,38.42,38.65,38.58,38.00,37.39,37.84,39.73,42.54,44.59,46.35,47.97,49.50,51.06,53.27,56.23,59.90,63.43,66.69,69.73,72.40,74.25,75.97,76.94,77.34,77.42,76.41,74.97,73.45,71.95,70.31,68.41,66.48,64.87,64.10,63.99,64.12,64.26,64.14,63.15,61.65,59.86,57.84,55.54,53.10,50.03,46.06,40.99,36.37,34.35,33.83,34.06,34.37,34.67,34.94,35.39,36.42,37.19,36.79,35.45,33.59,32.83,33.36,34.11,34.54,34.28,33.83,32.88,31.38,29.38,27.80,27.10,26.39,24.93,21.31,15.05,9.15,e,e,e,e,e,e,e,e,e,e,e,e,e,e,e,e,e,e,e,e,e,e,e,e,e,e,e,e,e,e,e,e,e,e,e,e,e,e,e,e,e,e,e,e,e,e,e,e,e,e,e,e,e,e,e,e,e,e,e,e,e,e,e,e,e,e,3.01,6.41,8.91,11.41,13.65,15.33,15.74,14.60,12.92,11.00,8.24,6.18,4.60,3.51,2.97,3.70,4.31,5.57,7.91,10.59,12.29,11.31,7.61,2.26,e,e,e,e,e,e,e,e,e,e,e,e,e,e,e,e,e,e,e,e,e,e,e,e,e,e,e,e,e,e,e,e,e,e,e,e,e,e,e,e,e,e,e,e,e,e,e,e,e,e,e,e,e,e,e,e,e,e,e,e,e,e,e,e,e,e,e,e
82.44,79.61,74.50,69.55,65.95,63.20,61.01,59.19,57.80,56.04,53.82,51.15,47.85,45.51,44.41,44.62,45.62,45.15,43.88,42.20,40.59,41.31,41.99,42.34,42.30,41.36,41.15,42.18,44.41,46.70,48.73,50.59,52.30,53.90,55.62,57.95,60.78,63.97,67.29,70.26,72.81,75.03,77.15,79.04,79.86,79.86,79.41,77.89,76.38,74.90,73.46,71.99,70.51,68.99,67.73,67.23,66.99,66.98,66.84,66.22,64.68,62.80,60.73,58.50,56.03,53.51,50.60,46.73,41.38,37.78,37.17,37.61,38.01,38.36,38.66,38.92,39.41,40.56,41.38,40.70,39.07,37.29,37.93,39.45,41.02,42.12,42.15,41.47,39.67,37.03,34.04,31.94,31.02,31.06,31.55,30.50,22.34,14.05,7.37,2.69,e,e,e,e,e,e,e,e,e,e,e,e,e,e,e,e,e,e,e,e,e,e,e,e,e,e,e,e,e,e,e,e,e,e,e,e,e,e,e,e,e,e,e,e,e,e,e,e,e,e,e,e,e,e,e,e,e,e,e,e,0.38,1.90,2.13,3.40,6.06,9.49,13.20,16.67,19.53,21.45,21.72,20.58,17.97,14.15,10.30,8.61,7.47,6.63,6.08,6.74,7.59,9.04,11.44,15.24,17.21,15.63,10.52,3.18,e,e,e,e,e,e,e,e,e,e,e,e,e,e,e,e,e,e,e,e,e,e,e,e,e,e,e,e,e,e,e,e,e,e,e,e,e,e,e,e,e,e,e,e,e,e,e,e,e,e,e,e,e,e,e,e,e,e,e,e,e,e,e,e,e,e,e,e
85.29,82.48,78.39,73.39,69.30,66.39,64.68,63.79,62.39,59.98,56.91,53.90,50.74,49.41,49.53,50.55,50.85,49.54,47.82,46.26,45.39,46.58,47.41,47.77,47.72,46.68,46.15,46.90,49.07,51.69,54.29,56.29,57.80,59.20,60.49,62.51,64.97,67.61,70.23,72.71,75.05,77.20,79.03,79.75,79.99,79.58,78.36,77.68,77.07,76.25,75.06,73.59,72.53,71.59,70.71,69.92,69.62,69.33,68.72,67.51,65.43,63.21,60.94,58.64,56.22,53.83,51.20,47.76,43.02,41.00,40.81,41.34,41.95,42.59,42.81,43.09,43.85,45.59,46.04,44.80,43.00,41.83,43.36,45.42,47.14,48.18,48.51,47.99,46.27,43.66,40.66,37.88,36.08,34.93,34.04,32.54,28.62,21.76,13.34,6.29,e,e,e,e,e,e,e,e,e,e,e,e,e,e,e,e,e,e,e,e,e,e,e,e,e,e,e,e,e,e,e,e,e,e,e,e,e,e,e,e,e,e,e,e,e,e,e,e,e,e,e,e,e,e,e,e,e,e,e,e,2.09,4.06,5.18,7.01,9.89,13.62,17.54,21.90,25.87,28.56,29.06,28.37,25.92,21.61,15.89,13.41,12.21,11.58,10.93,11.40,12.60,14.89,18.21,20.82,21.61,19.61,14.58,6.54,e,e,e,e,e,e,e,e,e,e,e,e,e,e,e,e,e,e,e,e,e,e,e,e,e,e,e,e,e,e,e,e,e,e,e,e,e,e,e,e,e,e,e,e,e,e,e,e,e,e,e,e,e,e,e,e,e,e,e,e,e,e,e,e,e,e,e,e
87.64,84.97,81.38,76.69,72.43,69.72,68.77,68.39,66.84,63.86,60.24,57.35,54.82,54.15,54.83,56.14,55.98,54.12,52.06,50.50,50.07,51.70,52.61,52.77,52.41,51.30,50.82,51.69,54.05,57.07,60.09,62.35,63.88,65.00,65.76,67.11,68.88,70.90,73.00,75.13,77.13,78.85,79.95,79.60,78.71,77.47,76.05,75.66,75.61,75.39,74.74,73.68,72.64,71.86,71.29,70.69,70.48,70.16,69.42,68.04,65.99,63.71,61.38,59.05,56.66,54.33,51.86,48.93,45.36,44.57,44.74,45.33,46.07,47.00,47.13,47.48,48.44,50.31,50.12,48.49,46.86,46.51,48.41,50.53,52.09,52.89,53.11,52.51,51.02,48.80,46.16,43.02,40.34,38.09,36.19,34.30,32.13,27.05,19.26,10.33,4.96,e,e,e,e,e,e,e,e,e,e,e,e,e,e,e,e,e,e,e,e,e,e,e,e,e,e,e,e,e,e,e,e,e,e,e,e,e,e,e,e,e,e,e,e,e,e,e,e,e,e,e,e,1.96,2.24,2.62,e,e,e,e,4.33,6.41,8.44,11.01,14.33,18.49,22.85,27.40,31.51,34.45,35.01,34.31,31.88,27.53,21.18,18.74,17.77,17.45,17.08,17.60,18.89,21.18,24.28,25.85,25.67,23.20,18.09,9.91,e,e,e,e,e,e,e,e,e,e,e,e,e,e,e,e,e,e,e,e,e,e,e,e,e,e,e,e,e,e,e,e,e,e,e,e,e,e,e,e,e,e,e,e,e,e,e,e,e,e,e,e,e,e,e,e,e,e,e,e,e,e,e,e,e,e,e,e
89.58,87.16,83.65,79.55,75.39,73.19,73.20,72.96,71.18,67.70,63.77,61.36,59.87,59.58,60.28,61.47,61.02,58.86,56.55,54.89,54.65,56.71,57.63,57.42,56.49,55.33,55.21,56.53,59.29,62.76,66.10,68.71,70.42,71.20,71.37,71.75,72.57,73.93,75.63,77.52,79.10,80.08,80.10,78.76,76.29,73.86,72.73,72.19,72.39,72.74,72.88,72.56,71.19,70.26,69.92,69.91,69.91,69.75,69.15,67.96,66.40,64.30,62.02,59.69,57.29,54.97,52.56,50.23,48.26,48.40,48.90,49.55,50.32,51.55,51.60,52.05,53.16,54.79,53.72,51.84,50.65,51.29,53.15,54.94,56.11,56.50,56.28,55.42,54.25,52.73,50.76,47.51,43.94,40.69,38.06,35.82,33.39,30.38,25.13,14.73,7.59,e,e,e,e,e,e,e,e,e,e,e,e,e,e,e,e,e,e,e,e,e,e,e,e,e,e,e,e,e,e,e,e,e,e,e,e,e,e,e,e,e,e,e,e,e,e,e,e,e,e,e,e,4.14,4.63,5.02,e,e,e,e,6.99,8.93,11.86,15.31,19.24,23.95,28.94,33.12,36.56,39.36,39.82,38.76,36.24,32.20,26.24,24.50,24.01,24.07,24.30,25.06,26.22,27.85,29.79,30.42,29.47,26.47,21.15,13.27,e,e,e,e,e,e,e,e,e,e,e,e,e,e,e,e,e,e,e,e,e,e,e,e,e,e,e,e,e,e,e,e,e,e,e,e,e,e,e,e,e,e,e,e,e,e,e,e,e,e,e,e,e,e,e,e,e,e,e,e,e,e,e,e,e,e,e,e
90.86,89.48,86.37,81.94,78.66,77.14,77.19,77.10,74.82,71.09,67.30,65.44,66.14,67.03,67.85,68.24,66.75,63.93,61.06,58.99,58.80,60.56,61.53,61.51,60.58,59.52,59.61,61.20,64.16,67.35,69.64,71.42,72.80,73.86,74.37,74.84,75.58,76.78,78.24,79.21,79.84,79.93,78.86,75.72,72.49,69.67,67.63,66.70,67.02,67.98,69.00,68.98,67.81,67.10,66.97,67.07,67.07,67.47,67.61,66.98,65.83,64.08,62.16,60.28,58.57,56.35,54.22,52.58,51.79,52.62,53.87,55.04,55.80,55.83,55.78,56.54,57.79,58.59,56.69,54.73,54.04,55.46,57.46,59.17,60.14,60.21,59.40,58.26,57.03,55.48,53.27,49.98,45.99,42.04,38.65,36.41,34.10,31.56,27.40,19.11,12.37,e,e,e,e,e,e,e,e,e,e,e,e,e,e,e,e,e,e,e,e,e,e,e,e,e,e,e,e,e,e,e,e,e,e,e,e,e,e,e,e,e,e,e,e,e,e,e,e,3.83,4.44,4.99,5.93,6.57,7.10,7.40,7.29,7.01,7.09,8.31,10.97,13.78,16.96,20.59,24.66,29.08,33.28,36.79,39.47,41.25,41.72,40.68,38.19,34.54,30.83,29.92,29.70,29.85,30.38,31.10,31.62,32.32,33.30,33.68,32.32,29.38,24.42,16.29,7.39,e,e,e,e,e,e,e,e,e,e,e,e,e,e,e,e,e,e,e,e,e,e,e,e,e,e,e,e,e,e,e,e,e,e,e,e,e,e,e,e,e,e,e,e,e,e,e,e,e,e,e,e,e,e,e,e,e,e,e,e,e,e,e,e,e,e,e
91.50,91.40,89.07,85.28,83.18,82.33,82.18,81.39,78.58,74.45,70.69,69.68,71.54,73.10,74.03,73.99,71.80,68.26,65.09,63.07,62.87,64.13,65.21,65.58,64.91,63.97,64.01,65.40,68.00,70.64,72.23,73.54,74.81,76.21,77.04,77.54,78.09,78.94,79.94,80.25,80.26,79.68,77.55,73.34,68.83,65.03,62.84,61.80,62.00,63.04,64.45,64.93,64.38,64.02,63.99,64.09,64.33,65.20,65.86,65.66,64.98,63.78,62.37,60.95,59.76,57.89,56.16,55.12,55.29,56.52,58.17,59.66,60.52,59.94,60.00,60.84,61.88,62.00,59.53,57.79,57.75,59.83,61.81,63.40,64.21,64.09,62.97,61.47,59.95,58.13,55.62,51.84,47.25,42.70,38.85,36.63,34.43,32.24,28.96,22.58,16.31,10.73,5.89,e,e,e,e,e,e,e,e,e,e,e,e,e,e,e,e,e,e,e,e,e,e,e,e,e,e,e,e,e,e,e,e,e,e,e,e,e,e,e,e,e,e,2.73,3.21,3.66,5.75,7.24,8.47,9.75,11.61,12.86,12.90,12.00,10.68,10.38,10.62,12.17,15.25,18.60,22.02,25.55,29.24,33.24,36.81,39.69,41.74,42.93,43.55,42.41,40.00,37.01,35.07,34.77,34.87,35.24,35.96,36.55,36.67,36.76,37.04,37.00,35.33,32.38,27.75,20.27,10.59,5.29,e,e,e,e,e,e,e,e,e,e,e,e,e,e,e,e,e,e,e,e,e,e,e,e,e,e,e,e,e,e,e,e,e,e,e,e,e,e,e,e,e,e,e,e,e,e,e,e,e,e,e,e,e,e,e,e,e,e,e,e,e,e,e,e,e,e
91.27,92.73,91.73,89.97,89.44,89.24,88.56,85.90,82.51,77.79,73.87,74.14,75.72,77.22,78.24,78.30,75.86,71.56,68.45,67.13,66.84,67.36,68.58,69.63,69.58,68.78,68.42,68.94,70.41,72.16,73.55,74.90,76.39,78.18,79.31,79.73,79.90,80.14,80.40,80.41,80.24,79.33,76.16,71.92,65.41,59.78,58.51,57.77,57.49,57.91,59.01,60.29,60.91,61.09,61.02,60.96,61.78,62.98,63.83,63.86,63.78,63.41,62.69,61.71,60.82,59.65,58.44,57.89,58.73,59.97,61.51,63.02,64.13,63.86,64.30,64.87,65.21,64.89,62.21,61.11,61.92,64.47,66.20,67.62,68.33,68.19,67.17,65.19,63.07,60.69,57.76,52.90,47.44,42.42,38.54,36.37,34.26,32.27,29.61,24.75,19.07,14.42,10.17,e,e,e,e,e,e,e,e,e,e,e,e,e,e,e,e,e,e,e,e,e,e,e,e,e,e,e,e,e,e,e,e,e,e,e,e,e,e,e,e,e,e,5.41,6.43,7.27,8.81,11.17,13.84,17.03,22.05,24.48,23.33,19.67,15.40,14.56,14.93,16.74,19.92,23.31,26.99,30.03,32.68,36.09,39.25,41.57,43.20,44.35,45.38,43.91,41.68,39.69,38.83,38.84,39.34,40.11,40.88,41.22,41.27,41.21,41.11,40.44,38.61,35.54,31.18,25.57,15.78,9.17,e,e,e,e,e,e,e,e,e,e,e,e,e,e,e,e,e,e,e,e,e,e,e,e,e,e,e,e,e,e,e,e,e,e,e,e,e,e,e,e,e,e,e,e,e,e,e,e,e,e,e,e,e,e,e,e,e,e,e,e,e,e,e,e,e,e
90.04,92.64,93.89,92.84,92.52,92.25,91.34,88.32,84.17,79.97,77.41,78.71,81.00,82.52,83.07,82.38,79.07,74.77,72.17,71.52,71.33,71.40,72.48,73.56,73.48,72.71,71.62,71.07,71.46,72.66,74.10,75.51,76.89,78.37,79.57,80.00,80.07,80.14,80.12,79.82,79.13,77.74,74.84,71.01,64.58,58.57,56.43,55.02,54.27,54.28,54.94,55.57,55.97,56.27,56.52,56.74,58.39,60.33,61.74,62.11,62.53,62.88,62.91,62.55,61.78,60.92,60.42,60.55,61.52,62.63,64.34,66.06,67.35,67.58,67.93,68.23,68.36,68.14,66.58,66.10,66.76,68.38,69.66,70.70,71.14,70.82,69.61,67.46,64.88,61.90,58.45,53.18,47.37,42.20,38.40,36.37,34.36,32.42,29.81,25.13,19.44,14.88,10.70,6.40,4.60,2.64,1.72,1.82,1.63,e,e,e,e,e,e,e,e,e,e,e,e,e,e,e,e,e,e,e,e,e,e,e,e,e,2.55,2.82,3.09,3.05,2.62,2.48,3.49,4.12,4.40,5.26,6.96,9.47,12.26,14.79,16.68,18.93,21.59,24.76,28.86,30.41,29.07,25.58,21.21,19.19,19.44,21.39,24.44,27.54,30.51,33.04,35.40,38.43,40.84,42.83,44.49,45.93,47.18,46.45,45.09,43.82,43.04,42.94,43.26,43.84,44.48,44.84,45.24,45.58,45.69,44.96,42.82,39.34,34.92,30.44,23.99,17.38,11.27,6.34,4.84,3.54,e,e,e,e,e,e,e,e,e,e,e,e,e,e,e,e,e,e,e,e,e,e,e,e,e,e,e,e,e,e,e,e,e,e,4.94,3.86,e,e,e,e,e,e,e,e,e,e,e,e,e,e,e,e,e,e,e,e,e,e,e,e,e,e
88.70,92.06,94.94,94.82,94.80,94.51,93.49,90.54,86.23,83.04,81.98,83.83,86.37,87.66,87.59,85.97,81.84,77.90,75.97,75.90,75.95,75.79,76.54,77.34,77.16,76.24,74.40,72.79,72.07,72.66,73.99,75.28,76.35,77.17,78.18,78.57,78.71,78.85,78.86,78.42,77.46,75.88,73.52,70.12,64.23,58.29,55.15,52.79,51.44,51.00,51.19,51.16,51.14,51.39,51.87,52.42,54.83,57.44,59.47,60.46,61.38,62.23,62.83,63.03,62.60,62.10,62.25,62.95,63.93,65.12,66.91,68.65,69.94,70.52,70.76,70.92,71.06,71.14,70.58,70.66,71.18,71.94,72.81,73.27,73.22,72.57,71.17,68.94,66.05,62.61,58.78,53.30,47.33,42.09,38.35,36.41,34.48,32.56,29.99,25.51,19.77,14.89,10.57,6.62,4.94,3.45,2.95,3.32,3.17,4.27,4.61,4.10,3.02,3.77,4.11,3.89,3.26,3.40,3.47,2.97,2.36,2.81,2.31,2.16,2.22,2.23,1.36,e,e,e,e,e,3.15,4.87,5.43,5.62,5.57,5.46,5.40,5.35,6.10,6.86,7.70,9.18,11.00,14.15,17.86,21.28,23.42,25.56,28.08,31.02,33.91,34.80,33.61,30.72,26.75,23.89,23.98,25.86,28.53,31.19,33.50,35.65,37.84,40.28,42.11,43.90,45.66,47.37,48.70,48.69,48.17,47.53,46.85,46.67,46.79,47.12,47.58,47.89,48.50,49.08,49.33,48.75,46.72,43.14,38.66,34.98,31.44,25.68,18.74,12.16,9.67,7.12,4.79,2.89,1.78,e,e,e,e,e,e,e,e,e,e,e,e,e,e,e,e,e,e,e,e,e,e,e,e,e,e,e,5.27,8.16,9.69,8.89,7.50,5.35,e,e,e,e,e,e,e,e,e,e,e,e,e,e,e,e,e,e,e,e,e,e,e,e,e,e
87.55,90.89,93.45,95.35,96.46,96.59,95.61,93.16,90.25,88.82,88.98,90.29,91.45,91.91,91.05,88.42,83.89,80.88,79.78,80.15,80.64,80.70,80.77,80.81,80.65,79.18,76.65,74.08,72.18,71.89,72.54,73.27,73.66,73.29,73.51,73.76,74.20,74.89,75.49,75.37,74.85,73.91,72.19,69.07,63.98,58.62,54.91,51.32,49.07,47.94,47.66,47.53,47.20,47.13,47.48,48.32,51.23,54.13,56.80,59.04,60.45,61.36,62.03,62.59,63.10,63.26,63.87,64.77,65.68,67.51,69.07,70.29,71.13,71.62,71.88,72.23,72.74,73.36,72.96,73.45,74.27,74.92,75.59,75.08,74.04,72.75,71.30,69.12,66.18,62.67,58.85,53.36,47.46,42.24,38.41,36.48,34.55,32.65,30.33,26.70,20.98,15.15,10.37,7.52,5.88,4.48,4.09,4.59,4.74,5.87,6.83,7.34,7.23,7.63,7.73,7.55,7.17,7.02,6.96,6.66,6.30,6.40,5.88,5.67,5.66,5.69,5.01,e,e,e,e,e,6.48,7.94,8.30,8.34,8.29,8.23,8.22,8.27,9.00,10.18,11.80,13.87,17.22,19.78,21.76,23.49,25.29,27.69,30.47,33.42,36.16,37.77,37.16,34.68,31.16,28.54,28.50,29.83,31.64,33.61,35.75,37.92,39.85,41.11,42.92,44.76,46.59,48.38,49.52,49.76,49.68,49.55,49.46,49.48,49.60,49.78,49.94,50.01,50.27,50.45,50.39,50.21,49.51,46.65,42.25,38.91,35.72,32.35,28.76,24.81,18.77,12.68,8.59,6.83,4.83,e,e,e,e,e,e,e,e,e,e,e,e,e,e,e,e,e,e,e,e,e,e,e,e,e,e,e,10.93,13.97,15.36,13.13,9.51,5.88,e,e,e,e,e,e,e,e,e,e,e,e,e,e,e,e,e,e,e,e,e,e,e,e,e,e
86.96,90.26,92.79,95.09,96.73,97.71,97.82,96.32,94.24,93.31,93.51,94.35,95.19,95.42,94.23,91.16,86.80,85.18,84.93,85.37,85.70,85.30,84.58,83.46,81.84,79.79,76.72,73.68,71.44,70.93,70.07,69.16,68.31,67.61,68.37,68.90,69.57,70.63,71.65,71.83,71.62,71.13,70.34,67.71,63.57,58.85,54.56,50.30,47.11,45.30,44.76,44.43,43.89,43.47,43.58,44.83,47.91,51.12,54.11,56.59,58.35,59.92,61.04,61.78,62.59,63.56,64.77,66.09,67.35,69.04,70.29,71.26,72.04,72.65,73.06,73.58,74.25,74.99,74.98,75.46,76.11,76.59,76.82,75.81,74.37,72.84,71.34,69.20,66.24,62.70,58.91,53.43,47.78,42.70,38.75,36.82,34.92,32.95,30.63,27.48,22.81,17.46,12.38,8.47,6.92,5.52,5.16,5.78,6.26,7.42,9.31,11.59,13.76,15.32,16.97,18.10,18.39,18.20,18.10,17.55,16.56,15.50,14.29,13.75,13.46,12.98,12.61,12.54,12.80,13.26,13.38,14.12,14.98,15.72,16.08,15.30,14.01,12.54,11.33,11.55,12.41,13.82,15.74,18.12,21.47,23.45,24.61,25.66,27.18,29.37,32.04,34.98,37.75,39.79,39.63,37.52,34.23,32.04,31.88,32.86,34.30,36.04,37.93,39.77,41.35,42.31,43.58,45.23,47.06,48.78,49.54,49.62,49.55,49.59,49.85,50.10,50.34,50.55,50.74,50.74,50.80,50.78,50.59,50.40,50.00,48.13,45.02,42.02,39.40,37.21,34.96,32.08,27.04,22.18,18.06,14.93,12.76,9.94,7.48,5.39,3.38,e,e,e,e,e,e,e,e,e,e,e,e,e,e,e,e,e,e,e,e,e,e,11.85,15.24,17.62,18.19,15.10,10.19,5.58,e,e,e,e,e,e,e,e,e,e,e,e,e,e,e,e,e,e,e,e,e,e,e,e,e,e
86.41,89.75,92.40,94.46,96.36,98.18,99.62,99.30,97.96,97.12,97.02,97.56,98.37,98.53,97.26,94.20,90.34,89.83,90.16,90.43,90.34,89.29,87.72,85.33,81.91,79.22,75.69,72.38,69.99,69.23,66.80,64.18,62.11,61.37,63.06,64.08,64.95,66.10,67.24,67.68,67.78,67.77,67.96,66.15,63.09,59.03,54.26,49.57,45.42,42.88,42.12,41.60,40.90,40.14,40.01,41.62,44.62,48.03,51.18,53.59,55.63,57.88,59.53,60.57,61.75,63.49,65.29,67.07,68.80,70.09,71.03,71.84,72.64,73.34,73.89,74.54,75.27,75.93,76.29,76.59,76.91,77.24,77.03,75.88,74.42,72.90,71.34,69.21,66.24,62.71,58.99,53.49,48.18,43.29,39.22,37.28,35.37,33.28,30.88,28.03,24.59,20.29,15.14,9.59,8.01,6.59,6.21,6.91,7.72,9.14,12.08,16.14,20.61,23.66,27.10,29.65,30.64,30.48,30.37,29.52,27.85,25.64,23.63,22.60,21.83,20.72,20.80,21.15,21.75,22.59,23.66,24.46,24.62,24.54,24.85,23.05,20.27,17.15,14.55,14.95,15.95,17.52,19.62,22.16,24.92,26.40,27.19,28.00,29.17,30.91,33.26,36.09,38.93,41.30,41.56,39.83,36.79,35.07,34.84,35.55,36.80,38.42,40.01,41.43,42.64,43.65,44.28,45.63,47.31,48.82,49.11,48.86,48.63,48.70,49.16,49.60,49.99,50.34,50.66,50.66,50.62,50.50,50.27,49.94,49.42,48.44,46.83,44.38,42.50,40.95,39.24,36.87,34.18,31.87,28.34,23.73,21.45,17.31,13.22,10.04,8.61,7.08,e,e,e,e,e,e,e,e,e,e,e,e,e,e,e,e,e,e,4.69,7.35,11.54,15.56,18.43,19.79,19.26,15.47,9.93,e,e,e,e,e,e,e,e,e,e,e,e,e,e,e,e,e,e,e,e,e,e,e,e,e,e,e
85.01,88.67,91.69,93.61,95.43,97.27,99.03,100.14,100.19,100.02,100.16,101.19,101.27,101.00,100.10,98.33,95.45,93.69,92.88,92.60,91.92,90.55,88.02,84.62,80.78,77.15,73.32,69.69,66.49,63.86,61.27,58.89,56.97,55.88,57.76,59.55,60.63,60.68,60.69,61.15,61.92,62.89,63.88,64.13,62.53,59.19,54.50,49.47,44.34,40.86,39.59,39.16,38.31,37.40,37.18,38.75,40.88,43.84,46.97,49.71,51.95,53.77,55.65,57.95,61.25,63.26,65.19,67.17,69.18,70.32,71.04,71.60,72.12,72.38,72.79,73.31,73.88,74.34,74.46,74.54,74.72,75.02,74.95,74.62,73.98,72.95,71.35,69.03,66.04,62.66,59.18,53.59,48.64,44.02,39.85,37.80,35.63,33.38,30.95,28.15,24.81,21.53,17.27,11.57,9.25,7.75,7.33,7.91,8.97,11.93,15.85,20.17,24.26,27.55,30.14,31.97,33.00,32.79,32.54,32.11,31.28,29.76,27.83,25.87,24.10,22.83,23.90,25.08,26.61,28.33,29.35,29.66,29.51,29.07,28.55,26.11,23.07,20.06,17.82,18.32,19.09,20.89,23.50,25.99,28.24,29.59,30.48,31.32,31.55,32.58,34.29,36.58,39.26,42.06,42.78,41.60,39.34,38.02,37.83,38.38,39.36,40.49,41.79,42.96,43.98,44.99,45.58,46.46,47.42,48.15,47.85,47.27,46.88,46.91,47.31,47.57,48.08,48.71,49.13,49.07,49.16,49.18,48.98,48.56,47.90,46.66,45.17,44.40,43.64,42.52,41.10,39.49,36.90,34.09,30.94,27.47,23.91,21.76,19.88,18.21,16.97,14.57,e,e,e,e,e,e,e,e,e,e,e,e,e,e,e,e,e,e,8.20,10.80,13.61,16.64,18.32,18.43,16.73,11.96,7.34,e,e,e,e,e,e,e,e,e,e,e,e,e,e,e,e,e,e,e,e,e,e,e,e,e,e,e
82.55,86.51,90.43,92.52,94.35,96.14,98.05,100.24,101.10,101.49,101.98,103.21,102.36,101.64,100.88,99.86,97.82,95.85,94.47,93.57,92.50,90.96,88.05,84.23,80.12,75.93,71.80,67.82,64.02,60.27,57.28,54.70,52.67,51.55,52.68,54.46,55.88,56.26,56.00,56.49,57.52,58.93,60.39,61.66,61.23,58.78,54.29,49.81,44.51,40.37,38.18,36.92,35.78,34.74,34.41,35.84,37.55,40.02,42.68,45.09,47.15,48.94,51.10,54.41,60.44,62.80,64.86,66.94,68.96,70.13,70.71,71.08,71.38,71.43,71.64,72.00,72.40,72.64,72.62,72.61,72.68,72.86,72.89,72.99,72.87,72.33,71.05,68.80,65.97,62.83,59.56,53.86,49.03,44.60,40.55,38.14,35.81,33.48,31.05,28.39,25.26,22.42,18.69,13.39,10.03,8.73,8.72,9.63,11.14,14.74,19.13,23.62,27.52,30.51,32.64,34.23,35.32,35.09,34.79,34.32,33.50,32.06,30.24,28.06,26.07,24.90,26.34,27.89,29.74,31.70,32.88,32.90,32.56,31.91,30.90,28.52,25.48,22.94,21.68,22.22,22.87,24.77,27.69,30.48,32.75,33.91,34.37,34.58,34.05,34.50,35.71,37.56,39.99,42.86,44.09,43.65,42.01,41.11,40.93,41.25,41.85,42.61,43.61,44.57,45.46,46.41,46.92,47.34,47.56,47.40,46.60,45.82,45.28,45.10,45.37,45.43,45.76,46.25,46.66,46.70,46.98,47.24,47.29,46.89,45.94,44.44,42.94,42.87,42.68,42.01,40.98,39.73,37.62,34.77,31.88,29.11,25.83,24.33,23.20,22.11,20.86,18.67,15.99,12.96,9.77,7.12,4.48,e,e,e,e,e,e,e,e,e,1.21,2.39,4.44,7.60,10.33,12.49,14.35,15.88,16.51,15.77,13.31,8.71,4.65,e,e,e,e,e,e,e,e,e,e,e,e,e,e,e,e,e,e,e,e,e,e,e,e,e,e,e
79.36,83.56,88.71,91.22,93.14,94.86,96.81,99.82,101.07,101.93,102.82,104.04,102.12,100.95,100.20,99.51,98.21,96.79,95.25,93.70,92.38,90.78,87.89,84.05,79.80,75.33,70.92,66.58,62.31,57.97,54.44,51.35,49.01,48.06,47.81,48.99,50.82,52.50,52.59,53.11,54.14,55.60,57.29,58.84,59.37,57.93,53.76,50.45,45.54,40.97,37.60,34.90,33.37,32.16,31.69,32.92,34.52,36.46,38.36,39.98,41.59,43.67,46.18,50.33,59.41,62.16,64.37,66.47,68.30,69.61,70.12,70.32,70.45,70.45,70.45,70.62,70.84,70.84,70.77,70.75,70.75,70.76,70.84,71.10,71.29,71.21,70.53,68.51,65.98,63.13,60.06,54.28,49.39,45.10,41.30,38.36,35.95,33.59,31.17,28.70,25.85,23.05,19.60,15.05,10.50,9.59,10.32,11.86,13.95,17.56,22.06,26.66,30.48,32.81,34.79,36.45,37.63,37.41,37.09,36.26,34.88,33.11,31.40,29.51,27.84,26.94,28.33,29.91,31.65,33.43,34.89,34.77,34.31,33.55,32.30,30.45,27.62,25.80,25.93,26.47,27.08,28.98,32.06,35.39,38.05,38.96,38.64,37.77,36.62,36.59,37.41,38.92,41.01,43.71,45.48,45.91,44.77,44.31,44.12,44.13,44.31,44.77,45.49,46.26,47.05,47.89,48.29,48.26,47.73,46.62,45.38,44.49,43.78,43.28,43.35,43.21,43.15,43.23,43.53,43.77,44.28,44.87,45.31,45.01,43.71,41.93,40.36,40.26,40.25,40.05,39.45,38.28,36.90,34.36,31.65,29.27,27.31,25.50,24.13,22.96,21.58,20.34,18.89,16.68,13.51,10.82,8.07,5.82,4.22,3.21,1.77,1.33,1.48,1.63,1.70,1.90,2.72,4.38,6.61,9.36,11.46,12.91,14.13,13.85,13.53,12.21,e,e,e,e,e,e,e,e,e,e,e,e,e,e,e,e,e,e,e,e,e,e,e,e,e,e,e,e,e,e
76.04,79.36,83.05,87.13,90.63,93.71,96.55,99.56,100.55,101.00,101.28,101.55,99.19,98.05,97.63,97.41,96.70,95.86,94.68,93.24,91.87,90.27,87.47,83.92,80.21,76.18,72.06,67.61,62.79,57.91,54.06,50.64,47.73,45.59,44.93,44.94,45.81,47.46,48.24,49.26,50.62,52.26,53.85,55.03,55.72,55.38,53.46,50.65,46.52,42.30,38.67,35.81,33.24,31.02,29.76,30.44,31.65,33.29,35.04,36.63,37.90,40.93,45.27,50.98,58.64,61.36,63.30,64.92,66.31,67.32,67.87,68.15,68.27,68.22,68.22,68.22,68.23,68.23,68.40,68.45,68.43,68.41,68.63,68.97,69.16,69.11,68.77,67.37,65.24,62.73,60.20,55.01,50.18,45.76,41.84,38.71,36.26,33.93,31.56,29.08,26.14,23.24,19.82,15.52,11.21,10.82,12.09,14.07,16.41,20.05,24.76,29.37,32.47,35.04,37.20,39.09,40.60,40.62,39.27,37.72,36.17,34.45,32.70,31.04,29.70,28.97,30.16,31.96,33.95,35.84,37.20,36.85,36.00,34.77,33.13,31.43,29.67,28.73,28.99,29.48,30.04,31.73,34.59,38.06,40.78,41.51,40.97,40.01,38.96,38.83,39.53,40.98,43.17,45.70,47.49,48.26,47.96,47.70,47.35,46.99,46.72,47.08,47.70,48.45,49.22,49.82,49.41,48.94,48.05,46.41,44.72,43.34,42.33,41.68,41.35,40.91,40.60,40.48,40.53,41.17,41.79,42.42,42.99,42.98,42.54,41.13,39.15,37.96,37.89,37.66,37.11,36.18,34.89,33.27,31.25,28.73,25.49,23.31,21.94,20.98,19.79,18.40,17.05,15.39,13.26,11.21,9.26,7.60,6.20,4.89,3.39,2.71,2.64,2.84,2.81,2.94,3.75,5.35,7.23,8.96,10.48,11.61,12.04,11.74,10.92,8.99,e,e,e,e,e,e,e,e,e,e,e,e,e,e,e,e,e,e,e,e,e,e,e,e,e,e,e,e,e,e
72.39,75.58,78.72,83.89,88.73,92.75,95.86,98.54,99.34,99.53,99.24,98.40,96.02,95.04,94.93,95.11,94.83,94.45,93.69,92.55,91.27,89.59,86.95,83.77,80.55,76.90,73.04,68.46,63.14,57.89,53.85,50.24,46.91,43.84,42.40,41.56,41.70,42.93,43.93,45.29,46.96,48.79,50.41,51.34,52.12,52.49,52.07,50.06,46.73,43.02,39.47,36.34,33.06,30.25,28.46,28.38,29.29,30.58,32.01,33.45,35.34,39.40,44.95,51.32,57.25,59.94,61.74,63.06,64.12,64.83,65.35,65.65,65.75,65.67,65.64,65.56,65.46,65.46,65.83,66.00,66.02,66.02,66.31,66.57,66.68,66.64,66.53,65.67,64.10,62.12,60.02,55.34,50.62,46.19,42.23,38.99,36.53,34.22,31.90,29.49,26.37,23.28,19.90,16.03,12.15,12.19,13.73,15.77,18.04,22.24,27.18,31.68,34.45,37.17,39.96,42.49,44.41,44.63,42.57,39.92,37.39,35.67,34.03,32.62,31.55,30.96,32.18,34.11,36.32,38.46,39.98,38.92,37.51,35.98,34.19,32.69,31.65,31.26,31.54,32.07,32.59,34.06,36.65,40.16,43.18,43.81,43.06,42.09,41.19,41.05,41.73,43.23,45.43,47.95,50.01,51.35,51.79,51.66,51.21,50.66,50.30,50.84,51.59,52.47,53.27,53.53,52.36,50.84,49.00,46.83,44.79,42.70,41.08,40.10,39.49,38.83,38.36,38.07,37.88,38.48,39.13,39.81,40.46,40.57,40.59,39.57,37.65,35.87,35.55,35.20,34.70,34.00,32.87,31.53,29.52,26.67,23.09,20.92,19.60,18.69,17.65,16.34,15.08,13.77,12.31,10.61,8.93,7.59,6.54,5.43,4.02,3.14,2.80,2.92,2.86,3.10,3.88,5.16,6.26,7.42,8.56,9.19,8.59,8.09,7.24,e,e,e,e,e,e,e,e,e,e,e,e,e,e,e,e,e,e,e,e,e,e,e,e,e,e,e,e,e,e,e
68.33,72.32,76.01,81.67,87.56,92.03,94.65,96.58,97.30,97.40,96.63,94.46,92.55,91.90,92.07,92.58,92.55,92.46,92.17,91.58,90.55,88.70,86.30,83.60,80.82,77.46,73.83,69.11,63.30,57.91,53.85,50.21,46.67,42.96,40.30,39.00,38.69,39.00,39.65,41.19,43.13,45.19,46.95,47.81,48.58,49.17,49.37,48.55,46.04,43.02,39.98,36.40,32.80,29.92,27.92,26.80,27.55,28.42,29.33,30.49,34.16,39.31,45.33,51.27,55.13,57.77,59.60,60.83,61.68,62.10,62.50,62.76,62.81,62.74,62.66,62.59,62.53,62.53,63.03,63.35,63.51,63.59,63.83,63.84,63.78,63.72,63.71,63.31,62.51,61.25,59.46,55.17,50.67,46.33,42.42,39.18,36.72,34.44,32.19,29.93,26.54,23.14,19.83,16.59,13.35,13.72,15.19,16.83,18.66,24.06,29.27,33.51,36.43,39.20,43.14,46.81,49.22,49.59,47.22,42.99,38.53,36.76,35.39,34.26,33.37,32.90,34.41,36.37,38.77,41.36,43.32,40.98,38.83,37.17,35.54,34.27,33.56,33.31,33.47,34.15,34.66,35.89,38.16,41.57,45.19,45.82,44.87,43.95,43.31,43.22,44.02,45.70,47.80,50.48,53.15,55.31,56.39,56.31,55.80,55.32,55.28,56.30,57.47,58.67,59.55,59.37,57.47,54.23,50.73,48.03,45.74,42.65,40.08,38.54,37.78,37.02,36.48,36.09,35.65,35.71,36.26,37.02,37.71,37.72,37.72,37.11,35.80,34.02,33.24,32.68,32.22,31.71,30.83,28.99,26.19,22.78,19.99,18.31,17.06,16.03,15.09,14.13,12.98,11.76,10.52,8.82,6.79,5.46,4.93,4.61,3.49,2.44,1.76,1.64,1.64,2.18,2.95,3.61,3.37,4.52,5.49,5.44,3.50,2.60,2.30,e,e,e,e,e,e,e,e,e,e,e,e,e,e,e,e,e,e,e,e,e,e,e,e,e,e,e,e,e,e,e
64.95,69.98,75.43,81.37,86.70,90.64,92.99,94.23,94.94,95.19,94.53,92.26,88.84,87.35,87.28,88.08,88.96,89.45,89.54,89.15,88.14,86.60,84.86,82.85,80.46,77.27,73.85,69.46,63.99,58.49,54.23,50.06,45.93,42.01,39.17,37.30,36.49,36.69,37.36,38.74,40.38,42.09,43.73,44.74,45.71,46.51,46.89,47.08,45.40,42.98,40.27,36.68,32.79,29.68,27.42,25.79,26.08,26.79,27.84,29.41,33.76,39.35,45.06,50.14,53.55,55.93,57.39,58.26,58.97,59.22,59.54,59.77,59.82,59.74,59.67,59.61,59.66,59.92,60.37,60.73,60.93,60.92,61.03,60.98,60.91,60.84,60.79,60.64,60.22,59.34,57.77,54.22,50.16,46.05,42.20,38.87,36.21,33.86,31.63,29.31,26.13,22.64,19.41,16.84,14.64,15.15,16.48,18.07,20.37,26.67,31.59,35.09,38.09,42.41,46.71,50.15,52.18,52.48,50.43,46.01,40.82,38.17,36.92,35.88,35.15,34.94,36.61,38.88,41.84,45.12,47.30,45.35,41.85,38.53,37.22,36.16,35.56,35.31,35.38,35.99,36.66,38.25,41.33,46.57,48.15,47.86,46.77,45.88,45.48,45.38,46.04,47.67,50.33,53.56,56.87,59.61,60.99,61.00,61.10,61.24,61.57,63.18,64.22,64.45,63.78,62.19,60.51,57.72,54.31,50.86,47.97,44.47,41.28,38.92,37.75,36.32,34.99,33.98,33.47,32.99,33.17,33.50,33.58,33.40,33.41,33.21,32.66,31.72,31.22,30.45,29.49,28.46,26.73,24.39,21.95,19.68,17.63,16.09,14.74,13.53,12.43,11.59,10.38,8.97,7.50,5.98,4.29,3.04,2.37,2.19,1.59,e,e,e,e,e,e,e,e,e,e,e,e,e,e,e,e,e,e,e,e,e,e,e,e,e,e,e,e,e,e,e,e,e,e,e,e,e,e,e,e,e,e,e,e,e
62.36,68.09,74.84,81.05,85.66,88.96,91.06,91.93,92.64,93.00,92.54,90.57,85.91,83.19,82.35,83.10,84.47,85.36,85.85,85.86,85.15,84.11,82.95,81.46,79.38,76.50,73.38,69.41,64.42,59.05,54.34,49.72,45.28,41.36,38.30,35.84,34.49,34.54,35.31,36.45,37.63,38.82,40.27,41.58,42.89,43.95,44.56,45.49,44.64,42.82,40.37,36.87,32.80,29.48,26.96,24.90,24.68,25.33,26.70,28.84,33.55,39.22,44.48,48.79,51.96,53.99,55.09,55.67,56.20,56.29,56.53,56.75,56.84,56.76,56.74,56.81,57.02,57.47,57.85,58.14,58.27,58.21,58.21,58.17,58.10,58.02,57.94,57.95,57.79,57.17,55.79,53.02,49.45,45.61,41.87,38.55,35.75,33.28,30.97,28.56,25.66,22.26,19.19,17.15,15.95,16.59,17.92,19.78,23.06,29.24,33.56,36.56,39.76,45.48,49.99,53.18,54.95,54.98,53.11,49.05,43.93,40.27,38.68,37.54,36.90,36.94,38.91,41.67,45.09,48.66,50.85,49.17,44.89,40.48,39.05,38.19,37.62,37.33,37.33,37.87,39.39,41.93,45.75,51.44,51.22,50.11,48.86,47.95,47.70,47.57,48.08,49.62,52.82,56.54,60.53,63.91,65.50,65.58,66.05,66.60,67.18,68.73,69.25,68.53,66.70,64.24,62.75,60.55,57.50,53.67,50.30,46.63,43.10,40.10,38.34,36.31,34.34,32.73,31.84,30.62,30.31,30.22,29.88,29.52,29.45,29.48,29.44,29.15,28.77,27.73,26.33,24.85,22.68,20.25,18.30,16.97,15.47,13.99,12.53,11.14,9.85,9.00,7.70,6.06,e,e,e,e,e,e,e,e,e,e,e,e,e,e,e,e,e,e,e,e,e,e,e,e,e,e,e,e,e,e,e,e,e,e,e,e,e,e,e,e,e,e,e,e,e,e,e,e,e,e,e,e
61.25,66.92,73.64,80.20,84.19,86.82,88.69,89.85,90.55,90.87,90.61,89.47,84.68,80.23,77.63,77.61,78.44,79.27,80.25,81.15,81.39,81.09,80.27,78.89,76.99,74.75,72.08,68.59,64.20,59.42,53.80,48.98,44.98,41.36,37.72,34.66,32.72,32.26,33.28,34.08,34.58,35.05,36.21,38.14,39.97,41.47,42.46,43.63,43.58,42.40,40.14,36.78,32.78,29.37,26.60,24.14,23.39,24.10,25.98,28.84,33.55,38.75,43.44,47.27,50.19,51.75,52.63,53.10,53.38,53.27,53.43,53.68,53.90,53.83,53.97,54.34,54.83,55.23,55.62,55.61,55.48,55.47,55.47,55.46,55.41,55.34,55.26,55.31,55.23,54.73,53.51,51.48,48.47,44.97,41.39,38.32,35.56,32.90,30.32,27.86,25.25,22.24,19.50,17.66,17.30,18.08,19.70,22.43,27.48,31.48,34.75,37.84,41.49,47.96,52.56,55.82,57.80,57.19,55.05,52.13,48.46,43.77,40.91,39.27,38.61,38.83,41.39,44.98,48.55,51.52,53.32,51.25,47.51,43.59,41.10,40.43,39.78,39.37,39.37,39.91,43.69,48.22,52.37,55.10,54.26,52.79,51.31,50.31,50.01,49.83,50.22,51.66,55.21,59.19,63.92,68.11,69.84,69.92,70.07,70.45,71.03,71.15,70.40,69.10,67.39,65.42,63.87,61.96,59.39,56.02,52.50,49.02,45.63,42.43,39.79,37.48,35.34,33.31,31.33,28.98,27.99,27.66,27.43,26.93,26.63,26.49,26.39,26.15,25.31,23.94,22.32,20.74,19.25,17.63,16.15,14.89,13.54,12.03,10.47,8.92,7.49,6.39,4.99,3.10,e,e,e,e,e,e,e,e,e,e,e,e,e,e,e,e,e,e,e,e,e,e,e,e,e,e,e,e,e,e,e,e,e,e,e,e,e,e,e,e,e,e,e,e,e,e,e,e,e,e,e,e
60.83,66.33,72.70,78.86,82.49,84.64,85.93,86.87,87.53,87.90,87.73,86.65,82.52,77.68,74.23,73.38,73.67,74.35,75.62,77.10,77.75,77.55,76.79,75.57,74.00,72.06,69.88,67.08,63.50,59.31,54.24,49.54,45.36,41.51,37.76,34.23,31.49,30.01,30.49,30.84,31.02,31.23,32.05,34.28,36.55,38.60,40.27,41.73,42.12,41.44,39.61,36.37,32.49,28.29,24.52,22.31,21.94,23.24,25.56,28.40,32.55,37.61,42.05,45.44,48.00,49.21,49.98,50.39,50.43,50.27,50.21,50.35,50.68,50.98,51.51,52.15,52.74,53.05,53.25,52.98,52.68,52.68,52.72,52.72,52.70,52.66,52.62,52.66,52.65,52.33,51.41,49.44,46.87,43.81,40.59,38.51,36.15,33.75,31.37,29.09,26.55,23.36,20.49,18.80,18.69,19.95,22.07,25.00,29.26,32.40,35.30,38.48,42.49,49.10,53.99,57.49,59.62,59.29,57.14,54.48,51.40,47.43,44.23,42.24,41.44,41.79,44.27,48.32,51.96,54.33,55.17,52.41,48.97,45.78,43.58,43.48,43.15,42.91,43.04,43.84,48.19,53.07,57.05,58.76,57.26,55.56,54.12,53.20,52.93,52.80,53.15,54.36,57.36,61.82,66.51,70.37,72.25,72.89,72.76,72.31,71.81,71.02,69.55,67.86,66.08,64.30,63.03,61.46,59.33,56.47,53.17,49.97,46.83,43.77,40.87,38.35,36.00,33.70,31.31,28.61,26.53,25.27,24.80,24.19,23.76,23.48,23.23,22.77,21.88,20.60,19.13,17.71,16.55,15.27,13.99,12.75,11.51,10.14,8.59,6.95,5.37,4.02,e,e,e,e,e,e,e,e,e,e,e,e,e,e,e,e,e,e,e,e,e,e,e,e,e,e,e,e,e,e,e,e,e,e,e,e,e,e,e,e,e,e,e,e,e,e,e,e,e,e,e,e,e,e
60.62,65.86,71.73,77.12,80.45,82.25,82.98,83.55,84.17,84.62,84.51,83.32,79.98,75.23,71.21,69.37,69.15,69.65,71.15,73.15,74.15,73.81,73.03,71.96,70.69,68.99,67.29,65.19,62.45,58.93,54.90,50.59,46.16,41.86,38.07,34.21,30.74,28.16,27.64,27.54,27.53,27.64,28.14,30.48,33.05,35.57,37.86,39.55,40.33,40.13,38.80,35.69,32.05,26.97,22.01,20.17,20.52,22.47,25.11,27.75,31.13,36.00,40.32,43.45,45.62,46.55,47.21,47.55,47.40,47.22,46.91,46.88,47.29,48.01,48.95,49.89,50.61,50.86,50.81,50.31,49.86,49.82,49.90,49.92,49.94,49.98,50.01,50.01,50.06,49.91,49.25,47.24,45.01,42.43,39.77,38.72,36.96,35.00,32.98,30.89,28.20,24.77,21.79,20.27,20.08,21.72,24.23,27.14,30.07,32.87,35.65,38.91,43.26,49.76,54.94,58.71,60.98,61.23,59.17,56.51,53.68,50.75,47.66,45.62,44.81,45.31,47.57,51.90,55.51,57.25,56.96,53.52,50.21,47.71,46.28,46.76,46.84,46.87,47.15,48.29,52.52,57.17,60.92,62.43,60.51,58.66,57.23,56.33,56.08,56.02,56.35,57.34,59.66,64.40,68.68,71.92,73.99,74.98,74.46,73.06,71.33,69.85,67.93,65.97,64.12,62.45,61.44,60.16,58.39,55.99,53.06,50.17,47.33,44.51,41.62,38.97,36.45,33.96,31.42,28.63,25.57,23.25,22.26,21.55,21.01,20.61,20.22,19.50,18.61,17.51,16.27,15.04,14.04,12.96,11.81,10.61,9.45,8.31,6.88,5.22,3.52,e,e,e,e,e,e,e,e,e,e,e,e,e,e,e,e,e,e,e,e,e,e,e,e,e,e,e,e,e,e,e,e,e,e,e,e,e,e,e,e,e,e,e,e,e,e,e,e,e,e,e,e,e,e,e
60.33,65.18,70.32,74.37,77.31,79.03,79.68,80.00,80.64,81.17,81.19,80.19,77.10,72.59,68.00,64.54,63.98,64.29,66.06,68.73,70.52,69.96,69.16,68.18,66.88,65.57,64.27,62.67,60.63,58.10,55.18,51.86,47.89,42.89,38.70,34.85,31.29,28.03,25.59,25.11,25.08,25.10,25.41,27.46,29.89,32.37,34.66,36.31,37.70,38.14,37.19,34.37,31.41,25.90,19.98,18.19,19.40,21.58,24.17,26.77,29.27,33.29,37.59,41.26,43.03,43.75,44.18,44.37,44.27,43.94,43.45,43.24,43.55,44.42,45.59,47.02,48.27,48.56,48.22,47.60,47.02,46.76,46.84,46.85,47.00,47.27,47.44,47.46,47.47,47.29,46.65,45.03,42.94,40.93,39.35,38.50,37.60,36.33,34.64,32.55,29.00,25.84,23.52,22.27,21.49,22.57,24.74,27.52,30.40,33.19,35.97,39.33,44.02,50.17,55.40,59.35,61.81,62.55,60.78,58.20,55.34,52.41,50.07,49.02,49.01,49.79,52.15,56.38,59.65,60.74,59.31,55.62,52.17,49.83,49.28,49.86,50.29,50.57,50.89,52.32,55.91,60.15,64.00,66.10,64.92,63.00,61.07,59.70,59.36,59.28,59.61,60.60,62.91,66.74,70.21,73.11,75.52,75.17,73.78,71.83,69.74,67.76,65.76,63.85,62.11,60.59,59.40,58.12,56.46,54.23,51.74,49.18,46.64,44.11,41.47,38.89,36.41,33.98,31.49,28.65,25.50,22.57,20.34,19.58,18.83,18.36,18.02,17.15,16.02,14.86,13.64,12.36,11.35,10.54,9.62,8.50,7.34,6.68,5.65,4.20,2.50,e,e,e,e,e,e,e,e,e,e,e,e,e,e,e,e,e,e,e,e,e,e,e,e,e,e,e,e,e,e,e,e,e,e,e,e,e,e,e,e,e,e,e,e,e,e,e,e,e,e,e,e,e,e,e
59.81,63.65,67.53,70.56,72.69,74.11,75.01,75.71,76.67,77.40,77.57,76.86,74.35,70.34,65.60,61.05,59.22,59.00,60.27,62.68,65.44,65.62,65.18,64.34,63.19,62.21,61.24,60.13,58.78,57.02,54.89,52.24,48.69,43.72,39.38,35.62,32.08,28.49,24.86,23.22,22.59,22.55,22.75,24.49,26.69,29.14,31.68,33.42,35.05,36.01,35.80,33.47,30.76,25.14,18.83,16.50,18.21,20.52,23.01,25.36,27.46,30.42,33.91,37.40,39.70,40.55,40.90,40.91,40.73,40.00,39.31,39.14,39.77,41.41,42.98,44.62,45.93,46.18,45.74,45.02,44.31,43.84,43.76,43.87,44.17,44.59,44.88,44.91,44.89,44.67,44.03,42.69,41.10,39.66,38.66,38.35,38.31,37.58,35.93,33.32,29.60,26.91,25.12,23.98,23.01,23.74,25.52,27.96,30.73,33.50,36.27,39.67,44.54,50.60,55.90,59.88,62.36,63.87,62.28,59.82,57.13,54.41,52.67,52.13,52.57,53.77,56.53,60.60,63.29,63.51,61.17,57.71,54.50,52.47,52.52,53.04,53.56,54.02,54.54,55.87,59.07,63.17,67.23,69.85,69.69,68.10,65.92,63.99,63.45,63.26,63.47,64.22,65.96,69.34,72.58,75.12,76.61,74.99,72.98,70.66,68.15,65.64,63.55,61.68,60.00,58.53,57.20,55.86,54.29,52.30,50.04,47.71,45.37,43.03,40.63,38.16,35.87,33.68,31.39,28.35,24.94,21.74,19.27,18.28,17.26,16.46,15.79,14.87,13.65,12.46,11.34,10.28,9.33,8.57,7.79,6.82,5.39,4.65,4.06,3.18,1.48,e,e,e,e,e,e,e,e,e,e,e,e,e,e,e,e,e,e,e,e,e,e,e,e,e,e,e,e,e,e,e,e,e,e,e,e,e,e,e,e,e,e,e,e,e,e,e,e,e,e,e,e,e,e,e
59.10,61.56,63.90,66.06,67.15,68.15,69.46,70.89,72.41,73.42,73.77,73.40,71.66,68.32,63.71,58.46,54.88,53.88,54.18,55.77,59.47,60.95,61.12,60.50,59.63,58.94,58.25,57.59,56.89,55.74,54.20,52.02,48.90,44.41,40.11,36.47,33.02,29.32,24.98,21.72,20.15,20.02,20.18,21.59,23.49,25.90,28.80,30.76,32.44,33.82,34.51,32.78,30.05,24.54,18.21,15.01,16.91,19.26,21.60,23.68,25.69,27.51,29.77,32.62,35.88,37.08,37.41,37.24,36.88,35.67,34.80,34.82,36.05,38.75,40.83,42.50,43.60,43.76,43.31,42.53,41.68,41.00,40.69,40.93,41.39,41.90,42.30,42.34,42.29,42.04,41.41,40.29,39.39,38.55,37.84,38.27,39.06,38.79,37.03,33.64,30.18,28.03,26.65,25.50,24.58,25.09,26.46,28.46,31.07,33.82,36.55,39.94,44.92,51.03,56.42,60.37,62.79,65.18,63.70,61.39,59.02,56.65,55.38,55.08,55.75,57.43,60.83,64.66,66.61,65.87,62.78,59.81,57.06,55.39,55.90,56.29,56.75,57.36,58.20,59.23,62.22,66.28,70.54,73.63,74.65,73.65,71.41,68.90,68.10,67.73,67.74,68.12,68.95,72.18,75.45,77.57,77.38,74.59,72.10,69.49,66.53,63.51,61.33,59.49,57.85,56.37,54.90,53.48,51.96,50.20,48.04,45.88,43.70,41.50,39.33,36.98,34.96,33.12,31.11,27.82,24.08,20.84,18.73,17.42,16.11,14.84,13.67,12.72,11.51,10.33,9.33,8.60,7.74,6.89,6.17,5.40,3.58,e,e,e,e,e,e,e,e,e,e,e,e,e,e,e,e,e,e,e,e,e,e,e,e,e,e,e,e,e,e,e,e,e,e,e,e,e,e,e,e,e,e,e,e,e,e,e,e,e,e,e,e,e,e,e,e,e,e,e
57.51,58.49,60.06,60.89,61.36,61.94,63.01,65.13,67.59,69.24,69.96,69.89,68.59,66.07,62.25,57.39,53.42,50.86,50.03,50.89,53.06,55.82,57.06,57.29,57.27,56.68,56.01,55.38,54.76,53.86,52.56,50.77,48.36,45.16,41.26,37.62,34.05,30.31,25.67,21.53,18.97,18.12,18.33,19.24,20.63,22.72,25.69,28.30,30.51,32.02,32.59,31.59,28.41,23.30,17.68,13.94,14.67,16.14,18.54,21.82,23.78,25.59,27.51,29.57,31.70,32.89,33.20,32.82,32.04,31.17,30.76,31.44,33.43,36.14,38.76,40.47,41.24,41.40,40.85,39.97,38.95,37.99,37.58,37.84,38.33,38.88,39.47,39.48,39.41,39.18,38.62,38.19,37.87,37.65,37.68,38.74,39.80,40.06,38.90,35.55,32.38,29.90,28.08,26.85,25.97,26.19,27.33,29.23,31.54,34.09,36.65,39.99,45.11,51.37,56.94,61.18,63.94,66.33,65.10,63.11,61.10,59.12,58.25,58.14,58.89,60.72,65.45,68.81,69.85,68.44,65.45,62.19,59.32,57.94,59.28,59.83,60.46,61.48,62.98,64.40,67.25,70.53,73.86,76.95,78.96,79.12,77.65,75.07,73.77,73.09,72.78,72.78,73.27,76.20,78.53,79.16,77.26,74.27,71.12,67.90,64.66,61.44,59.39,57.67,56.01,54.34,52.86,51.31,49.47,47.20,45.09,42.98,41.11,39.36,36.99,34.92,33.13,31.41,29.45,26.66,23.02,20.00,18.42,17.16,15.86,14.56,13.28,12.04,10.90,9.92,8.87,7.57,6.62,5.62,4.69,3.77,2.54,e,e,e,e,e,e,e,e,e,e,e,e,e,e,e,e,e,e,e,e,e,e,e,e,e,e,e,e,e,e,e,e,e,e,e,e,e,e,e,e,e,e,e,e,e,e,e,e,e,e,e,e,e,e,e,e,e,e,e
55.21,55.51,56.67,56.82,56.83,57.01,57.81,60.28,63.10,65.18,66.32,66.50,65.62,63.76,60.67,56.41,52.48,49.15,47.20,46.94,48.47,51.50,53.31,54.18,54.67,54.30,53.74,53.17,52.60,51.81,50.63,49.11,47.20,44.82,41.75,38.39,34.88,31.18,26.30,21.56,18.25,16.66,16.50,17.22,18.22,19.93,22.83,25.76,28.26,29.98,30.72,30.27,27.01,22.27,17.08,12.77,12.47,13.08,15.05,18.54,21.61,23.61,25.25,26.76,28.08,29.10,29.33,28.99,28.42,27.77,28.17,29.65,32.06,34.72,37.22,38.57,38.92,38.98,38.28,37.26,36.08,34.98,34.47,34.69,35.22,35.85,36.45,36.41,36.32,36.13,35.70,35.86,36.24,36.85,37.74,39.28,40.56,41.09,40.36,37.57,34.73,32.10,29.88,28.22,27.37,27.36,28.29,30.06,32.22,34.64,37.09,40.48,45.96,52.17,57.66,62.02,65.13,67.59,66.74,65.12,63.43,61.84,61.37,61.53,62.46,64.46,69.51,72.59,73.15,71.31,68.15,64.78,62.10,61.09,62.73,63.52,64.44,65.69,67.35,68.97,71.63,74.45,77.34,80.58,83.27,84.41,83.93,82.04,80.64,79.71,78.95,78.34,78.24,80.26,80.93,79.53,75.90,72.67,69.27,65.80,62.38,59.57,57.62,55.89,54.18,52.42,50.78,48.85,46.58,44.00,42.11,40.31,38.72,37.14,34.64,32.65,31.00,29.42,27.54,25.07,21.94,19.38,18.07,16.84,15.56,14.28,13.04,11.90,10.95,9.99,8.79,7.17,6.07,4.93,3.80,2.71,1.66,e,e,e,e,e,e,e,e,e,e,e,e,e,e,e,e,e,e,e,e,e,e,e,e,e,e,e,e,e,e,e,e,e,e,e,e,e,e,e,e,e,e,e,e,e,e,e,e,e,e,e,e,e,e,e,e,e,e,e
52.18,52.62,53.73,53.88,53.59,53.41,53.91,56.38,58.94,61.25,62.87,63.24,62.76,61.39,58.96,55.50,52.07,48.79,45.75,43.94,45.77,48.04,49.89,51.16,51.81,51.79,51.43,50.95,50.43,49.58,48.40,47.02,45.38,43.34,41.54,38.79,35.51,31.93,26.85,21.83,18.00,15.66,14.71,15.55,16.28,17.55,20.21,23.15,25.68,27.67,28.92,28.82,25.86,21.47,16.41,11.51,10.33,10.08,11.10,13.78,19.17,21.55,22.99,24.17,25.06,25.72,25.82,25.77,26.06,25.51,27.10,29.51,31.98,34.54,36.23,36.80,36.63,36.49,35.60,34.38,33.08,31.97,31.36,31.49,32.06,32.81,33.21,33.11,33.00,32.87,32.65,33.30,34.50,36.13,38.04,39.87,41.32,41.90,41.40,39.70,37.23,34.65,32.06,29.63,28.78,28.61,29.34,30.96,33.12,35.49,37.89,41.43,47.49,53.46,58.59,62.89,66.36,68.97,68.64,67.43,66.02,64.83,64.75,65.23,66.46,68.69,72.99,75.99,76.53,74.48,70.88,67.59,65.42,64.84,66.25,67.38,68.68,70.00,71.31,72.93,75.34,78.03,80.99,84.52,87.61,89.53,90.24,89.84,88.74,87.61,86.28,84.83,83.89,84.37,82.62,78.64,73.29,69.75,66.52,63.16,59.70,57.92,56.03,54.15,52.34,50.63,48.67,46.11,43.27,40.57,39.08,37.86,36.54,34.83,32.28,30.15,28.56,27.15,25.37,23.04,20.82,18.99,17.69,16.45,15.21,14.01,12.96,12.31,11.67,10.57,9.09,7.42,6.12,4.82,3.52,2.22,0.92,e,e,e,e,e,e,e,e,e,e,e,e,e,e,e,e,e,e,e,e,e,e,e,e,e,e,e,e,e,e,e,e,e,e,e,e,e,e,e,e,e,e,e,e,e,e,e,e,e,e,e,e,e,e,e,e,e,e,e
48.41,48.99,50.44,50.54,50.05,49.75,50.38,53.26,55.86,57.68,58.75,59.28,58.77,57.40,55.36,52.85,50.14,47.14,44.13,41.85,41.97,44.23,46.15,47.47,48.18,48.27,48.39,48.23,47.66,46.81,45.79,44.57,43.16,41.51,40.17,38.02,35.32,32.27,28.17,22.45,18.01,15.30,12.97,13.12,13.77,15.22,17.94,20.79,23.30,25.27,26.60,27.25,24.57,20.78,16.43,11.76,10.25,9.76,10.13,11.45,15.55,18.51,20.30,21.17,21.89,22.30,22.36,22.50,23.22,24.23,26.62,29.34,31.82,34.09,34.71,34.57,34.14,33.94,32.99,31.71,30.34,29.14,28.38,28.43,29.01,29.81,30.24,30.18,30.12,30.17,30.42,31.71,33.53,35.80,38.32,40.36,42.04,42.75,42.23,40.29,38.05,35.71,33.36,31.22,30.51,30.46,31.16,32.60,34.67,36.87,39.55,43.40,49.13,54.72,59.86,64.53,68.56,71.05,71.35,70.79,69.88,69.00,68.96,69.80,71.81,75.05,77.98,79.61,79.26,76.86,73.00,70.18,68.73,68.77,70.29,71.63,72.68,73.67,74.79,76.37,78.67,81.38,84.54,88.46,92.93,95.61,96.57,96.11,94.35,92.84,91.12,89.10,87.14,85.49,82.85,78.48,71.73,67.67,64.11,61.00,58.35,56.47,54.55,52.63,50.74,48.86,46.77,44.25,41.58,39.14,37.71,36.27,34.76,33.11,31.15,29.32,27.66,26.04,24.26,22.17,20.38,18.87,17.60,16.37,15.43,14.43,13.36,12.42,11.65,10.73,9.55,8.08,6.72,5.36,3.96,2.62,1.81,e,e,e,e,e,e,e,e,e,e,e,e,e,e,e,e,e,e,e,e,e,e,e,e,e,e,e,e,e,e,e,e,e,e,e,e,e,e,e,e,e,e,e,e,e,e,e,e,e,e,e,e,e,e,e,e,e,e,e
44.47,45.06,46.61,46.71,46.18,46.02,46.98,50.24,52.65,53.93,54.47,54.91,54.41,53.18,51.60,49.91,47.89,45.23,42.40,39.85,38.45,40.58,42.43,43.70,44.48,44.76,45.25,45.34,44.81,43.98,43.07,41.97,40.77,39.63,38.62,37.10,35.04,32.43,29.25,22.99,18.02,14.92,11.63,11.14,11.56,12.97,15.55,18.38,20.99,23.06,24.52,25.77,23.43,20.25,16.63,12.43,10.44,9.69,9.63,9.98,12.42,15.54,17.57,18.33,18.91,19.12,19.28,19.78,21.07,23.08,25.98,28.94,31.44,33.24,33.11,32.52,31.87,31.38,30.34,28.99,27.56,26.27,25.44,25.40,25.94,26.79,27.36,27.44,27.60,28.05,28.95,30.65,32.96,35.71,38.63,40.88,42.85,43.62,42.95,40.79,38.70,36.63,34.68,33.03,32.41,32.40,33.06,34.39,36.31,38.53,41.54,45.58,50.85,56.06,61.16,66.02,70.33,72.81,74.06,74.65,74.75,74.37,74.41,75.36,77.45,80.61,82.48,82.65,81.34,78.74,75.11,72.70,72.02,72.79,74.45,75.86,76.67,77.34,78.27,79.92,82.23,84.91,88.11,92.33,97.59,100.81,101.98,101.31,98.96,96.83,94.54,91.94,89.10,85.97,82.83,78.50,71.36,66.71,62.78,59.78,57.68,55.71,53.78,51.99,50.28,48.48,46.53,44.12,41.52,39.06,37.42,35.79,34.07,32.25,30.51,28.86,27.15,25.38,23.61,21.78,20.27,18.95,17.72,16.66,15.89,14.99,13.89,12.75,11.81,10.94,9.94,8.64,7.24,5.81,4.48,3.36,2.79,2.38,1.63,e,e,e,e,e,e,e,e,e,e,e,e,e,e,e,e,e,e,e,e,e,e,e,e,e,e,e,e,e,e,e,e,e,e,e,e,e,e,e,e,e,e,e,e,e,e,e,e,e,e,e,e,e,e,e,e,e
40.36,40.71,41.89,42.03,41.78,42.15,43.77,47.27,49.06,49.84,49.99,49.93,49.53,48.78,47.81,46.72,45.29,43.07,40.49,37.86,35.57,37.28,38.79,39.90,40.80,41.42,42.03,42.24,41.88,41.10,40.19,39.13,38.16,37.70,36.90,36.08,34.69,32.37,29.77,23.35,17.96,14.45,11.00,10.04,9.97,10.86,12.87,15.85,18.80,21.22,22.96,24.46,22.58,19.97,17.03,13.63,10.78,9.69,9.55,9.68,10.29,12.81,14.85,15.82,16.30,16.37,16.83,18.04,20.23,22.05,25.01,28.13,30.68,31.70,31.45,30.86,30.02,28.78,27.57,26.15,24.67,23.34,22.56,22.37,22.81,23.73,24.59,24.97,25.67,26.88,28.69,30.39,32.99,35.99,38.99,41.48,43.82,44.53,43.52,41.36,39.27,37.53,36.17,35.20,34.58,34.42,35.00,36.32,37.99,40.64,43.99,48.02,52.70,57.56,62.50,67.15,71.19,73.92,76.65,79.25,81.23,81.74,81.95,82.56,83.43,84.41,85.88,84.63,82.36,79.84,77.29,75.13,75.28,76.97,78.72,79.99,80.65,81.11,81.82,83.76,86.25,88.78,91.72,96.09,100.88,104.30,105.72,104.80,102.16,99.01,95.76,92.53,89.10,85.74,82.57,78.72,72.95,67.61,63.35,60.19,58.01,56.14,54.27,52.87,51.82,50.62,49.21,46.96,44.14,41.13,38.80,37.16,35.26,32.86,30.57,28.81,27.11,25.38,23.61,22.08,20.69,19.38,18.16,17.59,16.71,15.69,14.60,13.51,12.40,11.33,10.22,8.96,7.50,5.99,5.02,4.59,3.72,2.89,1.95,e,e,e,e,e,e,e,e,e,e,e,e,e,e,e,e,e,e,e,e,e,e,e,e,e,e,e,e,e,e,e,e,e,e,e,e,e,e,e,e,e,e,e,e,e,e,e,e,e,e,e,e,e,e,e,e,e
37.71,37.82,38.46,38.22,38.02,38.71,40.68,44.00,45.40,45.86,45.84,45.76,45.46,45.04,44.48,43.70,42.54,40.50,37.92,35.16,32.89,34.09,35.55,36.85,37.80,38.46,39.12,39.39,39.08,38.19,37.17,36.08,35.28,35.33,34.76,34.32,33.54,32.06,29.66,23.54,18.15,14.36,10.73,9.70,9.45,9.87,11.03,13.54,16.42,19.16,21.42,22.93,21.88,19.72,16.88,13.67,10.81,9.69,9.48,9.47,9.74,11.14,12.58,13.59,13.85,13.73,14.62,16.39,18.69,20.39,22.70,25.28,27.69,28.85,28.76,28.02,26.88,25.61,24.45,23.08,21.84,20.99,20.57,20.45,20.76,21.53,22.77,24.16,25.75,27.55,29.56,31.37,33.66,36.33,39.22,41.80,44.36,45.38,44.69,42.64,40.93,39.44,38.25,37.41,36.68,36.46,36.97,38.31,40.55,43.88,47.51,51.38,55.56,59.99,64.54,68.77,72.40,75.30,78.52,82.06,85.34,87.16,87.88,88.48,88.96,89.20,88.52,86.32,83.85,81.57,79.49,77.65,77.96,79.71,81.48,82.72,83.54,84.19,84.99,87.04,90.12,92.84,95.47,99.33,103.63,106.97,108.44,107.32,103.40,99.28,95.48,92.06,88.54,85.03,81.55,77.61,72.48,68.01,64.14,61.03,58.77,57.19,56.03,55.16,54.36,53.24,51.87,50.00,47.74,45.15,41.86,39.18,36.61,33.91,31.00,29.02,27.37,25.95,24.72,23.48,22.22,20.84,19.37,18.51,17.47,16.39,15.30,14.18,12.95,11.74,10.50,9.18,7.83,6.60,5.71,5.10,4.17,3.24,2.27,1.29,0.36,e,e,e,e,e,e,e,e,e,e,e,e,e,e,e,e,e,e,e,e,e,e,e,e,e,e,e,e,e,e,e,e,e,e,e,e,e,e,e,e,e,e,e,e,e,e,e,e,e,e,e,e,e,e,e
35.45,35.30,35.34,34.70,34.52,35.45,37.64,40.61,41.75,42.03,41.93,41.95,41.64,41.44,41.12,40.50,39.49,37.60,35.04,32.28,30.33,31.13,32.56,34.01,35.02,35.69,36.34,36.63,36.34,35.33,34.16,33.04,32.38,32.79,32.53,32.35,32.05,31.36,29.05,23.50,18.38,14.45,10.65,9.60,9.20,9.23,9.68,11.48,14.07,16.94,19.64,21.23,21.06,19.36,16.59,13.44,10.81,9.72,9.43,9.28,9.57,9.97,10.73,11.60,11.66,11.45,12.72,14.91,17.08,18.63,20.17,21.97,23.99,25.32,25.41,24.66,23.45,22.34,21.33,20.15,19.26,19.01,19.01,19.07,19.33,20.03,21.74,24.10,26.45,28.69,30.74,32.67,34.60,36.85,39.53,42.23,44.93,46.37,46.20,44.42,43.16,41.90,40.79,39.93,38.97,38.75,39.35,40.95,43.97,47.87,51.69,55.42,59.18,63.14,67.04,70.60,73.73,76.75,80.28,84.41,88.57,91.56,93.00,93.91,94.31,94.05,91.08,88.15,85.65,83.64,81.75,80.20,80.51,82.10,83.80,85.07,86.08,87.00,88.12,90.49,94.05,96.90,99.22,102.44,106.23,109.40,110.68,108.94,103.69,98.81,94.61,91.05,87.55,83.94,80.19,76.13,71.55,68.12,64.93,62.18,60.03,58.77,58.26,57.80,57.10,55.95,54.45,52.92,51.23,49.18,45.46,41.69,38.24,35.12,31.75,29.51,27.93,26.87,26.21,25.23,24.07,22.59,20.82,19.43,18.18,17.02,15.89,14.69,13.38,12.05,10.72,9.38,8.19,7.24,6.34,5.42,4.49,3.56,2.59,1.61,0.68,e,e,e,e,e,e,e,e,e,e,e,e,e,e,e,e,e,e,e,e,e,e,e,e,e,e,e,e,e,e,e,e,e,e,e,e,e,e,e,e,e,e,e,e,e,e,e,e,e,e,e,e,e,e,e
33.21,32.71,32.15,31.41,31.35,32.43,34.61,37.03,38.24,38.58,38.51,38.63,37.98,37.67,37.29,36.54,35.53,33.88,31.70,29.42,28.06,28.89,30.04,31.24,32.35,33.21,33.77,33.97,33.72,32.65,31.35,30.19,29.60,30.10,30.39,30.37,30.13,29.58,27.26,22.87,18.55,14.76,10.91,9.68,8.99,8.80,9.26,10.12,11.96,14.39,17.04,19.18,19.67,18.64,16.36,13.31,11.02,9.87,9.37,9.08,9.27,9.53,9.87,10.18,10.20,10.25,11.72,13.94,15.85,17.11,18.03,18.91,19.88,20.62,20.75,20.62,20.19,19.27,18.60,17.90,17.53,17.76,18.11,18.52,19.07,20.12,22.57,25.08,27.47,29.77,32.01,33.94,35.88,37.91,40.21,43.26,46.02,47.86,48.41,47.27,46.37,45.35,44.37,43.47,42.01,41.88,43.14,45.75,49.52,53.40,57.18,60.87,64.53,67.90,70.42,72.71,75.20,78.22,82.33,86.75,90.93,94.17,96.85,98.77,99.41,98.25,94.09,90.66,88.11,86.23,84.19,82.76,83.10,84.56,85.98,87.39,88.37,89.55,91.47,95.07,98.35,100.79,102.82,105.59,108.84,111.76,112.20,108.39,102.44,97.48,93.12,89.18,85.58,82.01,78.34,74.61,70.91,67.73,65.56,63.95,62.61,61.60,60.97,60.39,59.66,58.50,56.82,55.22,53.50,51.44,49.41,45.24,40.64,36.48,33.27,30.74,29.25,28.51,27.99,27.11,25.98,24.43,22.40,20.32,18.74,17.39,16.11,14.77,13.40,12.02,10.73,9.58,8.59,7.61,6.66,5.74,4.81,3.88,2.91,1.93,1.00,e,e,e,e,e,e,e,e,e,e,e,e,e,e,e,e,e,e,e,e,e,e,e,e,e,e,e,e,e,e,e,e,e,e,e,e,e,e,e,e,e,e,e,e,e,e,e,e,e,e,e,e,e,e,e
31.30,30.28,29.42,28.71,28.62,29.40,31.10,33.37,34.86,35.57,35.74,35.73,35.03,34.34,33.42,32.19,31.52,30.09,28.19,26.40,25.93,26.74,27.69,28.71,29.79,30.52,31.02,31.18,30.80,29.20,27.47,26.45,26.29,27.00,27.69,27.82,27.69,27.36,25.44,21.93,18.29,14.83,11.23,9.78,8.85,8.47,8.78,9.32,10.44,12.17,14.44,16.79,17.46,17.16,15.89,13.47,11.27,10.03,9.40,9.08,9.04,9.16,9.31,9.43,9.56,9.77,11.04,12.87,14.51,15.53,15.99,16.36,16.88,17.42,17.48,17.44,17.20,16.41,16.75,16.99,17.29,17.79,18.09,18.48,19.07,20.25,23.01,25.91,28.47,30.82,33.16,35.13,37.09,39.16,41.48,44.52,47.33,49.30,50.21,49.90,49.52,48.83,48.01,47.19,45.92,46.12,47.88,51.02,54.91,58.34,61.68,64.97,68.20,71.04,73.03,74.80,76.90,80.01,84.44,88.82,92.69,95.82,98.88,101.61,102.78,101.35,97.80,94.68,91.86,89.24,86.64,85.24,85.66,87.26,88.99,90.69,91.86,93.32,95.61,99.00,101.95,104.30,106.58,109.95,113.21,114.34,112.64,107.83,101.74,96.75,92.43,88.55,84.99,81.78,78.47,75.00,71.41,68.94,67.68,66.83,65.82,64.63,63.78,62.67,61.34,60.25,58.67,56.91,55.05,53.18,51.58,48.09,43.12,37.67,34.80,32.55,31.10,30.28,29.78,29.00,27.85,26.26,24.15,21.34,19.33,17.71,16.29,14.80,13.34,11.88,10.58,9.57,8.74,7.88,6.98,6.06,5.13,4.20,3.23,2.25,1.32,e,e,e,e,e,e,e,e,e,e,e,e,e,e,e,e,e,e,e,e,e,e,e,e,e,e,e,e,e,e,e,e,e,e,e,e,e,e,e,e,e,e,e,e,e,e,e,e,e,e,e,e,e,e,e
29.66,28.09,27.04,26.35,26.11,26.38,27.34,29.57,31.37,32.58,33.07,32.74,32.06,30.86,29.20,27.39,27.23,26.13,24.61,23.40,23.86,24.59,25.40,26.29,27.23,27.69,28.14,28.23,27.57,25.21,22.98,22.15,22.59,23.61,24.68,24.98,24.99,24.92,23.57,20.80,17.76,14.72,11.50,9.85,8.76,8.22,8.27,8.80,9.29,10.25,11.93,14.22,14.85,15.27,15.20,13.66,11.49,10.16,9.48,9.16,8.85,8.84,8.92,9.05,9.35,9.66,10.51,11.75,13.07,13.88,13.98,14.06,14.45,14.99,14.97,14.87,14.66,14.13,15.70,16.98,17.91,18.50,18.57,18.75,19.26,20.47,23.32,26.65,29.44,31.86,34.25,36.27,38.29,40.51,43.05,45.89,48.71,50.66,51.74,52.34,52.55,52.25,51.64,50.94,50.18,50.78,52.87,56.23,59.91,62.74,65.49,68.24,70.92,73.32,75.22,76.91,78.75,81.99,86.56,90.69,94.08,96.93,99.99,103.46,105.31,103.99,101.83,99.39,96.28,92.59,89.22,87.82,88.38,90.28,92.61,94.56,96.00,97.70,100.08,102.64,105.25,107.72,110.55,114.92,118.25,116.91,112.58,107.26,101.33,96.39,92.23,88.64,85.19,82.49,79.66,76.41,72.57,71.00,70.52,70.15,69.23,67.69,66.52,64.70,62.57,61.54,60.14,58.19,56.16,54.50,52.71,50.36,45.54,38.96,36.46,34.71,33.26,32.16,31.58,30.86,29.67,28.05,25.91,22.38,19.85,17.93,16.34,14.73,13.19,11.65,10.33,9.43,8.75,8.07,7.28,6.35,5.44,4.52,3.55,2.57,1.64,0.71,e,e,e,e,e,e,e,e,e,e,e,e,e,e,e,e,e,e,e,e,e,e,e,e,e,e,e,e,e,e,e,e,e,e,e,e,e,e,e,e,e,e,e,e,e,e,e,e,e,e,e,e,e,e
29.19,27.40,25.66,24.17,23.59,23.42,23.60,24.84,26.22,27.60,28.15,26.68,25.36,23.69,21.79,20.07,20.70,21.03,21.14,21.22,21.63,22.12,22.88,23.65,24.17,24.52,24.84,24.38,22.76,19.85,17.90,17.04,17.52,19.64,21.40,22.16,22.39,22.41,21.39,19.25,16.70,13.94,10.91,9.59,8.73,8.13,7.76,8.19,8.69,9.39,10.36,11.62,12.53,13.22,13.47,12.88,11.25,10.13,9.44,9.03,8.66,8.61,8.69,8.84,9.10,9.40,9.92,10.61,11.40,11.82,11.81,11.80,12.02,12.51,12.91,13.82,15.13,16.38,18.14,19.10,19.47,19.51,19.48,19.49,20.02,21.42,24.22,27.37,30.23,32.83,35.27,37.44,39.61,41.98,44.63,47.32,49.70,51.51,52.85,54.04,54.75,55.07,54.88,54.15,53.59,53.88,55.51,58.42,61.85,64.87,67.70,70.35,72.84,75.23,77.32,79.16,81.05,84.29,88.40,91.91,94.76,97.51,101.23,105.67,108.47,107.70,105.59,103.39,100.59,97.08,93.11,91.61,92.71,95.32,97.84,99.20,100.39,101.87,103.92,106.52,109.10,112.13,115.70,119.73,120.98,118.30,113.02,106.70,100.97,96.64,92.90,89.40,86.24,83.80,81.18,78.13,74.49,73.41,72.86,72.34,71.47,70.03,68.15,65.92,63.71,62.39,60.64,58.64,56.55,54.56,52.62,50.42,46.81,42.09,39.25,37.29,35.72,34.47,33.50,32.53,31.27,29.48,26.93,22.86,19.71,17.28,15.41,13.89,12.45,11.01,9.81,9.05,8.52,8.03,7.34,6.44,5.68,4.82,3.87,2.89,1.96,1.03,e,e,e,e,e,e,e,e,e,e,e,e,e,e,e,e,e,e,e,e,e,e,e,e,e,e,e,e,e,e,e,e,e,e,e,e,e,e,e,e,e,e,e,e,e,e,e,e,e,e,e,e,e,e
26.03,24.66,22.98,21.16,20.13,18.99,17.68,17.56,18.22,19.09,19.31,17.72,16.85,15.31,13.83,13.04,13.70,14.39,14.92,15.38,16.11,16.54,17.31,18.07,18.41,18.80,19.09,18.63,17.13,14.64,13.22,12.52,12.83,14.71,16.30,17.42,18.24,18.78,18.17,17.01,15.23,12.91,10.36,9.33,8.58,7.93,7.38,7.66,8.13,8.70,9.30,10.00,10.85,11.44,11.69,11.56,10.61,9.84,9.26,8.83,8.44,8.37,8.46,8.64,8.85,9.12,9.46,9.83,10.24,10.42,10.39,10.39,10.67,11.87,13.01,14.65,16.68,18.69,20.44,21.25,21.39,21.17,21.04,20.97,21.40,22.66,25.20,28.03,30.91,33.69,36.26,38.58,40.90,43.34,45.94,48.51,50.56,52.25,53.73,55.25,56.50,57.41,57.73,57.32,56.99,57.14,58.44,60.98,64.20,67.13,69.74,72.15,74.52,76.94,79.23,81.34,83.43,86.51,89.95,92.91,95.47,98.12,102.37,107.11,110.35,110.52,108.83,107.07,104.64,101.33,97.32,96.46,97.95,100.63,103.04,103.96,104.91,106.08,107.70,110.17,112.88,116.45,120.57,124.17,122.95,119.13,113.53,107.01,101.51,97.48,93.90,90.42,87.35,84.90,82.43,79.84,77.15,76.17,75.24,74.13,72.71,71.08,68.78,66.31,64.02,62.42,60.59,58.56,56.43,54.24,52.18,50.01,47.26,44.04,41.39,39.26,37.56,36.13,34.71,33.44,32.07,30.20,27.44,23.04,19.58,16.89,14.79,13.01,11.55,10.30,9.33,8.67,8.13,7.69,7.24,6.71,5.93,5.05,4.12,3.18,2.28,1.35,e,e,e,e,e,e,e,e,e,e,e,e,e,e,e,e,e,e,e,e,e,e,e,e,e,e,e,e,e,e,e,e,e,e,e,e,e,e,e,e,e,e,e,e,e,e,e,e,e,e,e,e,e,e
20.47,20.08,19.16,17.38,15.80,13.23,9.79,8.00,7.68,7.43,6.96,6.16,6.71,5.85,5.37,6.26,6.29,6.38,6.24,6.27,7.63,8.16,9.01,9.85,10.24,10.78,11.14,11.18,10.76,9.55,8.90,8.52,8.48,8.92,9.57,10.98,12.69,14.16,13.99,14.16,13.40,11.66,9.86,9.07,8.32,7.63,7.11,7.20,7.62,8.16,8.71,9.25,9.74,9.92,9.85,9.77,9.59,9.31,8.96,8.57,8.19,8.11,8.23,8.44,8.60,8.82,9.11,9.37,9.53,9.61,9.63,9.73,10.30,12.88,15.07,17.17,19.19,21.05,22.61,23.43,23.62,23.39,23.17,23.12,23.35,24.16,26.27,28.65,31.47,34.46,37.22,39.69,42.16,44.59,47.01,49.48,51.31,52.89,54.39,56.01,57.83,59.30,60.22,60.47,60.38,60.55,61.66,63.88,66.90,69.50,71.65,73.66,75.99,78.46,80.97,83.44,85.88,88.67,91.22,93.72,96.21,98.76,103.44,107.83,111.09,112.55,111.60,110.47,108.43,105.37,101.80,102.27,104.01,106.20,108.20,108.83,109.52,110.32,111.43,113.60,116.59,120.69,125.17,128.28,124.23,119.45,114.11,108.12,102.85,98.85,95.22,91.68,88.51,85.83,83.43,81.53,80.47,79.24,77.65,75.56,73.04,70.97,68.51,65.96,63.58,61.74,60.02,58.02,55.83,53.60,51.44,49.16,46.97,44.93,42.97,40.71,38.85,37.20,35.29,33.68,32.17,30.26,27.49,22.93,19.45,16.73,14.47,12.09,10.50,9.53,8.90,8.28,7.59,7.07,6.99,7.13,6.21,5.22,4.30,3.45,2.60,1.67,e,e,e,e,e,e,e,e,e,e,e,e,e,e,e,e,e,e,e,e,e,e,e,e,e,e,e,e,e,e,e,e,e,e,e,e,e,e,e,e,e,e,e,e,e,e,e,e,e,e,e,e,e,e
14.63,14.94,14.22,12.49,10.47,7.53,e,e,e,e,e,e,e,e,e,2.63,2.68,e,e,2.82,3.83,3.63,4.66,6.15,7.03,7.43,7.59,7.67,7.61,6.68,6.46,6.36,6.42,6.85,7.51,8.55,9.71,10.70,10.88,11.20,11.04,10.29,9.17,8.45,7.76,7.10,6.50,6.86,7.39,7.96,8.49,8.93,9.35,9.60,9.62,9.40,9.06,8.80,8.54,8.20,7.86,7.87,8.03,8.25,8.40,8.58,8.79,9.00,9.20,9.42,9.62,10.10,11.27,14.27,17.20,19.53,21.35,23.11,24.71,25.57,25.82,25.63,25.45,25.41,25.59,26.13,27.31,29.34,31.99,35.01,38.06,40.58,42.93,45.26,47.63,49.86,51.61,53.16,54.65,56.23,58.02,59.69,61.09,62.15,63.06,63.67,64.98,67.14,69.29,71.29,73.14,75.03,77.20,79.20,81.56,84.02,86.43,88.98,91.42,93.84,96.28,98.73,103.14,107.65,111.16,112.87,113.45,112.65,110.86,108.40,105.75,107.00,109.03,111.27,113.51,114.79,115.51,116.04,116.67,117.94,122.05,126.28,129.27,129.57,124.85,119.65,114.31,109.02,104.71,101.18,97.93,94.67,91.17,88.70,86.61,84.62,82.43,80.25,77.78,75.16,72.51,70.00,67.22,64.44,61.83,59.64,58.05,56.37,54.49,52.36,50.34,48.41,46.56,44.73,42.84,40.83,38.94,37.12,35.19,33.37,31.74,29.60,26.44,21.83,18.07,15.02,12.61,10.73,9.79,9.04,8.40,7.78,7.18,6.57,6.19,6.05,5.93,5.54,4.81,3.86,2.92,1.90,0.95,e,e,e,e,e,e,e,e,e,e,e,e,e,e,e,e,e,e,e,e,e,e,e,e,e,e,e,e,e,e,e,e,e,e,e,e,e,e,e,e,e,e,e,e,e,e,e,e,e,e,e,e,e
9.62,10.37,9.67,7.55,e,e,e,e,e,e,e,e,e,e,e,e,e,e,e,e,e,e,e,e,4.03,4.44,4.45,4.53,4.70,4.12,4.16,4.26,4.46,4.96,5.77,6.63,7.41,8.02,8.55,8.94,9.18,9.12,8.43,7.73,7.07,6.49,6.05,6.61,7.20,7.75,8.23,8.62,8.99,9.30,9.44,9.23,8.77,8.45,8.16,7.80,7.57,7.66,7.88,8.12,8.31,8.50,8.68,8.88,9.14,9.42,9.99,11.19,13.26,16.44,19.50,21.81,23.56,25.28,26.83,27.70,27.99,27.89,27.72,27.68,27.80,28.11,28.75,30.51,32.82,35.59,38.73,40.93,43.02,45.18,47.47,49.62,51.34,52.83,54.23,55.74,57.52,59.39,61.17,62.77,64.31,65.38,66.90,68.95,70.63,72.24,73.89,75.73,77.90,79.58,81.82,84.24,86.61,88.95,91.33,93.76,96.20,98.62,102.78,107.38,111.10,113.00,114.78,114.52,113.24,111.57,110.17,111.60,113.59,115.92,118.74,120.77,121.76,122.31,122.93,124.36,128.60,131.66,132.30,130.14,124.97,119.71,114.70,110.12,106.57,103.39,100.49,97.62,94.09,91.34,89.02,86.66,83.67,80.79,77.75,74.76,71.96,69.14,66.19,63.26,60.43,57.82,56.03,54.49,52.90,51.02,49.20,47.53,45.88,44.19,42.41,40.60,38.68,36.70,34.73,32.86,31.09,28.66,25.06,20.57,16.57,13.33,10.98,9.71,9.21,8.60,7.93,7.30,6.74,6.09,5.49,5.10,5.27,5.33,4.97,4.25,3.36,2.28,1.34,e,e,e,e,e,e,e,e,e,e,e,e,e,e,e,e,e,e,e,e,e,e,e,e,e,e,e,e,e,e,e,e,e,e,e,e,e,e,e,e,e,e,e,e,e,e,e,e,e,e,e,e,e
5.88,6.73,5.79,2.57,e,e,e,e,e,e,e,e,e,e,e,e,e,e,e,e,e,e,e,e,1.04,1.70,1.70,1.72,1.97,1.88,1.95,2.14,2.51,3.11,4.21,5.23,6.00,6.46,7.33,7.75,8.12,8.29,7.60,6.90,6.21,5.77,5.86,6.47,7.03,7.51,7.91,8.30,8.63,8.97,9.25,9.29,8.84,8.35,7.84,7.37,7.34,7.51,7.77,8.07,8.36,8.66,8.91,9.15,9.45,9.69,10.90,13.31,16.75,19.79,22.02,24.00,25.87,27.64,29.00,29.80,30.16,30.19,29.96,29.92,29.93,30.10,30.79,32.42,34.12,36.23,39.16,40.47,42.10,44.01,46.15,48.45,50.23,51.61,52.80,54.21,56.04,58.11,60.14,61.88,63.42,64.95,66.65,68.53,70.36,71.94,73.54,75.42,77.84,79.47,81.66,84.03,86.34,88.52,90.89,93.39,95.96,98.42,102.40,107.03,110.90,112.98,115.35,115.99,115.65,115.02,115.35,116.08,117.49,119.96,123.85,126.72,128.31,129.35,130.64,133.95,136.73,136.61,133.72,129.78,124.33,119.59,115.42,111.55,108.40,105.34,102.72,100.38,97.29,93.50,90.09,87.00,83.86,80.73,77.58,74.47,71.44,68.52,65.64,62.70,59.67,56.51,54.04,52.32,50.97,49.56,48.05,46.45,44.82,43.20,41.62,39.92,37.96,35.84,33.77,32.05,30.15,27.33,23.25,19.10,14.96,11.76,9.80,9.21,8.81,8.22,7.53,6.85,6.24,5.61,5.00,4.44,4.07,4.31,4.59,4.59,4.00,2.92,1.91,e,e,e,e,e,e,e,e,e,e,e,e,e,e,e,e,e,e,e,e,e,e,e,e,e,e,e,e,e,e,e,e,e,e,e,e,e,e,e,e,e,e,e,e,e,e,e,e,e,e,e,e,e
e,3.51,e,e,e,e,e,e,e,e,e,e,e,e,e,e,e,e,e,e,e,e,e,e,e,e,e,e,e,e,e,e,e,e,3.03,3.95,4.72,5.45,6.38,6.84,7.25,7.46,6.77,6.07,5.50,5.30,5.67,6.28,6.78,7.21,7.59,7.93,8.28,8.63,8.94,9.14,8.85,8.41,7.94,7.58,7.70,7.91,8.16,8.44,8.79,9.07,9.29,9.60,10.18,11.76,13.97,16.74,19.81,22.29,24.30,26.23,28.05,29.54,30.74,31.63,32.21,32.49,32.34,32.63,32.92,33.17,33.79,35.05,36.37,37.58,38.58,39.29,40.60,42.34,44.37,46.52,48.22,49.86,51.42,52.68,54.59,56.65,58.76,60.83,62.41,64.03,65.76,67.58,69.23,70.71,72.29,74.28,76.99,79.19,81.44,83.69,85.92,88.08,90.41,92.91,95.52,98.07,101.83,106.39,110.36,112.63,114.61,116.43,117.83,118.77,119.55,120.33,121.76,124.32,128.49,132.16,134.32,135.51,136.39,138.67,139.52,137.38,132.80,127.90,122.33,118.04,114.48,110.99,107.70,104.78,102.41,100.08,95.72,91.45,87.99,85.08,82.20,79.36,76.37,73.34,70.33,67.32,64.43,61.53,58.53,55.29,52.31,50.55,49.40,48.15,46.64,45.14,43.64,42.12,40.54,38.82,36.93,34.90,32.82,30.87,28.59,25.53,21.52,17.51,13.47,10.73,9.41,8.82,8.38,7.81,7.14,6.45,5.83,5.18,4.54,3.94,3.39,3.27,3.47,3.73,3.68,3.33,2.39,1.40,e,e,e,e,e,e,e,e,e,e,e,e,e,e,e,e,e,e,e,e,e,e,e,e,e,e,e,e,e,e,e,e,e,e,e,e,e,e,e,e,e,e,e,e,e,e,e,e,e,e,e,e
e,e,e,e,e,e,e,e,e,e,e,e,e,e,e,e,e,e,e,e,e,e,e,e,e,e,e,e,e,e,e,e,e,e,e,2.77,3.58,4.58,5.43,5.99,6.44,6.62,5.94,5.24,4.87,4.93,5.49,6.07,6.49,6.87,7.25,7.57,7.94,8.28,8.61,8.94,8.86,8.55,8.18,7.92,8.15,8.40,8.64,8.91,9.27,9.63,10.07,10.73,11.79,14.56,17.41,20.14,22.58,24.59,26.52,28.36,29.98,31.17,32.29,33.31,34.07,34.43,34.35,34.79,35.21,35.51,35.97,36.79,37.59,37.92,37.32,37.58,38.65,40.25,42.16,44.24,45.83,47.65,49.56,50.99,53.04,55.10,57.28,59.62,61.36,63.00,64.72,66.46,67.91,69.30,70.86,72.91,75.85,78.69,81.10,83.30,85.45,87.57,89.84,92.31,94.93,97.53,100.97,105.25,109.12,111.49,113.32,116.21,119.13,121.47,122.63,123.88,125.67,128.50,132.88,136.87,139.36,140.64,141.09,141.66,140.29,136.22,130.32,124.94,119.73,115.93,112.80,109.52,106.09,103.29,100.93,98.20,92.72,88.35,85.07,82.47,79.92,77.36,74.62,71.77,68.87,65.83,62.98,60.14,57.17,53.94,50.79,49.03,47.97,46.77,45.20,43.75,42.35,40.92,39.34,37.60,35.79,33.89,31.84,29.55,26.88,23.65,19.84,16.04,12.29,10.07,9.27,8.53,7.99,7.40,6.75,6.07,5.44,4.77,4.11,3.48,2.86,2.34,2.28,2.56,2.89,e,e,e,e,e,e,e,e,e,e,e,e,e,e,e,e,e,e,e,e,e,e,e,e,e,e,e,e,e,e,e,e,e,e,e,e,e,e,e,e,e,e,e,e,e,e,e,e,e,e,e,e,e,e,e
e,e,e,e,e,e,e,e,e,e,e,e,e,e,e,e,e,e,e,e,e,e,e,e,e,e,e,e,e,e,e,e,e,e,e,1.79,2.77,3.79,4.34,5.16,5.70,5.73,5.10,4.41,4.35,4.76,5.36,5.79,6.14,6.49,6.87,7.25,7.58,7.93,8.31,8.75,8.91,8.81,8.56,8.31,8.54,8.82,9.11,9.40,9.66,10.47,11.89,13.70,15.62,18.34,20.60,22.71,24.82,26.83,28.72,30.20,31.33,32.32,33.58,34.79,35.46,35.32,35.24,35.10,35.05,35.13,35.30,35.55,35.39,35.01,34.70,34.76,35.74,37.23,39.01,41.39,42.85,44.42,46.38,48.85,51.17,53.41,55.68,58.06,60.24,61.98,63.63,65.23,66.57,67.96,69.43,71.38,74.32,77.71,80.49,82.84,84.92,86.90,89.05,91.48,94.08,96.58,99.45,102.91,106.11,108.38,111.30,114.73,118.11,121.06,123.11,125.60,128.41,131.97,136.83,139.83,141.93,143.34,143.97,142.56,138.49,132.06,124.80,119.81,116.21,113.09,110.02,106.66,103.37,100.69,97.62,93.66,88.47,84.75,81.75,79.24,76.99,74.37,71.93,69.43,66.72,63.88,61.23,58.42,55.39,52.21,49.72,48.01,46.74,45.49,43.82,42.27,40.81,39.42,37.98,36.30,34.54,32.72,30.82,28.04,25.08,21.81,18.24,14.98,11.93,10.12,9.36,8.48,7.70,6.98,6.32,5.68,5.00,4.36,3.70,3.03,2.41,1.77,1.36,1.23,1.36,e,e,e,e,e,e,e,e,e,e,e,e,e,e,e,e,e,e,e,e,e,e,e,e,e,e,e,e,e,e,e,e,e,e,e,e,e,e,e,e,e,e,e,e,e,e,e,e,e,e,e,e,e,e,e
e,e,e,e,e,e,e,e,e,e,e,e,e,e,e,e,e,e,e,e,e,e,e,e,e,e,e,e,e,e,e,e,e,e,e,e,1.97,2.94,3.54,4.47,4.98,4.89,4.27,3.87,4.06,4.57,5.05,5.43,5.79,6.14,6.49,6.88,7.29,7.70,8.15,8.64,8.98,9.08,8.95,8.69,8.96,9.26,9.77,10.55,11.54,12.92,14.73,16.77,18.77,21.10,23.10,25.03,26.98,28.78,30.30,31.54,32.55,33.52,34.39,34.92,34.89,34.24,33.96,33.35,32.92,32.79,32.83,32.84,32.52,32.10,31.94,31.87,32.41,33.34,34.61,36.67,38.38,40.35,42.75,45.70,48.84,51.66,54.19,56.52,58.87,60.81,62.47,63.93,65.28,66.70,68.19,70.15,73.06,76.65,79.67,82.10,84.06,86.06,88.14,90.41,92.81,95.14,97.40,99.83,101.98,103.73,108.66,112.85,116.52,119.73,122.50,125.57,128.86,132.78,137.85,140.55,142.49,143.79,144.29,142.49,136.54,129.01,121.87,117.89,114.41,111.32,108.39,105.38,101.93,98.97,95.80,92.06,87.52,83.69,80.43,77.57,74.89,71.99,69.53,67.14,64.57,61.89,59.43,56.85,54.10,51.31,49.13,47.30,45.69,44.17,42.51,40.91,39.40,37.97,36.51,34.96,33.29,31.47,29.44,26.68,23.69,20.51,17.27,14.63,12.15,10.46,9.48,8.59,7.77,7.03,6.35,5.70,5.00,4.31,3.62,2.94,2.28,1.59,1.00,e,e,e,e,e,e,e,e,e,e,e,e,e,e,e,e,e,e,e,e,e,e,e,e,e,e,e,e,e,e,e,e,e,e,e,e,e,e,e,e,e,e,e,e,e,e,e,e,e,e,e,e,e,e,e,e,e
e,e,e,e,e,e,e,e,e,e,e,e,e,e,e,e,e,e,e,e,e,e,e,e,e,e,e,e,e,e,e,e,e,e,e,e,e,2.08,2.87,3.83,4.27,4.06,3.46,3.46,3.85,4.36,4.67,5.05,5.44,5.80,6.14,6.54,7.06,7.55,8.04,8.58,9.05,9.31,9.30,9.07,9.42,9.84,10.70,12.11,14.04,15.97,17.89,19.75,21.52,23.38,25.29,27.19,29.00,30.52,31.61,32.63,33.61,34.49,34.75,34.35,33.48,32.38,31.68,30.59,29.81,29.53,29.54,29.46,29.28,29.06,28.89,28.61,28.57,28.86,29.61,31.21,33.30,35.81,38.72,42.01,46.22,49.86,52.78,55.04,57.39,59.53,61.25,62.60,63.98,65.43,67.02,69.05,71.88,75.48,78.62,81.08,82.89,84.95,86.96,89.04,91.19,93.33,95.03,96.41,97.51,98.82,105.57,110.61,114.56,117.89,121.22,124.65,128.24,132.35,137.39,140.21,142.10,143.18,143.43,141.93,134.84,127.03,120.68,117.85,113.91,110.56,107.74,105.13,101.44,98.16,95.17,92.18,88.25,84.04,80.32,76.96,73.58,70.34,67.73,65.30,62.76,60.18,57.90,55.64,53.34,51.09,48.98,46.94,44.95,43.03,41.32,39.66,38.10,36.60,35.05,33.63,32.05,30.19,27.94,25.40,22.52,19.54,16.75,14.67,12.65,10.94,9.63,8.78,8.01,7.29,6.59,5.90,5.20,4.45,3.72,3.03,2.33,1.63,0.93,e,e,e,e,e,e,e,e,e,e,e,e,e,e,e,e,e,e,e,e,e,e,e,e,e,e,e,e,e,e,e,e,e,e,e,e,e,e,e,e,e,e,e,e,e,e,e,e,e,e,e,e,e,e,e,e,e
e,e,e,e,e,e,e,e,e,e,e,e,e,e,e,e,e,e,e,e,e,e,e,e,e,e,e,e,e,e,e,e,e,e,e,e,e,1.33,2.27,3.26,3.60,3.26,2.81,3.14,3.57,3.99,4.35,4.68,5.10,5.53,5.96,6.46,6.99,7.49,7.97,8.52,9.04,9.38,9.49,9.42,10.06,11.33,12.83,14.47,16.40,18.34,20.13,21.84,23.57,25.42,27.33,28.99,30.31,31.63,32.78,33.59,33.99,33.88,33.58,32.98,32.14,31.06,29.13,27.08,25.97,25.90,25.96,25.84,25.61,25.13,24.21,22.99,22.48,22.83,24.11,26.16,28.45,30.70,33.40,37.57,43.01,47.87,51.59,53.86,55.93,57.92,59.73,61.31,62.59,63.94,65.76,67.99,70.47,73.82,76.65,78.88,80.63,82.55,84.45,86.43,88.47,90.47,92.02,92.85,94.04,96.62,101.20,107.10,111.95,115.28,118.66,122.98,127.23,131.38,135.55,139.25,141.25,142.08,142.07,140.97,135.22,128.85,123.61,120.97,117.13,113.53,110.24,107.18,103.70,100.91,98.24,95.15,90.68,86.45,82.58,78.87,75.05,71.80,69.06,66.29,63.24,60.41,58.30,56.49,54.80,53.04,50.31,47.99,45.77,43.25,40.79,38.88,37.20,35.58,34.03,32.48,30.84,28.95,26.60,24.16,21.61,19.31,17.39,15.36,13.35,11.43,9.82,8.97,8.25,7.54,6.85,6.15,5.46,4.75,4.04,3.34,2.65,1.91,1.19,e,e,e,e,e,e,e,e,e,e,e,e,e,e,e,e,e,e,e,e,e,e,e,e,e,e,e,e,e,e,e,e,e,e,e,e,e,e,e,e,e,e,e,e,e,e,e,e,e,e,e,e,e,e,e,e,e
e,e,e,e,e,e,e,e,e,e,e,e,e,e,e,e,e,e,e,e,e,e,e,e,e,e,e,e,e,e,e,e,e,e,e,e,e,e,e,2.65,2.90,2.51,2.40,2.84,3.26,3.65,4.04,4.43,4.89,5.37,5.85,6.39,6.93,7.43,7.91,8.45,8.99,9.41,9.69,9.95,11.28,13.09,14.98,16.81,18.63,20.40,22.13,23.85,25.61,27.46,29.07,30.34,31.35,32.59,33.19,33.43,33.34,32.82,32.28,31.55,30.54,29.08,26.10,23.44,22.06,21.98,22.22,22.15,22.08,21.75,20.84,19.63,19.09,19.49,20.91,23.04,25.39,27.64,30.29,34.46,40.31,45.60,49.73,52.34,54.22,56.09,57.91,59.59,61.02,62.65,64.72,67.02,69.24,71.98,74.39,76.42,78.13,79.90,81.64,83.40,85.13,86.78,88.18,89.12,90.78,94.11,97.69,102.95,108.03,112.27,116.06,120.54,125.76,130.74,134.19,137.48,139.52,140.41,140.30,139.37,134.87,129.69,125.01,121.79,118.25,114.74,111.37,108.25,105.24,102.76,100.29,97.32,92.86,89.02,85.17,81.15,76.91,73.89,71.31,68.67,65.70,62.62,60.19,58.26,56.63,54.98,51.92,49.15,46.45,43.48,40.61,38.56,36.76,34.99,33.28,31.55,29.81,27.94,25.79,23.40,21.06,19.13,17.69,15.82,13.95,12.02,10.26,9.21,8.49,7.80,7.10,6.41,5.71,5.00,4.29,3.59,2.90,2.16,1.46,e,e,e,e,e,e,e,e,e,e,e,e,e,e,e,e,e,e,e,e,e,e,e,e,e,e,e,e,e,e,e,e,e,e,e,e,e,e,e,e,e,e,e,e,e,e,e,e,e,e,e,e,e,e,e,e,e
e,e,e,e,e,e,e,e,e,e,e,e,e,e,e,e,e,e,e,e,e,e,e,e,e,e,e,e,e,e,e,e,e,e,e,e,e,e,e,2.01,2.19,1.79,2.17,2.56,2.94,3.33,3.72,4.26,4.80,5.31,5.78,6.32,6.87,7.36,7.85,8.39,8.93,9.42,9.91,10.61,12.93,15.06,17.15,19.13,20.76,22.24,23.95,25.80,27.65,29.51,30.57,31.34,32.18,33.42,33.01,32.40,31.88,31.42,30.88,30.08,28.74,26.57,22.71,19.71,18.08,17.82,18.36,18.41,18.65,18.81,18.50,18.03,17.79,18.21,19.48,21.41,23.73,26.17,28.90,32.38,38.01,43.11,47.35,50.55,52.32,54.10,55.84,57.55,59.33,61.52,63.85,66.13,68.14,69.99,71.90,73.74,75.42,77.05,78.61,80.03,81.30,82.46,83.69,85.23,87.67,91.36,94.83,98.32,103.10,108.95,113.43,117.50,123.92,130.37,133.22,135.08,137.10,138.31,138.19,137.26,133.95,129.75,125.23,120.83,117.74,114.58,111.44,108.55,106.23,103.91,101.56,98.87,94.85,91.72,88.02,83.71,79.09,76.46,74.27,72.13,69.69,66.37,63.24,60.73,58.76,56.90,53.74,50.40,47.03,43.73,40.71,38.59,36.70,34.75,32.74,30.80,28.92,27.11,25.41,23.02,20.78,19.00,17.72,16.09,14.47,12.69,10.88,9.49,8.75,8.05,7.36,6.66,5.97,5.22,4.48,3.78,3.09,2.39,1.74,e,e,e,e,e,e,e,e,e,e,e,e,e,e,e,e,e,e,e,e,e,e,e,e,e,e,e,e,e,e,e,e,e,e,e,e,e,e,e,e,e,e,e,e,e,e,e,e,e,e,e,e,e,e,e,e,e
e,e,e,e,e,e,e,e,e,e,e,e,e,e,e,e,e,e,e,e,e,e,e,e,e,e,e,e,e,e,e,e,e,e,e,e,e,e,e,1.29,1.60,1.47,1.85,2.28,2.72,3.17,3.66,4.20,4.74,5.24,5.72,6.26,6.80,7.30,7.78,8.32,8.91,9.45,10.36,11.96,14.32,16.66,18.75,20.53,22.10,23.85,25.55,27.29,29.16,30.28,31.21,31.96,32.45,32.51,31.84,31.00,30.14,29.39,28.55,27.22,25.43,23.18,19.91,16.91,14.91,14.03,13.83,14.98,16.22,16.96,16.65,16.48,17.08,18.16,19.59,21.42,23.69,26.07,28.64,31.62,36.06,40.12,43.79,47.10,49.67,51.73,53.54,55.43,58.09,60.68,62.91,64.81,66.47,67.78,69.29,70.67,71.81,73.14,74.69,76.13,77.44,78.75,80.69,83.20,86.27,89.87,93.98,98.29,103.48,109.30,113.98,118.55,123.54,127.79,129.71,130.73,132.02,133.09,133.62,133.38,131.67,128.44,124.04,119.19,116.18,113.28,110.42,107.65,105.24,102.82,100.44,97.94,94.76,92.60,90.26,87.15,82.72,80.09,77.73,75.33,72.67,69.64,66.64,63.89,61.41,59.16,55.79,51.99,48.20,44.81,41.74,39.30,37.18,35.18,33.07,30.86,28.56,26.36,24.52,22.47,20.48,18.81,17.54,16.01,14.45,12.79,11.14,9.75,9.01,8.28,7.55,6.86,6.16,5.44,4.71,3.98,3.34,2.65,2.00,1.37,0.73,e,e,e,e,e,e,e,e,e,e,e,e,e,e,e,e,e,e,e,e,e,e,e,e,e,e,e,e,e,e,e,e,e,e,e,e,e,e,e,e,e,e,e,e,e,e,e,e,e,e,e,e,e,e,e
e,e,e,e,e,e,e,e,e,e,e,e,e,e,e,e,e,e,e,e,e,e,e,e,e,e,e,e,e,e,e,e,e,e,e,e,e,e,e,e,1.03,1.18,1.61,2.09,2.58,3.08,3.62,4.16,4.70,5.22,5.71,6.23,6.77,7.27,7.77,8.32,8.93,9.50,10.71,13.01,15.51,18.00,20.10,21.76,23.31,25.21,26.94,28.56,30.19,30.88,31.67,32.20,32.25,31.61,30.45,28.97,27.41,26.12,25.62,24.22,22.26,20.04,17.10,14.19,12.22,11.31,10.88,12.34,13.90,14.96,15.09,15.51,16.71,18.19,19.71,21.51,23.69,25.93,28.22,30.71,34.12,37.46,40.61,43.56,46.40,48.75,50.87,53.09,56.23,59.28,61.57,63.22,64.55,65.56,66.77,67.91,68.91,70.16,71.75,73.42,75.10,76.76,79.17,82.23,85.62,89.10,93.45,98.07,103.57,109.60,114.18,118.50,122.16,124.77,125.92,126.27,126.98,127.96,129.03,129.52,128.88,126.49,122.54,117.80,114.28,111.31,108.64,106.10,103.78,101.03,98.35,95.86,93.24,91.62,90.19,88.18,84.68,82.48,80.17,77.61,74.74,71.81,68.90,66.05,63.31,60.78,57.29,53.25,49.26,45.86,42.77,40.06,37.68,35.55,33.32,30.93,28.40,25.94,23.84,21.88,20.10,18.60,17.36,15.96,14.45,12.91,11.39,10.00,9.22,8.46,7.72,7.02,6.35,5.66,4.95,4.23,3.62,2.93,2.28,1.66,1.04,0.35,e,e,e,e,e,e,e,e,e,e,e,e,e,e,e,e,e,e,e,e,e,e,e,e,e,e,e,e,e,e,e,e,e,e,e,e,e,e,e,e,e,e,e,e,e,e,e,e,e,e,e,e,e,e
e,e,e,e,e,e,e,e,e,e,e,e,e,e,e,e,e,e,e,e,e,e,e,e,e,e,e,e,e,e,e,e,e,e,e,e,e,e,e,e,0.51,0.95,1.48,2.01,2.54,3.08,3.62,4.16,4.70,5.24,5.76,6.23,6.77,7.30,7.84,8.38,9.00,9.56,10.95,13.67,16.42,19.00,21.12,22.79,24.33,26.23,28.05,29.57,30.57,31.27,31.87,31.96,31.41,30.72,28.75,26.12,23.36,21.23,21.90,21.04,19.27,17.23,14.29,11.57,10.14,9.99,10.01,10.75,11.71,12.79,13.90,15.31,16.81,18.32,19.84,21.69,23.76,25.71,27.58,29.58,32.21,35.22,37.93,39.89,42.33,44.99,47.69,50.46,53.56,57.13,59.68,61.28,62.32,63.32,64.35,65.55,66.96,68.40,70.11,72.28,74.75,77.05,79.58,82.64,85.94,89.27,93.32,97.57,103.25,109.83,113.91,116.99,119.47,121.15,121.76,121.67,122.00,122.93,124.40,125.69,125.42,123.67,120.64,116.74,111.95,108.47,105.89,103.70,101.72,98.33,94.99,92.25,89.83,88.19,87.07,86.00,84.43,83.22,81.26,78.68,75.61,72.54,69.64,66.89,64.24,61.55,58.05,54.04,50.14,46.88,43.79,40.85,38.21,35.84,33.47,31.01,28.50,25.96,23.46,21.25,19.64,18.36,17.18,15.93,14.49,13.05,11.65,10.26,9.38,8.59,7.84,7.15,6.53,5.85,5.18,4.55,3.94,3.25,2.60,1.98,1.36,0.67,e,e,e,e,e,e,e,e,e,e,e,e,e,e,e,e,e,e,e,e,e,e,e,e,e,e,e,e,e,e,e,e,e,e,e,e,e,e,e,e,e,e,e,e,e,e,e,e,e,e,e,e,e,e
e,e,e,e,e,e,e,e,e,e,e,e,e,e,e,e,e,e,e,e,e,e,e,e,e,e,e,e,e,e,e,e,e,e,e,e,e,e,e,e,e,0.74,1.24,1.78,2.32,2.86,3.40,3.90,4.46,5.04,5.61,6.12,6.65,7.22,7.79,8.33,8.91,9.49,10.87,13.54,16.27,18.83,21.03,22.96,24.93,26.90,28.68,30.03,30.79,31.44,31.60,31.36,30.68,29.17,26.03,22.89,20.29,18.56,19.00,18.27,16.68,14.61,11.97,10.42,9.75,9.71,9.83,10.36,11.46,12.92,14.45,15.83,17.23,18.65,20.16,22.14,24.24,26.32,28.30,30.15,32.06,34.26,36.36,38.04,40.14,43.37,46.82,50.05,52.84,55.38,57.60,59.61,61.60,63.71,65.33,66.81,68.35,69.82,71.55,73.51,75.58,77.50,80.06,83.25,86.75,90.28,94.25,98.21,102.71,107.38,110.29,112.32,113.69,114.49,114.85,115.13,116.48,118.38,120.36,121.79,121.72,120.44,118.20,115.44,111.18,107.39,103.92,100.53,97.23,93.64,90.45,87.87,85.60,83.86,83.03,82.74,82.41,81.58,79.70,77.27,74.66,71.87,69.17,66.53,63.96,61.43,58.09,54.35,50.60,47.24,44.02,40.95,38.26,35.94,33.54,31.12,28.62,25.96,23.03,20.36,18.58,17.25,16.02,14.91,13.89,12.86,11.72,10.24,9.39,8.63,7.93,7.28,6.62,5.93,5.25,4.60,4.03,3.39,2.75,2.15,1.57,0.92,e,e,e,e,e,e,e,e,e,e,e,e,e,e,e,e,e,e,e,e,e,e,e,e,e,e,e,e,e,e,e,e,e,e,e,e,e,e,e,e,e,e,e,e,e,e,e,e,e,e,e,e,e,e
e,e,e,e,e,e,e,e,e,e,e,e,e,e,e,e,e,e,e,e,e,e,e,e,e,e,e,e,e,e,e,e,e,e,e,e,e,e,e,e,e,0.51,0.99,1.52,2.07,2.62,3.16,3.64,4.21,4.81,5.41,5.95,6.49,7.07,7.67,8.21,8.75,9.36,10.68,13.12,15.78,18.30,20.61,22.81,25.22,27.38,29.13,30.33,30.93,31.40,31.20,30.62,29.58,26.86,23.05,19.84,17.60,16.25,16.21,15.56,14.22,12.24,10.27,9.74,9.64,9.63,9.80,10.35,11.68,13.48,15.24,16.55,17.84,19.17,20.66,22.73,24.88,27.07,29.16,30.92,32.40,34.04,35.72,37.35,39.53,43.43,47.50,51.02,53.61,55.11,56.91,59.20,61.99,64.98,67.05,68.70,70.25,71.75,73.56,75.38,77.07,78.48,80.92,84.15,87.73,91.28,95.06,98.45,101.46,104.02,105.90,107.16,107.74,107.91,108.11,108.61,110.95,113.84,116.30,117.50,117.49,116.75,115.45,113.82,110.46,106.74,102.69,98.30,93.42,89.25,85.89,83.26,80.99,79.23,78.46,78.50,78.91,78.43,76.90,74.97,73.00,70.61,68.15,65.66,63.20,60.84,57.70,54.24,50.66,47.14,43.79,40.70,38.08,35.85,33.49,31.14,28.40,25.30,22.01,19.21,17.32,15.89,14.62,13.67,12.99,12.31,11.43,10.09,9.32,8.64,7.99,7.37,6.70,6.02,5.35,4.70,4.15,3.55,2.94,2.34,1.80,1.18,0.62,e,e,e,e,e,e,e,e,e,e,e,e,e,e,e,e,e,e,e,e,e,e,e,e,e,e,e,e,e,e,e,e,e,e,e,e,e,e,e,e,e,e,e,e,e,e,e,e,e,e,e,e,e
e,e,e,e,e,e,e,e,e,e,e,e,e,e,e,e,e,e,e,e,e,e,e,e,e,e,e,e,e,e,e,e,e,e,e,e,e,e,e,e,e,0.20,0.73,1.27,1.85,2.43,2.97,3.50,4.05,4.60,5.15,5.69,6.23,6.82,7.42,7.96,8.50,9.13,10.32,12.34,14.85,17.38,19.82,22.24,24.94,27.53,29.35,30.45,30.98,30.96,30.66,29.69,27.58,22.99,19.82,17.35,15.40,13.96,13.38,12.86,11.93,10.38,9.85,9.61,9.56,9.64,9.86,10.77,12.31,14.18,15.95,17.51,18.79,20.07,21.55,23.57,25.71,27.84,29.85,31.57,33.28,35.06,36.86,38.72,41.98,46.66,51.00,54.43,57.17,58.20,59.57,61.64,64.48,67.37,69.27,70.72,72.12,73.71,75.78,77.90,79.71,80.68,82.62,85.65,88.98,91.94,95.18,97.34,98.63,99.47,100.90,101.98,102.53,102.70,102.74,102.84,105.61,109.15,111.97,112.28,112.09,112.11,112.18,111.53,109.31,106.46,102.94,98.58,92.13,86.34,81.75,78.41,75.80,74.21,72.99,72.32,72.59,72.55,72.20,71.48,70.32,68.47,66.31,64.05,61.76,59.49,56.55,53.38,49.96,46.24,42.79,39.91,37.51,35.43,33.16,30.95,27.34,23.08,19.65,17.59,15.81,14.29,13.04,12.30,11.65,11.02,10.38,9.73,9.14,8.57,7.99,7.37,6.80,6.19,5.59,5.01,4.41,3.85,3.26,2.66,2.12,1.50,0.94,e,e,e,e,e,e,e,e,e,e,e,e,e,e,e,e,e,e,e,e,e,e,e,e,e,e,e,e,e,e,e,e,e,e,e,e,e,e,e,e,e,e,e,e,e,e,e,e,e,e,e,e,e
e,e,e,e,e,e,e,e,e,e,e,e,e,e,e,e,e,e,e,e,e,e,e,e,e,e,e,e,e,e,e,e,e,e,e,e,e,e,e,e,e,e,e,1.01,1.60,2.19,2.73,3.27,3.82,4.36,4.90,5.44,5.98,6.56,7.16,7.70,8.24,8.91,9.91,11.44,13.98,16.62,19.23,21.84,24.59,27.33,29.29,30.42,30.76,30.57,29.49,27.44,24.38,20.22,17.46,15.21,13.24,11.48,11.04,10.91,10.58,9.75,9.63,9.46,9.45,9.65,9.88,11.21,12.93,14.81,16.66,18.39,19.78,21.07,22.46,24.29,26.25,28.30,30.36,32.24,34.16,36.06,38.02,40.26,44.50,49.36,53.87,57.54,60.11,61.51,62.95,64.85,67.52,69.47,71.10,72.56,73.98,75.68,77.53,79.40,81.09,82.23,83.92,86.32,88.94,91.32,93.61,94.79,95.30,95.62,96.65,97.39,97.89,98.12,98.13,98.89,101.54,104.89,107.78,107.89,107.62,107.93,108.55,108.38,107.29,105.24,102.26,98.29,91.52,84.82,78.75,73.92,71.69,70.49,69.34,68.50,68.52,68.23,67.97,67.58,66.93,65.59,63.75,61.61,59.37,57.39,54.75,51.91,48.79,45.30,41.78,39.14,36.92,34.86,32.69,29.95,25.66,20.98,17.94,16.01,14.29,12.79,11.56,11.01,10.58,10.18,9.82,9.57,9.05,8.53,8.01,7.47,6.96,6.43,5.87,5.29,4.71,4.13,3.55,2.97,2.39,1.81,1.23,e,e,e,e,e,e,e,e,e,e,e,e,e,e,e,e,e,e,e,e,e,e,e,e,e,e,e,e,e,e,e,e,e,e,e,e,e,e,e,e,e,e,e,e,e,e,e,e,e,e,e,e,e
e,e,e,e,e,e,e,e,e,e,e,e,e,e,e,e,e,e,e,e,e,e,e,e,e,e,e,e,e,e,e,e,e,e,e,e,e,e,e,e,e,e,e,e,1.35,1.94,2.48,3.02,3.56,4.10,4.64,5.18,5.74,6.34,6.97,7.54,8.11,8.74,9.52,10.61,13.27,16.03,18.82,21.56,24.25,27.01,29.11,30.31,30.43,29.95,27.87,24.70,21.01,18.00,15.51,13.30,11.27,9.36,9.21,9.48,9.69,9.56,9.48,9.30,9.35,9.64,9.88,11.58,13.48,15.41,17.38,19.22,20.74,22.08,23.40,25.00,26.74,28.68,30.77,32.86,34.96,36.97,39.15,41.91,46.91,51.71,56.25,60.19,62.56,64.58,66.29,68.08,70.40,71.36,72.64,74.01,75.37,77.00,78.48,79.96,81.48,83.00,84.55,86.30,88.17,89.99,91.16,91.53,91.67,91.92,92.58,93.00,93.46,93.85,93.99,95.72,98.13,101.00,103.74,103.87,103.58,103.97,104.80,104.97,104.90,103.62,101.17,97.60,91.18,84.12,76.82,70.46,68.49,67.45,66.42,65.56,65.26,64.50,63.89,63.47,63.14,62.12,60.59,58.62,56.48,54.83,52.53,50.04,47.28,44.15,40.72,38.32,36.25,34.19,32.12,28.55,23.72,19.03,16.48,14.43,12.75,11.37,10.27,9.91,9.72,9.57,9.47,9.48,8.98,8.49,8.03,7.56,7.09,6.63,6.10,5.51,4.97,4.38,3.81,3.26,2.66,2.11,1.52,0.93,e,e,e,e,e,e,e,e,e,e,e,e,e,e,e,e,e,e,e,e,e,e,e,e,e,e,e,e,e,e,e,e,e,e,e,e,e,e,e,e,e,e,e,e,e,e,e,e,e,e,e,e
e,e,e,e,e,e,e,e,e,e,e,e,e,e,e,e,e,e,e,e,e,e,e,e,e,e,e,e,e,e,e,e,e,e,e,e,e,e,e,e,e,e,e,e,1.09,1.68,2.22,2.76,3.30,3.85,4.39,4.93,5.57,6.30,7.08,7.85,8.57,8.85,9.26,10.37,13.23,16.11,18.89,21.54,24.13,26.79,28.86,30.03,30.07,28.11,25.16,21.97,18.97,16.46,14.04,11.89,10.20,9.33,9.11,9.25,9.41,9.37,9.29,9.23,9.33,9.58,9.87,11.58,13.72,16.00,18.21,19.95,21.48,22.93,24.40,25.91,27.55,29.20,30.97,33.12,35.26,37.42,40.12,43.82,48.67,53.24,57.41,61.01,63.68,66.04,68.13,69.94,71.49,72.70,73.41,73.88,74.36,75.10,76.35,77.69,79.14,81.01,82.57,84.36,86.13,87.53,87.37,87.37,87.43,87.60,88.07,88.51,89.14,89.92,90.80,93.17,95.70,98.20,100.28,100.26,99.98,100.26,101.05,101.81,102.20,101.71,99.77,95.96,90.93,84.90,78.12,71.50,67.85,65.44,63.78,62.69,62.00,60.85,59.77,59.04,58.60,57.04,55.75,54.32,52.78,51.36,49.41,47.26,44.85,42.09,39.40,37.17,35.19,33.31,31.34,26.62,21.72,17.62,15.07,12.78,11.17,10.20,9.78,9.57,9.40,9.31,9.29,9.35,8.90,8.43,7.95,7.43,6.96,6.50,6.02,5.51,4.97,4.46,3.97,3.48,2.98,2.38,1.81,1.23,e,e,e,e,e,e,e,e,e,e,e,e,e,e,e,e,e,e,e,e,e,e,e,e,e,e,e,e,e,e,e,e,e,e,e,e,e,e,e,e,e,e,e,e,e,e,e,e,e,e,e,e
e,e,e,e,e,e,e,e,e,e,e,e,e,e,e,e,e,e,e,e,e,e,e,e,e,e,e,e,e,e,e,e,e,e,e,e,e,e,e,e,e,e,e,e,0.83,1.43,1.97,2.51,3.14,3.80,4.46,5.11,5.86,6.66,7.51,8.36,9.02,9.41,10.04,11.39,13.97,16.74,19.37,21.80,24.18,26.62,28.22,28.78,28.20,25.86,22.78,19.81,17.36,15.07,12.69,10.85,9.72,9.31,9.02,9.02,9.13,9.18,9.10,9.18,9.35,9.59,9.84,11.55,13.85,16.41,18.89,20.56,22.12,23.50,24.70,25.96,27.38,28.77,30.31,32.42,35.03,37.58,40.73,45.00,49.82,54.24,58.15,61.44,63.96,66.57,68.79,70.40,71.22,72.01,72.21,72.16,72.12,72.24,73.04,73.97,75.22,77.37,80.36,82.52,83.85,84.38,83.39,83.10,83.10,83.23,83.58,84.11,84.95,86.14,87.73,90.74,93.38,95.71,97.52,97.21,96.80,96.91,97.62,98.74,99.37,99.65,98.50,95.08,91.25,86.23,80.24,73.82,68.37,65.13,62.71,60.67,58.66,56.43,55.08,54.31,53.73,52.01,50.70,49.58,48.54,47.40,45.78,43.89,41.63,38.97,36.60,34.81,33.26,31.61,29.18,24.08,19.59,16.12,13.52,11.38,10.13,9.53,9.35,9.20,9.04,9.02,9.11,9.22,8.79,8.33,7.85,7.34,6.84,6.37,5.91,5.44,4.93,4.46,3.98,3.49,3.03,2.47,1.95,1.40,0.82,0.31,e,e,e,e,e,e,e,e,e,e,e,e,e,e,e,e,e,e,e,e,e,e,e,e,e,e,e,e,e,e,e,e,e,e,e,e,e,e,e,e,e,e,e,e,e,e,e,e,e,e
e,e,e,e,e,e,e,e,e,e,e,e,e,e,e,e,e,e,e,e,e,e,e,e,e,e,e,e,e,e,e,e,e,e,e,e,e,e,e,e,e,e,e,e,e,1.18,1.73,2.28,3.05,3.90,4.75,5.60,6.45,7.30,8.15,9.00,9.50,10.29,11.53,13.26,15.26,17.75,20.12,22.26,24.34,26.46,27.30,26.85,25.36,23.35,20.62,18.06,16.02,13.79,11.43,10.09,9.61,9.30,8.92,8.81,8.87,8.99,8.92,9.15,9.42,9.63,9.79,11.49,13.91,16.69,19.43,21.05,22.65,23.81,24.47,25.41,26.53,27.71,29.10,31.13,34.47,37.57,41.12,45.69,50.56,54.88,58.60,61.61,63.70,66.46,68.63,69.87,70.00,69.91,69.65,69.34,69.03,68.72,68.94,69.34,70.31,72.72,77.98,80.74,81.43,80.80,79.33,78.82,78.73,78.85,79.17,79.83,80.90,82.49,84.74,88.37,91.14,93.45,95.24,94.54,93.90,93.80,94.41,95.73,96.47,97.48,97.30,94.71,91.94,87.87,82.87,76.94,69.70,65.99,62.74,59.33,55.48,51.73,50.15,49.48,48.69,47.07,45.58,44.60,43.97,43.10,41.81,40.07,37.83,35.10,32.81,31.61,30.69,29.30,26.07,21.18,17.39,14.58,11.87,10.19,9.48,9.20,8.97,8.82,8.67,8.72,8.93,9.09,8.66,8.20,7.74,7.27,6.73,6.25,5.78,5.32,4.86,4.39,3.89,3.37,2.91,2.44,1.98,1.49,0.96,0.50,e,e,e,e,e,e,e,e,e,e,e,e,e,e,e,e,e,e,e,e,e,e,e,e,e,e,e,e,e,e,e,e,e,e,e,e,e,e,e,e,e,e,e,e,e,e,e,e,e,e
e,e,e,e,e,e,e,e,e,e,e,e,e,e,e,e,e,e,e,e,e,e,e,e,e,e,e,e,e,e,e,e,e,e,e,e,e,e,e,e,e,e,e,e,e,1.25,1.99,2.74,3.56,4.41,5.25,6.05,6.89,7.74,8.59,9.44,10.81,12.09,13.56,15.42,17.33,19.16,20.99,22.87,24.80,25.96,25.89,24.79,23.06,21.11,18.86,16.68,14.69,12.50,10.75,9.79,9.43,9.18,8.89,9.01,9.12,8.94,9.07,9.26,9.48,9.70,9.85,11.78,14.15,16.67,19.17,20.64,21.55,22.15,22.71,23.84,25.13,26.69,28.65,31.17,34.54,37.83,41.51,45.95,50.76,55.19,58.89,61.75,63.89,65.94,67.14,67.45,66.99,66.56,65.99,65.47,65.09,64.93,65.21,65.99,67.57,70.53,75.24,78.26,79.13,77.85,76.28,75.67,75.54,75.71,76.27,77.04,78.15,79.68,81.74,85.47,88.90,91.54,92.95,92.36,91.23,90.65,91.02,92.59,93.91,95.25,95.69,94.40,91.83,88.65,84.32,78.71,72.06,67.98,64.68,61.61,58.35,53.12,49.89,47.53,45.32,43.80,42.32,41.13,40.06,38.60,37.14,34.78,32.22,30.23,28.68,27.51,26.55,25.33,22.39,19.10,16.13,13.41,10.66,9.82,9.32,8.97,8.65,8.50,8.43,8.55,8.82,9.02,8.55,8.07,7.61,7.14,6.65,6.18,5.72,5.26,4.79,4.33,3.85,3.38,2.97,2.51,2.04,1.59,1.15,0.74,e,e,e,e,e,e,e,e,e,e,e,e,e,e,e,e,e,e,e,e,e,e,e,e,e,e,e,e,e,e,e,e,e,e,e,e,e,e,e,e,e,e,e,e,e,e,e,e,e,e
