14.06,13.72,13.35,13.04,12.73,12.43,12.14,11.90,11.66,11.44,11.21,10.98,10.74,10.50,10.27,10.04,9.81,9.52,9.22,8.94,8.70,8.40,8.10,7.81,7.56,7.26,6.95,6.64,6.33,6.02,5.70,5.39,5.10,4.87,4.76,4.63,4.51,4.41,4.26,4.10,3.94,3.78,3.64,3.56,3.47,3.39,3.31,3.23,3.21,3.16,3.10,3.09,3.02,2.95,2.90,2.89,2.81,2.79,2.75,2.68,2.61,2.59,2.55,2.50,2.49,2.41,2.39,2.36,2.28,2.22,2.19,2.16,2.10,2.09,2.02,1.99,1.96,1.89,1.82,1.79,1.75,1.69,1.69,1.62,1.59,1.57,1.49,1.42,1.39,1.36,1.29,1.29,1.23,1.19,1.17,1.10,1.03,0.99,0.96,0.89,0.89,0.83,0.76,0.70,0.69,0.63,0.64,0.73,0.89,0.76,0.60,0.50,0.48,0.41,0.34,0.30,0.31,0.38,0.40,0.39,0.36,0.29,0.22,0.19,0.16,0.10,0.09,0.03,e,e,e,e,e,e,e,e,e,e,e,e,e,e,e,e,e,0.02,0.05,0.12,0.20,0.22,0.26,0.33,0.41,0.54,0.65,0.72,0.80,0.88,0.96,1.00,0.99,0.99,0.93,0.87,0.83,0.81,0.74,0.67,0.62,0.61,0.53,0.51,0.47,0.41,0.40,0.33,0.26,0.21,0.20,0.12,0.10,0.10,e,e,e,e,e,e,e,e,e,e,e,e,e,e,e,e,e,e,e,e,e,e,e,e,e,e,e,e,e,e,e,0.00,0.00,0.06,0.10,0.10,0.10,0.17,0.20,0.20,0.21,0.28,0.30,0.33,0.40,0.40,0.40,0.44,0.50,0.50,0.51,0.56,0.60,0.60,0.68,0.70,0.71,0.73,0.79,0.80,0.85,0.90,0.90,0.90,0.95,1.00,1.00,1.01,1.07,1.10,1.12,1.19,1.20,1.20
14.35,13.99,13.67,13.36,13.05,12.77,12.51,12.22,11.98,11.79,11.60,11.37,11.07,10.82,10.59,10.36,10.13,9.88,9.63,9.38,9.08,8.83,8.54,8.24,7.95,7.64,7.33,7.02,6.71,6.40,6.04,5.71,5.42,5.19,4.93,4.79,4.68,4.54,4.38,4.23,4.04,3.86,3.76,3.68,3.57,3.45,3.37,3.30,3.23,3.16,3.09,3.03,2.95,2.91,2.88,2.82,2.74,2.72,2.69,2.62,2.60,2.55,2.51,2.49,2.43,2.35,2.32,2.30,2.22,2.20,2.15,2.11,2.09,2.03,1.95,1.92,1.90,1.82,1.81,1.76,1.69,1.62,1.62,1.56,1.52,1.50,1.43,1.41,1.36,1.30,1.22,1.22,1.16,1.12,1.11,1.03,1.01,0.97,0.90,0.82,0.82,0.77,0.72,0.69,0.63,0.61,0.64,0.73,0.89,0.76,0.60,0.48,0.42,0.34,0.31,0.30,0.30,0.32,0.37,0.37,0.30,0.22,0.21,0.16,0.12,0.09,0.03,0.01,e,e,e,e,e,e,e,e,e,e,e,e,e,e,e,e,e,0.12,0.16,0.18,0.26,0.33,0.36,0.39,0.47,0.56,0.65,0.72,0.80,0.88,0.96,0.97,0.92,0.92,0.91,0.92,0.94,0.88,0.80,0.77,0.73,0.67,0.59,0.53,0.49,0.47,0.41,0.33,0.29,0.26,0.20,0.12,0.10,0.07,e,e,e,e,e,e,e,e,e,e,e,e,e,e,e,e,e,e,e,e,e,e,e,e,e,e,e,e,e,e,e,0.00,0.00,0.06,0.10,0.10,0.10,0.17,0.20,0.22,0.28,0.30,0.30,0.33,0.40,0.40,0.40,0.44,0.50,0.50,0.56,0.59,0.60,0.60,0.68,0.70,0.73,0.78,0.80,0.80,0.85,0.90,0.90,0.90,0.95,1.00,1.01,1.07,1.09,1.10,1.12,1.19,1.20,1.20
14.63,14.30,13.99,13.68,13.37,13.10,12.86,12.58,12.34,12.14,11.94,11.71,11.43,11.19,10.95,10.72,10.49,10.26,10.03,9.78,9.51,9.24,8.95,8.64,8.33,8.02,7.74,7.43,7.10,6.79,6.41,6.07,5.77,5.51,5.23,5.03,4.85,4.67,4.51,4.36,4.16,3.96,3.85,3.77,3.66,3.56,3.48,3.40,3.30,3.21,3.13,3.05,2.97,2.90,2.84,2.76,2.71,2.68,2.63,2.56,2.56,2.49,2.46,2.44,2.36,2.32,2.28,2.23,2.16,2.16,2.10,2.06,2.05,1.97,1.92,1.88,1.84,1.76,1.76,1.70,1.64,1.60,1.56,1.52,1.48,1.44,1.36,1.36,1.31,1.24,1.20,1.17,1.10,1.06,1.05,0.97,0.96,0.91,0.85,0.80,0.77,0.70,0.66,0.65,0.57,0.58,0.66,0.77,0.89,0.76,0.60,0.46,0.36,0.31,0.28,0.27,0.30,0.30,0.34,0.31,0.24,0.16,0.16,0.13,0.09,0.05,0.01,e,e,e,e,e,e,e,e,e,e,e,e,e,e,e,e,e,0.12,0.19,0.24,0.25,0.33,0.40,0.44,0.46,0.53,0.58,0.65,0.72,0.80,0.91,0.97,0.97,0.90,0.86,0.86,0.88,0.91,0.90,0.86,0.84,0.81,0.74,0.66,0.61,0.57,0.53,0.45,0.40,0.36,0.32,0.24,0.20,0.14,e,e,e,e,e,e,e,e,e,e,e,e,e,e,e,e,e,e,e,e,e,e,e,e,e,e,e,e,e,e,e,e,0.00,0.00,0.06,0.10,0.11,0.14,0.18,0.20,0.22,0.30,0.30,0.30,0.33,0.40,0.40,0.43,0.47,0.50,0.50,0.57,0.60,0.60,0.60,0.68,0.70,0.74,0.80,0.80,0.80,0.85,0.90,0.90,0.93,0.97,1.00,1.01,1.09,1.10,1.10,1.12,1.19,1.20,1.22
14.92,14.61,14.31,14.00,13.69,13.42,13.19,12.96,12.73,12.50,12.26,12.03,11.79,11.56,11.33,11.10,10.87,10.64,10.40,10.17,9.94,9.64,9.33,9.03,8.72,8.41,8.16,7.85,7.48,7.17,6.79,6.45,6.14,5.83,5.60,5.31,5.03,4.80,4.64,4.48,4.29,4.08,3.92,3.84,3.76,3.68,3.60,3.52,3.39,3.28,3.20,3.12,3.04,2.92,2.79,2.71,2.70,2.65,2.57,2.50,2.49,2.43,2.40,2.38,2.30,2.29,2.24,2.17,2.10,2.10,2.04,2.00,1.98,1.90,1.89,1.85,1.77,1.70,1.70,1.64,1.59,1.59,1.51,1.49,1.45,1.38,1.31,1.30,1.25,1.19,1.19,1.11,1.04,1.00,0.98,0.91,0.90,0.85,0.79,0.79,0.72,0.64,0.60,0.59,0.51,0.56,0.68,0.82,0.89,0.76,0.60,0.45,0.30,0.30,0.24,0.23,0.29,0.29,0.29,0.25,0.17,0.10,0.10,0.09,e,e,e,e,e,e,e,e,e,e,e,e,e,e,e,e,e,0.05,0.11,0.11,0.18,0.26,0.31,0.32,0.39,0.47,0.51,0.52,0.60,0.61,0.66,0.73,0.81,0.96,1.00,0.97,0.89,0.81,0.80,0.79,0.81,0.89,0.89,0.89,0.87,0.79,0.73,0.71,0.67,0.59,0.52,0.51,0.46,0.38,0.31,0.30,0.18,e,e,e,e,e,e,e,e,e,e,e,e,e,e,e,e,e,e,e,e,e,e,e,e,e,e,e,e,e,e,e,0.00,0.00,0.00,0.06,0.10,0.11,0.19,0.20,0.20,0.22,0.30,0.30,0.30,0.34,0.40,0.40,0.46,0.50,0.50,0.50,0.57,0.60,0.60,0.61,0.68,0.70,0.74,0.80,0.80,0.80,0.85,0.90,0.90,0.98,1.00,1.00,1.01,1.09,1.10,1.10,1.12,1.20,1.20,1.25
15.14,14.88,14.63,14.32,14.05,13.78,13.51,13.34,13.11,12.88,12.63,12.35,12.11,11.88,11.65,11.42,11.19,10.96,10.72,10.48,10.19,9.99,9.72,9.43,9.17,8.86,8.57,8.23,7.86,7.55,7.18,6.83,6.53,6.22,5.93,5.63,5.33,5.05,4.78,4.61,4.44,4.26,4.05,3.97,3.85,3.74,3.67,3.59,3.49,3.40,3.32,3.19,3.10,3.01,2.92,2.84,2.73,2.65,2.57,2.49,2.44,2.41,2.37,2.31,2.24,2.23,2.18,2.12,2.10,2.04,2.01,1.98,1.92,1.84,1.83,1.79,1.72,1.70,1.65,1.58,1.53,1.52,1.44,1.43,1.39,1.33,1.30,1.25,1.18,1.13,1.13,1.05,1.01,0.98,0.93,0.90,0.85,0.79,0.73,0.73,0.65,0.61,0.58,0.53,0.50,0.56,0.68,0.82,0.89,0.76,0.60,0.45,0.30,0.24,0.21,0.21,0.23,0.23,0.23,0.19,0.12,0.10,0.05,0.03,e,e,e,e,e,e,e,e,e,e,e,e,e,e,e,e,e,0.11,0.18,0.24,0.26,0.32,0.39,0.44,0.46,0.53,0.57,0.59,0.66,0.72,0.75,0.79,0.87,0.97,1.00,0.97,0.89,0.81,0.75,0.73,0.74,0.76,0.81,0.83,0.82,0.80,0.83,0.80,0.73,0.67,0.64,0.59,0.52,0.45,0.37,0.26,0.12,e,e,e,e,e,e,e,e,e,e,e,e,e,e,e,e,e,e,e,e,e,e,e,e,e,e,e,e,e,e,e,0.00,0.00,0.00,0.06,0.10,0.11,0.19,0.20,0.20,0.22,0.30,0.30,0.34,0.38,0.40,0.40,0.46,0.50,0.50,0.50,0.57,0.60,0.62,0.67,0.69,0.70,0.74,0.80,0.80,0.80,0.85,0.90,0.90,0.98,1.00,1.00,1.01,1.09,1.10,1.13,1.18,1.20,1.20,1.25
15.33,15.12,14.91,14.63,14.39,14.13,13.87,13.72,13.47,13.23,12.97,12.67,12.43,12.20,11.97,11.74,11.51,11.27,11.03,10.77,10.48,10.30,10.05,9.79,9.58,9.27,8.96,8.62,8.24,7.91,7.55,7.20,6.88,6.60,6.27,5.95,5.64,5.33,4.99,4.76,4.58,4.41,4.18,4.07,3.95,3.84,3.76,3.66,3.57,3.50,3.41,3.28,3.20,3.11,3.01,2.93,2.81,2.71,2.63,2.52,2.45,2.41,2.36,2.28,2.20,2.18,2.12,2.07,2.06,1.99,1.97,1.93,1.86,1.81,1.78,1.72,1.67,1.67,1.59,1.53,1.49,1.46,1.41,1.38,1.33,1.27,1.27,1.19,1.13,1.09,1.06,0.99,0.97,0.93,0.87,0.87,0.80,0.74,0.69,0.67,0.59,0.57,0.54,0.47,0.47,0.55,0.68,0.81,0.86,0.72,0.57,0.42,0.26,0.21,0.20,0.20,0.20,0.20,0.18,0.12,0.07,0.07,e,e,e,e,e,e,e,e,e,e,e,e,e,e,e,e,0.04,0.06,0.11,0.18,0.25,0.33,0.33,0.39,0.46,0.53,0.53,0.59,0.65,0.68,0.73,0.80,0.83,0.86,0.94,1.01,1.01,0.97,0.89,0.78,0.70,0.65,0.64,0.67,0.72,0.73,0.74,0.77,0.82,0.81,0.77,0.73,0.73,0.66,0.59,0.50,0.40,0.22,e,e,e,e,e,e,e,e,e,e,e,e,e,e,e,e,e,e,e,e,e,e,e,e,e,e,e,e,e,e,e,e,0.00,0.00,0.03,0.07,0.10,0.11,0.19,0.20,0.20,0.22,0.30,0.30,0.35,0.40,0.40,0.40,0.46,0.50,0.51,0.53,0.58,0.60,0.63,0.70,0.70,0.70,0.74,0.80,0.80,0.82,0.86,0.90,0.90,0.98,1.00,1.01,1.04,1.09,1.10,1.14,1.20,1.20,1.20,1.25
15.49,15.33,15.17,14.94,14.71,14.47,14.26,14.10,13.81,13.55,13.29,12.98,12.75,12.52,12.29,12.06,11.83,11.59,11.32,11.03,10.80,10.57,10.34,10.13,9.96,9.66,9.35,9.00,8.61,8.23,7.91,7.56,7.22,6.98,6.60,6.27,5.96,5.64,5.26,4.94,4.71,4.54,4.31,4.15,4.05,3.97,3.89,3.73,3.64,3.56,3.48,3.40,3.33,3.21,3.07,3.00,2.92,2.84,2.73,2.59,2.51,2.44,2.36,2.28,2.20,2.13,2.05,2.00,2.00,1.92,1.90,1.87,1.80,1.80,1.73,1.66,1.60,1.60,1.53,1.50,1.47,1.40,1.40,1.34,1.26,1.20,1.20,1.13,1.10,1.07,1.00,0.92,0.90,0.87,0.80,0.80,0.74,0.70,0.68,0.60,0.53,0.50,0.47,0.40,0.40,0.53,0.68,0.80,0.80,0.66,0.51,0.35,0.20,0.20,0.20,0.20,0.20,0.20,0.14,0.06,0.00,0.00,e,e,e,e,e,e,e,e,e,e,e,e,e,e,e,e,0.11,0.18,0.20,0.24,0.32,0.40,0.40,0.45,0.53,0.60,0.60,0.66,0.73,0.80,0.80,0.87,0.90,0.92,1.00,1.08,1.04,0.97,0.88,0.73,0.64,0.56,0.52,0.60,0.60,0.61,0.63,0.70,0.70,0.76,0.80,0.80,0.80,0.73,0.65,0.55,0.40,0.17,e,e,e,e,e,e,e,e,e,e,e,e,e,e,e,e,e,e,e,e,e,e,e,e,e,e,e,e,e,e,e,e,0.00,0.00,0.08,0.10,0.10,0.11,0.19,0.20,0.20,0.22,0.30,0.30,0.35,0.40,0.40,0.40,0.46,0.50,0.52,0.59,0.60,0.60,0.63,0.70,0.70,0.70,0.74,0.80,0.80,0.87,0.90,0.90,0.90,0.98,1.00,1.03,1.10,1.10,1.10,1.14,1.20,1.20,1.20,1.25
15.74,15.57,15.37,15.19,15.00,14.82,14.63,14.43,14.13,13.87,13.63,13.37,13.13,12.90,12.65,12.37,12.09,11.85,11.58,11.29,11.06,10.83,10.62,10.43,10.23,9.97,9.67,9.34,9.00,8.61,8.29,7.94,7.58,7.30,6.92,6.55,6.18,5.78,5.39,5.03,4.80,4.67,4.44,4.28,4.14,4.03,3.95,3.85,3.76,3.69,3.60,3.48,3.39,3.30,3.20,3.12,3.00,2.91,2.82,2.71,2.64,2.52,2.42,2.34,2.27,2.19,2.11,2.03,1.93,1.86,1.84,1.80,1.74,1.74,1.67,1.62,1.59,1.54,1.46,1.44,1.41,1.34,1.34,1.28,1.22,1.19,1.14,1.07,1.04,1.01,0.94,0.91,0.86,0.83,0.79,0.75,0.67,0.64,0.62,0.54,0.51,0.47,0.43,0.40,0.45,0.59,0.74,0.85,0.80,0.66,0.50,0.35,0.20,0.15,0.14,0.14,0.14,0.14,0.07,0.02,e,e,e,e,e,e,e,e,e,e,e,e,e,e,e,e,e,0.10,0.17,0.25,0.30,0.34,0.38,0.46,0.51,0.54,0.59,0.66,0.66,0.72,0.80,0.86,0.86,0.93,0.99,1.02,1.00,1.03,0.98,0.91,0.82,0.72,0.63,0.56,0.50,0.48,0.48,0.51,0.55,0.58,0.63,0.66,0.70,0.74,0.74,0.71,0.62,0.48,0.27,0.09,e,e,e,e,e,e,e,e,e,e,e,e,e,e,e,e,e,e,e,e,e,e,e,e,e,e,e,e,e,e,e,e,0.00,0.00,0.08,0.10,0.12,0.17,0.20,0.20,0.23,0.27,0.30,0.30,0.35,0.40,0.41,0.45,0.49,0.50,0.52,0.60,0.60,0.60,0.63,0.70,0.70,0.74,0.78,0.80,0.80,0.87,0.90,0.90,0.90,0.98,1.00,1.03,1.10,1.10,1.10,1.14,1.20,1.20,1.24,1.28
15.97,15.79,15.56,15.41,15.26,15.10,14.94,14.72,14.44,14.19,13.95,13.72,13.47,13.23,12.97,12.66,12.37,12.12,11.84,11.56,11.31,11.08,10.90,10.72,10.49,10.25,9.96,9.64,9.31,8.94,8.59,8.20,7.80,7.45,7.06,6.66,6.23,5.78,5.39,5.05,4.87,4.77,4.56,4.40,4.25,4.12,4.04,3.95,3.87,3.79,3.70,3.57,3.48,3.39,3.30,3.23,3.09,3.00,2.91,2.82,2.74,2.61,2.51,2.43,2.33,2.25,2.18,2.08,1.95,1.87,1.82,1.76,1.70,1.68,1.61,1.57,1.55,1.48,1.42,1.39,1.35,1.30,1.28,1.21,1.17,1.16,1.08,1.02,0.99,0.95,0.87,0.87,0.82,0.77,0.76,0.69,0.62,0.59,0.55,0.48,0.47,0.42,0.37,0.38,0.48,0.62,0.78,0.88,0.81,0.66,0.50,0.35,0.20,0.12,0.10,0.09,0.07,0.07,e,e,e,e,e,e,e,e,e,e,e,e,e,e,e,e,0.03,0.10,0.14,0.18,0.24,0.31,0.39,0.44,0.47,0.52,0.60,0.64,0.67,0.73,0.75,0.80,0.86,0.93,0.95,1.00,1.05,1.05,0.97,0.97,0.92,0.84,0.76,0.69,0.63,0.55,0.46,0.38,0.37,0.41,0.46,0.48,0.54,0.56,0.60,0.65,0.65,0.67,0.58,0.40,e,e,e,e,e,e,e,e,e,e,e,e,e,e,e,e,e,e,e,e,e,e,e,e,e,e,e,e,e,e,e,e,e,0.00,0.01,0.03,0.09,0.10,0.14,0.20,0.20,0.20,0.25,0.30,0.30,0.32,0.37,0.40,0.41,0.49,0.50,0.50,0.52,0.60,0.60,0.61,0.65,0.70,0.70,0.76,0.80,0.80,0.80,0.87,0.90,0.91,0.93,0.98,1.00,1.03,1.10,1.10,1.10,1.14,1.20,1.20,1.27,1.30
16.16,15.98,15.76,15.60,15.45,15.29,15.14,14.97,14.74,14.51,14.27,14.04,13.74,13.49,13.23,12.93,12.69,12.39,12.13,11.87,11.57,11.34,11.15,10.97,10.74,10.51,10.22,9.88,9.51,9.19,8.76,8.27,7.77,7.32,6.93,6.50,6.04,5.59,5.20,4.98,4.90,4.85,4.69,4.53,4.38,4.25,4.17,4.02,3.93,3.85,3.77,3.69,3.61,3.49,3.37,3.29,3.20,3.12,3.02,2.88,2.80,2.72,2.64,2.54,2.40,2.32,2.24,2.16,2.07,2.00,1.87,1.76,1.69,1.62,1.54,1.51,1.49,1.41,1.40,1.35,1.31,1.29,1.22,1.15,1.11,1.09,1.02,1.00,0.96,0.88,0.81,0.81,0.75,0.71,0.70,0.62,0.60,0.56,0.49,0.41,0.41,0.36,0.31,0.33,0.47,0.62,0.78,0.88,0.81,0.66,0.50,0.35,0.20,0.12,0.10,0.07,0.01,0.01,e,e,e,e,e,e,e,e,e,e,e,e,e,e,e,e,0.09,0.17,0.24,0.28,0.30,0.38,0.45,0.53,0.58,0.59,0.66,0.74,0.78,0.79,0.86,0.88,0.93,1.00,1.07,1.09,1.05,0.99,0.91,0.91,0.85,0.78,0.70,0.62,0.60,0.52,0.39,0.31,0.31,0.32,0.35,0.41,0.42,0.48,0.52,0.52,0.52,0.58,0.52,0.34,e,e,e,e,e,e,e,e,e,e,e,e,e,e,e,e,e,e,e,e,e,e,e,e,e,e,e,e,e,e,e,e,e,0.00,0.02,0.09,0.10,0.10,0.14,0.20,0.20,0.20,0.25,0.30,0.30,0.37,0.40,0.40,0.41,0.49,0.50,0.50,0.52,0.60,0.60,0.64,0.69,0.70,0.70,0.76,0.80,0.80,0.80,0.87,0.90,0.92,0.99,1.00,1.00,1.03,1.10,1.10,1.10,1.14,1.20,1.20,1.27,1.30
16.36,16.17,15.95,15.79,15.64,15.48,15.33,15.17,14.99,14.80,14.58,14.31,14.04,13.77,13.48,13.18,12.95,12.65,12.39,12.14,11.83,11.63,11.44,11.23,10.99,10.72,10.42,10.05,9.63,9.24,8.72,8.15,7.61,7.19,6.77,6.31,5.87,5.45,5.06,4.93,4.90,4.88,4.81,4.66,4.48,4.33,4.25,4.13,4.05,3.97,3.89,3.77,3.68,3.59,3.48,3.41,3.29,3.20,3.11,3.00,2.92,2.81,2.71,2.63,2.51,2.43,2.33,2.23,2.15,2.07,1.97,1.87,1.79,1.67,1.59,1.53,1.48,1.40,1.36,1.29,1.25,1.24,1.16,1.12,1.08,1.03,0.95,0.95,0.90,0.83,0.80,0.76,0.72,0.68,0.63,0.56,0.55,0.50,0.44,0.40,0.36,0.32,0.30,0.32,0.47,0.62,0.78,0.88,0.81,0.62,0.45,0.30,0.14,0.07,0.05,e,e,e,e,e,e,e,e,e,e,e,e,e,e,e,e,e,0.08,0.12,0.16,0.23,0.31,0.37,0.41,0.45,0.52,0.60,0.66,0.70,0.74,0.80,0.85,0.86,0.94,0.95,0.99,1.06,1.10,1.06,1.02,0.98,0.90,0.86,0.79,0.71,0.64,0.61,0.57,0.48,0.38,0.30,0.26,0.25,0.26,0.30,0.34,0.38,0.39,0.40,0.44,0.48,0.40,0.23,e,e,e,e,e,e,e,e,e,e,e,e,e,e,e,e,e,e,e,e,e,e,e,e,e,e,e,e,e,e,e,e,e,0.00,0.03,0.10,0.10,0.13,0.17,0.20,0.20,0.24,0.27,0.30,0.30,0.38,0.40,0.42,0.46,0.49,0.50,0.52,0.56,0.60,0.60,0.65,0.70,0.70,0.70,0.76,0.80,0.81,0.85,0.88,0.90,0.92,1.00,1.00,1.00,1.03,1.10,1.10,1.13,1.17,1.20,1.20,1.27,1.30
16.55,16.37,16.14,15.98,15.83,15.68,15.52,15.37,15.21,15.06,14.86,14.56,14.33,14.05,13.74,13.45,13.21,12.92,12.65,12.39,12.10,11.92,11.72,11.48,11.23,10.88,10.55,10.16,9.69,9.20,8.59,7.97,7.43,7.05,6.58,6.13,5.70,5.31,4.96,4.89,4.88,4.89,4.90,4.78,4.58,4.41,4.33,4.24,4.16,4.08,3.99,3.85,3.77,3.68,3.59,3.52,3.38,3.28,3.20,3.11,3.03,2.90,2.79,2.71,2.62,2.54,2.43,2.31,2.23,2.15,2.07,1.98,1.89,1.75,1.67,1.58,1.49,1.42,1.34,1.26,1.21,1.17,1.10,1.08,1.04,0.97,0.90,0.89,0.83,0.78,0.78,0.70,0.68,0.65,0.57,0.51,0.49,0.44,0.38,0.38,0.31,0.28,0.29,0.32,0.48,0.64,0.79,0.88,0.79,0.58,0.40,0.25,0.10,0.02,e,e,e,e,e,e,e,e,e,e,e,e,e,e,e,e,e,0.09,0.16,0.22,0.24,0.30,0.37,0.45,0.52,0.53,0.59,0.66,0.74,0.81,0.82,0.87,0.92,0.94,1.00,1.02,1.04,1.08,1.08,1.01,0.98,0.95,0.90,0.85,0.77,0.68,0.60,0.59,0.52,0.44,0.36,0.29,0.21,0.17,0.17,0.19,0.25,0.27,0.27,0.30,0.36,0.38,0.29,e,e,e,e,e,e,e,e,e,e,e,e,e,e,e,e,e,e,e,e,e,e,e,e,e,e,e,e,e,e,e,e,e,e,0.01,0.04,0.10,0.10,0.16,0.20,0.20,0.20,0.27,0.30,0.30,0.32,0.38,0.40,0.43,0.50,0.50,0.50,0.54,0.60,0.60,0.61,0.66,0.70,0.70,0.71,0.77,0.80,0.81,0.89,0.90,0.90,0.92,1.00,1.00,1.01,1.04,1.10,1.10,1.16,1.20,1.20,1.20,1.27,1.30
16.74,16.56,16.33,16.18,16.02,15.87,15.71,15.56,15.40,15.25,15.07,14.82,14.59,14.30,14.02,13.77,13.47,13.22,12.94,12.66,12.42,12.20,11.97,11.72,11.41,10.91,10.51,10.10,9.61,9.02,8.35,7.75,7.24,6.86,6.39,5.97,5.55,5.13,4.93,4.85,4.82,4.83,4.90,4.87,4.71,4.53,4.45,4.31,4.22,4.14,4.06,3.97,3.89,3.78,3.66,3.58,3.49,3.41,3.30,3.17,3.09,3.01,2.92,2.83,2.69,2.61,2.52,2.43,2.36,2.28,2.16,2.04,1.97,1.87,1.79,1.68,1.56,1.48,1.40,1.33,1.23,1.11,1.03,1.02,0.98,0.92,0.90,0.84,0.77,0.72,0.72,0.64,0.62,0.58,0.52,0.50,0.45,0.38,0.32,0.32,0.24,0.22,0.24,0.32,0.54,0.71,0.83,0.87,0.73,0.56,0.40,0.25,0.10,0.02,e,e,e,e,e,e,e,e,e,e,e,e,e,e,e,e,e,0.15,0.23,0.30,0.36,0.38,0.44,0.51,0.59,0.65,0.67,0.72,0.80,0.88,0.88,0.93,1.00,1.06,1.08,1.08,1.06,1.02,1.02,0.95,0.88,0.85,0.90,0.95,0.86,0.72,0.59,0.53,0.45,0.38,0.30,0.22,0.15,0.08,0.06,0.12,0.14,0.14,0.17,0.22,0.24,0.29,0.23,e,e,e,e,e,e,e,e,e,e,e,e,e,e,e,e,e,e,e,e,e,e,e,e,e,e,e,e,e,e,e,e,e,e,0.04,0.09,0.10,0.10,0.16,0.20,0.20,0.20,0.27,0.30,0.32,0.38,0.40,0.40,0.43,0.50,0.50,0.50,0.54,0.60,0.60,0.66,0.69,0.70,0.70,0.77,0.79,0.80,0.81,0.89,0.90,0.90,0.92,1.00,1.00,1.04,1.09,1.10,1.10,1.16,1.20,1.20,1.20,1.27,1.30
16.93,16.75,16.52,16.37,16.21,16.06,15.90,15.75,15.60,15.44,15.26,15.03,14.83,14.56,14.28,14.04,13.73,13.48,13.21,12.92,12.69,12.39,12.07,11.72,11.33,10.83,10.39,9.93,9.41,8.79,8.14,7.57,7.09,6.66,6.24,5.81,5.39,5.00,4.88,4.82,4.80,4.81,4.85,4.86,4.77,4.65,4.54,4.42,4.33,4.24,4.13,4.05,3.98,3.87,3.77,3.69,3.58,3.49,3.40,3.28,3.20,3.10,3.00,2.92,2.80,2.72,2.62,2.52,2.44,2.36,2.25,2.15,2.07,1.96,1.88,1.77,1.67,1.59,1.48,1.39,1.30,1.18,1.10,1.03,0.96,0.89,0.86,0.78,0.73,0.69,0.65,0.61,0.57,0.52,0.46,0.46,0.39,0.33,0.29,0.26,0.18,0.18,0.24,0.36,0.56,0.72,0.84,0.87,0.71,0.56,0.42,e,e,e,e,e,e,e,e,e,e,e,e,e,e,e,e,e,0.08,0.14,0.14,0.22,0.29,0.37,0.45,0.48,0.52,0.58,0.66,0.73,0.77,0.81,0.86,0.94,0.98,1.02,1.06,1.10,1.10,1.07,1.02,0.95,0.91,0.87,0.81,0.77,0.81,0.89,0.90,0.82,0.68,0.60,0.49,0.38,0.28,0.20,0.13,0.05,e,e,e,0.06,0.08,0.12,0.15,0.19,0.14,e,e,e,e,e,e,e,e,e,e,e,e,e,e,e,e,e,e,e,e,e,e,e,e,e,e,e,e,e,e,e,e,e,e,0.05,0.10,0.10,0.14,0.18,0.20,0.21,0.24,0.28,0.30,0.32,0.40,0.40,0.42,0.46,0.50,0.50,0.53,0.57,0.60,0.60,0.67,0.70,0.70,0.70,0.78,0.80,0.82,0.85,0.89,0.90,0.92,0.96,1.00,1.00,1.05,1.10,1.10,1.14,1.18,1.20,1.21,1.24,1.28,1.30
17.12,16.94,16.71,16.56,16.40,16.25,16.10,15.94,15.79,15.63,15.45,15.22,15.07,14.80,14.53,14.29,13.98,13.73,13.46,13.17,12.92,12.54,12.09,11.62,11.16,10.69,10.23,9.72,9.15,8.54,7.92,7.40,6.94,6.47,6.09,5.65,5.22,4.89,4.81,4.81,4.80,4.80,4.80,4.80,4.80,4.75,4.61,4.53,4.45,4.34,4.20,4.13,4.05,3.97,3.89,3.81,3.66,3.56,3.48,3.40,3.32,3.19,3.08,3.00,2.91,2.84,2.71,2.59,2.51,2.43,2.35,2.27,2.18,2.04,1.95,1.87,1.79,1.71,1.56,1.46,1.38,1.30,1.22,1.09,0.98,0.90,0.81,0.74,0.70,0.67,0.60,0.59,0.53,0.46,0.40,0.39,0.32,0.29,0.27,0.19,0.12,0.15,0.26,0.42,0.57,0.72,0.84,0.87,0.70,e,e,e,e,e,e,e,e,e,e,e,e,e,e,e,e,0.01,0.01,0.07,0.15,0.21,0.22,0.28,0.36,0.43,0.51,0.59,0.61,0.65,0.72,0.80,0.87,0.91,0.94,1.01,1.08,1.10,1.10,1.10,1.09,1.03,0.95,0.88,0.80,0.79,0.74,0.69,0.68,0.76,0.90,0.92,0.80,0.73,0.59,0.43,0.30,0.22,0.14,e,e,e,e,e,e,e,e,e,e,e,e,e,e,e,e,e,e,e,e,e,e,e,e,e,e,e,e,e,e,e,e,e,e,e,e,e,e,e,e,e,e,e,0.01,0.05,0.10,0.10,0.18,0.20,0.20,0.21,0.29,0.30,0.30,0.33,0.40,0.40,0.45,0.50,0.50,0.50,0.56,0.60,0.60,0.61,0.67,0.70,0.70,0.71,0.78,0.80,0.84,0.90,0.90,0.90,0.95,1.00,1.00,1.01,1.06,1.10,1.11,1.19,1.20,1.20,1.22,1.29,1.30,1.30
17.31,17.13,16.91,16.75,16.60,16.44,16.29,16.13,15.98,15.82,15.65,15.42,15.26,15.00,14.72,14.48,14.17,13.92,13.65,13.33,12.99,12.55,12.06,11.56,11.09,10.57,10.10,9.54,8.90,8.28,7.66,7.17,6.74,6.28,5.90,5.45,5.09,4.89,4.81,4.85,4.84,4.80,4.80,4.80,4.80,4.78,4.74,4.60,4.51,4.43,4.33,4.25,4.18,4.07,3.95,3.87,3.77,3.69,3.59,3.46,3.39,3.29,3.20,3.11,2.98,2.90,2.81,2.72,2.64,2.50,2.41,2.34,2.26,2.16,2.08,1.97,1.85,1.77,1.67,1.59,1.49,1.36,1.29,1.19,1.10,1.01,0.88,0.80,0.74,0.67,0.60,0.54,0.47,0.42,0.39,0.34,0.26,0.23,0.21,0.13,0.11,0.15,0.26,0.42,0.57,0.72,0.84,0.85,0.64,e,e,e,e,e,e,e,e,e,e,e,e,e,e,e,e,0.07,0.07,0.13,0.21,0.28,0.34,0.36,0.42,0.50,0.57,0.65,0.71,0.75,0.78,0.86,0.94,1.00,1.05,1.07,1.15,1.13,1.10,1.10,1.04,0.97,0.89,0.81,0.73,0.73,0.68,0.61,0.56,0.63,0.77,0.86,0.87,0.85,0.71,0.56,0.42,0.35,0.22,e,e,e,e,e,e,e,e,e,e,e,e,e,e,e,e,e,e,e,e,e,e,e,e,e,e,e,e,e,e,e,e,e,e,e,e,e,e,e,e,e,e,e,0.05,0.09,0.10,0.10,0.18,0.20,0.20,0.21,0.29,0.30,0.33,0.38,0.40,0.40,0.45,0.50,0.50,0.50,0.56,0.60,0.61,0.67,0.69,0.70,0.72,0.77,0.79,0.80,0.84,0.90,0.90,0.90,0.95,1.00,1.00,1.06,1.09,1.10,1.11,1.19,1.20,1.20,1.22,1.29,1.30,1.34
17.51,17.32,17.10,16.94,16.79,16.63,16.48,16.32,16.17,16.00,15.81,15.61,15.45,15.21,14.93,14.67,14.36,14.07,13.75,13.41,13.02,12.56,12.06,11.56,11.07,10.55,10.10,9.54,8.85,8.21,7.49,6.93,6.48,6.02,5.60,5.23,4.99,4.89,4.84,4.92,4.92,4.84,4.84,4.84,4.84,4.83,4.79,4.70,4.59,4.50,4.42,4.35,4.27,4.16,4.05,3.97,3.87,3.78,3.68,3.56,3.49,3.39,3.30,3.21,3.08,3.00,2.90,2.81,2.73,2.60,2.51,2.44,2.35,2.25,2.17,2.06,1.95,1.87,1.77,1.68,1.59,1.46,1.39,1.29,1.20,1.11,0.98,0.90,0.82,0.74,0.63,0.56,0.48,0.42,0.38,0.28,0.22,0.18,0.14,0.07,0.06,0.14,0.27,0.44,0.48,0.53,e,e,e,e,e,e,e,e,e,e,e,e,e,e,e,e,e,e,0.07,0.14,0.17,0.21,0.28,0.35,0.43,0.44,0.48,0.56,0.64,0.72,0.79,0.85,0.88,0.96,1.01,1.08,1.14,1.14,1.16,1.11,1.05,1.03,1.00,0.96,0.88,0.78,0.67,0.66,0.62,0.54,0.46,0.49,0.60,0.74,0.83,0.86,0.80,0.70,0.57,0.44,0.23,e,e,e,e,e,e,e,e,e,e,e,e,e,e,e,e,e,e,e,e,e,e,e,e,e,e,e,e,e,e,e,e,e,e,e,e,e,e,e,e,e,e,e,0.07,0.10,0.11,0.14,0.19,0.20,0.21,0.25,0.29,0.30,0.35,0.40,0.40,0.40,0.45,0.50,0.50,0.53,0.58,0.60,0.62,0.70,0.70,0.70,0.73,0.80,0.80,0.82,0.86,0.90,0.90,0.92,0.96,1.00,1.00,1.08,1.10,1.11,1.14,1.19,1.20,1.21,1.25,1.30,1.30,1.35
17.70,17.51,17.29,17.13,16.98,16.83,16.67,16.52,16.36,16.16,15.95,15.80,15.64,15.43,15.17,14.86,14.55,14.18,13.79,13.41,13.02,12.56,12.10,11.60,11.07,10.61,10.20,9.67,8.97,8.28,7.38,6.68,6.16,5.70,5.23,4.99,4.90,4.90,4.90,5.03,5.02,4.90,4.90,4.90,4.90,4.87,4.80,4.80,4.68,4.56,4.49,4.41,4.33,4.25,4.18,4.10,3.95,3.85,3.77,3.69,3.61,3.47,3.36,3.28,3.20,3.13,3.00,2.87,2.80,2.72,2.64,2.56,2.47,2.32,2.23,2.16,2.08,2.00,1.85,1.75,1.67,1.59,1.51,1.37,1.26,1.18,1.11,1.03,0.95,0.85,0.70,0.62,0.54,0.46,0.38,0.22,0.20,0.16,0.08,0.00,e,e,e,e,e,e,e,e,e,e,e,e,e,e,e,e,e,e,e,e,e,e,0.00,0.05,0.13,0.21,0.28,0.30,0.34,0.42,0.49,0.50,0.55,0.63,0.70,0.78,0.86,0.93,1.01,1.09,1.10,1.14,1.20,1.20,1.13,1.05,0.97,0.91,0.98,1.00,0.92,0.77,0.61,0.60,0.55,0.48,0.40,0.32,0.41,0.57,0.71,0.79,0.87,0.86,0.74,0.51,0.20,e,e,e,e,e,e,e,e,e,e,e,e,e,e,e,e,e,e,e,e,e,e,e,e,e,e,e,e,e,e,e,e,e,e,e,e,e,e,e,e,e,e,e,0.07,0.10,0.13,0.20,0.20,0.20,0.24,0.30,0.30,0.30,0.35,0.40,0.40,0.40,0.45,0.50,0.51,0.59,0.60,0.60,0.62,0.70,0.70,0.70,0.73,0.80,0.80,0.86,0.90,0.90,0.90,0.97,1.00,1.00,1.00,1.08,1.10,1.13,1.20,1.20,1.20,1.24,1.30,1.30,1.30,1.35
17.89,17.71,17.48,17.33,17.17,17.02,16.86,16.71,16.55,16.35,16.14,15.99,15.84,15.59,15.30,14.98,14.62,14.24,13.86,13.47,13.08,12.62,12.13,11.66,11.26,10.85,10.42,9.91,9.27,8.48,7.35,6.52,5.96,5.44,5.08,4.93,4.94,5.05,5.25,5.37,5.28,5.06,4.91,4.90,4.90,4.89,4.86,4.86,4.78,4.69,4.61,4.54,4.42,4.32,4.24,4.16,4.06,3.97,3.88,3.76,3.68,3.58,3.49,3.40,3.27,3.19,3.10,3.00,2.92,2.79,2.71,2.63,2.55,2.44,2.36,2.25,2.14,2.06,1.96,1.87,1.78,1.66,1.58,1.48,1.39,1.30,1.17,1.09,1.01,0.93,0.82,0.75,0.63,0.53,0.45,0.34,0.29,0.19,0.08,0.00,e,e,e,e,e,e,e,e,e,e,e,e,e,e,e,e,e,e,e,e,e,e,0.11,0.15,0.19,0.27,0.35,0.40,0.44,0.48,0.56,0.61,0.65,0.69,0.77,0.84,0.92,1.00,1.08,1.15,1.16,1.15,1.12,1.07,1.05,0.98,0.91,0.84,0.87,0.95,0.97,0.90,0.74,0.64,0.52,0.41,0.33,0.26,0.31,0.42,0.53,0.65,0.74,0.78,0.73,0.45,0.14,e,e,e,e,e,e,e,e,e,e,e,e,e,e,e,e,e,e,e,e,e,e,e,e,e,e,e,e,e,e,e,e,e,e,e,e,e,e,e,e,e,e,e,0.07,0.10,0.11,0.14,0.19,0.20,0.24,0.30,0.30,0.30,0.35,0.40,0.40,0.45,0.48,0.50,0.51,0.59,0.60,0.60,0.62,0.70,0.70,0.73,0.77,0.80,0.80,0.86,0.90,0.90,0.90,0.97,1.00,1.01,1.06,1.09,1.10,1.13,1.20,1.20,1.20,1.24,1.30,1.30,1.35,1.38
18.08,17.90,17.67,17.52,17.36,17.21,17.05,16.90,16.73,16.52,16.30,16.10,15.90,15.62,15.31,15.00,14.63,14.25,13.88,13.51,13.12,12.68,12.22,11.79,11.46,11.07,10.64,10.15,9.54,8.58,7.33,6.38,5.74,5.24,5.02,4.99,5.08,5.27,5.56,5.71,5.59,5.28,5.03,4.93,4.90,4.90,4.90,4.90,4.86,4.79,4.71,4.64,4.51,4.41,4.33,4.26,4.16,4.07,3.97,3.85,3.77,3.67,3.59,3.50,3.36,3.28,3.19,3.10,3.02,2.89,2.80,2.72,2.64,2.54,2.46,2.35,2.23,2.16,2.06,1.97,1.87,1.75,1.67,1.58,1.49,1.40,1.27,1.18,1.11,1.02,0.92,0.85,0.73,0.61,0.52,0.44,0.36,0.26,0.16,0.08,e,e,e,e,e,e,e,e,e,e,e,e,e,e,e,e,e,e,e,e,0.05,0.13,0.20,0.23,0.26,0.33,0.41,0.49,0.53,0.54,0.62,0.70,0.73,0.75,0.83,0.91,0.98,1.06,1.14,1.19,1.18,1.13,1.05,0.97,0.95,0.91,0.84,0.77,0.75,0.85,0.94,0.95,0.86,0.72,0.56,0.42,0.33,0.23,0.21,0.26,0.37,0.55,0.69,0.75,0.67,0.38,e,e,e,e,e,e,e,e,e,e,e,e,e,e,e,e,e,e,e,e,e,e,e,e,e,e,e,e,e,e,e,e,e,e,e,e,e,e,e,e,e,e,0.00,0.00,0.07,0.10,0.10,0.10,0.18,0.20,0.24,0.30,0.30,0.30,0.35,0.40,0.40,0.46,0.49,0.50,0.51,0.59,0.60,0.60,0.62,0.70,0.70,0.75,0.80,0.80,0.80,0.86,0.90,0.90,0.93,0.98,1.00,1.02,1.10,1.10,1.10,1.13,1.20,1.20,1.22,1.26,1.30,1.30,1.37,1.40
18.27,18.09,17.86,17.71,17.55,17.40,17.25,17.09,16.87,16.64,16.39,16.10,15.80,15.50,15.19,14.88,14.56,14.19,13.84,13.51,13.12,12.73,12.38,12.03,11.65,11.26,10.87,10.41,9.75,8.54,7.31,6.27,5.51,5.12,5.09,5.18,5.36,5.59,5.83,6.05,5.95,5.59,5.28,5.00,4.90,4.90,4.90,4.90,4.90,4.86,4.78,4.70,4.62,4.54,4.46,4.38,4.24,4.14,4.06,3.97,3.90,3.76,3.65,3.57,3.49,3.41,3.29,3.16,3.09,3.00,2.92,2.85,2.76,2.61,2.52,2.44,2.36,2.28,2.14,2.04,1.96,1.88,1.80,1.66,1.55,1.47,1.39,1.31,1.23,1.13,0.99,0.91,0.83,0.72,0.58,0.50,0.42,0.38,0.35,0.28,e,e,e,e,e,e,e,e,e,e,e,e,e,e,e,e,e,e,e,e,0.11,0.19,0.27,0.29,0.32,0.40,0.48,0.55,0.59,0.61,0.68,0.76,0.79,0.82,0.89,0.97,1.05,1.13,1.19,1.20,1.14,1.07,0.99,0.91,0.84,0.81,0.78,0.70,0.63,0.68,0.80,0.92,0.98,0.84,0.69,0.54,0.39,0.24,0.10,0.09,0.25,0.47,0.75,0.77,0.56,0.32,e,e,e,e,e,e,e,e,e,e,e,e,e,e,e,e,e,e,e,e,e,e,e,e,e,e,e,e,e,e,e,e,e,e,e,e,e,e,e,e,e,e,0.00,0.00,0.07,0.10,0.10,0.10,0.18,0.20,0.24,0.30,0.30,0.30,0.35,0.40,0.40,0.41,0.46,0.50,0.51,0.59,0.60,0.60,0.62,0.70,0.70,0.75,0.80,0.80,0.80,0.86,0.90,0.91,0.98,1.00,1.00,1.02,1.10,1.10,1.10,1.13,1.20,1.20,1.26,1.30,1.30,1.30,1.37,1.40
18.46,18.30,18.11,17.91,17.75,17.57,17.37,17.13,16.85,16.58,16.28,15.93,15.62,15.34,15.06,14.74,14.39,14.01,13.62,13.22,12.79,12.44,12.09,11.74,11.40,11.01,10.69,10.26,9.52,8.11,6.93,6.09,5.62,5.49,5.57,5.71,5.90,6.12,6.31,6.32,6.15,5.85,5.54,5.23,5.01,4.90,4.90,4.90,4.90,4.88,4.84,4.76,4.69,4.61,4.53,4.46,4.34,4.26,4.16,4.05,3.97,3.86,3.77,3.68,3.56,3.48,3.38,3.28,3.20,3.08,3.00,2.92,2.84,2.73,2.64,2.54,2.43,2.36,2.24,2.16,2.08,2.00,1.88,1.76,1.67,1.59,1.52,1.40,1.31,1.20,1.05,0.97,0.93,0.86,0.75,0.68,0.60,0.57,0.55,0.47,0.24,e,e,0.62,0.98,1.33,1.65,1.78,1.36,e,e,e,e,e,e,e,e,e,0.12,0.18,0.22,0.25,0.33,0.38,0.42,0.46,0.54,0.62,0.68,0.72,0.75,0.83,0.88,0.92,0.96,1.04,1.11,1.17,1.19,1.15,1.08,1.00,0.92,0.85,0.77,0.72,0.68,0.64,0.56,0.57,0.67,0.81,0.93,0.92,0.82,0.66,0.51,0.35,0.17,e,e,e,e,e,0.41,0.52,e,e,e,e,e,e,e,e,e,e,e,e,e,e,e,e,e,e,e,e,e,e,e,e,e,e,e,e,e,e,e,e,e,e,e,e,e,e,e,e,e,e,0.00,0.00,0.03,0.07,0.10,0.10,0.18,0.20,0.22,0.25,0.30,0.30,0.35,0.40,0.40,0.40,0.45,0.50,0.51,0.59,0.60,0.60,0.62,0.70,0.70,0.72,0.76,0.80,0.80,0.86,0.90,0.91,0.94,0.98,1.00,1.02,1.10,1.10,1.10,1.13,1.20,1.20,1.26,1.30,1.30,1.30,1.37,1.40
18.65,18.48,18.32,18.11,17.89,17.66,17.40,17.09,16.78,16.47,16.13,15.76,15.45,15.18,14.90,14.55,14.17,13.77,13.34,12.89,12.43,12.10,11.74,11.39,11.06,10.69,10.37,9.82,8.90,7.52,6.59,6.06,5.88,5.97,6.11,6.26,6.45,6.67,6.76,6.57,6.33,6.07,5.76,5.46,5.16,4.95,4.92,4.90,4.90,4.90,4.89,4.83,4.76,4.69,4.62,4.54,4.45,4.37,4.26,4.13,4.05,3.96,3.88,3.79,3.65,3.57,3.49,3.41,3.31,3.17,3.08,3.00,2.92,2.83,2.75,2.64,2.52,2.44,2.36,2.27,2.19,2.10,1.95,1.86,1.77,1.68,1.61,1.47,1.38,1.29,1.15,1.08,1.06,1.02,0.95,0.87,0.79,0.76,0.73,0.64,0.41,0.38,0.59,1.04,1.44,1.88,2.26,2.40,1.94,1.36,0.77,e,e,e,e,0.03,0.05,0.11,0.19,0.26,0.32,0.32,0.39,0.47,0.53,0.54,0.61,0.68,0.76,0.82,0.84,0.90,0.97,1.02,1.02,1.10,1.17,1.19,1.17,1.09,1.01,0.94,0.86,0.78,0.71,0.63,0.57,0.56,0.49,0.47,0.53,0.67,0.83,0.93,0.90,0.79,0.63,0.45,0.22,e,e,e,e,e,e,e,e,e,e,e,e,e,e,e,e,e,e,e,e,e,e,e,e,e,e,e,e,e,e,e,e,e,e,e,e,e,e,e,e,e,e,e,e,e,e,e,e,e,0.00,0.00,0.00,0.05,0.10,0.10,0.18,0.20,0.20,0.21,0.29,0.30,0.34,0.39,0.40,0.40,0.45,0.50,0.51,0.57,0.59,0.60,0.62,0.70,0.70,0.70,0.73,0.80,0.80,0.86,0.90,0.90,0.90,0.97,1.00,1.02,1.08,1.10,1.10,1.13,1.20,1.20,1.25,1.29,1.30,1.30,1.37,1.40
18.80,18.61,18.45,18.29,17.93,17.57,17.27,16.97,16.66,16.31,15.95,15.63,15.32,15.02,14.67,14.23,13.85,13.41,12.99,12.57,12.11,11.73,11.39,11.05,10.68,10.36,9.86,8.87,7.53,6.69,6.44,6.37,6.41,6.55,6.64,6.78,6.96,7.15,7.05,6.79,6.49,6.19,5.88,5.64,5.35,5.10,4.98,4.92,4.90,4.90,4.90,4.88,4.87,4.82,4.74,4.67,4.53,4.43,4.35,4.26,4.18,4.05,3.94,3.86,3.77,3.69,3.62,3.52,3.38,3.29,3.21,3.13,3.04,2.90,2.82,2.73,2.64,2.57,2.49,2.37,2.25,2.17,2.01,1.92,1.81,1.68,1.61,1.52,1.48,1.44,1.35,1.27,1.25,1.21,1.14,1.06,0.98,0.95,0.91,0.77,0.54,0.64,0.96,1.36,1.81,2.22,2.45,2.40,1.94,1.45,0.96,e,e,e,e,0.11,0.17,0.18,0.25,0.33,0.38,0.38,0.46,0.54,0.61,0.67,0.68,0.74,0.82,0.90,0.96,0.98,1.03,1.08,1.09,1.16,1.19,1.17,1.11,1.03,0.95,0.87,0.80,0.72,0.64,0.56,0.49,0.43,0.42,0.37,0.38,0.48,0.64,0.78,0.90,0.92,0.76,0.48,0.18,e,e,e,e,e,e,e,e,e,e,e,e,e,e,e,e,e,e,e,e,e,e,e,e,e,e,e,e,e,e,e,e,e,e,e,e,e,e,e,e,e,e,e,e,e,e,e,e,e,0.00,0.00,0.00,0.05,0.10,0.10,0.18,0.20,0.20,0.21,0.29,0.30,0.31,0.34,0.40,0.40,0.45,0.50,0.50,0.51,0.57,0.60,0.62,0.70,0.70,0.70,0.73,0.80,0.80,0.86,0.90,0.90,0.90,0.97,1.00,1.00,1.02,1.08,1.10,1.13,1.20,1.20,1.21,1.25,1.30,1.30,1.37,1.40
18.96,18.77,18.57,18.27,17.84,17.42,17.05,16.74,16.43,16.10,15.78,15.50,15.19,14.83,14.40,13.91,13.49,13.06,12.64,12.21,11.79,11.40,11.04,10.69,10.32,9.57,8.64,7.87,7.41,7.22,7.04,6.99,7.05,7.17,7.21,7.31,7.41,7.46,7.23,6.94,6.63,6.33,6.06,5.79,5.52,5.29,5.14,5.06,5.01,5.01,5.05,5.08,5.06,4.95,4.82,4.75,4.63,4.54,4.46,4.38,4.27,4.15,4.05,3.98,3.90,3.79,3.70,3.61,3.49,3.41,3.31,3.21,3.13,3.01,2.93,2.83,2.73,2.65,2.53,2.42,2.30,2.19,2.07,1.98,1.90,1.82,1.75,1.70,1.67,1.62,1.54,1.46,1.44,1.41,1.33,1.25,1.17,1.14,1.10,0.94,0.75,0.93,1.30,1.73,2.15,2.46,2.48,2.21,1.75,1.32,0.89,0.53,0.29,0.17,0.14,0.18,0.25,0.29,0.33,0.39,0.46,0.49,0.53,0.60,0.68,0.75,0.75,0.81,0.89,0.96,1.04,1.05,1.09,1.16,1.19,1.20,1.17,1.12,1.04,0.96,0.92,0.86,0.78,0.70,0.63,0.55,0.47,0.40,0.36,0.29,0.27,0.34,0.49,0.65,0.84,0.94,0.75,0.44,e,e,e,e,e,e,e,e,e,e,e,e,e,e,e,e,e,e,e,e,e,e,e,e,e,e,e,e,e,e,e,e,e,e,e,e,e,e,e,e,e,e,e,e,e,e,e,e,e,e,0.00,0.00,0.00,0.05,0.10,0.10,0.14,0.18,0.20,0.21,0.29,0.30,0.30,0.32,0.40,0.40,0.45,0.50,0.50,0.50,0.56,0.60,0.62,0.70,0.70,0.70,0.73,0.80,0.80,0.83,0.87,0.90,0.90,0.97,1.00,1.00,1.00,1.08,1.10,1.13,1.20,1.20,1.20,1.24,1.30,1.30,1.34,1.38
19.11,18.92,18.64,18.18,17.72,17.25,16.82,16.50,16.18,15.87,15.59,15.35,15.03,14.60,14.11,13.60,13.13,12.73,12.30,11.85,11.46,11.08,10.69,10.30,9.83,8.65,7.51,7.25,7.88,8.22,7.90,7.73,7.75,7.82,7.81,7.83,7.81,7.68,7.38,7.07,6.76,6.47,6.24,5.94,5.69,5.50,5.35,5.27,5.20,5.20,5.27,5.35,5.28,5.11,4.92,4.83,4.75,4.66,4.58,4.49,4.35,4.26,4.18,4.09,4.02,3.87,3.77,3.69,3.61,3.53,3.40,3.28,3.20,3.11,3.03,2.91,2.78,2.70,2.56,2.46,2.36,2.22,2.15,2.08,2.04,2.02,1.94,1.93,1.88,1.81,1.73,1.65,1.63,1.60,1.52,1.44,1.37,1.33,1.29,1.12,1.00,1.23,1.65,2.09,2.47,2.61,2.42,1.97,1.50,1.12,0.76,0.50,0.42,0.34,0.26,0.25,0.32,0.40,0.41,0.45,0.53,0.61,0.62,0.67,0.74,0.81,0.81,0.87,0.95,1.03,1.10,1.12,1.16,1.23,1.29,1.21,1.13,1.05,0.98,0.91,0.89,0.85,0.77,0.69,0.61,0.54,0.46,0.38,0.31,0.23,0.18,0.21,0.36,0.52,0.76,0.90,0.70,0.45,e,e,e,e,e,e,e,e,e,e,e,e,e,e,e,e,e,e,e,e,e,e,e,e,e,e,e,e,e,e,e,e,e,e,e,e,e,e,e,e,e,e,e,e,e,e,e,e,e,0.00,0.00,0.00,0.00,0.05,0.10,0.10,0.10,0.16,0.20,0.21,0.29,0.30,0.30,0.32,0.40,0.40,0.45,0.49,0.50,0.50,0.56,0.60,0.62,0.68,0.70,0.70,0.73,0.80,0.80,0.80,0.84,0.90,0.90,0.97,1.00,1.00,1.00,1.08,1.10,1.13,1.19,1.20,1.20,1.24,1.30,1.30,1.30,1.35
19.21,18.93,18.52,18.05,17.59,17.13,16.68,16.31,15.95,15.61,15.33,15.10,14.67,14.22,13.77,13.34,12.88,12.43,11.98,11.53,11.15,10.76,10.37,9.76,8.77,7.88,7.99,8.53,9.10,9.14,8.70,8.50,8.50,8.52,8.47,8.30,8.07,7.81,7.50,7.19,6.89,6.59,6.36,6.11,5.95,5.82,5.67,5.59,5.56,5.56,5.59,5.67,5.56,5.36,5.16,5.02,4.89,4.75,4.64,4.56,4.47,4.39,4.28,4.16,4.08,3.98,3.90,3.80,3.67,3.59,3.50,3.39,3.25,3.12,3.03,2.91,2.78,2.70,2.60,2.52,2.46,2.42,2.34,2.31,2.27,2.21,2.13,2.07,2.04,2.00,1.92,1.84,1.82,1.79,1.71,1.63,1.56,1.52,1.47,1.25,1.27,1.58,2.01,2.41,2.74,2.55,2.19,1.78,1.31,0.97,0.75,0.62,0.55,0.47,0.39,0.36,0.39,0.46,0.47,0.52,0.60,0.67,0.73,0.76,0.80,0.87,0.87,0.94,1.01,1.09,1.17,1.23,1.26,1.26,1.22,1.15,1.07,0.99,0.92,0.90,0.85,0.78,0.70,0.63,0.55,0.47,0.40,0.32,0.24,0.16,0.10,0.08,0.24,0.39,0.57,0.72,0.78,0.81,e,e,e,e,e,e,e,e,e,e,e,e,e,e,e,e,e,e,e,e,e,e,e,e,e,e,e,e,e,e,e,e,e,e,e,e,e,e,e,e,e,e,e,e,e,e,e,e,e,0.00,0.00,0.00,0.00,0.05,0.10,0.10,0.10,0.16,0.20,0.21,0.29,0.30,0.30,0.32,0.40,0.40,0.41,0.45,0.50,0.50,0.56,0.60,0.60,0.62,0.68,0.70,0.73,0.80,0.80,0.80,0.84,0.90,0.90,0.97,1.00,1.00,1.00,1.08,1.10,1.11,1.13,1.19,1.20,1.24,1.30,1.30,1.30,1.35
19.23,18.85,18.39,17.93,17.46,17.00,16.54,16.13,15.74,15.40,15.08,14.72,14.26,13.80,13.35,12.93,12.50,12.07,11.63,11.20,10.79,10.40,9.88,9.10,8.08,8.00,8.71,9.45,9.86,9.82,9.41,9.17,9.08,8.99,8.83,8.56,8.26,7.98,7.67,7.36,7.05,6.77,6.57,6.39,6.26,6.15,6.03,5.95,5.91,5.89,5.90,5.95,5.82,5.62,5.40,5.22,5.03,4.87,4.75,4.67,4.56,4.48,4.37,4.25,4.15,4.07,3.97,3.86,3.73,3.63,3.54,3.43,3.28,3.15,3.07,2.97,2.86,2.82,2.77,2.70,2.64,2.61,2.53,2.52,2.48,2.40,2.32,2.24,2.22,2.19,2.11,2.04,1.99,1.96,1.90,1.83,1.75,1.72,1.65,1.42,1.58,1.93,2.36,2.74,2.78,2.41,1.97,1.57,1.23,1.00,0.87,0.79,0.71,0.64,0.56,0.50,0.48,0.53,0.54,0.58,0.66,0.74,0.81,0.84,0.87,0.94,0.97,1.02,1.08,1.15,1.23,1.28,1.28,1.24,1.16,1.08,1.00,0.93,0.86,0.86,0.80,0.72,0.64,0.56,0.49,0.41,0.33,0.25,0.18,0.10,e,e,e,e,e,e,0.49,0.65,0.64,0.59,0.55,0.49,0.45,0.38,e,e,e,e,e,e,e,e,e,e,e,e,e,e,e,e,e,e,e,e,e,e,e,e,e,e,e,e,e,e,e,e,e,e,e,e,e,e,e,e,e,e,e,e,0.00,0.00,0.00,0.05,0.10,0.10,0.10,0.16,0.20,0.21,0.26,0.29,0.30,0.32,0.40,0.40,0.40,0.43,0.50,0.50,0.56,0.60,0.60,0.60,0.67,0.70,0.72,0.76,0.79,0.80,0.84,0.90,0.90,0.97,1.00,1.00,1.00,1.08,1.10,1.11,1.14,1.19,1.22,1.26,1.30,1.30,1.33,1.37
19.19,18.73,18.26,17.80,17.34,16.87,16.41,15.95,15.55,15.21,14.82,14.28,13.81,13.35,12.89,12.43,12.05,11.66,11.27,10.87,10.41,10.01,9.27,8.39,7.70,8.70,9.57,10.12,10.31,10.31,10.04,9.77,9.54,9.30,8.99,8.69,8.41,8.17,7.86,7.55,7.25,6.98,6.82,6.74,6.61,6.49,6.41,6.33,6.26,6.22,6.22,6.21,6.08,5.87,5.64,5.41,5.18,5.00,4.87,4.79,4.63,4.54,4.46,4.36,4.21,4.13,4.00,3.87,3.79,3.64,3.54,3.43,3.29,3.22,3.14,3.07,3.01,3.01,3.01,2.95,2.88,2.80,2.72,2.71,2.67,2.59,2.51,2.44,2.41,2.38,2.30,2.23,2.15,2.11,2.10,2.02,1.94,1.91,1.84,1.61,1.92,2.28,2.69,3.05,2.67,2.22,1.76,1.37,1.22,1.14,1.06,0.98,0.90,0.83,0.75,0.67,0.61,0.61,0.60,0.65,0.72,0.80,0.88,0.90,0.93,1.01,1.09,1.10,1.14,1.22,1.29,1.30,1.25,1.17,1.10,1.02,0.94,0.86,0.80,0.80,0.73,0.65,0.58,0.50,0.42,0.35,0.27,0.19,0.11,e,e,e,e,e,e,e,e,e,e,e,e,e,e,0.78,0.74,0.60,0.45,e,e,e,e,e,e,e,e,e,e,e,e,e,e,e,e,e,e,e,e,e,e,e,e,e,e,e,e,e,e,e,e,e,e,e,e,e,e,e,e,e,e,e,0.00,0.05,0.10,0.10,0.10,0.16,0.20,0.20,0.20,0.27,0.30,0.32,0.40,0.40,0.40,0.43,0.50,0.50,0.56,0.60,0.60,0.60,0.68,0.70,0.70,0.71,0.78,0.80,0.84,0.90,0.90,0.97,1.00,1.00,1.00,1.08,1.10,1.13,1.20,1.20,1.27,1.30,1.30,1.30,1.37,1.40
19.13,18.66,18.20,17.68,17.25,16.81,16.35,15.88,15.44,14.99,14.47,13.83,13.42,12.93,12.44,11.99,11.60,11.21,10.83,10.43,10.02,9.39,8.63,8.18,8.46,9.41,10.01,10.40,10.62,10.57,10.29,10.00,9.71,9.43,9.12,8.85,8.58,8.30,7.99,7.68,7.48,7.36,7.21,7.08,6.97,6.87,6.79,6.66,6.61,6.60,6.59,6.54,6.35,6.13,5.90,5.67,5.43,5.22,5.03,4.85,4.69,4.60,4.50,4.36,4.21,4.13,4.00,3.87,3.79,3.64,3.58,3.54,3.49,3.41,3.38,3.32,3.27,3.27,3.22,3.15,3.07,2.99,2.91,2.90,2.86,2.78,2.70,2.63,2.60,2.57,2.50,2.42,2.34,2.30,2.29,2.21,2.13,2.10,2.05,1.87,2.22,2.63,2.90,2.86,2.42,2.00,1.70,1.51,1.41,1.33,1.25,1.17,1.10,1.02,0.94,0.86,0.79,0.74,0.69,0.71,0.79,0.86,0.94,1.00,1.04,1.07,1.15,1.21,1.25,1.27,1.30,1.25,1.19,1.11,1.03,0.95,0.88,0.80,0.73,0.73,0.67,0.59,0.51,0.44,0.36,0.28,0.20,0.13,0.05,e,e,e,e,e,e,e,e,e,e,e,e,e,e,0.30,0.33,0.33,0.38,e,e,e,e,e,e,e,e,e,e,e,e,e,e,e,e,e,e,e,e,e,e,e,e,e,e,e,e,e,e,e,e,e,e,e,e,e,e,e,e,e,e,e,0.00,0.05,0.10,0.10,0.15,0.19,0.20,0.21,0.26,0.29,0.33,0.37,0.40,0.45,0.47,0.48,0.51,0.56,0.59,0.63,0.67,0.67,0.74,0.77,0.77,0.77,0.85,0.87,0.90,0.97,0.97,1.03,1.07,1.07,1.07,1.14,1.17,1.20,1.27,1.27,1.33,1.37,1.37,1.37,1.44,1.47
19.17,18.69,18.22,17.68,17.22,16.78,16.31,15.82,15.33,14.79,14.16,13.44,12.99,12.50,12.02,11.57,11.16,10.77,10.37,9.95,9.52,8.85,8.39,8.43,9.18,9.92,10.35,10.67,10.91,10.86,10.56,10.22,9.89,9.56,9.25,9.00,8.73,8.42,8.11,7.88,7.79,7.77,7.59,7.44,7.33,7.25,7.14,7.01,6.96,6.95,6.94,6.86,6.63,6.39,6.15,5.89,5.61,5.35,5.11,4.89,4.75,4.65,4.52,4.37,4.24,4.16,4.05,3.94,3.88,3.75,3.72,3.71,3.68,3.63,3.60,3.55,3.48,3.46,3.38,3.32,3.26,3.18,3.11,3.09,3.05,2.97,2.90,2.82,2.79,2.76,2.69,2.61,2.53,2.49,2.48,2.40,2.32,2.28,2.24,2.15,2.55,2.89,2.95,2.64,2.22,1.90,1.72,1.64,1.57,1.49,1.41,1.34,1.29,1.21,1.13,1.06,0.98,0.90,0.82,0.81,0.85,0.93,1.01,1.08,1.14,1.17,1.22,1.27,1.29,1.27,1.27,1.20,1.12,1.04,0.97,0.89,0.81,0.74,0.67,0.67,0.60,0.53,0.45,0.37,0.29,0.22,0.14,e,e,e,e,e,e,e,e,e,e,e,e,e,e,e,e,e,e,e,e,e,e,e,e,e,e,e,e,e,e,e,e,e,e,e,e,e,e,e,e,e,e,e,e,e,e,e,e,e,e,e,e,e,e,e,e,e,e,e,e,e,e,e,0.03,0.08,0.13,0.14,0.21,0.23,0.23,0.24,0.32,0.33,0.38,0.43,0.43,0.51,0.53,0.53,0.54,0.62,0.63,0.67,0.73,0.73,0.80,0.83,0.83,0.83,0.91,0.93,0.97,1.03,1.03,1.10,1.13,1.13,1.13,1.21,1.23,1.26,1.33,1.33,1.39,1.43,1.43,1.43,1.50,1.53
19.33,18.82,18.35,17.81,17.27,16.78,16.30,15.76,15.23,14.60,13.89,13.12,12.52,12.06,11.64,11.18,10.72,10.32,9.89,9.42,8.88,8.40,8.59,9.18,9.86,10.20,10.58,10.92,11.18,11.17,10.83,10.45,10.07,9.69,9.38,9.12,8.86,8.55,8.24,8.17,8.20,8.21,7.98,7.82,7.72,7.61,7.47,7.38,7.31,7.27,7.26,7.18,6.90,6.64,6.39,6.08,5.71,5.38,5.11,4.89,4.81,4.67,4.52,4.38,4.30,4.22,4.14,4.09,4.08,4.00,3.98,3.94,3.88,3.88,3.81,3.74,3.66,3.59,3.51,3.49,3.45,3.37,3.30,3.28,3.24,3.17,3.09,3.01,2.98,2.96,2.88,2.80,2.72,2.68,2.67,2.59,2.52,2.44,2.41,2.47,2.92,3.03,2.83,2.39,2.07,1.94,1.85,1.77,1.69,1.62,1.54,1.49,1.48,1.40,1.33,1.25,1.17,1.09,1.02,0.94,0.92,0.99,1.07,1.15,1.22,1.29,1.29,1.30,1.26,1.21,1.21,1.14,1.06,0.98,0.90,0.83,0.75,0.67,0.61,0.61,0.54,0.46,0.39,0.31,0.23,0.15,0.08,e,e,e,e,e,e,e,e,e,e,e,e,e,e,e,e,e,e,e,e,e,e,e,e,e,e,e,e,e,e,e,e,e,e,e,e,e,e,e,e,e,e,e,e,e,e,e,e,e,e,e,e,e,e,e,e,e,e,e,e,e,e,e,0.09,0.14,0.19,0.20,0.28,0.29,0.29,0.31,0.39,0.39,0.44,0.49,0.49,0.57,0.59,0.59,0.60,0.68,0.69,0.74,0.79,0.79,0.87,0.89,0.89,0.90,0.98,0.99,1.03,1.09,1.09,1.16,1.19,1.19,1.19,1.27,1.29,1.33,1.39,1.39,1.46,1.49,1.49,1.49,1.57,1.59
19.34,18.81,18.30,17.76,17.26,16.75,16.24,15.70,15.16,14.50,13.73,12.92,12.21,11.64,11.16,10.73,10.27,9.80,9.33,8.97,8.92,8.94,9.30,9.79,10.21,10.52,10.85,11.18,11.43,11.43,11.09,10.70,10.32,9.93,9.58,9.28,8.99,8.70,8.52,8.56,8.62,8.59,8.36,8.25,8.13,7.99,7.84,7.77,7.69,7.63,7.55,7.34,6.96,6.61,6.29,5.98,5.60,5.27,5.01,4.83,4.76,4.62,4.48,4.41,4.47,4.40,4.35,4.32,4.27,4.24,4.20,4.16,4.12,4.03,3.99,3.93,3.85,3.78,3.70,3.67,3.64,3.57,3.49,3.44,3.40,3.36,3.28,3.20,3.17,3.15,3.07,2.99,2.92,2.87,2.86,2.78,2.71,2.63,2.63,2.84,3.08,2.98,2.70,2.38,2.21,2.11,2.03,1.96,1.88,1.80,1.73,1.66,1.61,1.54,1.46,1.38,1.30,1.23,1.15,1.07,1.02,1.06,1.13,1.21,1.27,1.30,1.30,1.26,1.20,1.14,1.14,1.07,0.99,0.92,0.84,0.76,0.69,0.61,0.54,0.49,0.46,0.40,0.32,0.24,0.17,0.09,e,e,e,e,e,e,e,e,e,e,e,e,e,e,e,e,e,e,e,e,e,e,e,e,e,e,e,e,e,e,e,e,e,e,e,e,e,e,e,e,e,e,e,e,e,e,e,e,e,e,e,e,e,e,e,e,e,e,e,e,e,e,0.02,0.10,0.14,0.21,0.26,0.26,0.34,0.36,0.36,0.37,0.45,0.46,0.50,0.56,0.56,0.64,0.66,0.66,0.67,0.74,0.76,0.80,0.86,0.86,0.93,0.96,0.96,0.96,1.04,1.06,1.09,1.16,1.16,1.23,1.26,1.26,1.26,1.33,1.36,1.39,1.46,1.46,1.52,1.56,1.56,1.56,1.63,1.66
19.31,18.76,18.22,17.68,17.18,16.67,16.13,15.59,15.03,14.34,13.53,12.68,11.93,11.26,10.71,10.29,9.86,9.45,9.12,8.97,9.25,9.58,9.97,10.32,10.55,10.86,11.17,11.47,11.70,11.67,11.32,10.94,10.55,10.16,9.78,9.45,9.14,8.88,8.86,8.98,9.05,9.00,8.77,8.66,8.53,8.38,8.23,8.13,8.05,7.93,7.74,7.40,6.95,6.52,6.14,5.83,5.45,5.14,4.91,4.77,4.69,4.59,4.51,4.49,4.61,4.58,4.57,4.54,4.49,4.47,4.41,4.36,4.32,4.18,4.17,4.12,4.04,3.97,3.89,3.87,3.83,3.76,3.68,3.60,3.57,3.55,3.47,3.39,3.37,3.34,3.26,3.19,3.11,3.07,3.05,2.98,2.90,2.83,2.87,3.18,3.15,2.91,2.64,2.46,2.38,2.30,2.23,2.15,2.07,1.99,1.92,1.84,1.76,1.69,1.61,1.53,1.45,1.38,1.30,1.22,1.16,1.14,1.20,1.26,1.30,1.30,1.28,1.22,1.14,1.07,1.06,1.00,0.93,0.85,0.78,0.70,0.62,0.54,0.47,0.39,0.38,0.33,0.26,0.18,0.10,e,e,e,e,e,e,e,e,e,e,e,e,e,e,e,e,e,e,e,e,e,e,e,e,e,e,e,e,e,e,e,e,e,e,e,e,e,e,e,e,e,e,e,e,e,e,e,e,e,e,e,e,e,e,e,e,e,e,e,e,e,e,e,0.04,0.12,0.20,0.27,0.32,0.33,0.40,0.42,0.42,0.44,0.51,0.52,0.57,0.62,0.62,0.70,0.72,0.72,0.73,0.81,0.82,0.86,0.92,0.92,0.99,1.02,1.02,1.03,1.10,1.12,1.16,1.22,1.22,1.29,1.32,1.32,1.32,1.40,1.42,1.45,1.52,1.52,1.59,1.62,1.62,1.62,1.69,1.72
19.21,18.63,18.09,17.55,17.02,16.48,15.94,15.40,14.80,14.05,13.21,12.36,11.66,10.97,10.35,9.86,9.53,9.46,9.60,9.84,10.02,10.21,10.45,10.70,10.94,11.24,11.55,11.83,12.00,11.87,11.51,11.13,10.74,10.36,9.97,9.64,9.36,9.16,9.28,9.43,9.50,9.45,9.21,9.07,8.91,8.76,8.61,8.46,8.37,8.14,7.72,7.28,6.82,6.36,5.95,5.64,5.26,5.02,4.85,4.71,4.63,4.65,4.67,4.66,4.68,4.74,4.76,4.75,4.74,4.67,4.60,4.53,4.46,4.37,4.36,4.31,4.24,4.16,4.08,4.06,4.03,3.95,3.87,3.79,3.76,3.74,3.66,3.59,3.56,3.53,3.45,3.38,3.30,3.26,3.25,3.17,3.09,3.05,3.13,3.44,3.06,2.86,2.75,2.65,2.57,2.50,2.42,2.34,2.26,2.19,2.11,2.03,1.95,1.88,1.80,1.72,1.65,1.57,1.49,1.41,1.34,1.27,1.28,1.29,1.30,1.29,1.23,1.15,1.08,1.00,0.93,0.92,0.87,0.79,0.71,0.63,0.56,0.48,0.40,0.33,0.31,0.27,0.19,0.12,0.04,e,e,e,e,e,e,e,e,e,e,e,e,e,e,e,e,e,e,e,e,e,e,e,e,e,e,e,e,e,e,e,e,e,e,e,e,e,e,e,e,e,e,e,e,e,e,e,e,e,e,e,e,e,e,e,e,e,e,e,e,e,e,e,0.10,0.18,0.26,0.34,0.39,0.39,0.47,0.49,0.49,0.50,0.58,0.59,0.63,0.69,0.69,0.76,0.79,0.79,0.79,0.87,0.89,0.93,0.99,0.99,1.06,1.09,1.09,1.09,1.17,1.19,1.22,1.29,1.29,1.35,1.39,1.39,1.39,1.46,1.49,1.52,1.59,1.59,1.65,1.69,1.69,1.69,1.76,1.79
19.04,18.45,17.91,17.37,16.80,16.24,15.70,15.16,14.55,13.79,12.94,12.09,11.32,10.60,10.04,9.68,9.53,9.72,10.06,10.39,10.54,10.73,10.92,11.12,11.32,11.59,11.89,12.18,12.35,12.08,11.71,11.32,10.93,10.55,10.16,9.83,9.58,9.47,9.66,9.86,9.97,9.92,9.62,9.45,9.30,9.13,8.94,8.74,8.55,8.16,7.57,7.11,6.64,6.18,5.75,5.40,5.09,4.92,4.80,4.70,4.66,4.71,4.77,4.81,4.85,4.96,5.00,4.99,4.94,4.83,4.77,4.71,4.64,4.56,4.55,4.50,4.43,4.35,4.27,4.25,4.22,4.14,4.06,3.99,3.95,3.93,3.85,3.78,3.72,3.69,3.65,3.57,3.49,3.45,3.44,3.36,3.28,3.29,3.35,3.35,3.08,2.95,2.88,2.84,2.76,2.69,2.61,2.53,2.46,2.38,2.30,2.22,2.15,2.07,1.99,1.91,1.84,1.76,1.68,1.61,1.52,1.40,1.36,1.32,1.29,1.24,1.17,1.09,1.01,0.94,0.90,0.86,0.80,0.73,0.65,0.57,0.49,0.42,0.34,0.26,0.22,0.18,0.13,0.05,e,e,e,e,e,e,e,e,e,e,e,e,e,e,e,e,e,e,e,e,e,e,e,e,e,e,e,e,e,e,e,e,e,e,e,e,e,e,e,e,e,e,e,e,e,e,e,e,e,e,e,e,e,e,e,e,e,e,e,e,e,e,e,0.09,0.17,0.25,0.32,0.40,0.45,0.45,0.53,0.55,0.55,0.56,0.64,0.65,0.70,0.75,0.75,0.83,0.85,0.85,0.86,0.94,0.95,0.99,1.05,1.05,1.12,1.15,1.15,1.15,1.23,1.25,1.29,1.35,1.35,1.42,1.45,1.45,1.45,1.53,1.55,1.58,1.65,1.65,1.71,1.75,1.75,1.75,1.82,1.85
18.84,18.25,17.71,17.15,16.56,15.98,15.44,14.89,14.27,13.53,12.70,11.85,11.00,10.28,9.82,9.64,9.68,10.07,10.50,10.84,11.00,11.22,11.40,11.55,11.72,11.94,12.23,12.51,12.66,12.27,11.89,11.52,11.14,10.77,10.39,10.07,9.86,9.82,10.05,10.28,10.42,10.38,10.00,9.82,9.65,9.46,9.23,9.00,8.71,8.19,7.46,6.95,6.46,5.99,5.55,5.16,4.95,4.83,4.76,4.71,4.73,4.79,4.88,4.99,5.08,5.22,5.27,5.25,5.14,4.95,4.90,4.86,4.79,4.72,4.70,4.66,4.59,4.51,4.45,4.42,4.39,4.32,4.24,4.16,4.13,4.11,4.03,3.97,3.89,3.84,3.84,3.76,3.68,3.64,3.63,3.55,3.47,3.51,3.52,3.25,3.16,3.09,3.04,3.02,2.94,2.86,2.78,2.70,2.62,2.54,2.47,2.39,2.31,2.22,2.14,2.07,1.99,1.91,1.82,1.74,1.65,1.50,1.42,1.34,1.26,1.18,1.10,1.02,0.95,0.90,0.89,0.82,0.74,0.66,0.58,0.51,0.43,0.35,0.28,0.20,0.13,0.09,e,e,e,e,e,e,e,e,e,e,e,e,e,e,e,e,e,e,e,e,e,e,e,e,e,e,e,e,e,e,e,e,e,e,e,e,e,e,e,e,e,e,e,e,e,e,e,e,e,e,e,e,e,e,e,e,e,e,e,e,e,e,e,e,0.08,0.15,0.23,0.31,0.39,0.46,0.51,0.52,0.60,0.61,0.61,0.63,0.70,0.71,0.76,0.81,0.81,0.89,0.91,0.91,0.92,1.00,1.01,1.05,1.11,1.11,1.19,1.21,1.21,1.22,1.30,1.31,1.35,1.41,1.41,1.48,1.51,1.51,1.51,1.59,1.61,1.64,1.71,1.71,1.78,1.81,1.81,1.81,1.89,1.91
18.62,17.99,17.45,16.85,16.28,15.73,15.18,14.58,13.91,13.23,12.51,11.66,10.81,10.20,9.88,9.86,10.03,10.45,10.91,11.29,11.51,11.68,11.84,12.02,12.23,12.40,12.63,12.80,12.78,12.40,12.07,11.74,11.41,11.09,10.76,10.49,10.31,10.27,10.50,10.68,10.77,10.71,10.38,10.11,9.87,9.65,9.42,9.19,8.94,8.45,7.68,6.91,6.31,5.80,5.35,4.97,4.86,4.77,4.74,4.78,4.84,4.92,5.09,5.32,5.46,5.55,5.63,5.60,5.39,5.00,4.90,4.86,4.80,4.78,4.73,4.69,4.66,4.58,4.56,4.51,4.47,4.45,4.37,4.29,4.25,4.24,4.16,4.14,4.08,4.03,4.03,3.95,3.87,3.83,3.82,3.74,3.67,3.62,3.56,3.43,3.36,3.28,3.21,3.15,3.07,2.99,2.88,2.76,2.68,2.61,2.53,2.45,2.37,2.24,2.14,2.07,1.99,1.91,1.78,1.68,1.60,1.50,1.42,1.31,1.19,1.12,1.04,0.96,0.91,0.89,0.83,0.75,0.67,0.60,0.52,0.44,0.37,0.29,0.21,0.13,0.11,0.07,e,e,e,e,e,e,e,e,e,e,e,e,e,e,e,e,e,e,e,e,e,e,e,e,e,e,e,e,e,e,e,e,e,e,e,e,e,e,e,e,e,e,e,e,e,e,e,e,e,e,e,e,e,e,e,e,e,e,e,e,e,e,e,e,0.14,0.22,0.30,0.37,0.45,0.53,0.58,0.58,0.66,0.68,0.68,0.69,0.77,0.78,0.82,0.88,0.88,0.95,0.98,0.98,0.99,1.06,1.08,1.12,1.18,1.18,1.25,1.28,1.28,1.28,1.36,1.38,1.41,1.48,1.48,1.55,1.58,1.58,1.58,1.65,1.68,1.71,1.78,1.78,1.84,1.88,1.88,1.88,1.95,1.98
18.62,17.96,17.35,16.70,16.11,15.52,14.92,14.30,13.64,12.99,12.28,11.47,10.71,10.33,10.22,10.30,10.53,10.90,11.34,11.75,11.98,12.14,12.31,12.50,12.70,12.85,13.07,13.16,13.05,12.73,12.41,12.11,11.80,11.49,11.18,10.99,10.89,10.87,11.04,11.20,11.20,11.04,10.76,10.43,10.11,9.84,9.61,9.38,9.20,8.73,7.92,7.10,6.38,5.72,5.19,4.90,4.82,4.77,4.77,4.85,4.96,5.12,5.37,5.65,5.84,5.95,5.96,5.83,5.56,5.16,4.97,4.88,4.84,4.80,4.76,4.72,4.69,4.64,4.61,4.57,4.53,4.49,4.41,4.36,4.32,4.29,4.24,4.21,4.17,4.13,4.10,4.05,3.98,3.93,3.89,3.85,3.77,3.70,3.62,3.54,3.43,3.35,3.27,3.19,3.08,3.00,2.90,2.78,2.71,2.60,2.51,2.43,2.35,2.23,2.14,2.05,1.95,1.87,1.75,1.66,1.57,1.46,1.38,1.28,1.17,1.09,1.02,0.94,0.88,0.84,0.77,0.69,0.61,0.53,0.46,0.38,0.30,0.24,0.19,0.11,0.07,e,e,e,e,e,e,e,e,e,e,e,e,e,e,e,e,e,e,e,e,e,e,e,e,e,e,e,e,e,e,e,e,e,e,e,e,e,e,e,e,e,e,e,e,e,e,e,e,e,e,e,e,e,e,e,e,e,e,e,e,e,e,e,0.01,0.09,0.16,0.24,0.32,0.40,0.47,0.57,0.64,0.65,0.72,0.74,0.74,0.76,0.83,0.84,0.89,0.94,0.94,1.02,1.04,1.04,1.05,1.13,1.14,1.18,1.24,1.24,1.31,1.34,1.34,1.35,1.42,1.44,1.48,1.54,1.54,1.61,1.64,1.64,1.64,1.72,1.74,1.77,1.84,1.84,1.90,1.94,1.94,1.94,2.01,2.04
18.76,18.06,17.36,16.67,16.02,15.36,14.67,14.05,13.43,12.77,12.05,11.29,10.71,10.61,10.72,10.88,11.11,11.40,11.79,12.19,12.43,12.58,12.79,12.99,13.15,13.30,13.51,13.55,13.38,13.16,12.86,12.55,12.24,11.93,11.64,11.55,11.55,11.56,11.61,11.72,11.61,11.31,11.08,10.72,10.35,10.03,9.80,9.57,9.46,9.02,8.19,7.42,6.57,5.71,5.06,4.90,4.82,4.80,4.84,4.93,5.11,5.39,5.69,5.98,6.22,6.36,6.26,6.00,5.69,5.39,5.08,4.91,4.89,4.81,4.80,4.76,4.70,4.70,4.62,4.60,4.57,4.49,4.42,4.40,4.36,4.30,4.30,4.23,4.20,4.18,4.11,4.10,4.05,3.97,3.91,3.91,3.84,3.76,3.68,3.60,3.45,3.35,3.27,3.18,3.03,2.94,2.86,2.78,2.70,2.56,2.45,2.37,2.29,2.21,2.14,2.03,1.89,1.81,1.73,1.65,1.55,1.40,1.32,1.24,1.16,1.09,1.01,0.93,0.86,0.78,0.70,0.62,0.55,0.47,0.39,0.32,0.24,0.19,0.18,0.11,e,e,e,e,e,e,e,e,e,e,e,e,e,e,e,e,e,e,e,e,e,e,e,e,e,e,e,e,e,e,e,e,e,e,e,e,e,e,e,e,e,e,e,e,e,e,e,e,e,e,e,e,e,e,e,e,e,e,e,e,e,e,e,e,0.01,0.09,0.17,0.25,0.32,0.40,0.48,0.60,0.70,0.71,0.79,0.81,0.81,0.82,0.90,0.91,0.95,1.01,1.01,1.08,1.11,1.11,1.11,1.19,1.21,1.25,1.31,1.31,1.38,1.41,1.41,1.41,1.49,1.51,1.54,1.61,1.61,1.67,1.71,1.71,1.71,1.78,1.81,1.84,1.91,1.91,1.97,2.01,2.01,2.01,2.08,2.11
18.95,18.25,17.55,16.80,16.03,15.27,14.53,13.86,13.24,12.58,11.89,11.23,11.20,11.25,11.33,11.45,11.68,11.93,12.24,12.60,12.94,13.05,13.24,13.44,13.59,13.75,13.84,13.83,13.71,13.53,13.29,13.00,12.69,12.38,12.23,12.19,12.19,12.15,11.86,11.58,11.26,10.93,10.70,10.52,10.35,10.16,9.93,9.75,9.65,9.26,8.51,7.74,6.80,5.88,5.16,4.90,4.82,4.84,4.94,5.15,5.52,5.79,6.08,6.37,6.60,6.56,6.39,6.13,5.82,5.51,5.20,4.99,4.90,4.87,4.82,4.79,4.75,4.70,4.62,4.60,4.57,4.50,4.47,4.43,4.39,4.36,4.30,4.28,4.24,4.19,4.17,4.11,4.08,4.03,3.97,3.97,3.90,3.82,3.73,3.60,3.50,3.38,3.27,3.18,3.03,2.94,2.83,2.71,2.64,2.54,2.45,2.36,2.23,2.15,2.07,1.99,1.88,1.75,1.66,1.59,1.50,1.40,1.32,1.21,1.10,1.02,0.95,0.87,0.79,0.71,0.64,0.56,0.48,0.41,0.33,0.25,0.17,0.13,0.12,0.04,e,e,e,e,e,e,e,e,e,e,e,e,e,e,e,e,e,e,e,e,e,e,e,e,e,e,e,e,e,e,e,e,e,e,e,e,e,e,e,e,e,e,e,e,e,e,e,e,e,e,e,e,e,e,e,e,e,e,e,e,e,e,e,e,0.08,0.16,0.23,0.31,0.39,0.46,0.54,0.64,0.72,0.77,0.85,0.87,0.87,0.88,0.96,0.97,1.01,1.07,1.07,1.15,1.17,1.17,1.18,1.26,1.27,1.31,1.37,1.37,1.44,1.47,1.47,1.47,1.55,1.57,1.61,1.67,1.67,1.74,1.77,1.77,1.77,1.85,1.87,1.90,1.97,1.97,2.03,2.07,2.07,2.07,2.14,2.17
19.11,18.40,17.68,16.90,16.09,15.29,14.53,13.84,13.17,12.47,11.86,11.50,11.71,11.86,11.96,12.06,12.29,12.52,12.77,13.05,13.41,13.53,13.70,13.89,14.04,14.14,14.15,14.09,14.00,13.85,13.65,13.41,13.15,12.86,12.71,12.54,12.36,12.15,11.68,11.24,10.84,10.52,10.31,10.25,10.20,10.11,9.96,9.86,9.79,9.49,8.86,8.06,7.12,6.20,5.41,4.90,4.85,4.92,5.11,5.42,5.91,6.21,6.48,6.75,6.95,6.77,6.53,6.26,5.95,5.67,5.36,5.12,4.96,4.91,4.85,4.82,4.78,4.70,4.65,4.62,4.58,4.53,4.50,4.46,4.42,4.39,4.34,4.31,4.27,4.22,4.20,4.15,4.13,4.10,4.03,4.00,3.93,3.86,3.76,3.64,3.53,3.41,3.29,3.19,3.06,2.95,2.83,2.71,2.61,2.53,2.44,2.32,2.20,2.12,2.02,1.93,1.85,1.72,1.63,1.54,1.45,1.37,1.29,1.18,1.07,0.99,0.89,0.81,0.73,0.65,0.57,0.50,0.42,0.34,0.26,0.19,0.13,0.09,e,e,e,e,e,e,e,e,e,e,e,e,e,e,e,e,e,e,e,e,e,e,e,e,e,e,e,e,e,e,e,e,e,e,e,e,e,e,e,e,e,e,e,e,e,e,e,e,e,e,e,e,e,e,e,e,e,e,e,e,e,e,e,e,e,0.07,0.14,0.22,0.30,0.37,0.45,0.53,0.61,0.68,0.76,0.84,0.92,0.93,0.93,0.95,1.02,1.03,1.08,1.13,1.13,1.21,1.23,1.23,1.24,1.32,1.33,1.37,1.43,1.43,1.51,1.53,1.53,1.54,1.61,1.63,1.67,1.73,1.73,1.80,1.83,1.83,1.83,1.91,1.93,1.96,2.03,2.03,2.10,2.13,2.13,2.13,2.20,2.23
19.23,18.51,17.74,16.97,16.19,15.42,14.66,13.97,13.21,12.44,11.94,12.07,12.23,12.44,12.60,12.70,12.93,13.16,13.35,13.55,13.86,14.02,14.18,14.33,14.48,14.48,14.43,14.35,14.26,14.10,13.95,13.79,13.61,13.37,13.07,12.61,12.09,11.57,11.11,10.71,10.36,10.09,9.93,9.92,9.91,9.91,9.90,9.90,9.89,9.71,9.23,8.38,7.53,6.68,5.81,4.90,4.90,5.06,5.35,5.75,6.28,6.63,6.90,7.12,7.27,7.00,6.69,6.39,6.08,5.85,5.56,5.28,5.07,4.92,4.90,4.85,4.78,4.70,4.70,4.64,4.60,4.59,4.51,4.50,4.46,4.40,4.40,4.33,4.30,4.27,4.20,4.20,4.20,4.16,4.08,4.01,3.93,3.86,3.78,3.70,3.55,3.45,3.34,3.19,3.11,2.97,2.86,2.76,2.61,2.53,2.40,2.28,2.20,2.12,1.99,1.87,1.79,1.71,1.63,1.51,1.38,1.31,1.23,1.15,1.07,0.99,0.83,0.74,0.66,0.59,0.51,0.43,0.36,0.28,0.20,0.12,0.10,0.07,e,e,e,e,e,e,e,e,e,e,e,e,e,e,e,e,e,e,e,e,e,e,e,e,e,e,e,e,e,e,e,e,e,e,e,e,e,e,e,e,e,e,e,e,e,e,e,e,e,e,e,e,e,e,e,e,e,e,e,e,e,e,e,e,e,0.13,0.21,0.28,0.36,0.44,0.52,0.59,0.67,0.75,0.82,0.90,0.98,1.00,1.00,1.01,1.09,1.10,1.14,1.20,1.20,1.27,1.30,1.30,1.31,1.38,1.40,1.44,1.50,1.50,1.57,1.60,1.60,1.60,1.68,1.70,1.73,1.80,1.80,1.86,1.90,1.90,1.90,1.97,2.00,2.03,2.10,2.10,2.16,2.20,2.20,2.20,2.27,2.30
19.21,18.47,17.74,16.97,16.20,15.43,14.66,13.92,13.11,12.57,12.39,12.59,12.79,12.98,13.16,13.33,13.52,13.74,13.95,14.16,14.37,14.53,14.63,14.69,14.74,14.74,14.72,14.64,14.51,14.36,14.21,14.02,13.70,13.09,12.60,12.04,11.47,10.94,10.53,10.25,10.07,9.96,9.90,9.90,9.90,9.90,9.90,9.90,9.90,9.83,9.59,8.92,8.10,7.30,6.54,5.75,5.70,5.75,5.91,6.18,6.62,7.03,7.35,7.51,7.43,7.13,6.85,6.57,6.27,6.04,5.75,5.45,5.19,4.99,4.92,4.86,4.79,4.76,4.71,4.68,4.64,4.60,4.57,4.52,4.48,4.45,4.40,4.37,4.36,4.33,4.26,4.26,4.23,4.16,4.10,4.06,3.99,3.92,3.83,3.70,3.59,3.48,3.36,3.25,3.12,3.01,2.90,2.78,2.67,2.55,2.43,2.32,2.20,2.12,1.99,1.87,1.78,1.66,1.57,1.48,1.38,1.30,1.18,1.09,1.01,0.93,0.82,0.70,0.60,0.52,0.45,0.37,0.29,0.21,0.14,0.11,0.07,e,e,e,e,e,e,e,e,e,e,e,e,e,e,e,e,e,e,e,e,e,e,e,e,e,e,e,e,e,e,e,e,e,e,e,e,e,e,e,e,e,e,e,e,e,e,e,e,e,e,e,e,e,e,e,e,e,e,e,e,e,e,e,e,e,0.12,0.19,0.27,0.35,0.42,0.50,0.58,0.66,0.73,0.81,0.89,0.97,1.04,1.06,1.06,1.07,1.15,1.16,1.21,1.26,1.26,1.34,1.36,1.36,1.37,1.45,1.46,1.50,1.56,1.56,1.63,1.66,1.66,1.67,1.74,1.76,1.80,1.86,1.86,1.93,1.96,1.96,1.96,2.04,2.06,2.09,2.16,2.16,2.22,2.26,2.26,2.26,2.33,2.36
19.13,18.39,17.67,16.90,16.14,15.38,14.60,13.83,13.09,12.79,12.84,13.07,13.31,13.50,13.69,13.92,14.09,14.31,14.53,14.71,14.86,15.00,15.06,15.06,15.05,15.05,15.03,14.95,14.79,14.60,14.44,14.15,13.61,12.73,12.11,11.48,10.89,10.39,10.10,9.95,9.90,9.90,9.90,9.90,9.90,9.90,9.90,9.90,9.90,9.90,9.83,9.42,8.67,7.98,7.37,6.77,6.65,6.60,6.65,6.80,7.09,7.46,7.74,7.82,7.59,7.28,7.03,6.77,6.46,6.21,5.93,5.63,5.33,5.10,4.96,4.87,4.82,4.80,4.74,4.71,4.67,4.60,4.60,4.55,4.52,4.51,4.45,4.43,4.42,4.40,4.32,4.30,4.26,4.19,4.12,4.10,4.03,3.96,3.86,3.73,3.63,3.51,3.39,3.29,3.15,3.05,2.93,2.80,2.71,2.58,2.46,2.35,2.22,2.12,2.00,1.88,1.78,1.64,1.54,1.46,1.37,1.28,1.14,1.05,0.96,0.87,0.79,0.67,0.56,0.48,0.38,0.30,0.23,0.16,0.10,0.08,e,e,e,e,e,e,e,e,e,e,e,e,e,e,e,e,e,e,e,e,e,e,e,e,e,e,e,e,e,e,e,e,e,e,e,e,e,e,e,e,e,e,e,e,e,e,e,e,e,e,e,e,e,e,e,e,e,e,e,e,e,e,e,e,e,e,0.16,0.23,0.31,0.39,0.48,0.56,0.62,0.70,0.79,0.87,0.95,1.03,1.11,1.12,1.13,1.16,1.22,1.22,1.27,1.32,1.32,1.40,1.42,1.43,1.46,1.51,1.52,1.57,1.62,1.62,1.70,1.72,1.73,1.75,1.81,1.82,1.86,1.92,1.92,1.99,2.02,2.03,2.05,2.11,2.12,2.16,2.22,2.22,2.29,2.32,2.33,2.35,2.40,2.42
18.97,18.24,17.48,16.71,15.99,15.25,14.48,13.70,13.23,13.13,13.29,13.52,13.75,13.98,14.21,14.44,14.66,14.89,15.05,15.16,15.31,15.40,15.48,15.49,15.43,15.43,15.38,15.27,15.09,14.80,14.63,14.10,13.26,12.28,11.66,10.99,10.40,9.98,9.93,9.91,9.90,9.90,9.90,9.90,9.90,9.90,9.90,9.90,9.90,9.90,9.89,9.83,9.25,8.74,8.33,7.98,7.77,7.66,7.65,7.73,7.78,7.94,8.04,8.01,7.78,7.48,7.22,6.96,6.65,6.35,6.09,5.82,5.53,5.29,5.02,4.89,4.87,4.80,4.79,4.74,4.67,4.60,4.60,4.59,4.59,4.59,4.58,4.51,4.49,4.46,4.39,4.32,4.29,4.25,4.18,4.11,4.03,3.96,3.88,3.79,3.65,3.54,3.43,3.29,3.21,3.07,2.96,2.86,2.71,2.62,2.50,2.37,2.28,2.14,2.04,1.92,1.79,1.70,1.56,1.46,1.36,1.22,1.13,1.05,0.94,0.80,0.73,0.64,0.56,0.47,0.32,0.24,0.16,0.11,0.10,0.03,e,e,e,e,e,e,e,e,e,e,e,e,e,e,e,e,e,e,e,e,e,e,e,e,e,e,e,e,e,e,e,e,e,e,e,e,e,e,e,e,e,e,e,e,e,e,e,e,e,e,e,e,e,e,e,e,e,e,e,e,e,e,e,e,e,e,0.16,0.23,0.31,0.39,0.52,0.59,0.62,0.70,0.84,0.94,1.02,1.09,1.17,1.19,1.22,1.28,1.29,1.29,1.33,1.39,1.39,1.47,1.49,1.52,1.58,1.59,1.59,1.63,1.69,1.69,1.76,1.79,1.81,1.88,1.89,1.89,1.92,1.99,1.99,2.06,2.09,2.11,2.18,2.19,2.19,2.22,2.29,2.29,2.35,2.39,2.40,2.47,2.49,2.49
18.78,18.01,17.23,16.46,15.72,15.02,14.36,13.67,13.47,13.51,13.68,13.92,14.15,14.38,14.73,15.19,15.26,15.40,15.53,15.64,15.71,15.79,15.86,15.90,15.86,15.82,15.72,15.57,15.35,15.00,14.60,13.89,12.94,11.94,11.24,10.57,10.09,9.90,9.90,9.90,9.90,9.90,9.90,9.90,9.90,9.90,9.90,9.90,9.90,9.90,9.90,9.90,9.68,9.49,9.33,9.14,8.87,8.73,8.67,8.62,8.54,8.49,8.38,8.20,7.97,7.67,7.41,7.15,6.84,6.53,6.28,6.01,5.72,5.49,5.19,4.99,4.88,4.80,4.80,4.77,4.74,4.70,4.66,4.65,4.65,4.64,4.60,4.57,4.53,4.49,4.45,4.37,4.32,4.28,4.24,4.16,4.09,4.01,3.92,3.80,3.69,3.57,3.46,3.34,3.22,3.11,2.99,2.88,2.76,2.64,2.53,2.41,2.30,2.18,2.06,1.95,1.83,1.72,1.60,1.49,1.37,1.26,1.14,1.05,0.96,0.84,0.72,0.64,0.54,0.42,0.31,0.23,0.15,0.09,e,e,e,e,e,e,e,0.64,0.48,0.21,e,e,e,e,e,e,e,e,e,e,e,e,e,e,e,e,e,e,e,e,e,e,e,e,e,e,e,e,e,e,e,e,e,e,e,e,e,e,e,e,e,e,e,e,e,e,e,e,e,e,e,e,e,e,e,e,0.05,0.13,0.21,0.28,0.36,0.44,0.55,0.62,0.67,0.75,0.86,0.95,1.03,1.10,1.18,1.23,1.29,1.35,1.35,1.35,1.40,1.45,1.45,1.53,1.55,1.58,1.65,1.65,1.65,1.69,1.75,1.75,1.82,1.85,1.88,1.95,1.95,1.95,1.99,2.05,2.05,2.12,2.15,2.17,2.25,2.25,2.25,2.28,2.35,2.35,2.42,2.45,2.47,2.55,2.55,2.55
18.71,17.87,17.06,16.26,15.44,14.78,14.28,13.75,13.78,13.91,14.08,14.32,14.64,14.98,15.45,15.96,15.86,15.89,16.00,16.12,16.13,16.19,16.26,16.31,16.31,16.19,16.03,15.81,15.53,15.14,14.52,13.64,12.62,11.60,10.81,10.21,9.90,9.90,9.90,9.90,9.90,9.90,9.90,9.90,9.90,9.90,9.90,9.90,9.90,9.90,9.91,9.94,10.04,10.14,10.19,10.10,9.80,9.63,9.50,9.33,9.16,8.95,8.69,8.41,8.16,7.87,7.61,7.34,7.03,6.74,6.48,6.21,5.93,5.69,5.39,5.12,4.92,4.82,4.80,4.81,4.82,4.81,4.74,4.72,4.72,4.70,4.62,4.60,4.56,4.51,4.50,4.42,4.35,4.31,4.29,4.21,4.13,4.06,3.96,3.82,3.73,3.60,3.48,3.39,3.24,3.14,3.03,2.90,2.81,2.67,2.56,2.45,2.31,2.22,2.09,1.98,1.88,1.74,1.65,1.53,1.40,1.32,1.17,1.06,0.98,0.89,0.74,0.64,0.53,0.40,0.31,0.23,0.14,e,e,e,e,e,e,e,0.84,0.76,e,e,e,e,e,e,e,e,e,e,e,e,e,e,e,e,e,e,e,e,e,e,e,e,e,e,e,e,e,e,e,e,e,e,e,e,e,e,e,e,e,e,e,e,e,e,e,e,e,e,e,e,e,e,e,e,e,0.04,0.12,0.19,0.27,0.35,0.43,0.50,0.58,0.66,0.73,0.81,0.89,0.97,1.04,1.12,1.20,1.28,1.35,1.42,1.42,1.42,1.46,1.52,1.52,1.59,1.62,1.65,1.72,1.72,1.72,1.76,1.82,1.82,1.89,1.92,1.94,2.02,2.02,2.02,2.05,2.12,2.12,2.18,2.22,2.24,2.32,2.32,2.32,2.35,2.42,2.42,2.48,2.52,2.53,2.61,2.62,2.62
19.00,18.07,17.11,16.22,15.23,14.56,14.28,14.10,14.20,14.35,14.53,14.77,15.43,16.23,16.71,16.65,16.45,16.38,16.44,16.58,16.64,16.65,16.71,16.76,16.74,16.48,16.21,15.89,15.53,15.14,14.39,13.39,12.28,11.22,10.38,10.01,9.90,9.90,9.90,9.90,9.90,9.90,9.90,9.90,9.90,9.90,9.90,9.90,9.90,9.90,9.93,10.12,10.32,10.52,10.62,10.48,10.23,9.98,9.73,9.52,9.30,9.12,8.91,8.65,8.36,8.11,7.83,7.53,7.23,6.98,6.70,6.43,6.18,5.95,5.65,5.35,5.08,4.88,4.82,4.84,4.88,4.88,4.86,4.81,4.78,4.76,4.69,4.62,4.59,4.56,4.50,4.42,4.39,4.35,4.29,4.21,4.13,4.06,3.97,3.88,3.74,3.64,3.53,3.39,3.30,3.17,3.05,2.95,2.81,2.71,2.59,2.47,2.37,2.24,2.13,2.02,1.89,1.79,1.71,1.59,1.46,1.38,1.23,1.13,1.03,0.89,0.80,0.67,0.55,0.45,0.31,0.23,0.11,e,e,e,e,e,e,e,1.01,0.71,e,e,e,e,e,e,e,e,e,e,e,e,e,e,e,e,e,e,e,e,e,e,e,e,e,e,e,e,e,e,e,e,e,e,e,e,e,e,e,e,e,e,e,e,e,e,e,e,e,e,e,e,e,e,e,e,e,0.10,0.18,0.26,0.34,0.41,0.49,0.57,0.64,0.72,0.80,0.88,0.95,1.03,1.11,1.18,1.26,1.34,1.42,1.48,1.48,1.48,1.53,1.58,1.58,1.66,1.68,1.71,1.78,1.78,1.78,1.82,1.88,1.88,1.95,1.98,2.01,2.08,2.08,2.08,2.12,2.18,2.18,2.25,2.28,2.30,2.38,2.38,2.38,2.41,2.48,2.48,2.54,2.58,2.60,2.67,2.68,2.68
19.30,18.24,17.17,16.14,15.20,14.59,14.35,14.41,14.56,14.90,15.39,15.96,16.84,17.39,17.50,17.19,17.02,16.93,16.96,17.07,17.15,17.15,17.11,17.01,16.83,16.49,16.17,15.84,15.49,15.10,14.12,13.00,11.86,10.75,10.13,9.93,9.90,9.90,9.90,9.90,10.03,10.22,10.25,10.22,10.21,10.20,10.16,10.06,10.01,10.05,10.20,10.40,10.59,10.81,10.94,10.82,10.55,10.26,9.97,9.71,9.51,9.35,9.14,8.87,8.59,8.33,8.03,7.74,7.46,7.23,6.97,6.70,6.44,6.20,5.91,5.60,5.31,5.08,4.97,4.96,5.00,5.02,4.96,4.88,4.83,4.79,4.75,4.67,4.64,4.62,4.54,4.46,4.42,4.38,4.33,4.25,4.18,4.08,3.98,3.90,3.78,3.67,3.55,3.43,3.32,3.20,3.09,2.97,2.85,2.74,2.62,2.51,2.40,2.27,2.19,2.07,1.93,1.85,1.75,1.63,1.51,1.40,1.28,1.17,1.05,0.93,0.82,0.70,0.59,0.47,0.35,0.27,0.21,e,e,e,e,e,0.92,1.32,1.13,0.74,e,e,e,e,e,e,e,e,e,e,e,e,e,e,e,e,e,e,e,e,e,e,e,e,e,e,e,e,e,e,e,e,e,e,e,e,e,e,e,e,e,e,e,e,e,e,e,e,e,e,e,e,e,e,e,e,0.05,0.13,0.24,0.32,0.40,0.48,0.55,0.63,0.71,0.79,0.86,0.94,1.02,1.09,1.17,1.25,1.33,1.40,1.48,1.54,1.54,1.54,1.59,1.64,1.64,1.72,1.74,1.78,1.84,1.84,1.84,1.88,1.94,1.94,2.02,2.04,2.07,2.14,2.14,2.14,2.18,2.24,2.24,2.31,2.34,2.37,2.44,2.44,2.44,2.48,2.54,2.54,2.61,2.64,2.66,2.74,2.74,2.74
19.55,18.35,17.19,16.05,15.27,14.79,14.63,15.05,15.25,15.79,16.61,17.52,18.42,18.44,18.07,17.67,17.59,17.51,17.51,17.58,17.64,17.62,17.45,17.15,16.77,16.38,16.05,15.74,15.41,14.99,13.77,12.54,11.39,10.27,9.98,9.90,9.90,9.90,9.93,9.98,10.29,10.72,10.77,10.70,10.67,10.64,10.55,10.32,10.22,10.32,10.59,10.75,10.91,11.09,11.21,11.12,10.81,10.50,10.20,9.91,9.75,9.60,9.36,9.08,8.84,8.54,8.24,7.96,7.72,7.49,7.26,6.99,6.69,6.45,6.16,5.86,5.57,5.34,5.19,5.15,5.18,5.22,5.05,4.95,4.86,4.81,4.80,4.73,4.70,4.67,4.60,4.52,4.45,4.41,4.39,4.31,4.23,4.12,3.99,3.91,3.83,3.70,3.57,3.49,3.34,3.24,3.12,2.99,2.91,2.77,2.66,2.56,2.40,2.33,2.25,2.13,1.99,1.91,1.77,1.66,1.56,1.41,1.33,1.20,1.08,0.99,0.84,0.74,0.63,0.50,0.43,0.36,0.38,0.38,e,e,e,0.75,1.25,1.58,1.25,0.85,0.46,0.07,e,e,1.03,e,e,e,e,e,e,e,e,e,e,e,e,e,e,e,e,e,e,e,e,e,e,e,e,e,e,e,e,e,e,e,e,e,e,e,e,e,e,e,e,e,e,e,e,e,e,e,e,e,e,e,0.05,0.15,0.30,0.38,0.46,0.53,0.61,0.69,0.77,0.85,0.93,1.00,1.08,1.16,1.24,1.31,1.39,1.47,1.54,1.61,1.61,1.61,1.65,1.71,1.71,1.79,1.81,1.84,1.91,1.91,1.91,1.95,2.01,2.01,2.08,2.11,2.13,2.21,2.21,2.21,2.24,2.31,2.31,2.38,2.41,2.43,2.51,2.51,2.51,2.54,2.61,2.61,2.67,2.71,2.73,2.80,2.81,2.81
19.26,18.16,17.01,16.02,15.39,15.38,16.19,18.08,18.62,18.91,19.12,19.23,19.24,18.98,18.62,18.31,18.23,18.15,18.10,18.07,18.03,17.77,17.45,17.09,16.70,16.32,15.95,15.61,15.24,14.57,13.28,11.97,10.84,10.01,9.93,9.90,9.90,9.93,10.21,10.62,11.12,11.51,11.42,11.34,11.28,11.20,11.06,10.89,10.83,10.91,11.11,11.32,11.48,11.55,11.49,11.24,10.94,10.67,10.41,10.16,9.95,9.79,9.58,9.32,9.03,8.78,8.52,8.26,7.97,7.74,7.51,7.24,6.94,6.65,6.39,6.14,5.89,5.66,5.56,5.53,5.54,5.53,5.26,5.02,4.89,4.86,4.80,4.78,4.74,4.67,4.60,4.52,4.48,4.45,4.39,4.31,4.23,4.14,4.05,3.97,3.84,3.73,3.62,3.49,3.39,3.26,3.15,3.05,2.98,2.83,2.72,2.62,2.47,2.39,2.27,2.16,2.05,1.92,1.81,1.70,1.57,1.47,1.34,1.23,1.12,0.99,0.89,0.77,0.68,0.64,0.62,0.59,0.60,0.58,e,e,e,0.86,1.33,1.75,1.66,1.36,0.96,0.52,e,e,1.82,e,e,e,e,e,e,e,e,e,e,e,e,e,e,e,e,e,e,e,e,e,e,e,e,e,e,e,e,e,e,e,e,e,e,e,e,e,e,e,e,e,e,e,e,e,e,e,e,e,e,e,0.12,0.20,0.30,0.38,0.46,0.53,0.62,0.75,0.84,0.91,0.99,1.07,1.14,1.22,1.30,1.38,1.45,1.53,1.61,1.67,1.67,1.67,1.72,1.77,1.77,1.85,1.87,1.90,1.97,1.97,1.97,2.01,2.07,2.07,2.14,2.17,2.20,2.27,2.27,2.27,2.31,2.37,2.37,2.44,2.47,2.49,2.57,2.57,2.57,2.60,2.67,2.67,2.73,2.77,2.79,2.87,2.87,2.87
18.89,17.88,16.83,16.51,16.55,17.06,18.12,19.90,20.46,20.65,20.60,20.31,19.90,19.49,19.14,18.91,18.80,18.67,18.56,18.42,18.18,17.80,17.41,17.03,16.64,16.25,15.87,15.50,15.08,14.28,13.03,11.75,10.69,10.08,9.94,10.21,10.63,10.96,10.94,11.44,11.99,12.30,12.03,11.95,11.87,11.77,11.61,11.49,11.46,11.51,11.66,11.86,11.92,11.86,11.69,11.41,11.13,10.88,10.65,10.42,10.21,10.03,9.82,9.57,9.26,9.03,8.79,8.54,8.23,8.00,7.77,7.50,7.19,6.91,6.68,6.44,6.21,5.98,5.93,5.91,5.87,5.74,5.46,5.16,4.98,4.92,4.84,4.81,4.75,4.67,4.60,4.55,4.54,4.50,4.42,4.35,4.24,4.16,4.08,4.00,3.88,3.78,3.67,3.53,3.45,3.31,3.20,3.11,3.01,2.88,2.77,2.66,2.53,2.43,2.31,2.19,2.08,1.95,1.85,1.73,1.61,1.50,1.38,1.26,1.15,1.03,0.95,0.86,0.81,0.81,0.81,0.83,0.84,0.82,0.74,0.61,0.75,1.06,1.47,1.88,2.01,1.83,1.43,1.00,0.91,1.81,2.18,e,e,e,e,e,e,e,e,e,e,e,e,e,e,e,e,e,e,e,e,e,e,e,e,e,e,e,e,e,e,e,e,e,e,e,e,e,e,0.09,0.11,0.11,0.11,0.12,0.14,0.14,0.14,0.14,0.14,0.14,0.17,0.17,0.20,0.26,0.34,0.41,0.49,0.57,0.65,0.78,0.86,0.94,1.02,1.10,1.20,1.27,1.33,1.40,1.48,1.56,1.64,1.70,1.73,1.74,1.78,1.84,1.84,1.91,1.94,1.97,2.04,2.04,2.04,2.08,2.14,2.14,2.21,2.24,2.26,2.34,2.34,2.34,2.37,2.44,2.44,2.50,2.54,2.56,2.64,2.64,2.64,2.67,2.74,2.74,2.80,2.84,2.85,2.93,2.94,2.94
18.44,17.53,16.66,17.42,18.54,19.59,20.35,20.75,21.07,21.29,21.28,20.89,20.43,19.96,19.63,19.47,19.32,19.10,18.91,18.67,18.13,17.73,17.35,16.96,16.58,16.19,15.80,15.42,14.95,14.10,12.97,11.81,10.86,10.40,10.01,10.77,11.94,12.79,12.02,12.40,12.90,13.08,12.62,12.52,12.44,12.34,12.19,12.11,12.09,12.13,12.22,12.38,12.26,12.06,11.83,11.60,11.37,11.13,10.90,10.68,10.53,10.31,10.08,9.83,9.52,9.28,9.05,8.79,8.49,8.25,8.02,7.75,7.46,7.23,6.99,6.76,6.53,6.30,6.30,6.30,6.17,5.87,5.64,5.35,5.12,4.98,4.90,4.83,4.75,4.67,4.60,4.60,4.60,4.56,4.49,4.41,4.27,4.16,4.08,4.00,3.92,3.85,3.74,3.59,3.51,3.38,3.26,3.17,3.01,2.93,2.80,2.67,2.59,2.44,2.34,2.23,2.09,2.01,1.87,1.76,1.66,1.50,1.42,1.29,1.17,1.09,1.02,1.00,1.00,1.00,1.00,1.07,1.10,1.07,1.00,0.92,1.07,1.33,1.64,1.95,2.33,2.28,1.89,1.51,1.57,2.12,2.19,e,e,e,e,e,e,e,e,e,e,e,e,e,e,e,e,e,e,e,e,e,e,e,e,e,e,e,e,e,e,e,e,e,e,e,e,e,e,0.24,0.30,0.30,0.30,0.25,0.20,0.20,0.20,0.20,0.20,0.21,0.29,0.30,0.30,0.32,0.40,0.48,0.55,0.63,0.71,0.79,0.86,0.94,1.02,1.10,1.25,1.30,1.33,1.40,1.48,1.56,1.64,1.71,1.79,1.80,1.85,1.90,1.90,1.98,2.00,2.03,2.10,2.10,2.10,2.14,2.20,2.20,2.27,2.30,2.33,2.40,2.40,2.40,2.44,2.50,2.50,2.57,2.60,2.62,2.70,2.70,2.70,2.73,2.80,2.80,2.86,2.90,2.92,2.99,3.00,3.00
18.06,17.69,17.88,18.95,19.80,20.43,20.88,21.27,21.58,21.80,21.79,21.40,20.94,20.44,20.02,19.73,19.52,19.30,19.11,18.86,18.32,17.78,17.35,16.96,16.57,16.19,15.80,15.42,15.00,14.44,13.52,13.05,13.04,13.31,13.22,13.55,14.01,14.31,13.93,13.69,13.69,13.72,13.26,13.16,13.05,12.93,12.83,12.75,12.73,12.72,12.70,12.66,12.47,12.28,12.09,11.85,11.62,11.39,11.16,10.93,10.73,10.50,10.27,10.04,9.83,9.55,9.30,9.06,8.80,8.52,8.28,8.01,7.72,7.54,7.31,7.08,6.86,6.68,6.63,6.51,6.32,6.06,5.78,5.56,5.35,5.15,4.98,4.89,4.81,4.74,4.66,4.66,4.63,4.56,4.49,4.41,4.31,4.22,4.14,4.06,3.99,3.88,3.76,3.65,3.52,3.41,3.30,3.18,3.07,2.95,2.83,2.72,2.60,2.49,2.37,2.25,2.14,2.02,1.91,1.79,1.67,1.57,1.44,1.36,1.32,1.29,1.26,1.21,1.19,1.20,1.25,1.32,1.35,1.33,1.25,1.22,1.39,1.63,1.90,2.21,2.54,2.61,2.43,2.14,2.25,2.59,2.57,1.83,1.08,e,e,e,e,e,e,e,e,e,e,e,e,e,e,e,e,e,e,e,e,e,e,e,e,e,e,e,e,e,e,e,e,0.10,0.17,0.20,0.24,0.31,0.35,0.30,0.30,0.28,0.26,0.27,0.32,0.33,0.33,0.33,0.36,0.36,0.36,0.39,0.46,0.54,0.62,0.70,0.77,0.85,0.93,1.00,1.08,1.16,1.26,1.33,1.39,1.47,1.55,1.62,1.70,1.78,1.85,1.86,1.91,1.96,1.96,2.04,2.06,2.10,2.16,2.16,2.16,2.20,2.26,2.26,2.34,2.36,2.39,2.46,2.46,2.46,2.50,2.56,2.56,2.63,2.66,2.69,2.76,2.76,2.76,2.79,2.86,2.86,2.93,2.96,2.98,3.06,3.06,3.06
18.19,18.29,19.06,20.09,20.75,21.19,21.49,21.84,22.15,22.34,22.29,21.88,21.42,20.90,20.41,20.00,19.73,19.49,19.30,19.05,18.51,17.89,17.39,16.96,16.57,16.19,15.80,15.44,15.10,14.77,14.20,14.17,14.59,15.14,15.21,15.29,15.33,15.29,15.14,14.66,14.41,14.32,13.90,13.78,13.66,13.54,13.46,13.35,13.29,13.21,13.08,12.93,12.70,12.51,12.31,12.08,11.85,11.62,11.39,11.16,10.92,10.69,10.47,10.27,10.09,9.81,9.56,9.33,9.09,8.78,8.53,8.28,8.01,7.86,7.63,7.40,7.19,7.04,6.92,6.72,6.49,6.25,5.96,5.77,5.54,5.28,5.04,4.94,4.85,4.78,4.73,4.71,4.66,4.59,4.51,4.41,4.33,4.26,4.18,4.10,4.02,3.91,3.79,3.69,3.55,3.45,3.33,3.21,3.11,2.98,2.87,2.76,2.62,2.53,2.40,2.28,2.18,2.05,1.94,1.82,1.71,1.63,1.52,1.48,1.48,1.48,1.48,1.44,1.41,1.42,1.50,1.56,1.59,1.58,1.51,1.51,1.69,1.94,2.18,2.47,2.77,2.91,2.86,2.67,2.77,2.91,2.83,2.36,1.75,1.13,0.71,e,e,e,e,e,e,e,e,e,e,e,e,e,e,e,e,e,e,e,e,e,e,e,e,e,e,e,e,e,0.08,0.15,0.20,0.22,0.29,0.36,0.39,0.36,0.35,0.35,0.35,0.36,0.41,0.43,0.44,0.45,0.45,0.45,0.45,0.47,0.53,0.61,0.68,0.76,0.84,0.91,0.99,1.07,1.15,1.22,1.30,1.38,1.45,1.53,1.61,1.69,1.76,1.84,1.92,1.93,1.97,2.03,2.03,2.10,2.13,2.16,2.23,2.23,2.23,2.27,2.33,2.33,2.40,2.43,2.45,2.53,2.53,2.53,2.56,2.63,2.63,2.69,2.73,2.75,2.83,2.83,2.83,2.86,2.93,2.93,2.99,3.03,3.04,3.12,3.13,3.13
18.99,19.49,20.18,20.71,21.30,21.83,22.24,22.48,22.79,22.92,22.79,22.33,21.87,21.35,20.81,20.31,19.94,19.68,19.49,19.24,18.70,18.09,17.48,16.96,16.57,16.19,15.80,15.48,15.25,15.07,15.05,15.11,15.25,15.46,15.53,15.61,15.63,15.55,15.39,15.20,15.03,14.85,14.53,14.37,14.26,14.18,14.10,13.88,13.72,13.54,13.34,13.18,12.96,12.73,12.51,12.27,12.04,11.81,11.58,11.35,11.11,10.88,10.69,10.51,10.29,10.05,9.82,9.58,9.35,9.04,8.79,8.55,8.33,8.17,7.95,7.72,7.51,7.36,7.14,6.91,6.68,6.45,6.21,5.98,5.68,5.34,5.11,4.95,4.85,4.80,4.79,4.72,4.69,4.66,4.57,4.42,4.33,4.26,4.18,4.10,4.02,3.94,3.83,3.69,3.61,3.47,3.36,3.26,3.11,3.02,2.90,2.77,2.69,2.54,2.44,2.32,2.19,2.10,1.96,1.85,1.77,1.69,1.68,1.67,1.67,1.67,1.67,1.67,1.66,1.68,1.76,1.77,1.82,1.84,1.76,1.76,1.99,2.26,2.49,2.73,3.03,3.16,3.14,3.05,3.06,3.03,2.90,2.63,2.21,1.80,1.38,e,e,e,e,e,e,e,e,e,e,e,e,e,e,e,e,e,e,e,e,e,e,e,e,e,e,e,e,e,0.15,0.19,0.21,0.28,0.36,0.39,0.42,0.48,0.48,0.48,0.48,0.48,0.49,0.49,0.52,0.58,0.58,0.58,0.58,0.58,0.59,0.67,0.75,0.82,0.90,0.98,1.06,1.13,1.21,1.29,1.36,1.44,1.52,1.60,1.67,1.75,1.83,1.90,1.98,1.99,2.04,2.09,2.09,2.17,2.19,2.22,2.29,2.29,2.29,2.33,2.39,2.39,2.46,2.49,2.52,2.59,2.59,2.59,2.63,2.69,2.69,2.76,2.79,2.81,2.89,2.89,2.89,2.92,2.99,2.99,3.05,3.09,3.11,3.19,3.19,3.19
19.88,20.39,21.00,21.50,22.00,22.45,22.86,23.22,23.50,23.50,23.24,22.78,22.27,21.74,21.24,20.78,20.36,19.95,19.68,19.43,18.89,18.28,17.66,17.08,16.57,16.14,15.81,15.61,15.51,15.44,15.50,15.58,15.68,15.83,15.91,15.92,15.89,15.80,15.65,15.49,15.34,15.16,14.89,14.77,14.62,14.48,14.35,14.16,13.97,13.76,13.54,13.38,13.16,12.93,12.70,12.47,12.23,12.03,11.82,11.59,11.36,11.13,10.92,10.71,10.48,10.29,10.07,9.84,9.61,9.34,9.10,8.87,8.64,8.44,8.18,7.93,7.72,7.57,7.34,7.10,6.84,6.53,6.25,5.98,5.67,5.35,5.12,4.96,4.88,4.85,4.85,4.77,4.72,4.66,4.58,4.47,4.39,4.31,4.23,4.16,4.08,3.97,3.86,3.74,3.62,3.51,3.39,3.28,3.16,3.04,2.93,2.82,2.70,2.58,2.47,2.35,2.24,2.12,2.04,1.99,1.94,1.87,1.86,1.86,1.86,1.86,1.86,1.90,1.92,1.94,2.01,2.02,2.07,2.08,1.97,2.05,2.27,2.54,2.81,3.04,3.19,3.16,2.98,2.78,2.65,2.55,2.43,2.22,1.75,1.28,e,e,e,e,e,e,e,e,e,e,e,e,e,e,e,e,e,e,e,e,e,e,e,e,e,e,e,e,0.06,0.13,0.18,0.22,0.27,0.34,0.42,0.48,0.52,0.55,0.55,0.55,0.57,0.61,0.61,0.61,0.63,0.65,0.65,0.65,0.68,0.71,0.71,0.74,0.78,0.83,0.92,1.03,1.12,1.20,1.27,1.35,1.43,1.51,1.58,1.66,1.74,1.81,1.89,1.97,2.05,2.05,2.10,2.15,2.16,2.23,2.25,2.29,2.35,2.35,2.35,2.40,2.45,2.45,2.53,2.55,2.58,2.65,2.65,2.65,2.69,2.75,2.75,2.82,2.85,2.88,2.95,2.95,2.95,2.99,3.05,3.05,3.12,3.15,3.17,3.25,3.25,3.25
20.74,21.24,21.78,22.31,22.75,23.15,23.54,23.96,24.06,23.87,23.48,23.00,22.52,22.06,21.61,21.19,20.78,20.29,19.93,19.62,19.08,18.47,17.85,17.23,16.61,16.16,15.91,15.81,15.81,15.81,15.88,15.96,16.05,16.19,16.27,16.23,16.14,16.04,15.88,15.72,15.56,15.38,15.15,15.06,14.90,14.70,14.55,14.39,14.18,13.95,13.73,13.57,13.35,13.12,12.89,12.68,12.44,12.26,12.06,11.83,11.60,11.37,11.13,10.91,10.69,10.52,10.31,10.08,9.86,9.62,9.38,9.14,8.90,8.67,8.38,8.12,7.91,7.74,7.48,7.23,6.93,6.55,6.24,5.94,5.66,5.41,5.21,5.05,4.96,4.91,4.90,4.83,4.76,4.68,4.59,4.51,4.43,4.36,4.28,4.20,4.12,4.00,3.88,3.79,3.65,3.54,3.43,3.30,3.21,3.07,2.96,2.85,2.72,2.62,2.50,2.38,2.30,2.17,2.16,2.16,2.14,2.08,2.08,2.07,2.06,2.06,2.07,2.13,2.16,2.19,2.25,2.27,2.31,2.31,2.18,2.35,2.56,2.83,3.12,3.31,3.28,3.07,2.76,2.44,2.19,2.02,1.88,1.72,1.20,e,e,e,e,e,e,e,e,e,e,e,e,e,e,e,e,e,e,e,e,e,e,e,e,e,e,e,e,0.04,0.12,0.18,0.21,0.25,0.33,0.41,0.47,0.54,0.60,0.62,0.63,0.64,0.66,0.72,0.72,0.72,0.73,0.74,0.74,0.74,0.78,0.82,0.82,0.82,0.83,0.86,0.94,1.08,1.16,1.24,1.32,1.40,1.49,1.57,1.65,1.72,1.79,1.86,1.94,2.01,2.09,2.11,2.16,2.22,2.22,2.30,2.32,2.35,2.42,2.42,2.42,2.46,2.52,2.52,2.59,2.62,2.65,2.72,2.72,2.72,2.75,2.82,2.82,2.89,2.92,2.94,3.02,3.02,3.02,3.05,3.12,3.12,3.18,3.22,3.24,3.31,3.32,3.32
21.54,22.07,22.61,23.09,23.59,24.04,24.41,24.68,24.23,23.72,23.21,22.68,22.40,22.20,21.87,21.34,21.13,20.75,20.31,19.82,19.28,18.66,18.04,17.40,16.74,16.34,16.22,16.20,16.20,16.20,16.26,16.34,16.42,16.51,16.59,16.51,16.37,16.23,16.07,15.87,15.68,15.51,15.28,15.19,15.06,14.89,14.74,14.58,14.37,14.14,13.92,13.77,13.54,13.31,13.10,12.93,12.70,12.48,12.25,12.02,11.79,11.56,11.33,11.11,10.94,10.73,10.50,10.29,10.12,9.82,9.57,9.31,9.03,8.79,8.55,8.31,8.09,7.87,7.51,7.19,6.86,6.48,6.18,5.92,5.74,5.62,5.52,5.37,5.15,4.96,4.90,4.89,4.82,4.72,4.59,4.51,4.43,4.36,4.28,4.20,4.12,4.04,3.93,3.79,3.70,3.57,3.45,3.35,3.21,3.12,2.99,2.87,2.78,2.64,2.53,2.45,2.38,2.35,2.35,2.35,2.34,2.33,2.33,2.29,2.25,2.25,2.32,2.34,2.38,2.43,2.45,2.51,2.54,2.52,2.44,2.66,2.88,3.15,3.42,3.46,3.19,2.88,2.55,2.18,1.88,1.56,1.35,1.28,0.80,e,e,e,e,e,e,e,e,e,e,e,e,e,e,e,e,e,e,e,e,e,e,e,e,e,e,e,e,0.11,0.18,0.20,0.25,0.32,0.39,0.47,0.49,0.54,0.62,0.68,0.74,0.77,0.77,0.78,0.78,0.78,0.81,0.87,0.87,0.87,0.87,0.88,0.88,0.88,0.93,0.97,0.99,1.08,1.16,1.24,1.32,1.40,1.53,1.63,1.71,1.78,1.80,1.86,1.94,2.01,2.09,2.16,2.23,2.28,2.28,2.36,2.38,2.41,2.48,2.48,2.48,2.52,2.58,2.58,2.66,2.68,2.71,2.78,2.78,2.78,2.82,2.88,2.88,2.95,2.98,3.00,3.08,3.08,3.08,3.11,3.18,3.18,3.25,3.28,3.30,3.38,3.38,3.38
22.34,22.86,23.39,23.89,24.43,24.80,24.92,24.65,23.90,23.28,22.75,22.18,21.95,21.75,21.46,21.05,20.90,20.64,20.28,19.80,19.15,18.49,17.82,17.24,16.89,16.79,16.74,16.70,16.67,16.63,16.66,16.70,16.77,16.88,16.88,16.75,16.58,16.42,16.23,16.00,15.81,15.64,15.41,15.32,15.19,15.05,14.93,14.78,14.56,14.33,14.11,13.96,13.74,13.52,13.33,13.14,12.91,12.68,12.44,12.21,11.98,11.78,11.56,11.34,11.15,10.92,10.71,10.52,10.32,10.01,9.74,9.47,9.20,8.97,8.71,8.42,8.11,7.81,7.46,7.11,6.78,6.48,6.28,6.11,6.01,5.95,5.84,5.69,5.46,5.20,4.99,4.92,4.84,4.75,4.63,4.56,4.48,4.40,4.33,4.25,4.14,4.05,3.95,3.84,3.72,3.60,3.49,3.37,3.26,3.14,3.03,2.91,2.80,2.71,2.66,2.60,2.54,2.54,2.54,2.54,2.54,2.54,2.54,2.51,2.49,2.49,2.57,2.59,2.62,2.69,2.69,2.76,2.79,2.76,2.69,2.96,3.20,3.41,3.52,3.34,3.02,2.69,2.36,1.97,1.66,1.30,0.99,e,e,e,e,e,e,e,e,e,e,e,e,e,e,e,e,e,e,e,e,e,e,e,e,e,e,e,e,e,0.07,0.12,0.20,0.24,0.30,0.38,0.45,0.49,0.53,0.59,0.67,0.74,0.82,0.85,0.86,0.89,0.89,0.89,0.91,0.95,0.95,0.98,0.99,0.99,0.99,0.99,1.02,1.05,1.06,1.13,1.21,1.29,1.37,1.44,1.56,1.65,1.73,1.80,1.88,1.92,1.98,2.06,2.14,2.21,2.29,2.35,2.35,2.42,2.45,2.48,2.55,2.55,2.55,2.59,2.65,2.65,2.72,2.75,2.77,2.85,2.85,2.85,2.88,2.95,2.95,3.01,3.05,3.07,3.15,3.15,3.15,3.18,3.25,3.25,3.31,3.35,3.36,3.44,3.45,3.45
23.13,23.62,24.16,24.70,25.23,25.45,25.19,24.33,23.41,22.74,22.21,21.61,21.37,21.08,20.81,20.60,20.45,20.30,20.05,19.61,18.85,18.16,17.48,17.07,17.13,17.34,17.33,17.26,17.18,17.10,17.09,17.08,17.11,17.24,17.15,16.96,16.76,16.59,16.36,16.13,15.93,15.76,15.53,15.45,15.32,15.19,15.11,14.96,14.75,14.52,14.30,14.15,13.93,13.74,13.56,13.33,13.10,12.87,12.65,12.42,12.18,12.01,11.81,11.58,11.36,11.12,10.94,10.75,10.53,10.22,9.90,9.61,9.37,9.12,8.81,8.46,8.07,7.69,7.38,7.05,6.75,6.55,6.48,6.41,6.36,6.32,6.16,6.00,5.80,5.52,5.14,4.97,4.85,4.76,4.69,4.61,4.53,4.46,4.38,4.30,4.16,4.06,3.98,3.89,3.74,3.64,3.53,3.39,3.31,3.17,3.06,2.96,2.83,2.83,2.83,2.80,2.74,2.74,2.73,2.73,2.73,2.73,2.73,2.73,2.73,2.75,2.82,2.84,2.88,2.93,2.94,3.01,3.04,3.02,2.96,3.26,3.49,3.60,3.51,3.13,2.81,2.49,2.16,1.78,1.46,1.10,0.73,e,e,e,e,e,e,e,e,e,0.01,0.09,0.11,0.08,e,e,e,e,e,e,e,e,e,e,e,e,e,e,e,0.07,0.10,0.13,0.21,0.29,0.36,0.43,0.50,0.51,0.58,0.65,0.73,0.80,0.87,0.91,0.94,1.01,1.01,1.02,1.02,1.02,1.02,1.08,1.11,1.11,1.11,1.12,1.12,1.12,1.13,1.20,1.27,1.35,1.43,1.51,1.58,1.66,1.74,1.82,1.97,2.01,2.05,2.12,2.20,2.28,2.36,2.41,2.41,2.49,2.51,2.54,2.61,2.61,2.62,2.66,2.71,2.71,2.78,2.81,2.84,2.91,2.91,2.92,2.95,3.01,3.01,3.08,3.11,3.13,3.21,3.21,3.22,3.25,3.31,3.31,3.37,3.41,3.43,3.51,3.51,3.52
23.90,24.39,24.93,25.47,25.92,25.75,24.92,23.96,23.02,22.24,21.60,21.10,20.76,20.48,20.26,20.09,20.00,19.85,19.52,19.00,18.34,17.70,17.43,17.50,17.82,17.94,17.91,17.83,17.75,17.68,17.62,17.56,17.51,17.50,17.30,17.08,16.88,16.72,16.49,16.26,16.04,15.83,15.66,15.58,15.45,15.32,15.24,15.08,14.92,14.71,14.50,14.34,14.12,13.93,13.76,13.52,13.29,13.10,12.90,12.67,12.44,12.22,12.00,11.78,11.61,11.38,11.16,10.96,10.78,10.47,10.08,9.71,9.42,9.07,8.71,8.33,7.96,7.63,7.32,7.16,7.05,6.94,6.86,6.83,6.76,6.64,6.48,6.27,6.09,5.84,5.46,5.13,4.90,4.76,4.69,4.61,4.53,4.46,4.38,4.30,4.20,4.12,4.02,3.89,3.79,3.67,3.55,3.45,3.31,3.21,3.13,3.06,3.02,3.02,3.02,3.01,3.00,3.00,2.95,2.92,2.92,2.92,2.92,2.92,2.94,3.00,3.02,3.07,3.11,3.13,3.19,3.27,3.30,3.29,3.28,3.53,3.64,3.57,3.32,2.93,2.61,2.27,1.92,1.59,1.22,0.88,0.57,e,e,e,e,e,e,e,e,e,0.08,0.15,0.17,0.17,e,e,e,e,e,e,e,e,e,e,e,e,e,e,e,0.09,0.13,0.20,0.28,0.35,0.39,0.43,0.51,0.56,0.64,0.72,0.78,0.80,0.87,0.94,1.00,1.07,1.07,1.12,1.15,1.15,1.15,1.17,1.17,1.17,1.17,1.23,1.25,1.25,1.25,1.27,1.34,1.42,1.49,1.57,1.65,1.72,1.80,1.88,1.98,2.04,2.11,2.19,2.27,2.34,2.42,2.47,2.47,2.55,2.57,2.61,2.67,2.67,2.72,2.76,2.77,2.77,2.85,2.87,2.90,2.97,2.97,3.02,3.06,3.07,3.07,3.14,3.17,3.20,3.27,3.27,3.31,3.36,3.37,3.37,3.44,3.47,3.49,3.57,3.57,3.61
24.76,25.18,25.70,26.24,26.29,25.72,24.65,23.62,22.65,21.77,21.04,20.52,20.22,19.99,19.79,19.62,19.55,19.38,19.00,18.48,18.01,17.76,17.82,18.11,18.52,18.54,18.51,18.44,18.36,18.22,18.11,17.99,17.84,17.68,17.44,17.21,17.00,16.81,16.61,16.38,16.15,15.95,15.82,15.71,15.58,15.45,15.37,15.21,15.06,14.90,14.72,14.54,14.31,14.12,13.95,13.71,13.48,13.31,13.12,12.89,12.66,12.42,12.21,12.01,11.83,11.60,11.35,11.09,10.85,10.57,10.19,9.79,9.39,8.98,8.61,8.24,7.89,7.64,7.48,7.43,7.40,7.32,7.24,7.23,7.13,6.94,6.73,6.44,6.17,5.85,5.47,5.14,4.93,4.80,4.73,4.65,4.57,4.49,4.41,4.30,4.22,4.15,4.05,3.93,3.82,3.70,3.58,3.48,3.38,3.33,3.27,3.21,3.21,3.21,3.21,3.21,3.21,3.21,3.17,3.15,3.14,3.12,3.14,3.15,3.18,3.25,3.25,3.31,3.35,3.37,3.45,3.50,3.53,3.56,3.59,3.71,3.65,3.44,3.10,2.74,2.45,2.19,1.96,1.77,1.56,1.31,1.03,0.77,0.51,0.40,e,e,e,e,e,0.06,0.14,0.19,0.22,0.24,0.22,0.10,e,e,e,e,e,e,e,e,e,e,e,0.02,0.09,0.13,0.18,0.26,0.34,0.39,0.42,0.47,0.55,0.63,0.70,0.76,0.81,0.84,0.91,0.99,1.07,1.14,1.14,1.20,1.24,1.24,1.24,1.26,1.28,1.28,1.28,1.32,1.34,1.34,1.34,1.37,1.42,1.48,1.56,1.63,1.71,1.79,1.87,1.94,2.02,2.10,2.17,2.25,2.33,2.41,2.48,2.54,2.54,2.62,2.64,2.67,2.74,2.74,2.80,2.84,2.84,2.84,2.91,2.94,2.97,3.04,3.04,3.10,3.14,3.14,3.14,3.21,3.24,3.26,3.34,3.34,3.39,3.44,3.44,3.44,3.50,3.54,3.56,3.63,3.64,3.69
25.68,26.00,26.46,26.98,26.43,25.47,24.39,23.31,22.29,21.33,20.50,19.89,19.74,19.58,19.39,19.18,19.10,18.90,18.51,18.05,17.83,18.19,18.53,18.86,19.21,19.13,19.11,19.07,18.97,18.73,18.57,18.37,18.11,17.80,17.57,17.34,17.11,16.89,16.73,16.51,16.28,16.09,16.01,15.86,15.70,15.58,15.49,15.34,15.19,15.07,14.96,14.73,14.50,14.32,14.14,13.91,13.67,13.50,13.31,13.08,12.85,12.62,12.42,12.25,12.01,11.78,11.50,11.16,10.78,10.55,10.26,9.85,9.32,8.86,8.53,8.18,7.87,7.72,7.79,7.81,7.78,7.71,7.63,7.61,7.48,7.23,6.92,6.54,6.10,5.66,5.29,5.06,4.94,4.86,4.79,4.71,4.63,4.56,4.46,4.30,4.23,4.15,4.07,3.98,3.83,3.74,3.62,3.51,3.51,3.51,3.46,3.41,3.41,3.41,3.41,3.41,3.41,3.41,3.41,3.41,3.39,3.31,3.38,3.41,3.44,3.51,3.51,3.57,3.61,3.62,3.70,3.71,3.76,3.83,3.90,3.82,3.57,3.23,2.86,2.55,2.31,2.20,2.20,2.19,2.26,2.13,1.87,1.56,1.25,0.94,e,e,e,e,0.05,0.13,0.20,0.20,0.26,0.30,0.29,0.22,0.14,0.06,e,e,e,e,e,e,e,e,0.00,0.02,0.09,0.17,0.25,0.33,0.40,0.40,0.46,0.53,0.61,0.69,0.76,0.80,0.82,0.90,0.98,1.05,1.13,1.20,1.20,1.26,1.30,1.30,1.30,1.37,1.40,1.40,1.40,1.40,1.40,1.40,1.41,1.49,1.50,1.54,1.62,1.70,1.78,1.85,1.93,2.01,2.08,2.16,2.24,2.32,2.39,2.47,2.55,2.60,2.60,2.68,2.70,2.73,2.80,2.80,2.87,2.90,2.90,2.90,2.97,3.00,3.03,3.10,3.10,3.16,3.20,3.20,3.20,3.27,3.30,3.32,3.40,3.40,3.46,3.50,3.50,3.50,3.57,3.60,3.62,3.70,3.70,3.75
26.68,26.97,27.24,27.02,26.23,25.21,24.13,23.05,21.99,20.98,20.18,19.77,19.51,19.33,19.14,18.91,18.68,18.53,18.43,18.38,18.46,18.87,19.29,19.62,19.78,19.66,19.55,19.41,19.22,18.99,18.78,18.53,18.25,18.00,17.76,17.50,17.24,17.01,16.80,16.62,16.41,16.21,16.14,15.99,15.83,15.70,15.62,15.47,15.31,15.17,15.04,14.91,14.69,14.51,14.33,14.10,13.87,13.69,13.50,13.27,13.04,12.81,12.54,12.22,11.89,11.60,11.30,10.97,10.59,10.36,10.11,9.77,9.32,8.86,8.44,8.25,8.23,8.23,8.30,8.29,8.23,8.15,8.08,7.85,7.53,7.15,6.79,6.36,5.94,5.54,5.16,4.98,4.88,4.82,4.79,4.71,4.63,4.56,4.47,4.37,4.29,4.21,4.12,3.99,3.89,3.80,3.74,3.70,3.70,3.70,3.68,3.65,3.60,3.60,3.60,3.60,3.60,3.60,3.60,3.60,3.59,3.56,3.59,3.63,3.69,3.76,3.76,3.83,3.86,3.88,3.96,3.96,4.01,4.04,3.96,3.78,3.54,3.27,2.99,2.74,2.50,2.31,2.16,2.01,1.88,1.68,1.44,1.18,0.87,0.60,e,e,e,e,0.11,0.19,0.27,0.27,0.32,0.39,0.42,0.34,0.27,0.19,e,e,e,e,e,e,e,e,0.02,0.08,0.16,0.24,0.31,0.37,0.40,0.45,0.52,0.60,0.67,0.70,0.76,0.83,0.89,0.96,1.04,1.08,1.13,1.20,1.25,1.33,1.39,1.43,1.43,1.46,1.47,1.48,1.53,1.53,1.53,1.53,1.54,1.56,1.57,1.58,1.63,1.76,1.84,1.92,1.99,2.07,2.15,2.23,2.30,2.38,2.46,2.53,2.61,2.67,2.67,2.74,2.77,2.80,2.87,2.87,2.93,2.97,2.97,2.97,3.04,3.07,3.09,3.17,3.17,3.22,3.27,3.27,3.27,3.33,3.37,3.39,3.47,3.47,3.52,3.57,3.57,3.57,3.63,3.67,3.68,3.76,3.77,3.82
27.61,27.80,27.79,27.06,26.10,25.06,23.99,22.91,21.83,20.77,19.95,19.67,19.43,19.25,19.07,18.86,18.62,18.57,18.64,18.81,19.08,19.47,19.87,20.16,20.27,20.09,19.89,19.68,19.45,19.22,18.98,18.71,18.42,18.19,17.96,17.67,17.39,17.16,16.93,16.74,16.54,16.34,16.26,16.11,15.97,15.85,15.75,15.62,15.47,15.33,15.20,15.10,14.91,14.71,14.52,14.29,14.06,13.86,13.66,13.43,13.20,12.95,12.63,12.24,11.83,11.47,11.13,10.78,10.43,10.17,9.94,9.65,9.30,8.86,8.52,8.49,8.66,8.74,8.79,8.75,8.64,8.47,8.30,7.96,7.53,7.08,6.70,6.24,5.84,5.48,5.12,4.94,4.84,4.79,4.76,4.68,4.62,4.56,4.48,4.40,4.32,4.25,4.15,4.02,3.97,3.92,3.89,3.89,3.89,3.89,3.89,3.87,3.82,3.82,3.80,3.79,3.79,3.79,3.79,3.79,3.80,3.82,3.82,3.87,3.94,3.99,4.01,4.06,4.10,4.13,4.16,4.16,4.19,4.18,4.02,3.79,3.56,3.33,3.10,2.86,2.63,2.40,2.17,1.94,1.68,1.44,1.21,0.98,0.69,0.46,0.29,0.18,0.13,0.15,0.21,0.28,0.33,0.35,0.42,0.48,0.52,0.44,0.36,0.29,0.20,0.06,e,e,e,e,e,0.02,0.07,0.14,0.22,0.28,0.35,0.41,0.43,0.51,0.59,0.65,0.70,0.73,0.79,0.87,0.95,1.03,1.08,1.12,1.16,1.24,1.31,1.37,1.44,1.50,1.53,1.55,1.56,1.58,1.63,1.63,1.63,1.64,1.66,1.66,1.66,1.66,1.69,1.79,1.87,1.95,2.03,2.11,2.21,2.29,2.37,2.44,2.49,2.57,2.65,2.71,2.73,2.81,2.83,2.86,2.93,2.93,2.99,3.03,3.03,3.03,3.10,3.13,3.16,3.23,3.23,3.29,3.33,3.33,3.33,3.40,3.43,3.45,3.53,3.53,3.58,3.63,3.63,3.63,3.69,3.73,3.75,3.82,3.83,3.88
28.47,28.49,28.10,27.12,26.06,25.02,23.99,22.91,21.83,20.71,19.84,19.61,19.51,19.38,19.22,19.07,18.98,19.08,19.19,19.34,19.72,19.97,20.22,20.45,20.65,20.42,20.14,19.87,19.64,19.41,19.18,18.90,18.61,18.38,18.15,17.86,17.58,17.35,17.12,16.89,16.66,16.47,16.39,16.24,16.13,16.03,15.88,15.80,15.66,15.54,15.45,15.30,15.14,14.94,14.71,14.48,14.25,14.02,13.79,13.56,13.33,13.04,12.69,12.29,11.83,11.38,10.97,10.61,10.30,9.99,9.74,9.51,9.24,8.85,8.77,8.93,9.17,9.25,9.25,9.20,9.01,8.64,8.28,7.89,7.47,7.02,6.63,6.18,5.81,5.49,5.18,4.96,4.84,4.77,4.69,4.62,4.60,4.56,4.48,4.40,4.32,4.25,4.17,4.09,4.09,4.08,4.08,4.08,4.08,4.08,4.08,4.08,4.07,4.07,4.02,3.98,3.98,3.98,3.98,3.98,4.00,4.07,4.07,4.13,4.18,4.19,4.26,4.28,4.32,4.36,4.29,4.29,4.29,4.24,4.09,3.85,3.62,3.39,3.16,2.93,2.70,2.46,2.23,2.00,1.70,1.44,1.21,0.98,0.74,0.57,0.45,0.35,0.21,0.26,0.33,0.39,0.40,0.47,0.54,0.59,0.58,0.51,0.43,0.35,0.27,0.19,e,e,e,e,e,0.06,0.13,0.21,0.29,0.30,0.35,0.42,0.49,0.57,0.65,0.70,0.71,0.78,0.86,0.94,1.01,1.09,1.10,1.15,1.22,1.30,1.38,1.40,1.44,1.51,1.59,1.66,1.69,1.69,1.69,1.69,1.69,1.72,1.79,1.79,1.79,1.79,1.79,1.80,1.87,1.95,2.03,2.11,2.26,2.35,2.43,2.49,2.50,2.57,2.65,2.72,2.79,2.87,2.89,2.93,2.99,2.99,3.06,3.09,3.09,3.09,3.17,3.19,3.22,3.29,3.29,3.35,3.39,3.39,3.39,3.46,3.49,3.52,3.59,3.59,3.65,3.69,3.69,3.69,3.76,3.79,3.81,3.89,3.89,3.94
28.98,28.76,28.13,27.17,26.12,25.05,23.99,22.91,21.87,20.92,20.18,19.77,19.74,19.65,19.56,19.49,19.42,19.49,19.63,19.84,20.19,20.42,20.65,20.87,21.03,20.85,20.53,20.19,19.88,19.60,19.37,19.09,18.80,18.57,18.34,18.05,17.78,17.54,17.26,16.99,16.78,16.65,16.58,16.47,16.35,16.23,16.12,16.00,15.89,15.77,15.65,15.49,15.34,15.11,14.85,14.62,14.38,14.12,13.86,13.63,13.40,13.10,12.78,12.41,11.94,11.48,11.04,10.64,10.28,9.93,9.63,9.40,9.22,9.10,9.20,9.39,9.59,9.76,9.58,9.32,8.99,8.60,8.22,7.83,7.40,6.98,6.68,6.35,6.06,5.80,5.53,5.30,5.05,4.86,4.75,4.72,4.68,4.61,4.55,4.52,4.48,4.42,4.34,4.27,4.22,4.21,4.24,4.27,4.27,4.27,4.27,4.27,4.27,4.27,4.25,4.23,4.22,4.18,4.21,4.23,4.25,4.33,4.33,4.38,4.43,4.43,4.42,4.41,4.43,4.45,4.42,4.37,4.33,4.26,4.15,3.92,3.69,3.46,3.22,2.94,2.70,2.47,2.24,2.01,1.74,1.50,1.27,1.04,0.85,0.73,0.63,0.53,0.33,0.39,0.46,0.51,0.52,0.59,0.67,0.70,0.65,0.57,0.49,0.41,0.34,0.26,0.18,0.11,0.06,0.06,0.06,0.12,0.20,0.26,0.30,0.34,0.40,0.48,0.56,0.59,0.66,0.72,0.77,0.84,0.92,0.98,1.02,1.10,1.14,1.21,1.29,1.36,1.39,1.43,1.49,1.57,1.65,1.73,1.76,1.77,1.81,1.81,1.81,1.83,1.86,1.86,1.86,1.88,1.91,1.91,1.95,2.01,2.09,2.16,2.27,2.36,2.44,2.51,2.55,2.63,2.70,2.78,2.86,2.93,2.96,2.99,3.06,3.06,3.12,3.16,3.16,3.16,3.23,3.26,3.28,3.36,3.36,3.42,3.46,3.46,3.46,3.53,3.56,3.58,3.66,3.66,3.71,3.76,3.76,3.76,3.82,3.86,3.88,3.95,3.96,4.01
29.36,28.94,28.15,27.21,26.16,25.12,24.14,23.26,22.35,21.60,20.99,20.45,20.37,20.12,19.93,19.92,19.86,19.93,20.10,20.34,20.63,20.87,21.10,21.30,21.42,21.26,20.92,20.52,20.15,19.82,19.56,19.28,18.99,18.76,18.51,18.22,17.93,17.66,17.35,17.10,16.94,16.87,16.79,16.70,16.57,16.45,16.36,16.22,16.13,16.01,15.84,15.68,15.50,15.25,14.97,14.72,14.49,14.22,13.94,13.70,13.46,13.17,12.86,12.52,12.07,11.61,11.16,10.72,10.32,9.94,9.63,9.42,9.32,9.40,9.61,9.84,10.03,10.08,9.76,9.36,8.95,8.56,8.15,7.82,7.47,7.12,6.87,6.65,6.42,6.19,5.96,5.73,5.37,5.05,4.86,4.83,4.75,4.69,4.64,4.64,4.64,4.59,4.52,4.45,4.36,4.33,4.35,4.40,4.42,4.44,4.45,4.46,4.46,4.46,4.46,4.46,4.45,4.39,4.44,4.47,4.50,4.56,4.55,4.57,4.60,4.59,4.53,4.52,4.52,4.52,4.50,4.44,4.37,4.30,4.21,3.97,3.73,3.50,3.26,2.96,2.72,2.49,2.26,2.03,1.80,1.57,1.34,1.13,0.99,0.90,0.82,0.70,0.46,0.51,0.59,0.64,0.64,0.72,0.79,0.79,0.71,0.63,0.56,0.48,0.40,0.32,0.25,0.19,0.16,0.14,0.14,0.19,0.25,0.30,0.32,0.39,0.47,0.54,0.60,0.62,0.68,0.75,0.83,0.91,0.97,1.01,1.04,1.12,1.20,1.26,1.33,1.40,1.42,1.48,1.56,1.63,1.69,1.77,1.81,1.84,1.92,1.92,1.92,1.93,1.94,1.94,1.94,1.98,2.02,2.02,2.02,2.07,2.15,2.23,2.30,2.38,2.46,2.54,2.61,2.69,2.77,2.84,2.92,3.00,3.02,3.05,3.12,3.12,3.18,3.22,3.22,3.22,3.29,3.32,3.35,3.42,3.42,3.48,3.52,3.52,3.52,3.59,3.62,3.64,3.72,3.72,3.78,3.82,3.82,3.82,3.88,3.92,3.94,4.02,4.02,4.07
29.55,29.00,28.21,27.22,26.16,25.24,24.57,24.28,23.70,23.16,22.65,22.11,21.78,20.93,20.31,20.31,20.30,20.42,20.61,20.84,21.08,21.32,21.55,21.73,21.80,21.65,21.26,20.84,20.46,20.08,19.78,19.47,19.19,18.95,18.66,18.35,18.02,17.66,17.35,17.26,17.20,17.12,17.05,16.91,16.80,16.69,16.55,16.46,16.38,16.24,16.03,15.87,15.60,15.34,15.08,14.79,14.55,14.31,14.05,13.76,13.53,13.23,12.92,12.59,12.20,11.74,11.32,10.90,10.45,10.06,9.84,9.70,9.64,9.72,9.93,10.31,10.51,10.02,9.64,9.30,8.95,8.55,8.10,7.91,7.79,7.62,7.32,7.14,6.94,6.70,6.47,6.24,5.84,5.41,5.03,4.90,4.82,4.78,4.77,4.77,4.77,4.72,4.67,4.64,4.50,4.42,4.39,4.41,4.48,4.55,4.61,4.66,4.66,4.66,4.66,4.66,4.65,4.64,4.65,4.69,4.74,4.76,4.69,4.63,4.60,4.60,4.59,4.59,4.59,4.57,4.51,4.49,4.44,4.36,4.28,3.98,3.73,3.50,3.26,3.02,2.79,2.56,2.32,2.09,1.86,1.63,1.42,1.26,1.17,1.09,0.98,0.82,0.59,0.64,0.72,0.77,0.77,0.85,0.88,0.85,0.77,0.70,0.62,0.54,0.47,0.39,0.31,0.32,0.33,0.27,0.27,0.28,0.29,0.31,0.38,0.45,0.53,0.59,0.60,0.67,0.74,0.82,0.90,0.97,0.99,1.04,1.10,1.18,1.26,1.29,1.33,1.40,1.47,1.55,1.62,1.69,1.70,1.77,1.84,1.91,1.99,1.99,1.99,2.01,2.07,2.07,2.07,2.08,2.09,2.09,2.09,2.14,2.21,2.29,2.37,2.44,2.52,2.60,2.68,2.75,2.83,2.91,2.99,3.06,3.09,3.12,3.19,3.19,3.25,3.29,3.29,3.29,3.36,3.39,3.41,3.49,3.49,3.54,3.59,3.59,3.59,3.65,3.69,3.71,3.78,3.79,3.84,3.89,3.89,3.89,3.95,3.99,4.00,4.08,4.09,4.13
29.91,29.09,28.23,27.30,26.61,26.13,25.89,25.92,25.44,24.88,24.26,23.57,22.65,21.48,20.73,20.70,20.74,20.90,21.12,21.35,21.58,21.81,22.04,22.17,22.08,21.81,21.42,21.01,20.63,20.29,19.94,19.59,19.27,19.00,18.65,18.33,18.01,17.68,17.52,17.53,17.48,17.38,17.30,17.15,17.02,16.91,16.79,16.71,16.61,16.44,16.21,15.98,15.71,15.44,15.16,14.85,14.62,14.39,14.12,13.82,13.59,13.30,12.99,12.67,12.32,11.90,11.48,11.05,10.63,10.36,10.15,10.03,10.00,10.04,10.38,10.86,11.04,10.35,9.92,9.55,9.18,8.77,8.49,8.38,8.26,8.08,7.81,7.61,7.40,7.17,6.93,6.70,6.30,5.83,5.41,5.18,4.95,4.85,4.86,4.90,4.94,4.95,4.89,4.74,4.62,4.51,4.43,4.42,4.49,4.57,4.67,4.76,4.80,4.84,4.85,4.85,4.84,4.80,4.80,4.80,4.80,4.80,4.76,4.72,4.70,4.70,4.70,4.67,4.65,4.63,4.56,4.55,4.50,4.41,4.29,4.02,3.78,3.55,3.32,3.08,2.85,2.62,2.39,2.16,1.92,1.72,1.54,1.39,1.36,1.29,1.13,0.91,0.72,0.77,0.85,0.90,0.90,0.98,0.97,0.92,0.84,0.76,0.68,0.61,0.53,0.45,0.45,0.45,0.43,0.40,0.40,0.37,0.35,0.36,0.44,0.52,0.57,0.61,0.65,0.73,0.80,0.87,0.91,0.99,1.03,1.09,1.17,1.25,1.29,1.33,1.38,1.45,1.53,1.61,1.67,1.71,1.75,1.82,1.90,1.96,2.00,2.04,2.08,2.11,2.15,2.15,2.18,2.20,2.20,2.20,2.20,2.22,2.28,2.35,2.43,2.51,2.59,2.66,2.74,2.82,2.89,2.97,3.05,3.13,3.15,3.18,3.25,3.25,3.31,3.35,3.35,3.35,3.42,3.45,3.48,3.55,3.55,3.61,3.65,3.65,3.65,3.72,3.75,3.77,3.85,3.85,3.90,3.95,3.95,3.95,4.01,4.05,4.07,4.14,4.15,4.20
30.38,29.32,28.43,27.66,27.37,27.35,27.48,27.71,27.24,26.55,25.73,24.79,23.31,21.94,21.15,21.10,21.19,21.40,21.63,21.86,22.09,22.31,22.54,22.59,22.33,21.92,21.52,21.12,20.73,20.41,20.04,19.66,19.30,18.99,18.61,18.28,17.98,17.74,17.75,17.82,17.77,17.63,17.54,17.40,17.25,17.12,17.05,16.96,16.81,16.61,16.36,16.06,15.81,15.54,15.24,14.93,14.69,14.46,14.19,13.89,13.65,13.36,13.05,12.74,12.45,12.06,11.65,11.24,10.90,10.74,10.54,10.41,10.40,10.39,10.84,11.37,11.55,10.86,10.40,9.99,9.58,9.17,9.05,8.95,8.78,8.55,8.32,8.09,7.86,7.63,7.39,7.15,6.74,6.29,5.87,5.57,5.20,5.04,5.06,5.13,5.21,5.23,5.10,4.81,4.73,4.59,4.47,4.43,4.52,4.60,4.72,4.85,4.94,5.04,5.06,5.06,5.05,4.95,4.91,4.86,4.81,4.81,4.81,4.81,4.81,4.81,4.80,4.75,4.71,4.69,4.62,4.60,4.56,4.46,4.31,4.07,3.84,3.61,3.38,3.15,2.92,2.68,2.45,2.22,2.00,1.82,1.67,1.54,1.53,1.46,1.27,0.98,0.84,0.90,0.97,1.03,1.03,1.11,1.06,0.98,0.90,0.82,0.75,0.67,0.60,0.54,0.60,0.57,0.53,0.53,0.52,0.46,0.43,0.44,0.51,0.58,0.61,0.64,0.71,0.79,0.86,0.90,0.92,1.00,1.08,1.15,1.23,1.30,1.31,1.36,1.44,1.52,1.58,1.66,1.70,1.73,1.80,1.88,1.95,2.00,2.01,2.09,2.17,2.22,2.23,2.23,2.28,2.31,2.31,2.31,2.32,2.33,2.35,2.42,2.50,2.57,2.65,2.73,2.80,2.88,2.96,3.03,3.10,3.18,3.21,3.24,3.31,3.31,3.38,3.41,3.41,3.41,3.49,3.51,3.54,3.61,3.61,3.67,3.71,3.71,3.71,3.78,3.81,3.84,3.91,3.91,3.97,4.01,4.01,4.01,4.08,4.11,4.13,4.21,4.21,4.26
31.08,30.12,29.35,28.97,28.82,28.89,29.14,29.37,28.81,27.88,26.68,25.30,23.77,22.35,21.55,21.56,21.69,21.91,22.14,22.37,22.60,22.78,22.95,22.93,22.57,22.07,21.61,21.14,20.66,20.29,19.96,19.63,19.29,18.92,18.59,18.28,18.05,17.94,18.00,18.07,18.03,17.88,17.74,17.64,17.51,17.38,17.30,17.16,16.97,16.72,16.43,16.18,15.90,15.63,15.36,15.05,14.82,14.55,14.25,13.95,13.72,13.42,13.11,12.82,12.57,12.19,11.87,11.61,11.41,11.25,11.08,10.96,10.90,10.85,11.15,11.62,11.92,11.63,11.16,10.75,10.38,10.04,9.73,9.51,9.29,9.06,8.83,8.60,8.37,8.14,7.90,7.61,7.19,6.78,6.45,6.20,5.89,5.75,5.75,5.77,5.84,5.59,5.21,4.87,4.79,4.65,4.54,4.51,4.64,4.72,4.81,4.94,5.14,5.33,5.38,5.38,5.35,5.16,4.98,4.89,4.88,4.88,4.88,4.88,4.88,4.87,4.81,4.79,4.75,4.70,4.68,4.62,4.59,4.53,4.37,4.14,3.91,3.67,3.44,3.21,2.98,2.75,2.52,2.28,2.11,1.95,1.82,1.73,1.67,1.59,1.37,1.06,0.96,1.02,1.10,1.15,1.16,1.23,1.15,1.04,0.97,0.89,0.81,0.73,0.69,0.73,0.75,0.70,0.65,0.65,0.59,0.56,0.55,0.56,0.58,0.65,0.68,0.70,0.78,0.86,0.89,0.93,0.99,1.06,1.14,1.22,1.28,1.30,1.36,1.43,1.51,1.58,1.60,1.66,1.73,1.79,1.87,1.95,1.99,2.02,2.08,2.15,2.23,2.30,2.35,2.35,2.37,2.38,2.38,2.38,2.43,2.45,2.46,2.48,2.56,2.64,2.71,2.79,2.87,2.95,3.02,3.08,3.10,3.18,3.24,3.31,3.38,3.38,3.44,3.48,3.48,3.48,3.55,3.58,3.60,3.68,3.68,3.74,3.78,3.78,3.78,3.84,3.88,3.90,3.98,3.98,4.03,4.08,4.08,4.08,4.14,4.18,4.19,4.27,4.28,4.29
31.89,31.02,30.38,30.18,30.10,30.15,30.30,30.47,29.70,28.62,27.32,25.81,24.26,22.81,21.99,22.01,22.19,22.42,22.63,22.83,23.03,23.19,23.30,23.21,22.79,22.28,21.78,21.28,20.79,20.37,19.99,19.64,19.28,18.90,18.59,18.33,18.18,18.17,18.25,18.30,18.26,18.13,17.97,17.89,17.76,17.62,17.51,17.33,17.10,16.85,16.58,16.31,16.04,15.79,15.53,15.22,14.99,14.71,14.40,14.10,13.86,13.57,13.28,13.01,12.78,12.52,12.28,12.07,11.92,11.76,11.63,11.52,11.41,11.34,11.49,11.88,12.29,12.39,11.96,11.56,11.19,10.85,10.50,10.22,9.92,9.61,9.34,9.08,8.84,8.61,8.37,8.06,7.66,7.31,7.07,6.84,6.57,6.47,6.45,6.29,6.08,5.65,5.19,4.89,4.82,4.70,4.60,4.57,4.69,4.77,4.85,4.99,5.25,5.51,5.65,5.69,5.62,5.36,5.10,4.95,4.90,4.90,4.99,5.04,5.03,4.93,4.86,4.84,4.80,4.74,4.74,4.67,4.62,4.56,4.43,4.20,3.97,3.74,3.50,3.24,3.00,2.79,2.59,2.39,2.23,2.10,1.99,1.92,1.84,1.76,1.48,1.10,1.08,1.15,1.21,1.25,1.28,1.33,1.25,1.13,1.03,0.95,0.88,0.83,0.84,0.92,0.89,0.83,0.78,0.78,0.70,0.68,0.68,0.68,0.64,0.68,0.72,0.76,0.84,0.92,0.94,0.97,1.05,1.13,1.18,1.24,1.31,1.34,1.41,1.49,1.56,1.60,1.63,1.70,1.78,1.85,1.90,1.97,2.02,2.06,2.14,2.22,2.27,2.33,2.40,2.44,2.47,2.48,2.48,2.48,2.52,2.54,2.54,2.55,2.62,2.68,2.74,2.82,2.93,3.01,3.09,3.14,3.14,3.22,3.30,3.37,3.44,3.44,3.50,3.54,3.54,3.54,3.61,3.64,3.67,3.74,3.74,3.80,3.84,3.84,3.84,3.91,3.94,3.96,4.04,4.04,4.09,4.14,4.14,4.14,4.20,4.24,4.26,4.34,4.34,4.34
32.76,31.98,31.47,31.32,31.28,31.24,31.18,31.20,30.16,28.99,27.74,26.29,24.76,23.28,22.43,22.47,22.69,22.92,23.11,23.27,23.42,23.57,23.62,23.45,22.98,22.52,22.00,21.50,21.04,20.58,20.12,19.70,19.31,18.91,18.60,18.40,18.35,18.43,18.51,18.52,18.48,18.38,18.23,18.15,18.02,17.86,17.70,17.47,17.24,17.00,16.76,16.45,16.21,15.97,15.72,15.41,15.18,14.90,14.59,14.30,14.06,13.77,13.50,13.27,13.05,12.96,12.79,12.59,12.43,12.28,12.18,12.07,11.93,11.85,11.83,12.14,12.65,13.11,12.76,12.39,12.00,11.63,11.32,11.01,10.62,10.19,9.88,9.56,9.29,9.06,8.82,8.51,8.15,7.88,7.71,7.48,7.25,7.17,7.08,6.68,6.06,5.51,5.10,4.89,4.82,4.74,4.66,4.62,4.70,4.78,4.85,5.01,5.32,5.63,5.89,5.98,5.87,5.56,5.25,5.03,4.92,4.93,5.15,5.27,5.23,5.01,4.93,4.90,4.86,4.80,4.80,4.73,4.66,4.58,4.50,4.26,4.03,3.80,3.56,3.25,3.01,2.82,2.67,2.51,2.36,2.26,2.18,2.11,2.03,1.95,1.60,1.12,1.20,1.28,1.31,1.33,1.41,1.41,1.35,1.24,1.10,1.02,0.95,0.96,1.03,1.11,1.03,0.96,0.91,0.90,0.83,0.81,0.81,0.79,0.72,0.71,0.75,0.83,0.91,0.98,1.00,1.04,1.11,1.19,1.20,1.25,1.32,1.40,1.48,1.55,1.60,1.61,1.69,1.76,1.84,1.90,1.90,1.97,2.05,2.13,2.21,2.28,2.30,2.34,2.41,2.49,2.57,2.60,2.61,2.61,2.61,2.61,2.61,2.61,2.69,2.70,2.74,2.83,2.98,3.07,3.15,3.20,3.20,3.28,3.36,3.44,3.50,3.50,3.57,3.60,3.60,3.60,3.68,3.70,3.73,3.80,3.80,3.86,3.90,3.90,3.90,3.97,4.00,4.03,4.10,4.10,4.16,4.20,4.20,4.20,4.27,4.30,4.32,4.40,4.40,4.40
33.78,33.08,32.63,32.52,32.42,32.30,32.05,31.28,30.07,28.87,27.66,26.35,25.02,23.67,22.90,22.97,23.15,23.33,23.49,23.65,23.80,23.96,23.94,23.69,23.17,22.71,22.23,21.78,21.37,20.96,20.55,20.09,19.60,19.10,18.69,18.57,18.61,18.68,18.76,18.77,18.73,18.64,18.48,18.40,18.27,18.12,17.96,17.73,17.46,17.17,16.89,16.64,16.35,16.10,15.86,15.61,15.32,15.09,14.87,14.61,14.33,14.06,13.82,13.61,13.49,13.46,13.33,13.14,12.94,12.84,12.72,12.60,12.49,12.36,12.26,12.46,12.91,13.37,13.41,13.19,12.84,12.46,12.15,11.84,11.48,11.07,10.65,10.24,9.87,9.57,9.33,8.97,8.71,8.51,8.35,8.12,7.88,7.50,6.95,6.30,5.63,5.19,4.97,4.89,4.82,4.74,4.69,4.69,4.76,4.84,4.92,5.09,5.45,5.81,6.12,6.22,6.07,5.81,5.51,5.29,5.20,5.31,5.49,5.56,5.48,5.26,5.07,4.95,4.89,4.86,4.80,4.78,4.72,4.64,4.56,4.28,4.03,3.80,3.56,3.31,3.12,2.95,2.80,2.64,2.54,2.45,2.38,2.30,2.22,2.06,1.69,1.25,1.33,1.41,1.44,1.46,1.54,1.48,1.41,1.32,1.22,1.09,1.09,1.15,1.21,1.24,1.16,1.09,1.04,1.03,0.95,0.94,0.94,0.92,0.84,0.84,0.85,0.89,0.97,1.05,1.07,1.10,1.18,1.26,1.27,1.31,1.39,1.46,1.54,1.58,1.62,1.67,1.75,1.83,1.88,1.91,1.96,2.04,2.11,2.19,2.27,2.29,2.34,2.40,2.48,2.56,2.59,2.63,2.68,2.73,2.74,2.74,2.74,2.74,2.76,2.77,2.81,2.89,2.99,3.07,3.15,3.22,3.27,3.35,3.42,3.50,3.57,3.57,3.63,3.67,3.67,3.67,3.74,3.77,3.80,3.87,3.87,3.93,3.97,3.97,3.97,4.04,4.07,4.09,4.17,4.17,4.22,4.27,4.27,4.27,4.33,4.37,4.37,4.40,4.40,4.40
34.84,34.20,33.81,33.70,33.39,32.98,32.41,31.23,29.93,28.71,27.52,26.29,25.08,23.94,23.33,23.41,23.57,23.72,23.89,24.06,24.22,24.37,24.26,23.91,23.40,22.94,22.49,22.08,21.70,21.33,20.95,20.49,19.94,19.33,18.89,18.82,18.89,18.97,19.05,19.04,18.99,18.89,18.74,18.63,18.50,18.34,18.18,17.95,17.66,17.35,17.05,16.80,16.51,16.25,16.00,15.77,15.48,15.27,15.08,14.87,14.64,14.40,14.19,14.01,13.93,13.93,13.84,13.69,13.49,13.38,13.24,13.11,13.00,12.85,12.69,12.82,13.19,13.66,13.92,13.87,13.62,13.29,12.98,12.67,12.32,11.92,11.48,11.02,10.59,10.22,9.91,9.49,9.26,9.08,8.89,8.66,8.32,7.69,6.86,6.02,5.32,5.00,4.89,4.86,4.78,4.73,4.71,4.74,4.80,4.87,4.95,5.14,5.55,5.93,6.32,6.46,6.29,6.06,5.76,5.54,5.48,5.66,5.81,5.84,5.74,5.51,5.28,5.11,4.99,4.92,4.84,4.83,4.78,4.70,4.59,4.31,4.06,3.83,3.60,3.40,3.23,3.08,2.92,2.77,2.69,2.63,2.57,2.49,2.39,2.16,1.78,1.38,1.46,1.53,1.56,1.58,1.63,1.55,1.48,1.40,1.32,1.21,1.26,1.34,1.39,1.37,1.29,1.21,1.16,1.16,1.08,1.06,1.06,1.05,0.97,0.96,0.95,0.96,1.03,1.09,1.12,1.17,1.24,1.32,1.33,1.37,1.45,1.53,1.58,1.62,1.66,1.74,1.82,1.87,1.91,1.95,2.02,2.10,2.16,2.22,2.30,2.33,2.39,2.46,2.54,2.59,2.62,2.67,2.75,2.83,2.83,2.83,2.84,2.86,2.86,2.86,2.89,2.95,3.02,3.10,3.18,3.26,3.33,3.41,3.49,3.56,3.63,3.63,3.70,3.73,3.73,3.73,3.80,3.83,3.86,3.93,3.93,3.99,4.03,4.03,4.03,4.10,4.13,4.15,4.23,4.23,4.29,4.33,4.33,4.33,4.40,4.43,4.43,4.40,4.40,4.40
35.92,35.32,35.02,34.87,34.19,33.30,32.27,31.04,29.74,28.52,27.33,26.10,24.94,24.09,23.71,23.80,23.95,24.11,24.30,24.51,24.67,24.82,24.58,24.12,23.65,23.19,22.78,22.40,22.02,21.71,21.33,20.90,20.35,19.58,19.19,19.14,19.21,19.29,19.37,19.32,19.24,19.15,18.99,18.84,18.69,18.53,18.37,18.14,17.85,17.54,17.23,16.93,16.69,16.41,16.12,15.89,15.66,15.43,15.23,15.08,14.99,14.79,14.59,14.46,14.38,14.37,14.32,14.22,14.06,13.91,13.75,13.60,13.45,13.29,13.14,13.21,13.51,13.98,14.28,14.42,14.36,14.12,13.81,13.50,13.15,12.76,12.38,11.92,11.46,11.00,10.54,10.08,9.79,9.57,9.34,9.10,8.55,7.77,6.82,5.83,5.13,4.91,4.87,4.80,4.72,4.70,4.74,4.80,4.80,4.87,4.95,5.15,5.61,6.00,6.49,6.72,6.55,6.32,6.02,5.80,5.75,5.98,6.13,6.13,6.00,5.76,5.53,5.36,5.17,4.98,4.90,4.90,4.85,4.75,4.59,4.36,4.13,3.89,3.67,3.52,3.36,3.21,3.05,2.90,2.82,2.79,2.76,2.68,2.52,2.25,1.86,1.51,1.59,1.66,1.69,1.69,1.69,1.62,1.54,1.46,1.40,1.39,1.45,1.53,1.57,1.50,1.42,1.34,1.29,1.29,1.21,1.19,1.19,1.18,1.10,1.09,1.05,1.02,1.10,1.10,1.15,1.23,1.31,1.38,1.40,1.44,1.52,1.59,1.60,1.65,1.72,1.80,1.88,1.90,1.94,2.01,2.09,2.17,2.20,2.22,2.30,2.38,2.45,2.53,2.60,2.60,2.66,2.74,2.81,2.89,2.90,2.90,2.92,2.99,2.99,2.99,2.99,3.01,3.09,3.16,3.24,3.32,3.40,3.47,3.55,3.63,3.70,3.70,3.76,3.80,3.80,3.80,3.87,3.90,3.92,4.00,4.00,4.06,4.10,4.10,4.10,4.16,4.20,4.22,4.30,4.30,4.35,4.40,4.40,4.40,4.46,4.50,4.48,4.40,4.40,4.40
