231.95,234.56,236.67,237.74,237.40,235.81,232.87,228.02,223.78,221.57,220.66,219.76,217.93,215.49,211.98,207.14,200.92,194.95,189.88,185.69,182.00,177.59,172.97,168.21,163.45,160.07,156.08,151.70,147.44,144.81,142.99,141.14,139.09,136.84,134.36,130.89,126.65,121.94,117.38,114.19,111.78,110.03,109.02,107.20,105.25,102.74,99.28,95.59,90.85,86.75,83.72,80.65,78.88,77.40,76.03,74.65,73.70,73.13,72.72,72.33,71.92,71.52,71.14,70.90,71.15,70.42,69.70,69.23,69.20,70.01,71.23,72.11,72.29,71.53,70.13,68.35,66.26,63.96,61.75,60.27,59.39,58.91,58.33,57.24,55.95,54.63,53.46,52.55,51.73,51.07,50.61,50.04,49.87,49.71,49.24,47.85,45.96,44.44,43.33,42.42,41.97,41.44,40.88,40.38,39.99,39.65,39.34,39.04,38.73,38.32,37.85,37.37,36.91,36.44,36.03,35.74,35.55,35.29,34.66,33.87,33.09,32.50,31.74,31.18,30.71,30.23,29.68,28.79,27.95,27.37,27.29,27.22,27.14,27.06,26.99,26.91,26.64,26.26,25.81,25.19,24.57,23.96,23.33,22.66,22.09,21.67,21.36,21.14,20.99,20.81,20.59,20.34,20.06,19.83,19.75,20.03,20.86,22.48,24.05,25.74,27.65,29.84,33.16,36.02,38.07,39.35,38.79,38.39,37.95,37.26,37.09,38.13,40.38,43.90,48.87,51.74,52.67,51.85,49.58,46.21,42.55,38.67,34.68,30.78,28.89,27.46,26.11,24.79,23.58,22.35,21.16,20.06,19.38,18.88,18.44,18.00,17.54,16.96,16.36,15.71,15.01,14.66,14.22,13.69,13.10,12.47,11.88,11.25,10.57,9.83,9.00,8.19,7.38,6.56,5.76,5.15,4.82,4.74,4.67,4.62,4.55,4.48,4.40,4.32,4.30,4.27,4.19,4.11,4.10,4.14,4.21,4.26,4.29,4.33,4.37,4.40,4.48,4.53,4.56,4.55,4.51,4.50,4.50,4.48,4.40,4.25,4.15,4.16,4.31,4.44,4.46,4.46,4.45,4.40,4.26,4.15
237.80,240.32,242.38,243.52,243.29,241.72,238.65,233.38,228.58,226.12,225.08,223.81,221.60,218.56,214.08,208.00,201.18,195.47,190.75,186.82,183.28,178.73,174.41,170.24,166.10,162.57,158.30,153.88,149.86,147.36,145.49,143.67,141.74,139.60,137.21,134.13,130.43,126.24,121.84,118.72,117.03,116.45,116.14,114.32,111.80,108.43,104.10,99.34,93.43,88.42,84.86,81.49,79.40,77.84,76.55,75.31,74.58,74.12,73.75,73.36,72.98,72.59,72.27,72.23,72.94,72.26,71.36,70.89,71.40,72.75,74.01,74.60,74.28,73.00,71.38,69.42,67.20,64.87,62.68,60.86,59.64,59.09,58.37,57.09,55.65,54.20,52.79,51.73,50.45,49.28,48.62,48.01,47.84,47.65,47.03,45.17,43.67,42.56,41.67,40.68,40.41,40.11,39.83,39.60,39.38,39.17,38.95,38.70,38.39,38.04,37.62,37.17,36.74,36.27,35.68,35.21,34.94,34.66,34.13,33.50,32.90,32.50,32.12,31.67,31.17,30.66,30.23,29.32,28.50,28.01,27.93,27.86,27.78,27.69,27.58,27.41,26.98,26.40,25.79,25.17,24.55,23.93,23.31,22.67,22.19,21.93,21.75,21.55,21.39,21.22,20.98,20.69,20.47,20.38,20.34,20.67,21.73,23.35,24.93,26.57,28.42,30.89,34.58,37.92,40.52,42.23,41.34,40.41,39.50,38.66,38.92,39.99,42.28,45.86,50.54,53.30,53.55,51.82,49.05,46.11,43.06,39.61,35.64,31.42,29.21,27.72,26.52,25.36,24.16,23.01,21.92,20.90,20.21,19.66,19.15,18.64,18.16,17.55,16.89,16.19,15.48,15.43,15.19,14.74,14.10,13.42,12.78,12.14,11.44,10.54,9.53,8.67,7.87,7.05,6.26,5.49,4.99,4.81,4.71,4.63,4.55,4.48,4.40,4.32,4.29,4.25,4.19,4.11,4.11,4.15,4.22,4.30,4.32,4.36,4.41,4.43,4.49,4.56,4.60,4.59,4.53,4.52,4.51,4.48,4.40,4.25,4.16,4.18,4.32,4.47,4.50,4.50,4.48,4.41,4.27,4.16
244.71,245.87,247.40,248.31,248.32,247.06,244.26,239.57,234.17,231.01,229.34,227.58,225.02,221.00,215.31,208.24,201.82,196.87,192.83,189.37,186.07,181.21,177.06,173.08,168.71,165.03,160.73,156.57,152.90,149.91,147.94,146.13,144.25,142.15,140.02,136.76,133.04,129.34,125.84,123.08,121.66,121.31,121.00,120.24,118.41,114.89,109.33,103.33,96.80,90.88,86.11,82.59,79.97,78.16,76.93,75.88,75.50,75.21,74.90,74.51,74.13,73.74,73.60,73.84,74.60,74.70,74.04,73.73,74.84,76.10,76.80,76.75,75.84,74.03,72.04,69.90,67.70,65.57,63.53,61.51,60.01,59.25,58.23,56.86,55.39,53.93,52.47,51.13,48.59,45.95,44.54,44.18,44.19,44.08,43.48,41.82,40.77,40.24,40.01,39.71,39.59,39.48,39.32,39.09,38.93,38.76,38.56,38.31,38.00,37.75,37.36,36.94,36.61,36.15,35.52,34.98,34.60,34.17,33.91,33.71,33.53,33.33,32.95,32.46,31.96,31.48,30.96,29.94,29.10,28.65,28.57,28.50,28.42,28.30,28.08,27.67,27.02,26.34,25.72,25.10,24.49,23.87,23.28,22.79,22.51,22.32,22.16,21.99,21.84,21.63,21.37,21.12,21.15,21.49,21.59,21.79,22.56,24.19,25.80,27.43,29.25,32.17,35.83,39.19,42.03,44.44,44.24,43.14,41.62,40.27,41.46,43.05,45.32,48.40,52.34,55.20,54.45,51.44,48.48,45.73,43.38,41.10,38.40,33.84,30.38,28.26,27.09,25.93,24.83,23.95,23.18,22.41,21.53,20.67,19.91,19.27,18.74,18.13,17.35,16.56,15.99,16.24,16.23,15.87,15.19,14.56,13.89,13.31,12.63,11.39,10.13,9.14,8.35,7.63,6.79,6.00,5.33,4.86,4.72,4.63,4.55,4.48,4.40,4.32,4.25,4.21,4.19,4.11,4.16,4.19,4.22,4.30,4.36,4.39,4.42,4.49,4.50,4.56,4.60,4.60,4.59,4.59,4.55,4.48,4.40,4.25,4.19,4.22,4.32,4.47,4.50,4.50,4.48,4.41,4.32,4.19
252.11,252.57,253.28,253.78,253.25,251.58,248.68,244.47,239.47,236.51,234.71,232.29,228.38,223.67,217.49,210.00,204.45,199.85,196.01,192.68,189.44,184.84,180.72,176.56,171.85,167.75,163.63,160.15,157.44,155.01,152.09,149.25,146.69,144.61,142.52,139.62,136.23,132.77,130.27,127.89,126.23,125.20,124.22,123.15,121.31,118.04,112.80,106.50,100.39,94.22,88.22,83.65,80.42,78.47,77.43,76.66,76.35,76.20,76.00,75.61,75.23,74.84,74.92,75.50,76.31,76.87,76.87,77.05,78.11,78.80,78.70,77.65,75.75,73.70,71.62,69.65,67.74,65.77,63.72,61.78,60.26,59.27,58.03,56.64,55.21,53.79,52.40,51.01,47.75,44.08,41.78,41.62,41.61,41.55,41.24,40.36,39.81,39.51,39.35,39.20,39.08,38.97,38.82,38.63,38.48,38.32,38.13,37.89,37.62,37.38,37.06,36.72,36.49,36.18,35.73,35.28,34.91,34.60,34.49,34.41,34.31,34.16,33.78,33.29,32.76,32.26,31.76,30.70,29.77,29.25,29.21,29.10,28.93,28.68,28.28,27.70,26.98,26.29,25.71,25.09,24.47,23.94,23.52,23.21,22.94,22.75,22.59,22.44,22.24,22.11,22.09,22.21,22.44,22.88,23.08,23.20,23.49,24.96,26.51,28.09,29.91,33.20,36.81,40.24,43.42,46.40,47.83,47.46,45.86,43.85,44.11,45.47,47.64,50.50,54.01,56.51,55.38,52.03,48.92,46.60,44.54,42.55,40.33,36.71,32.23,29.31,27.98,27.05,26.20,25.50,24.82,23.99,23.03,22.09,21.16,20.23,19.26,18.46,17.62,16.96,16.81,17.12,17.21,16.95,16.33,15.71,15.13,14.49,13.62,12.23,11.02,9.87,8.89,8.15,7.30,6.51,5.77,5.15,4.84,4.70,4.60,4.52,4.40,4.32,4.25,4.20,4.19,4.11,4.16,4.22,4.26,4.30,4.37,4.40,4.43,4.50,4.54,4.58,4.60,4.60,4.60,4.60,4.55,4.48,4.40,4.25,4.20,4.25,4.36,4.48,4.53,4.55,4.52,4.41,4.33,4.20
258.91,258.78,258.68,258.77,257.69,255.60,252.61,248.80,244.48,241.85,239.93,236.97,231.86,226.58,220.18,212.74,207.93,203.50,199.60,196.13,192.73,188.37,184.21,179.88,175.02,170.59,166.78,164.00,162.15,160.36,156.73,152.97,149.64,147.14,144.98,142.44,139.46,136.31,134.72,132.65,130.56,128.59,126.75,125.03,123.00,119.99,115.40,109.02,103.49,97.43,90.71,85.11,81.17,78.98,78.03,77.49,77.18,77.13,77.04,76.71,76.33,76.01,76.32,77.18,78.06,79.00,79.66,80.19,80.78,80.70,79.72,77.71,74.98,72.74,70.72,69.00,67.41,65.70,63.83,62.01,60.46,59.27,57.89,56.50,55.11,53.73,52.41,51.07,47.74,43.50,39.90,39.88,39.81,39.77,39.73,39.56,39.40,39.21,39.02,38.87,38.73,38.58,38.42,38.27,38.12,37.96,37.77,37.55,37.33,37.13,36.88,36.65,36.51,36.35,36.09,35.76,35.44,35.29,35.28,35.24,35.15,35.00,34.62,34.12,33.58,33.04,32.57,31.49,30.51,29.94,29.92,29.68,29.37,28.95,28.38,27.67,26.93,26.26,25.69,25.08,24.52,24.15,23.93,23.75,23.45,23.25,23.08,22.91,22.73,22.77,23.05,23.50,23.89,24.35,24.64,24.72,24.59,25.75,27.17,28.75,30.66,34.13,37.58,41.18,44.83,48.23,51.11,51.65,50.31,47.89,46.95,47.86,49.88,52.64,55.85,57.80,56.44,53.08,49.90,47.87,45.90,43.93,41.86,39.25,34.25,30.75,29.18,28.46,27.82,27.24,26.54,25.58,24.50,23.45,22.33,21.08,19.69,18.72,17.91,17.49,17.72,18.02,18.16,17.99,17.48,16.89,16.40,15.67,14.60,13.23,12.09,10.86,9.68,8.72,7.88,7.09,6.30,5.55,5.00,4.78,4.66,4.57,4.41,4.34,4.25,4.20,4.19,4.13,4.17,4.24,4.30,4.31,4.38,4.41,4.44,4.50,4.58,4.60,4.61,4.61,4.60,4.60,4.55,4.48,4.40,4.25,4.20,4.26,4.41,4.49,4.56,4.60,4.57,4.42,4.33,4.21
263.21,262.24,261.66,261.45,260.50,258.66,255.91,252.35,248.76,246.03,243.64,240.68,235.87,230.10,223.79,217.46,212.55,207.97,203.59,199.35,195.26,190.48,186.19,182.07,177.78,173.54,170.35,167.94,166.04,164.20,161.48,158.21,154.38,150.01,147.56,144.93,142.30,139.95,138.85,136.82,134.16,131.17,128.34,126.19,123.89,120.88,116.60,110.02,104.68,99.40,93.75,88.00,83.09,80.16,78.86,78.32,78.01,77.93,77.93,77.86,77.48,77.49,77.98,78.87,79.90,81.27,82.15,82.28,81.56,80.44,78.53,76.10,73.39,70.80,69.13,67.62,66.25,65.18,64.25,62.40,60.57,59.34,58.01,56.63,55.24,53.85,52.48,51.37,49.62,46.04,39.89,39.77,39.69,39.62,39.53,39.32,39.10,38.95,38.84,38.75,38.65,38.52,38.36,38.21,38.05,37.90,37.73,37.56,37.39,37.33,37.23,37.12,37.02,36.87,36.60,36.33,36.15,36.05,36.09,36.07,35.99,35.90,35.52,34.99,34.41,33.87,33.34,32.25,31.40,31.00,30.88,30.23,29.63,29.04,28.38,27.62,26.90,26.23,25.63,25.01,24.76,24.70,24.67,24.39,24.14,23.92,23.70,23.50,23.51,23.99,24.50,24.91,25.36,25.82,26.20,26.37,26.17,26.70,27.83,29.54,31.82,34.95,37.93,41.94,46.43,49.82,52.70,53.93,53.51,51.69,50.36,50.76,52.55,55.36,58.42,59.56,57.96,54.80,51.81,49.33,47.21,45.08,42.76,40.26,36.23,33.05,31.20,30.38,29.64,28.99,28.23,27.15,25.73,24.22,22.72,21.27,19.88,18.91,18.46,18.44,18.68,18.92,19.05,18.97,18.65,18.15,17.68,16.84,15.73,14.80,13.50,12.49,11.28,9.49,8.70,7.92,7.06,6.12,5.24,4.84,4.69,4.63,4.48,4.40,4.28,4.20,4.20,4.18,4.19,4.24,4.31,4.37,4.39,4.44,4.48,4.50,4.58,4.60,4.63,4.67,4.61,4.60,4.55,4.48,4.40,4.25,4.20,4.26,4.41,4.49,4.56,4.60,4.58,4.48,4.35,4.24
266.53,265.19,264.11,263.28,262.08,260.38,258.03,254.69,251.60,248.76,245.95,242.84,238.84,233.18,227.12,221.57,217.15,212.62,207.78,202.83,198.27,193.13,188.55,184.46,180.70,177.08,174.30,171.98,169.88,167.73,165.18,162.18,158.71,154.73,151.11,147.75,145.01,143.07,141.69,139.49,136.48,132.95,129.49,126.81,124.16,120.97,116.67,110.06,104.81,99.88,94.81,89.67,85.07,81.83,79.95,79.15,78.84,78.72,78.75,78.83,78.63,79.19,80.15,81.35,82.62,83.02,82.77,81.92,80.55,78.85,76.64,74.48,72.57,70.71,69.34,68.21,67.28,66.56,65.75,63.61,61.19,59.28,57.96,56.64,55.31,53.98,52.62,51.68,50.66,47.91,42.09,40.21,39.68,39.59,39.48,39.34,39.21,39.11,39.03,38.95,38.91,38.79,38.65,38.52,38.37,38.21,38.06,37.90,37.75,37.74,37.69,37.61,37.53,37.41,37.20,37.01,36.90,36.85,36.89,36.88,36.83,36.75,36.40,35.87,35.27,34.70,34.16,33.19,32.41,31.92,31.41,30.53,29.76,29.06,28.33,27.56,26.85,26.19,25.61,25.28,25.25,25.35,25.38,25.07,24.84,24.61,24.31,23.97,24.14,24.82,25.51,26.11,26.76,27.28,27.76,28.01,27.75,27.70,28.55,30.20,32.53,35.31,38.12,42.33,47.33,51.31,54.53,56.54,56.89,55.42,53.89,53.92,55.47,58.09,60.42,60.68,58.97,56.07,53.04,50.22,47.59,45.04,42.54,40.20,37.47,35.13,33.38,32.27,31.24,30.28,29.20,27.80,26.03,24.24,22.59,21.17,20.01,19.52,19.52,19.81,20.14,20.34,20.47,20.44,20.17,19.68,19.10,18.25,17.23,16.40,15.34,14.54,13.34,11.22,9.73,8.70,7.74,6.74,5.74,5.11,4.79,4.65,4.50,4.46,4.33,4.23,4.20,4.20,4.23,4.27,4.32,4.40,4.40,4.45,4.51,4.54,4.59,4.62,4.66,4.69,4.65,4.64,4.58,4.48,4.40,4.25,4.22,4.29,4.41,4.52,4.58,4.60,4.58,4.51,4.36,4.25
269.09,267.64,266.10,264.55,262.95,261.33,259.42,256.27,253.50,250.58,247.44,244.13,241.11,235.90,230.19,225.20,221.53,217.23,212.06,206.48,201.60,196.20,191.27,187.07,183.74,180.89,178.38,176.01,173.64,171.07,168.29,165.45,162.66,160.07,155.10,150.73,147.57,145.72,143.66,141.13,137.89,134.09,130.22,126.96,123.91,120.47,116.04,109.57,104.39,99.57,94.83,90.69,87.06,83.78,81.25,80.08,79.83,79.74,79.79,79.95,80.06,81.20,82.64,84.10,85.41,84.18,82.27,80.30,78.73,76.80,74.74,73.22,72.42,71.73,70.67,69.95,69.50,68.96,67.84,65.14,61.92,59.13,57.82,56.57,55.36,54.16,52.95,52.14,51.35,49.48,45.49,41.33,39.95,39.65,39.52,39.52,39.52,39.49,39.42,39.34,39.34,39.23,39.11,39.03,38.88,38.72,38.57,38.42,38.27,38.25,38.20,38.12,38.04,37.96,37.84,37.73,37.68,37.67,37.67,37.67,37.65,37.58,37.28,36.76,36.14,35.53,34.98,34.18,33.42,32.70,31.69,30.68,29.82,29.05,28.28,27.50,26.79,26.15,25.67,25.76,25.90,26.05,26.08,25.78,25.54,25.30,24.91,24.36,24.69,25.42,26.27,27.13,28.06,28.65,29.29,29.66,29.39,28.85,29.39,30.85,33.03,35.50,38.26,42.52,47.81,52.62,56.39,59.24,60.30,59.02,57.41,57.19,58.50,60.76,61.99,61.35,59.52,56.85,53.69,50.61,47.35,44.30,41.67,39.56,38.18,36.81,35.35,33.88,32.49,31.15,29.68,27.89,25.82,23.87,22.23,21.02,20.25,20.47,20.92,21.44,21.90,22.05,22.20,22.19,21.92,21.38,20.64,19.82,18.96,18.04,17.41,16.80,15.65,13.49,11.04,9.51,8.39,7.38,6.37,5.51,4.96,4.67,4.51,4.49,4.39,4.27,4.21,4.20,4.26,4.30,4.32,4.40,4.40,4.45,4.53,4.60,4.60,4.66,4.70,4.70,4.70,4.70,4.61,4.48,4.40,4.25,4.25,4.33,4.42,4.57,4.60,4.61,4.59,4.51,4.36,4.25
269.15,267.77,266.23,264.68,263.12,261.50,259.59,256.69,253.78,250.92,247.99,244.83,241.77,237.28,232.13,227.11,223.83,220.75,216.16,210.46,205.38,200.63,195.68,191.05,187.26,184.45,181.84,179.34,176.86,174.09,171.12,168.08,165.07,162.19,158.49,153.77,149.47,146.42,143.82,140.46,136.86,133.11,129.14,125.27,121.86,118.37,114.18,108.75,103.85,99.08,94.58,91.58,88.73,85.79,83.27,82.00,82.39,82.87,83.28,83.56,84.02,85.02,85.72,85.68,84.42,82.16,80.23,78.83,78.01,76.97,76.17,75.53,74.98,74.28,73.65,72.92,72.20,71.71,70.04,65.57,61.14,58.75,57.55,56.32,55.36,54.78,54.60,53.77,52.89,51.62,49.56,46.33,42.23,39.82,39.78,39.78,39.78,39.86,39.91,39.72,39.72,39.65,39.58,39.54,39.39,39.23,39.08,38.94,38.84,38.78,38.71,38.63,38.55,38.42,38.39,38.44,38.50,38.45,38.44,38.44,38.43,38.41,38.11,37.59,36.97,36.35,35.76,34.79,33.78,32.82,31.76,30.70,29.82,29.05,28.28,27.50,26.79,26.37,26.33,26.51,26.67,26.76,26.73,26.48,26.24,25.87,25.33,24.76,25.23,25.96,26.78,27.63,28.51,29.32,30.45,31.40,31.56,31.08,31.13,32.07,33.98,36.34,38.71,42.56,47.62,52.68,57.40,61.34,63.07,61.72,60.20,60.12,61.24,62.74,62.35,60.74,58.18,55.09,52.03,48.94,45.76,42.75,40.15,38.58,37.24,35.85,34.39,32.92,31.58,30.29,28.88,27.20,25.33,23.50,22.27,21.83,22.01,22.49,23.06,23.62,24.08,24.12,24.25,24.22,23.90,23.36,22.58,21.74,20.90,20.08,19.55,19.01,18.01,16.19,13.88,11.06,9.05,8.07,6.96,6.12,5.42,4.89,4.57,4.41,4.37,4.34,4.26,4.21,4.26,4.33,4.38,4.40,4.45,4.48,4.53,4.60,4.60,4.66,4.70,4.70,4.70,4.70,4.61,4.48,4.40,4.25,4.25,4.33,4.42,4.57,4.64,4.67,4.64,4.51,4.41,4.29
267.96,266.63,265.41,264.36,263.13,261.59,259.59,256.76,253.84,251.09,248.33,245.27,242.18,238.13,233.49,228.82,225.78,223.13,219.21,214.19,209.30,204.90,200.16,195.49,191.37,187.94,185.05,182.39,179.77,176.93,173.64,170.24,166.88,163.66,160.39,155.28,150.11,146.00,142.78,138.90,134.96,130.99,126.66,122.87,119.58,116.26,112.38,107.75,103.26,98.90,94.98,92.56,90.12,87.43,85.21,84.52,85.29,86.12,86.85,87.41,87.84,88.06,87.71,86.61,84.64,82.78,80.95,79.63,79.26,78.80,78.59,78.33,77.90,77.39,76.83,75.91,74.67,73.22,70.85,65.26,60.30,58.49,57.52,56.61,56.05,55.95,56.25,55.59,54.76,53.78,52.54,50.18,46.08,43.23,42.60,42.18,42.22,42.38,42.50,42.40,42.37,42.17,41.79,41.26,40.66,40.25,39.89,39.57,39.38,39.30,39.22,39.14,39.06,38.91,38.93,39.03,39.14,39.14,39.18,39.20,39.20,39.20,38.95,38.43,37.76,37.03,36.20,35.09,33.94,32.84,31.73,30.67,29.77,28.99,28.24,27.52,27.01,26.85,27.04,27.27,27.44,27.49,27.41,27.18,26.85,26.34,25.71,25.16,25.77,26.51,27.31,28.14,28.99,30.05,31.48,32.87,33.68,33.55,33.48,33.83,34.87,37.04,39.29,42.88,47.66,52.71,58.25,63.03,65.64,65.16,63.43,63.38,63.59,63.28,61.65,58.89,55.77,52.61,49.70,46.61,43.63,40.96,38.79,37.50,36.24,34.89,33.46,31.96,30.62,29.33,27.95,26.37,24.62,23.50,23.06,23.27,23.94,24.56,25.20,25.78,26.21,26.24,26.34,26.27,25.91,25.34,24.54,23.68,22.83,22.08,21.58,21.06,20.21,18.78,16.67,13.19,10.34,8.73,7.57,6.75,5.98,5.28,4.73,4.48,4.38,4.35,4.29,4.21,4.24,4.32,4.40,4.40,4.47,4.52,4.55,4.60,4.63,4.67,4.71,4.73,4.73,4.71,4.61,4.48,4.40,4.25,4.25,4.34,4.45,4.58,4.66,4.70,4.66,4.51,4.43,4.30
265.66,264.36,263.76,263.64,263.00,261.63,259.45,256.52,253.72,251.11,248.47,245.46,242.37,238.50,234.34,230.37,227.43,224.50,221.33,217.71,213.37,209.04,204.70,200.36,196.01,191.35,188.02,185.17,182.39,179.61,175.89,172.00,168.17,164.55,160.93,155.45,149.64,144.58,140.66,136.54,132.30,127.84,122.92,119.85,117.09,114.15,110.63,106.59,102.61,99.01,95.96,93.64,91.25,88.76,87.09,87.58,88.50,89.48,90.50,91.46,91.55,90.41,88.71,86.96,85.92,85.79,84.15,82.44,82.28,82.11,81.90,81.56,81.15,80.98,80.17,78.94,76.95,73.62,70.40,64.28,59.40,58.34,57.71,57.38,57.37,57.61,57.92,57.57,56.93,55.95,54.56,52.98,51.34,49.55,47.71,46.50,46.60,46.82,46.98,47.12,47.05,46.56,45.55,44.05,42.61,41.72,40.97,40.29,39.91,39.81,39.73,39.66,39.58,39.42,39.44,39.52,39.61,39.76,39.91,39.97,39.97,39.97,39.82,39.29,38.51,37.57,36.34,35.11,33.92,32.76,31.60,30.59,29.68,28.88,28.18,27.56,27.44,27.58,27.81,28.04,28.20,28.23,28.11,27.88,27.36,26.72,26.05,25.55,26.32,27.09,27.86,28.65,29.50,30.83,32.41,34.09,35.74,36.25,36.39,36.08,35.73,37.59,39.96,43.46,47.92,52.72,58.96,64.35,68.02,69.27,67.05,66.93,65.60,62.53,60.02,55.92,52.40,49.48,46.76,43.67,41.01,38.98,37.58,36.34,35.17,33.92,32.55,31.01,29.61,28.27,26.90,25.42,23.71,23.83,24.52,25.27,26.04,26.67,27.34,27.94,28.32,28.40,28.48,28.36,27.95,27.33,26.52,25.63,24.76,24.06,23.52,22.98,22.29,21.29,19.43,15.85,12.19,9.37,8.21,7.39,6.62,5.83,4.99,4.68,4.43,4.30,4.29,4.21,4.20,4.28,4.40,4.40,4.47,4.55,4.60,4.60,4.68,4.70,4.74,4.80,4.80,4.73,4.61,4.48,4.40,4.25,4.25,4.36,4.51,4.59,4.66,4.70,4.66,4.51,4.43,4.30
260.12,259.60,259.43,260.78,261.11,260.52,259.00,256.30,253.70,251.18,248.55,245.59,242.55,239.14,235.55,232.00,228.87,225.95,223.21,220.52,217.57,213.31,208.86,204.21,199.32,194.51,190.41,186.94,183.92,180.85,176.99,172.85,168.57,164.27,159.93,154.53,148.80,143.33,138.68,134.31,129.68,124.87,120.30,117.72,115.21,112.57,109.66,105.98,102.31,99.16,96.61,94.29,91.95,90.04,89.19,90.16,91.42,92.70,93.78,94.46,94.15,92.70,91.68,91.37,91.31,91.31,90.62,89.80,89.46,89.16,88.73,88.20,87.45,85.96,83.10,79.75,75.99,71.74,68.20,63.49,59.96,59.04,58.66,58.55,58.82,59.48,60.45,60.43,59.36,57.70,55.97,54.19,52.44,50.87,49.62,49.15,49.23,49.36,49.45,49.51,49.48,49.13,48.16,46.51,45.28,43.96,42.62,41.48,41.10,40.95,40.86,40.80,40.76,40.41,40.27,40.27,40.38,40.63,40.71,40.68,40.60,40.55,40.26,39.66,38.78,37.65,36.41,35.21,34.02,32.82,31.66,30.51,29.67,29.03,28.43,27.81,27.81,28.07,28.40,28.73,28.95,28.97,28.78,28.40,27.78,27.07,26.44,26.12,26.89,27.66,28.44,29.27,30.36,31.89,33.55,35.25,36.93,38.04,39.52,39.79,38.53,38.68,41.39,45.36,50.04,54.93,61.11,66.46,69.71,69.97,67.64,65.56,62.96,59.66,56.06,52.28,49.04,46.19,43.40,41.07,39.22,37.70,36.36,35.02,33.84,32.65,31.42,30.16,28.82,27.46,26.20,25.18,25.00,25.50,26.23,27.01,27.83,28.56,29.52,30.46,30.98,31.06,31.04,30.74,30.10,29.33,28.46,27.55,26.69,26.04,25.45,24.89,24.13,22.94,21.42,18.80,15.12,11.07,8.96,8.03,7.26,6.46,5.61,5.02,4.65,4.43,4.30,4.32,4.32,4.35,4.40,4.40,4.47,4.55,4.60,4.60,4.68,4.74,4.78,4.80,4.80,4.73,4.61,4.48,4.40,4.25,4.25,4.36,4.51,4.59,4.70,4.74,4.68,4.57,4.45,4.33
254.37,254.36,254.41,256.06,256.96,257.24,256.83,255.32,253.50,251.27,248.67,245.79,242.96,240.02,236.93,233.67,230.45,227.54,225.07,222.92,220.79,216.87,212.38,207.39,202.00,196.88,192.16,188.21,184.94,181.58,177.56,173.18,168.46,163.39,158.58,153.28,147.54,141.60,136.78,132.58,127.92,123.02,119.01,116.67,114.21,111.67,109.12,105.69,102.22,99.32,97.08,94.82,92.91,91.75,91.69,93.04,94.57,96.00,97.06,97.50,96.86,95.61,95.30,95.98,96.76,96.81,96.59,96.22,95.75,95.23,94.38,93.31,91.90,89.49,85.08,80.24,75.30,70.37,67.31,64.16,61.89,61.07,60.76,61.19,62.00,63.02,64.06,63.89,61.86,59.13,57.07,55.16,53.29,51.80,50.94,51.02,51.11,51.20,51.26,51.28,51.30,50.97,50.06,48.52,47.34,45.75,44.06,42.66,42.36,42.21,42.10,42.03,41.99,41.61,41.34,41.22,41.30,41.55,41.51,41.31,41.05,40.88,40.48,39.84,38.90,37.66,36.42,35.25,34.05,32.83,31.65,30.47,29.69,29.16,28.64,28.16,28.26,28.60,29.00,29.48,29.84,29.86,29.53,28.87,28.16,27.39,26.83,26.72,27.49,28.26,29.06,29.98,31.33,33.02,34.72,36.42,38.13,40.19,42.96,44.12,42.81,41.33,43.36,47.22,52.09,57.07,63.24,68.39,71.06,70.29,67.29,63.62,59.99,56.46,52.51,49.25,46.29,43.51,40.79,39.05,37.70,36.46,35.13,33.74,32.51,31.38,30.31,29.29,28.10,26.95,26.06,25.69,26.48,27.23,28.08,29.06,30.13,31.16,32.30,33.31,33.84,33.88,33.66,33.11,32.28,31.39,30.45,29.51,28.65,28.00,27.38,26.80,25.99,24.74,23.25,21.22,17.81,13.27,9.69,8.59,7.83,7.06,6.23,5.47,4.95,4.60,4.38,4.37,4.41,4.45,4.47,4.45,4.49,4.55,4.61,4.63,4.69,4.76,4.80,4.80,4.80,4.73,4.61,4.48,4.40,4.25,4.27,4.38,4.51,4.61,4.74,4.76,4.68,4.61,4.46,4.35
248.49,248.55,248.49,248.66,249.50,250.72,252.09,253.20,253.01,251.39,248.84,246.12,243.73,241.27,238.53,235.40,232.23,229.37,226.92,224.74,222.52,219.35,214.93,209.61,203.81,198.04,192.95,188.75,185.27,181.61,177.39,172.78,167.62,161.67,156.81,151.60,145.63,139.13,135.00,131.61,127.45,122.89,119.67,117.18,114.50,111.78,109.19,105.85,102.41,99.51,97.30,95.19,94.29,94.13,94.78,96.43,98.10,99.44,100.34,100.66,99.78,99.45,99.75,100.65,102.02,102.11,101.61,100.94,100.46,99.59,98.02,95.91,93.39,90.73,85.64,80.38,75.20,69.93,68.52,67.05,65.83,65.07,64.56,66.04,67.80,69.08,69.23,68.22,64.44,60.10,57.71,55.85,53.99,52.46,51.55,51.82,51.99,52.09,52.17,52.24,52.31,51.82,50.95,49.83,48.41,46.82,45.15,43.79,43.68,43.60,43.47,43.35,43.28,43.09,42.72,42.46,42.42,42.52,42.30,41.82,41.24,40.82,40.37,39.74,38.83,37.60,36.36,35.19,33.99,32.75,31.53,30.48,29.75,29.24,28.77,28.64,28.83,29.17,29.61,30.34,30.94,30.99,30.42,29.27,28.50,27.68,27.20,27.36,28.13,28.90,29.74,30.80,32.45,34.21,35.94,37.64,39.38,42.91,46.84,49.30,49.19,46.34,46.11,48.93,53.90,58.98,65.25,70.00,71.95,70.24,65.70,61.13,56.80,52.90,49.68,47.17,44.48,41.75,39.32,37.88,36.55,35.24,33.92,32.53,31.22,30.15,29.27,28.39,27.49,26.86,26.74,27.29,28.13,28.97,30.10,31.59,33.20,34.86,35.99,36.63,36.97,36.91,36.34,35.48,34.50,33.51,32.52,31.56,30.67,29.92,29.29,28.68,27.92,26.82,24.89,22.83,20.08,16.20,10.39,9.04,8.31,7.58,6.80,6.10,5.38,4.83,4.54,4.35,4.42,4.56,4.65,4.58,4.52,4.55,4.62,4.69,4.70,4.76,4.80,4.80,4.80,4.73,4.61,4.48,4.40,4.25,4.30,4.42,4.52,4.66,4.76,4.76,4.68,4.61,4.46,4.35
242.14,242.29,242.29,242.25,243.18,244.65,246.46,248.58,249.91,249.81,248.64,247.08,244.80,242.50,240.22,237.89,234.84,231.64,228.83,226.35,223.79,220.76,216.29,210.61,204.16,198.29,193.36,189.03,185.05,181.01,176.76,172.15,167.07,161.38,156.06,150.29,144.17,138.13,134.57,131.36,127.68,123.71,120.38,117.62,114.81,112.01,109.26,105.94,102.56,99.73,97.72,96.62,96.55,96.98,98.25,100.98,102.93,103.97,104.49,104.73,104.54,105.01,105.71,106.51,107.41,106.58,105.35,103.78,101.87,100.66,98.19,95.24,92.34,90.09,86.56,82.59,78.37,73.99,72.18,70.78,69.83,69.36,69.35,70.11,70.82,71.07,70.41,69.07,65.81,61.90,58.82,56.89,54.92,53.30,52.35,52.70,52.84,52.96,53.08,53.19,52.79,51.93,50.92,49.94,48.44,47.00,45.80,44.98,44.82,44.69,44.58,44.50,44.50,44.14,43.70,43.26,42.85,42.39,41.89,41.32,40.78,40.44,39.94,39.27,38.41,37.34,36.26,35.09,33.87,32.64,31.45,30.50,29.84,29.40,29.07,29.16,29.38,29.95,30.95,32.17,32.85,32.40,31.09,29.61,28.70,27.94,27.64,28.00,28.77,29.57,30.48,31.62,33.23,34.88,36.54,38.33,40.46,45.15,49.25,51.78,52.05,49.17,48.28,50.54,55.19,60.21,66.69,71.47,72.83,69.67,63.90,59.24,55.13,51.45,48.65,46.47,44.23,41.97,39.87,38.40,37.01,35.45,33.63,31.99,30.63,29.68,29.06,28.54,27.83,27.59,27.88,28.68,30.31,31.91,33.53,35.21,36.95,38.43,39.36,39.81,39.99,39.59,38.69,37.63,36.63,35.62,34.62,33.68,32.83,32.10,31.44,30.86,30.09,28.88,26.91,24.88,22.40,18.70,11.57,9.53,8.52,7.79,7.06,6.36,5.76,5.30,4.99,4.67,4.61,4.64,4.70,4.71,4.67,4.68,4.70,4.70,4.74,4.78,4.82,4.85,4.80,4.73,4.61,4.48,4.40,4.25,4.31,4.43,4.52,4.67,4.80,4.81,4.73,4.61,4.49,4.38
235.46,235.77,236.02,236.28,237.39,238.98,240.97,243.55,245.94,247.21,247.47,247.08,245.39,243.53,241.78,240.15,237.47,234.00,230.77,227.86,224.92,221.85,217.17,211.12,204.20,198.38,193.72,189.38,184.98,180.56,176.28,171.78,166.96,161.78,155.82,149.44,143.27,137.90,134.64,131.43,127.98,124.32,120.75,117.87,115.02,112.17,109.29,106.03,102.81,100.30,98.90,98.94,99.66,100.70,102.55,105.99,108.04,108.79,108.92,109.02,109.59,110.59,111.41,111.82,111.67,109.73,107.43,104.65,101.33,99.36,96.37,93.12,90.13,88.19,86.27,83.83,80.92,77.80,75.63,74.14,73.24,72.84,73.00,72.78,72.27,71.41,70.02,68.39,65.97,62.95,59.69,57.64,55.55,53.95,53.20,53.59,53.72,53.84,53.98,54.09,53.16,51.95,50.77,49.76,48.40,47.26,46.53,46.16,45.89,45.72,45.53,45.38,45.28,44.70,44.16,43.57,42.85,41.93,41.20,40.61,40.18,39.94,39.42,38.72,37.89,36.96,36.03,34.90,33.72,32.55,31.41,30.68,30.18,29.83,29.56,30.22,30.88,31.82,33.11,34.29,34.51,33.42,31.51,29.84,28.84,28.25,28.18,28.67,29.43,30.27,31.25,32.43,33.98,35.52,37.09,38.96,41.50,46.90,51.11,53.73,54.32,51.62,50.35,52.19,56.56,61.52,67.97,72.72,73.58,69.19,62.65,58.10,54.32,50.98,48.44,46.51,44.67,42.85,41.07,39.50,38.00,36.16,33.89,31.98,30.71,29.95,29.53,29.19,28.55,28.63,29.34,30.57,32.98,35.22,37.17,38.87,40.57,41.78,42.54,42.91,42.98,42.25,41.13,39.93,38.86,37.78,36.75,35.83,35.03,34.33,33.69,33.17,32.43,31.14,29.16,27.06,24.66,21.07,13.53,10.26,8.69,7.95,7.27,6.62,6.17,5.81,5.46,5.08,4.89,4.81,4.82,4.88,4.89,4.88,4.84,4.77,4.81,4.82,4.85,4.89,4.82,4.74,4.61,4.48,4.40,4.26,4.32,4.44,4.53,4.67,4.83,4.86,4.76,4.61,4.53,4.40
228.15,228.79,229.70,230.95,232.40,234.18,236.34,238.78,241.06,242.80,243.83,244.10,244.49,244.02,242.91,241.36,239.67,236.37,232.73,229.19,225.96,222.64,217.42,210.97,204.15,198.53,194.18,190.04,185.62,180.86,176.50,172.23,167.90,163.31,156.41,149.62,143.66,138.94,135.34,131.99,128.07,123.80,120.18,117.62,114.93,112.11,109.24,106.23,103.37,101.88,102.08,103.10,104.59,106.55,108.92,111.61,113.21,113.77,113.66,113.41,114.37,115.24,115.56,114.93,112.75,109.72,105.62,101.19,97.20,93.36,91.04,88.81,86.18,83.89,82.49,81.23,79.91,78.42,77.15,76.04,74.98,73.93,72.96,72.04,70.94,69.49,67.51,65.47,63.43,61.47,59.62,57.42,55.22,54.02,54.09,54.48,54.65,54.80,54.89,54.79,53.52,52.18,50.79,49.45,48.78,48.21,47.74,47.35,46.93,46.69,46.21,45.56,44.89,44.16,43.44,42.76,42.09,41.16,40.43,39.93,39.59,39.30,38.82,38.15,37.31,36.39,35.46,34.49,33.50,32.50,31.47,31.29,31.20,30.96,30.50,32.80,35.04,36.61,37.15,36.64,35.06,33.19,31.34,29.77,28.87,28.68,28.95,29.43,30.14,31.01,32.04,33.26,34.81,36.35,37.83,39.69,42.51,47.62,52.33,55.71,56.94,54.24,52.46,54.04,58.43,63.43,69.13,73.45,73.99,69.22,63.08,58.65,55.07,52.01,49.52,47.82,46.13,44.46,42.92,41.25,39.51,37.48,35.14,33.04,32.27,31.83,31.34,30.61,29.81,30.04,31.44,33.98,36.74,38.90,40.61,42.01,43.41,44.59,45.41,45.84,45.91,45.09,44.01,42.77,41.44,40.06,38.94,38.03,37.26,36.57,36.11,35.69,35.08,34.00,31.82,29.34,26.68,23.34,17.38,11.67,8.89,8.16,7.52,7.08,6.72,6.32,5.85,5.52,5.34,5.23,5.19,5.20,5.20,5.16,5.10,5.02,4.91,4.88,4.89,4.90,4.88,4.76,4.61,4.48,4.40,4.31,4.35,4.46,4.59,4.68,4.83,4.86,4.76,4.61,4.53,4.40
220.30,221.41,223.08,224.80,226.79,229.06,231.64,234.48,236.85,238.89,240.45,241.33,242.41,242.67,242.27,241.34,240.08,237.02,233.48,229.87,226.41,222.87,217.18,210.43,203.89,198.71,194.60,190.65,186.42,181.69,177.29,173.05,168.84,164.53,158.53,151.42,145.15,140.76,136.91,133.18,128.91,124.24,119.96,117.36,114.72,112.00,109.32,107.25,105.97,105.81,106.75,108.10,109.73,111.72,113.96,116.29,117.66,117.97,117.73,117.46,118.16,118.41,117.66,115.72,112.52,109.46,104.55,99.27,95.27,91.11,88.62,86.16,83.22,80.93,79.73,78.98,78.27,77.09,75.88,74.59,73.27,71.92,70.50,69.22,67.76,66.04,64.01,62.37,60.86,59.49,58.28,56.56,55.28,54.86,55.26,55.37,55.55,55.73,55.73,55.23,53.89,52.54,51.13,49.75,49.18,48.76,48.35,47.89,47.29,46.81,46.13,45.30,44.46,43.65,42.84,42.09,41.37,40.48,39.78,39.30,38.97,38.66,38.23,37.59,36.80,35.89,34.90,34.12,33.46,32.94,32.80,33.33,33.80,33.96,33.78,36.32,38.19,39.09,38.83,37.10,34.87,32.73,30.92,29.65,29.19,29.35,29.84,30.42,31.12,31.91,32.88,34.07,35.51,36.92,38.30,40.40,44.13,49.84,55.01,58.54,59.69,57.61,55.81,56.78,60.40,65.35,70.52,74.68,75.29,70.68,64.86,60.14,56.45,53.64,51.27,49.49,47.86,46.31,44.77,42.97,40.95,38.70,36.37,34.93,34.70,34.57,34.17,33.32,32.31,32.70,34.48,37.34,39.75,41.74,43.40,44.84,46.22,47.47,48.43,49.00,49.03,47.97,46.89,45.70,44.38,43.05,42.33,41.49,40.40,39.19,38.69,38.26,37.72,36.89,34.96,32.20,28.97,25.21,20.14,12.67,9.07,8.43,7.91,7.46,7.03,6.61,6.20,5.96,5.79,5.65,5.56,5.53,5.52,5.47,5.40,5.32,5.20,5.12,5.06,5.05,5.12,4.93,4.64,4.40,4.36,4.31,4.35,4.46,4.61,4.72,4.84,4.86,4.77,4.65,4.54,4.45
212.47,214.12,216.56,218.61,221.14,223.88,226.80,230.15,232.84,235.22,237.21,238.62,239.79,240.50,240.79,240.61,239.57,236.81,233.59,230.19,226.54,222.80,216.74,209.80,203.60,198.87,194.95,191.17,187.19,182.67,178.26,173.95,169.71,165.51,160.94,153.74,147.13,142.90,138.88,134.73,130.20,125.28,120.07,117.23,114.58,112.06,109.78,108.93,109.51,110.68,112.02,113.41,114.88,116.48,118.28,120.39,121.55,121.57,121.15,120.85,120.94,120.23,118.23,115.10,111.57,108.76,103.64,98.15,94.46,90.78,87.85,84.64,81.09,78.87,77.63,76.97,76.33,74.93,73.49,71.85,70.22,68.72,67.15,65.60,63.95,62.20,60.46,59.53,58.58,57.65,56.81,55.84,55.71,56.06,56.52,56.26,56.42,56.65,56.55,55.59,54.29,52.97,51.63,50.30,49.57,49.09,48.64,48.09,47.32,46.55,45.73,44.88,44.03,43.18,42.33,41.52,40.74,39.89,39.24,38.74,38.36,38.02,37.63,37.04,36.32,35.48,34.50,33.94,33.63,33.69,34.61,35.82,36.83,37.50,37.78,39.88,40.58,40.36,39.33,36.73,34.36,32.22,30.52,29.64,29.72,30.17,30.82,31.51,32.21,32.92,33.79,34.88,36.15,37.39,38.74,41.25,46.12,52.74,58.16,61.54,62.48,61.21,59.67,60.00,62.65,67.46,72.16,76.16,76.97,72.91,67.31,62.15,58.22,55.58,53.38,51.44,49.81,48.29,46.59,44.62,42.34,39.88,37.63,37.18,37.50,37.69,37.44,36.56,35.33,35.88,37.82,40.53,42.38,44.18,45.91,47.56,49.14,50.55,51.66,52.31,52.28,50.99,49.92,48.86,47.70,46.64,46.36,45.56,44.04,42.11,41.46,40.92,40.36,39.67,38.19,35.34,31.52,27.04,22.34,13.48,9.26,8.72,8.32,7.78,7.25,6.82,6.54,6.39,6.23,6.08,5.94,5.86,5.84,5.79,5.72,5.64,5.56,5.43,5.33,5.31,5.47,5.27,4.86,4.50,4.52,4.49,4.52,4.64,4.82,4.98,5.07,5.07,5.01,4.92,4.78,4.74
206.18,208.51,211.51,214.45,216.99,219.17,221.31,224.31,228.38,231.72,234.12,235.68,236.95,238.08,238.74,238.73,237.98,235.69,233.02,230.03,226.23,222.20,216.32,209.73,203.65,198.83,195.00,191.30,187.36,183.09,178.80,174.46,170.09,165.70,161.08,155.03,149.33,145.01,140.99,136.80,132.35,127.39,121.39,117.99,115.22,113.23,112.27,112.56,113.52,115.09,117.00,118.39,119.43,120.41,121.62,123.33,123.90,123.32,122.19,120.98,120.04,117.57,114.66,111.82,109.57,105.92,101.74,97.83,94.91,92.56,89.62,85.78,81.47,78.86,76.96,75.56,74.32,72.82,71.58,69.90,68.10,66.40,64.63,62.61,61.08,60.09,59.19,58.73,58.35,58.09,58.00,57.81,57.44,57.40,57.70,57.18,57.27,57.51,57.38,56.17,54.86,53.55,52.18,50.78,49.81,49.08,48.43,47.77,47.00,46.28,45.48,44.63,43.78,42.93,42.08,41.26,40.49,39.69,39.05,38.47,37.92,37.39,36.94,36.44,35.90,35.36,35.12,34.75,34.71,35.15,36.02,37.23,38.36,39.34,40.11,41.12,41.00,40.15,38.72,36.32,33.89,32.09,30.99,30.46,30.79,31.32,31.97,32.66,33.36,34.19,34.97,35.71,36.69,37.90,39.77,43.11,48.81,55.88,60.31,63.26,65.15,64.22,63.40,63.98,66.37,70.73,74.80,77.86,78.64,76.14,70.30,64.97,60.78,57.88,56.03,54.21,52.38,50.43,48.25,45.92,43.55,41.16,39.13,39.37,40.30,40.89,40.76,39.63,38.35,38.88,40.59,42.70,44.55,46.39,48.31,50.40,52.82,54.80,55.81,56.05,55.92,54.78,53.89,53.13,52.46,52.14,51.25,50.03,48.38,45.91,44.95,44.05,42.99,41.68,40.64,38.69,35.02,29.67,23.99,14.09,9.49,8.94,8.44,7.90,7.48,7.18,6.99,6.83,6.68,6.53,6.38,6.24,6.13,6.08,6.04,5.96,5.88,5.79,5.78,5.90,6.17,6.32,6.16,5.96,6.18,5.85,5.77,5.95,6.36,6.51,6.60,6.66,6.66,6.52,6.42,6.49
200.72,203.41,206.70,210.28,213.09,215.06,216.62,219.34,223.53,227.42,230.60,232.89,234.28,235.64,236.43,236.42,236.03,234.39,232.22,229.47,225.69,221.48,215.84,209.47,203.25,198.52,194.74,191.04,187.05,182.77,178.57,174.35,170.03,165.52,160.92,155.78,150.83,146.48,142.32,138.00,133.46,128.32,121.79,118.64,116.63,115.52,115.25,116.25,117.41,118.99,120.87,122.15,122.96,123.69,124.40,125.07,124.32,122.71,120.69,118.59,116.44,113.49,110.60,108.14,106.42,102.72,99.43,96.50,93.77,92.22,89.41,85.48,81.04,78.17,75.94,74.15,72.69,71.40,70.02,68.24,66.34,64.62,63.58,62.14,61.03,60.36,59.91,59.66,59.63,59.80,60.10,59.97,59.31,58.84,58.71,58.06,58.16,58.33,58.06,56.75,55.44,53.99,52.42,50.81,49.73,48.90,48.16,47.45,46.68,45.98,45.20,44.37,43.52,42.67,41.84,41.06,40.31,39.54,38.87,38.23,37.59,36.97,36.61,36.30,36.00,35.74,35.79,35.69,35.94,36.61,37.43,38.61,39.75,40.81,41.75,41.59,40.84,39.55,37.80,35.71,34.01,32.78,32.01,31.68,32.10,32.60,33.20,33.93,34.68,35.57,36.33,36.92,37.46,38.53,40.93,44.87,50.37,57.63,62.06,65.31,67.96,67.89,67.96,69.21,71.80,75.58,79.77,82.11,82.35,80.34,74.87,68.84,64.14,61.21,59.17,57.04,54.88,52.58,50.01,47.46,45.06,43.05,41.80,42.54,43.78,44.58,44.54,43.36,41.78,41.84,43.08,44.90,46.73,48.82,51.13,53.68,56.57,58.79,59.84,59.99,59.75,58.92,58.23,57.58,56.96,56.51,55.09,53.50,51.73,49.28,47.88,46.58,45.20,43.65,42.47,40.80,37.41,32.06,25.87,15.99,10.62,9.11,8.57,8.12,7.80,7.59,7.44,7.28,7.13,6.97,6.82,6.66,6.51,6.42,6.36,6.31,6.21,6.17,6.25,6.48,6.79,7.12,7.23,7.27,7.55,7.57,7.67,7.92,8.29,8.38,8.42,8.44,8.42,8.27,8.18,8.27
195.87,198.70,202.07,206.08,209.38,211.38,212.55,215.02,218.39,222.52,226.74,230.19,231.74,233.18,233.92,233.79,233.79,232.95,231.24,228.61,224.98,220.69,215.30,209.07,202.49,198.02,194.25,190.48,186.38,181.90,177.76,173.76,169.63,165.08,160.52,156.13,151.80,147.47,143.06,138.53,133.77,128.37,121.51,119.22,118.62,118.66,118.60,119.99,121.20,122.50,123.90,124.99,125.72,126.46,126.75,125.90,123.28,120.32,117.29,114.29,110.81,108.35,106.19,104.17,102.39,99.24,96.79,94.41,91.43,90.26,87.70,84.08,79.98,76.97,74.63,72.75,71.35,70.50,68.74,66.80,64.86,63.25,63.64,63.59,63.12,62.45,62.14,61.90,62.06,62.47,62.88,62.26,61.30,60.35,59.59,58.90,59.07,59.12,58.64,57.33,56.01,54.32,52.40,50.49,49.41,48.58,47.84,47.13,46.36,45.66,44.91,44.12,43.27,42.42,41.63,40.89,40.18,39.41,38.70,38.01,37.33,36.72,36.55,36.50,36.50,36.50,36.50,36.75,37.29,38.06,38.84,39.96,41.03,42.01,42.86,41.46,40.24,38.68,36.65,34.96,34.58,34.08,33.45,33.21,33.58,33.97,34.50,35.28,36.13,37.04,37.85,38.41,38.41,39.25,42.21,46.53,51.07,58.33,63.51,67.58,70.87,72.04,73.14,75.38,78.52,81.62,86.49,88.29,87.63,85.27,80.63,73.52,68.13,65.31,62.68,59.91,57.32,54.72,51.87,49.16,46.79,45.41,45.36,46.44,47.78,48.63,48.65,47.57,45.52,44.76,45.36,47.14,48.92,51.41,54.27,57.30,60.38,62.58,63.78,64.09,63.70,63.31,62.82,62.15,61.25,60.02,58.14,56.21,54.32,52.31,50.38,48.65,47.08,45.59,43.81,41.97,38.95,34.26,27.92,18.86,12.45,9.24,8.70,8.39,8.19,8.04,7.88,7.73,7.57,7.42,7.27,7.11,6.96,6.80,6.70,6.69,6.54,6.56,6.75,7.06,7.37,7.74,8.13,8.47,8.70,9.55,10.07,10.37,10.50,10.50,10.44,10.36,10.27,10.12,10.03,10.06
191.23,193.82,196.89,199.97,202.82,205.32,207.74,211.16,214.67,218.43,222.09,225.16,227.70,230.09,231.54,231.76,231.86,231.16,229.46,226.93,224.05,220.26,214.85,208.08,200.63,196.89,193.30,189.43,185.20,180.92,176.80,172.80,168.66,164.05,159.74,155.81,151.91,147.70,142.55,137.81,132.90,128.04,124.09,122.81,122.45,122.45,122.42,123.61,124.48,125.50,126.80,127.98,128.38,128.03,126.91,125.07,122.50,119.21,115.22,110.81,107.63,105.06,102.44,99.55,96.29,94.20,92.76,91.07,88.31,86.16,83.58,80.67,77.63,75.06,72.78,70.93,69.49,68.39,67.75,67.16,66.51,65.87,66.26,66.53,66.45,66.16,66.14,66.07,66.00,65.75,65.09,63.93,62.79,61.71,60.75,60.11,60.16,60.03,59.36,57.90,55.81,53.60,51.54,49.88,49.04,48.26,47.52,46.81,46.04,45.34,44.60,43.81,43.01,42.21,41.47,40.74,40.00,39.27,38.57,37.91,37.39,37.22,37.26,37.27,37.27,37.27,37.27,37.36,37.88,38.81,39.78,41.06,42.30,42.95,42.41,40.97,39.55,38.30,37.33,36.77,36.47,35.87,35.16,34.88,35.39,35.82,36.17,36.49,37.29,38.31,39.29,40.05,40.30,41.93,44.79,48.28,51.68,57.81,63.32,68.33,72.77,76.11,79.22,82.26,85.75,90.63,94.71,96.44,95.26,91.05,86.07,79.85,74.59,70.73,67.01,63.55,60.08,56.75,53.85,51.09,49.03,48.20,48.77,50.05,51.34,52.27,52.48,51.40,48.84,47.40,47.55,49.43,52.00,54.75,57.77,60.90,63.44,65.67,65.85,64.80,64.02,63.53,63.15,62.80,62.39,61.55,59.82,57.86,55.83,53.72,51.69,49.60,47.47,45.32,43.40,41.72,38.87,34.23,27.75,20.37,13.76,9.41,9.02,8.81,8.64,8.49,8.33,8.18,8.02,7.87,7.71,7.56,7.40,7.25,7.11,7.01,6.91,7.10,7.39,7.70,8.00,8.34,8.73,9.19,9.72,10.47,11.00,11.33,11.47,11.52,11.42,11.32,11.26,11.26,11.28,11.33
187.09,189.61,192.56,195.20,197.79,200.45,203.43,207.44,211.29,214.97,218.26,220.93,223.76,226.44,228.16,228.59,228.71,228.13,226.72,224.67,222.50,218.85,213.22,206.29,199.10,195.78,192.30,188.50,184.44,180.48,176.42,172.46,168.35,163.76,159.57,155.85,152.22,148.18,142.32,137.44,133.10,129.56,127.70,127.07,126.83,126.73,126.61,127.19,127.78,128.70,129.82,130.10,129.61,128.37,126.56,124.47,122.09,118.84,114.54,109.42,105.43,102.04,98.60,94.91,90.92,89.19,87.98,86.56,84.36,82.07,79.67,77.47,75.62,74.01,72.27,70.85,69.91,69.56,69.34,69.29,69.14,68.81,68.97,69.38,69.54,69.43,69.38,69.28,68.89,68.13,66.93,65.52,64.27,63.16,62.20,61.47,61.18,60.72,59.79,58.12,55.60,53.11,50.99,49.48,48.85,48.16,47.48,46.81,46.06,45.34,44.60,43.85,43.09,42.19,41.39,40.63,39.87,39.22,38.55,37.93,37.56,37.72,37.90,38.00,38.04,38.04,38.06,38.06,38.44,39.27,40.41,41.84,43.22,43.68,42.32,40.83,39.38,38.52,38.42,38.54,38.26,37.52,36.70,36.48,37.11,37.66,38.03,38.21,38.68,39.59,40.70,41.86,42.85,45.01,47.64,50.40,53.05,57.64,62.89,68.36,73.75,78.87,83.39,87.37,91.60,97.58,101.54,103.01,101.44,96.72,91.72,86.21,81.14,76.68,72.20,67.56,63.12,59.14,55.91,53.19,51.32,50.85,51.87,53.33,54.69,55.85,56.32,55.15,52.22,50.31,50.17,52.14,55.09,58.15,61.37,64.50,66.66,67.84,66.27,63.38,61.58,60.76,60.67,61.09,61.75,61.93,60.73,58.92,56.70,54.06,51.99,49.72,47.31,44.91,42.77,41.18,38.33,33.58,27.33,21.17,14.56,9.60,9.31,9.16,9.00,8.85,8.69,8.52,8.36,8.20,8.05,7.89,7.72,7.56,7.41,7.28,7.25,7.52,7.87,8.20,8.53,8.86,9.27,9.80,10.52,11.24,11.84,12.25,12.46,12.51,12.41,12.34,12.36,12.45,12.53,12.60
183.58,186.26,189.32,192.15,194.71,197.11,199.76,203.91,208.35,212.32,215.51,217.73,219.97,222.09,223.51,223.98,223.99,223.53,222.74,221.64,220.16,216.18,210.09,203.50,198.02,194.70,191.25,187.74,184.21,180.75,176.79,172.90,168.89,164.40,160.16,156.36,152.81,148.99,142.44,137.52,134.67,133.44,132.62,132.19,131.91,131.64,131.27,130.72,131.11,132.15,133.02,131.13,129.03,127.16,125.54,124.14,122.16,119.41,115.64,110.70,104.49,99.36,94.63,90.24,86.50,84.23,82.24,80.58,79.37,78.01,76.02,74.55,74.04,74.06,73.48,72.99,73.23,74.91,74.22,73.67,73.01,72.14,71.81,72.13,72.31,72.14,71.65,71.29,70.47,69.38,68.27,67.02,65.73,64.72,64.01,63.04,62.11,61.13,59.84,57.87,55.40,52.92,50.81,49.37,48.89,48.34,47.79,47.20,46.50,45.74,45.01,44.31,43.59,42.39,41.41,40.56,39.82,39.27,38.66,38.12,37.87,38.23,38.46,38.67,38.80,38.81,38.88,38.90,38.97,39.36,40.66,42.23,43.70,44.16,42.70,41.17,39.88,39.49,40.03,40.25,39.90,38.98,38.03,38.01,38.74,39.49,40.14,40.57,40.35,40.89,42.07,43.86,46.24,48.62,50.83,53.01,55.36,57.93,62.13,67.46,73.54,79.95,85.12,90.22,95.69,101.91,106.59,107.56,105.75,102.25,97.64,92.60,87.81,83.32,78.49,72.05,66.52,61.99,58.08,55.52,53.69,53.32,54.57,56.18,57.77,59.34,60.17,58.80,55.67,53.57,53.33,55.39,58.19,61.64,65.09,68.11,70.06,68.85,64.58,59.25,55.64,54.17,54.60,56.36,58.85,60.86,60.66,59.24,56.76,53.03,51.00,48.76,46.46,44.32,41.88,40.30,37.22,32.11,26.61,21.06,14.72,9.81,9.57,9.41,9.26,9.10,8.94,8.72,8.55,8.39,8.24,8.09,7.86,7.68,7.55,7.48,7.54,7.80,8.15,8.53,8.91,9.29,9.71,10.27,11.03,11.80,12.55,13.14,13.47,13.48,13.41,13.44,13.58,13.73,13.81,13.84
180.26,182.75,185.80,188.87,191.78,194.53,197.31,200.75,205.15,209.39,212.90,215.14,216.87,218.34,219.21,219.38,219.38,219.11,218.55,217.63,216.24,212.62,207.05,201.24,196.82,193.54,190.25,186.98,183.76,180.49,176.94,173.33,169.53,165.26,161.01,157.14,153.52,149.78,144.12,140.34,138.47,137.99,137.68,137.30,137.10,136.87,136.34,135.00,134.16,133.35,132.05,129.07,126.52,124.37,122.70,121.65,120.15,117.83,114.68,110.39,102.69,97.13,92.21,87.57,83.35,81.26,79.58,78.40,77.88,77.42,76.98,76.95,77.38,77.74,77.69,77.63,77.85,78.66,78.20,77.71,76.79,75.36,75.11,74.84,74.22,73.25,72.15,71.11,70.05,68.99,67.95,66.93,65.92,64.97,64.06,63.02,62.04,61.06,59.76,57.67,55.46,53.36,51.52,50.07,49.52,49.15,48.83,48.44,47.83,47.19,46.65,46.11,45.44,44.20,43.04,41.89,40.75,39.73,39.10,38.56,38.28,38.63,38.99,39.29,39.57,39.84,39.74,39.69,39.69,39.95,41.09,42.63,44.18,44.74,43.31,41.77,40.60,40.26,40.77,41.22,40.96,40.20,39.43,39.43,40.68,42.00,43.26,44.30,44.30,44.67,45.31,46.32,48.18,50.13,52.02,54.01,56.32,58.29,62.16,67.59,74.13,80.70,86.03,91.23,96.90,103.72,108.72,110.47,109.43,106.25,101.87,97.36,92.83,88.19,83.11,76.68,70.75,65.54,61.03,57.83,56.01,55.80,57.13,59.01,61.14,63.37,64.76,63.50,59.23,56.86,56.81,59.07,62.32,65.80,68.75,70.71,71.00,68.77,62.09,54.57,51.54,50.64,50.77,51.74,53.44,56.03,58.96,58.86,55.80,51.85,49.12,46.63,44.41,42.47,40.21,37.92,34.47,29.82,25.45,19.90,14.07,9.83,9.60,9.45,9.29,9.14,8.97,8.74,8.57,8.42,8.26,8.11,7.92,7.78,7.71,7.73,7.80,7.96,8.26,8.68,9.06,9.45,9.93,10.56,11.37,12.19,13.01,13.73,14.29,14.51,14.59,14.70,14.84,14.95,15.07,15.12
177.01,179.30,182.21,185.43,188.88,192.17,195.18,198.01,202.01,206.23,209.96,212.45,213.78,214.69,215.09,215.02,215.00,214.83,214.33,213.41,211.97,208.90,204.16,199.26,195.61,192.35,189.08,185.92,182.86,179.76,176.67,173.42,169.86,165.84,161.65,157.85,154.31,150.80,146.41,143.71,142.45,142.16,141.98,141.50,141.14,140.68,139.83,137.67,135.62,133.10,129.88,126.04,123.40,121.18,119.47,118.58,117.35,115.40,112.68,108.74,100.62,94.89,89.98,85.43,81.19,79.60,78.52,77.92,77.92,78.12,78.79,79.69,80.59,81.04,81.31,81.43,81.39,81.14,80.83,80.43,79.46,77.85,77.46,76.60,75.31,73.72,72.17,70.63,69.44,68.44,67.44,66.61,65.81,64.90,63.83,62.78,61.84,60.92,59.72,57.77,55.88,54.12,52.49,51.05,50.62,50.54,50.43,50.16,49.74,49.19,48.72,48.19,47.46,46.21,44.88,43.47,42.01,40.54,39.66,39.00,38.69,39.01,39.66,40.32,40.90,41.27,40.86,40.59,40.49,40.72,41.71,43.12,44.67,45.31,43.91,42.46,41.37,40.97,41.33,41.98,42.00,41.49,40.86,40.83,42.60,44.51,46.42,48.13,48.49,48.77,48.89,49.07,50.11,51.61,53.16,54.87,56.92,58.62,62.50,68.04,74.67,81.23,86.74,91.99,97.63,104.56,109.62,111.90,111.36,108.26,104.24,100.31,96.14,91.58,86.66,80.76,74.82,69.17,64.08,60.25,58.41,58.37,59.84,62.10,64.74,67.48,69.31,68.28,63.47,60.97,61.04,63.43,66.72,69.86,71.82,72.14,70.60,67.73,60.25,52.04,48.99,48.46,48.09,48.18,49.02,51.49,55.89,56.69,53.83,50.32,47.07,44.33,42.12,40.41,38.47,35.84,32.32,28.15,24.41,18.85,13.48,9.83,9.60,9.45,9.29,9.14,8.97,8.76,8.59,8.44,8.28,8.13,7.99,7.91,7.91,7.98,8.06,8.14,8.37,8.79,9.19,9.58,10.12,10.82,11.65,12.50,13.36,14.20,14.96,15.48,15.76,15.95,16.10,16.19,16.34,16.40
173.88,176.02,178.56,181.68,185.99,190.06,193.38,196.11,199.07,202.60,206.25,209.32,210.45,211.06,211.25,211.18,211.11,210.81,210.14,209.03,207.45,205.12,201.58,197.72,194.39,191.08,187.54,184.14,181.04,178.14,175.56,172.73,169.49,165.72,161.72,158.29,155.24,152.39,149.53,147.47,146.12,145.28,144.50,143.67,142.58,141.25,139.65,136.50,133.61,130.33,126.37,121.84,119.56,117.63,115.98,114.94,113.46,111.79,109.04,104.59,98.20,92.50,87.68,83.81,80.86,80.22,80.01,80.04,80.23,80.58,81.02,81.48,81.92,82.32,82.63,82.55,82.06,81.27,80.72,80.27,79.67,78.73,77.54,76.26,74.83,73.27,71.73,70.18,69.02,68.06,67.06,66.28,65.45,64.54,63.53,62.58,61.65,60.76,59.78,58.52,57.04,55.40,53.76,52.39,52.54,53.02,53.05,52.67,52.65,52.09,51.34,50.46,49.44,48.14,46.69,45.20,43.69,41.98,40.39,39.36,39.02,39.39,40.67,42.31,43.47,43.52,42.51,41.73,41.44,41.73,42.67,43.81,45.22,45.82,44.43,43.28,42.19,41.63,41.79,42.54,43.16,42.98,42.37,42.24,44.39,46.83,49.37,51.74,52.49,52.74,52.61,52.34,52.49,53.69,54.84,55.94,57.17,58.87,63.26,68.87,74.86,81.36,87.29,92.79,98.18,104.02,108.72,110.55,109.59,106.27,102.99,99.73,96.15,92.24,88.41,83.54,78.28,72.77,67.14,62.92,60.96,61.09,62.98,65.78,68.76,71.61,73.51,72.93,69.17,66.91,66.85,69.16,71.37,73.50,73.57,71.24,67.97,64.88,60.15,54.51,49.31,48.28,47.28,46.94,47.58,48.83,50.31,50.76,49.94,48.06,44.95,42.03,39.72,38.27,36.83,34.91,32.02,28.10,23.78,18.37,13.27,9.83,9.60,9.45,9.29,9.14,8.98,8.81,8.66,8.50,8.35,8.19,8.10,8.10,8.16,8.24,8.32,8.39,8.56,8.86,9.31,9.71,10.30,11.06,11.85,12.70,13.59,14.47,15.33,16.29,16.86,17.17,17.32,17.46,17.62,17.71
170.61,172.95,175.67,179.27,183.92,188.42,192.15,194.60,197.08,199.60,202.13,204.62,205.66,206.08,206.15,206.08,205.78,205.29,204.66,203.85,202.74,201.09,198.48,195.38,192.25,189.22,185.84,182.43,179.20,176.34,173.90,171.33,168.40,164.88,161.23,157.95,155.14,152.75,150.28,148.26,146.89,145.94,144.83,143.72,142.38,140.66,138.41,134.97,131.95,128.69,125.01,121.18,118.80,116.12,113.32,111.06,109.37,107.52,104.70,100.32,94.15,89.74,86.47,84.06,82.28,81.64,81.51,81.68,81.96,82.35,82.73,83.12,83.47,83.71,83.41,82.78,81.89,80.74,80.01,79.49,78.99,78.31,77.14,75.79,74.30,72.76,71.36,70.13,69.10,68.15,67.15,66.23,65.25,64.29,63.36,62.47,61.55,60.67,59.74,58.62,57.38,56.03,54.75,53.86,54.53,55.34,55.72,55.77,56.21,55.34,54.07,52.66,51.32,49.79,48.11,46.32,44.41,42.34,40.56,39.66,39.90,41.46,42.96,44.74,45.78,45.37,44.22,43.19,42.66,42.80,43.73,44.69,45.89,46.39,45.19,44.14,43.10,42.41,42.34,43.11,43.92,44.13,43.88,43.65,45.75,48.57,52.05,55.80,56.58,56.48,55.89,55.13,54.84,56.00,57.07,58.03,59.09,60.72,65.00,70.32,75.79,81.80,88.26,94.10,99.44,104.89,107.12,106.70,104.21,100.38,97.15,94.89,92.74,90.34,87.59,84.13,80.04,75.38,70.27,66.86,65.11,64.79,65.80,68.52,71.79,75.02,77.31,77.10,74.53,72.85,72.63,74.04,75.17,75.01,73.24,69.90,65.60,61.93,57.99,53.76,49.39,48.12,46.85,46.16,46.37,47.33,47.77,47.90,47.55,46.19,43.43,40.84,38.72,37.18,35.65,33.90,31.60,28.44,23.78,18.19,13.14,9.84,9.65,9.49,9.34,9.18,9.03,8.87,8.72,8.57,8.42,8.30,8.29,8.34,8.42,8.49,8.57,8.65,8.76,8.97,9.40,9.82,10.47,11.29,12.13,12.98,13.86,14.76,15.71,16.83,17.62,18.15,18.47,18.73,18.89,19.00
167.33,170.07,173.33,177.61,182.40,187.10,191.11,193.24,195.30,196.73,197.88,199.36,200.30,200.58,200.62,200.62,200.16,199.62,199.17,198.76,198.24,197.12,195.25,192.76,189.85,187.15,184.07,180.67,177.17,174.33,171.87,169.43,166.76,163.57,160.28,157.05,154.30,152.14,149.53,147.51,146.23,145.40,144.25,143.01,141.61,139.68,136.92,133.47,130.56,127.65,124.62,121.88,119.36,115.84,111.79,108.24,106.27,103.94,100.98,97.01,90.77,87.73,86.10,85.14,84.28,83.35,83.04,83.18,83.50,83.89,84.27,84.66,84.97,84.74,83.72,82.62,81.46,80.10,79.23,78.60,78.05,77.43,76.54,75.26,73.79,72.32,71.13,70.26,69.32,68.33,67.29,66.20,65.08,64.07,63.22,62.37,61.49,60.64,59.74,58.63,57.58,56.53,55.70,55.37,56.43,57.45,58.20,58.77,59.54,58.35,56.56,54.64,52.94,51.12,49.21,47.11,44.80,42.42,40.74,40.30,41.40,44.31,45.81,47.29,47.88,47.04,45.86,44.68,43.92,43.85,44.78,45.64,46.61,46.99,45.98,44.98,43.97,43.20,42.91,43.69,44.52,45.10,45.31,45.06,46.86,49.97,54.36,59.46,60.35,59.97,58.95,57.79,57.28,58.57,59.84,60.99,62.17,63.62,67.35,72.06,77.04,82.59,89.59,95.82,101.08,105.97,105.10,102.04,97.86,93.53,90.13,88.82,88.13,87.27,85.60,83.51,80.63,77.03,72.96,70.84,69.49,68.69,68.60,70.88,74.11,77.49,80.10,80.44,79.23,78.24,77.79,78.00,77.95,75.52,72.30,68.68,63.84,59.59,55.66,52.16,49.31,47.91,46.51,45.51,45.22,46.14,46.23,46.12,45.75,44.61,42.26,40.13,38.25,36.54,34.78,33.02,31.21,28.83,23.98,18.18,13.08,9.85,9.70,9.55,9.39,9.24,9.08,8.93,8.77,8.63,8.51,8.45,8.52,8.60,8.67,8.75,8.83,8.90,8.97,9.11,9.46,9.92,10.63,11.51,12.44,13.29,14.14,15.06,16.10,17.25,18.24,19.00,19.54,19.92,20.11,20.23
164.17,167.77,172.35,177.22,182.10,186.49,189.99,191.92,193.03,193.54,193.74,193.99,194.59,194.84,195.10,195.50,195.49,195.68,195.64,195.33,194.91,193.84,192.25,190.19,187.74,185.10,182.26,178.56,174.31,171.57,169.04,166.35,163.66,161.20,158.11,154.76,151.67,148.98,145.58,144.32,143.65,143.19,142.98,142.17,140.81,138.75,135.90,132.66,129.95,127.54,125.31,123.21,121.07,117.95,114.22,110.67,108.06,104.60,101.27,98.33,93.08,89.78,87.94,87.05,86.14,85.16,84.71,84.73,85.10,85.49,85.83,86.06,85.82,83.87,82.76,81.98,81.19,80.04,79.07,78.17,77.31,76.50,75.80,74.64,73.42,72.31,71.37,70.51,69.39,68.15,66.97,65.83,64.77,63.81,62.96,62.11,61.45,60.79,60.08,59.27,58.42,57.53,56.90,56.83,57.79,58.79,59.69,60.40,60.73,59.63,57.81,55.66,53.57,51.45,49.47,47.41,45.20,42.92,41.89,42.64,44.93,48.14,49.21,49.70,49.47,48.44,47.16,45.84,44.94,44.75,45.67,46.58,47.42,47.63,46.62,45.62,44.61,43.80,43.42,44.25,45.05,45.83,46.41,46.45,47.50,50.65,55.33,60.58,62.61,62.70,61.78,60.57,60.26,61.97,64.17,66.32,67.97,68.93,71.02,74.21,78.56,84.51,91.95,98.57,103.44,105.81,102.23,97.61,92.80,88.42,85.02,83.90,83.43,82.94,82.30,80.85,78.56,75.89,73.49,72.96,72.43,71.99,71.85,73.04,74.68,76.71,78.87,80.69,81.39,81.05,80.13,79.04,77.41,74.86,71.96,68.73,64.48,60.25,55.82,51.76,48.86,47.41,45.96,44.77,44.07,44.50,44.50,44.48,44.35,43.75,41.71,39.78,37.99,36.29,34.63,32.93,31.17,28.84,24.09,18.44,13.26,9.85,9.70,9.55,9.39,9.24,9.08,8.93,8.77,8.68,8.66,8.70,8.77,8.85,8.93,9.01,9.08,9.12,9.19,9.33,9.48,10.01,10.81,11.77,12.70,13.55,14.40,15.36,16.47,17.57,18.68,19.67,20.43,20.76,21.03,21.21
161.63,165.89,171.09,176.37,181.16,185.03,187.77,189.33,189.72,189.62,189.28,188.93,189.27,189.44,189.75,190.35,190.77,191.50,191.78,191.57,191.16,190.05,189.00,187.65,185.64,183.11,180.01,175.94,171.19,167.31,164.80,162.57,160.42,158.25,155.39,151.63,147.79,144.42,141.65,140.78,140.36,140.17,140.60,140.05,138.82,136.88,134.28,131.35,128.91,126.76,124.77,122.76,120.99,118.59,115.72,112.86,110.06,106.49,103.03,99.77,93.06,90.16,88.72,87.83,86.90,86.18,86.01,86.26,86.74,87.12,87.41,86.98,85.55,83.01,81.72,81.04,80.55,79.77,78.83,77.87,76.91,76.00,75.27,74.25,73.23,72.31,71.46,70.61,69.42,68.03,66.65,65.46,64.71,64.15,63.64,63.00,62.47,61.85,61.10,60.22,59.41,58.62,58.17,58.32,59.19,60.12,61.02,61.67,61.52,60.33,58.43,56.15,53.85,51.55,49.53,47.57,45.58,43.52,43.47,44.97,47.48,50.11,51.03,51.11,50.51,49.42,48.19,46.86,45.90,45.63,46.53,47.40,48.10,48.20,47.22,46.25,45.27,44.42,43.94,44.79,45.60,46.47,47.26,47.65,48.15,51.07,55.62,60.70,63.23,64.69,64.96,64.41,64.27,66.06,68.50,70.93,72.76,73.53,74.80,77.33,81.51,87.40,94.87,101.21,104.84,103.99,98.88,93.63,88.77,84.52,80.09,77.88,76.91,76.66,76.73,76.24,74.87,73.12,71.66,71.41,71.20,71.18,71.46,72.20,73.30,74.79,76.56,78.32,79.03,78.28,76.93,75.83,75.10,73.66,71.40,68.34,64.62,60.81,56.09,51.48,48.53,46.97,45.41,44.02,43.02,43.07,43.04,43.06,43.02,42.64,40.97,39.31,37.68,36.04,34.45,32.80,31.02,28.62,23.94,18.69,13.49,9.85,9.70,9.55,9.39,9.24,9.08,8.93,8.77,8.68,8.69,8.79,8.93,9.05,9.14,9.22,9.30,9.34,9.41,9.54,9.64,10.15,10.96,11.96,12.91,13.79,14.69,15.70,16.85,17.90,18.99,20.06,20.99,21.57,21.92,22.18
159.44,164.25,169.62,175.17,179.75,182.97,184.83,185.87,185.70,185.21,184.62,184.10,184.25,184.29,184.54,185.17,186.01,187.09,187.62,187.52,187.09,185.94,185.58,185.09,183.52,181.16,177.53,173.09,168.02,162.27,159.82,158.43,157.12,154.96,152.28,147.94,143.18,139.14,137.81,137.05,136.61,136.59,137.38,136.98,135.93,134.28,132.10,129.54,127.42,125.39,123.30,121.08,119.66,118.13,116.43,114.69,112.02,108.95,105.51,101.11,91.61,89.51,88.81,87.89,86.99,86.74,87.11,87.79,88.43,88.86,89.01,87.60,84.59,82.15,80.64,79.94,79.68,79.37,78.54,77.64,76.71,75.78,74.86,73.99,73.15,72.30,71.45,70.60,69.41,67.94,66.35,65.16,64.87,64.92,64.94,64.63,64.18,63.48,62.54,61.38,60.52,59.79,59.50,59.85,60.62,61.45,62.26,62.72,62.07,60.66,58.66,56.32,53.93,51.53,49.49,47.67,45.96,44.20,45.28,47.25,49.35,50.89,51.84,51.88,51.22,50.13,49.04,47.78,46.82,46.51,47.36,48.14,48.72,48.72,47.80,46.87,45.95,45.05,44.45,45.30,46.15,47.04,47.93,48.71,48.91,51.45,55.56,60.22,62.84,66.14,68.24,68.81,68.84,70.55,72.78,75.06,76.91,77.72,78.77,81.16,85.40,90.94,98.11,103.65,105.51,101.18,95.27,89.99,85.45,81.37,75.35,71.34,69.44,69.31,69.80,70.38,70.09,69.19,68.20,67.45,67.27,67.74,68.72,69.42,70.61,72.06,73.46,74.24,73.83,72.05,70.33,70.03,71.65,72.04,70.63,67.61,64.39,61.20,56.31,51.20,48.21,46.53,44.83,43.26,42.03,41.80,41.76,41.80,41.75,41.37,40.11,38.75,37.31,35.77,34.23,32.63,30.79,28.24,23.61,18.93,13.76,9.85,9.70,9.55,9.39,9.24,9.08,8.93,8.77,8.66,8.64,8.79,9.02,9.20,9.32,9.40,9.48,9.56,9.65,9.75,9.93,10.35,11.13,12.12,13.12,14.05,15.02,16.08,17.22,18.22,19.23,20.27,21.33,22.34,22.78,23.13
156.76,161.80,167.75,173.00,177.29,179.99,181.09,181.30,181.00,180.54,180.08,179.75,179.80,179.82,179.91,180.15,180.63,181.25,181.69,181.92,182.08,181.89,182.01,181.87,180.95,179.33,175.94,171.93,167.35,160.71,157.76,155.84,154.19,152.27,148.36,143.80,139.79,137.05,135.33,134.04,132.95,132.07,131.58,130.96,130.15,128.82,126.73,124.07,122.19,120.53,118.85,117.13,115.81,114.41,113.12,112.33,110.30,107.45,103.80,99.05,91.08,89.21,88.64,88.06,87.60,87.88,88.45,89.39,90.78,92.15,91.11,88.30,84.41,80.93,79.78,79.33,79.10,78.73,78.04,77.26,76.37,75.40,74.47,73.65,72.88,72.11,71.26,70.36,69.18,67.82,66.45,66.15,66.46,66.77,66.79,66.48,65.86,64.97,63.88,62.72,61.77,61.28,61.19,61.44,62.11,62.88,63.59,63.78,62.44,60.93,58.98,56.71,54.31,51.86,50.03,48.40,46.78,45.37,46.37,48.19,50.13,51.47,52.61,52.71,52.01,50.82,49.59,48.41,47.55,47.27,48.07,48.84,49.33,49.27,48.44,47.51,46.59,45.67,45.03,45.88,46.73,47.59,48.47,49.34,51.75,54.56,57.42,60.09,62.66,65.91,68.91,71.13,71.90,74.08,76.40,78.73,81.09,82.74,84.80,87.20,90.19,95.23,100.45,103.64,103.65,99.33,92.90,87.67,82.99,78.05,71.97,68.38,66.27,65.14,64.54,64.39,63.77,62.88,62.14,61.83,62.46,63.67,65.10,65.95,66.50,67.35,68.46,69.44,69.04,67.39,65.93,66.01,67.68,68.70,68.12,65.93,63.25,59.68,54.56,49.48,46.68,45.24,43.62,42.15,41.15,41.02,40.95,40.83,40.60,40.22,39.05,37.79,36.47,35.08,33.69,32.20,30.34,27.69,23.21,18.94,13.87,9.85,9.70,9.55,9.39,9.24,9.08,8.93,8.77,8.66,8.64,8.79,8.97,9.13,9.28,9.41,9.54,9.67,9.89,10.28,10.96,11.35,12.00,12.85,13.70,14.57,15.43,16.34,17.35,18.35,19.35,20.37,21.40,22.40,23.21,23.90
154.34,159.34,165.08,170.51,174.48,176.70,177.31,177.05,176.72,176.32,175.96,175.78,175.75,175.75,175.74,175.74,175.96,176.30,176.67,177.09,177.63,177.99,178.46,178.68,178.31,177.26,174.68,171.43,167.28,160.20,156.82,154.30,151.99,149.50,144.80,140.58,137.32,135.16,133.16,131.12,129.23,127.58,126.33,125.58,124.74,123.47,121.54,119.29,117.63,116.13,114.61,113.14,111.96,110.84,109.97,109.69,108.18,105.52,101.26,95.45,90.31,88.95,88.55,88.32,88.33,89.55,91.20,93.20,95.44,96.11,93.41,89.06,84.23,80.21,79.17,78.77,78.48,78.10,77.48,76.77,75.96,75.05,74.12,73.34,72.62,71.90,71.10,70.18,69.04,67.85,66.88,67.20,67.85,68.39,68.57,68.22,67.40,66.35,65.19,64.00,63.18,62.94,62.99,63.12,63.66,64.35,64.75,64.45,62.73,61.10,59.19,57.02,54.70,52.32,50.63,49.19,47.80,46.77,47.64,49.16,50.82,52.08,53.31,53.59,52.99,51.70,50.31,49.17,48.41,48.24,49.13,50.09,50.35,49.90,48.90,47.99,47.09,46.23,45.65,46.43,47.27,48.13,49.28,51.21,55.27,58.58,61.23,63.44,65.37,67.45,70.27,73.37,74.79,77.02,79.34,81.82,84.58,86.97,89.48,91.71,93.85,97.86,101.60,103.39,102.46,98.09,91.23,85.54,80.39,75.06,69.69,66.40,63.97,61.97,60.52,59.81,58.91,57.98,57.37,57.36,58.27,59.93,61.96,62.89,62.71,62.87,63.66,64.88,64.57,63.07,61.88,62.33,64.10,65.36,65.24,63.61,61.24,57.36,52.56,48.09,45.48,43.77,42.27,41.03,40.16,39.98,39.87,39.75,39.55,39.19,38.09,36.85,35.54,34.23,32.94,31.56,29.62,26.79,22.75,18.77,13.84,9.85,9.70,9.55,9.39,9.24,9.08,8.93,8.77,8.65,8.61,8.76,8.91,9.07,9.23,9.41,9.51,9.57,9.87,10.55,11.57,12.21,12.90,13.65,14.43,15.25,16.04,16.85,17.71,18.64,19.62,20.60,21.58,22.59,23.57,24.46
152.20,156.86,161.55,167.67,171.29,173.07,173.46,173.16,172.91,172.58,172.29,172.20,172.13,172.11,172.07,172.01,172.03,172.29,172.65,173.10,173.79,174.25,174.95,175.52,175.59,174.94,173.78,171.64,167.87,160.83,157.06,153.90,150.59,146.62,141.62,138.33,135.83,133.48,131.33,128.29,125.42,123.13,121.67,120.87,119.72,118.24,116.55,115.23,113.80,112.23,110.58,109.11,108.11,107.42,106.98,106.75,105.64,103.13,97.82,90.18,89.28,88.74,88.54,88.69,89.19,91.79,95.46,99.41,102.59,100.79,95.93,89.90,84.04,80.02,78.85,78.27,77.84,77.46,76.84,76.17,75.46,74.73,73.80,73.06,72.36,71.66,70.96,70.05,68.97,68.05,67.67,68.33,69.02,69.74,70.28,69.83,68.78,67.63,66.45,65.22,64.79,64.80,64.91,64.89,65.29,65.87,65.74,64.70,62.92,61.16,59.28,57.26,55.09,52.91,51.31,50.04,49.01,48.44,49.11,50.17,51.41,52.71,53.95,54.53,54.16,52.77,51.23,50.06,49.40,49.44,50.58,51.92,51.81,50.64,49.15,48.30,47.44,46.72,46.33,46.96,47.78,48.67,50.40,54.40,59.53,63.58,67.14,70.55,71.20,70.90,72.35,75.52,77.49,79.32,81.57,84.28,87.34,90.38,92.69,94.56,96.31,98.68,101.46,102.91,101.99,97.52,90.32,83.63,77.65,72.43,68.60,65.48,62.58,59.87,57.83,56.75,55.63,54.59,53.99,54.13,54.75,56.54,59.34,60.27,59.26,58.65,59.07,60.59,60.43,59.11,58.19,59.01,60.93,62.04,61.95,60.62,58.30,54.20,50.31,47.06,44.65,42.09,40.77,39.91,39.04,38.68,38.49,38.53,38.60,38.29,37.25,35.92,34.52,33.21,31.97,30.72,28.62,25.52,22.22,18.41,13.66,9.85,9.70,9.55,9.39,9.24,9.08,8.93,8.77,8.62,8.54,8.70,8.85,9.01,9.19,9.40,9.41,9.25,9.56,10.52,11.74,12.93,13.83,14.55,15.32,16.10,16.87,17.62,18.33,19.12,20.02,20.95,21.90,22.91,23.84,24.81
150.27,154.89,158.83,163.88,167.33,169.09,169.40,169.09,168.81,168.22,167.62,167.45,167.60,167.81,168.08,168.36,168.31,168.53,168.90,169.42,170.07,170.80,171.67,172.43,172.81,172.55,171.81,170.17,167.17,161.81,157.87,154.40,150.79,146.38,140.90,137.30,134.60,132.02,129.09,125.50,122.45,120.18,118.49,117.58,116.08,114.30,112.69,111.68,110.46,109.02,107.44,106.02,105.03,104.38,104.01,103.87,103.33,100.01,94.92,89.55,88.92,88.80,88.98,89.92,92.86,99.78,103.97,106.04,107.04,103.63,98.38,91.97,85.27,80.30,78.96,78.19,77.48,76.82,76.20,75.53,74.85,74.19,73.45,72.78,72.11,71.42,70.77,69.99,69.08,68.47,68.61,69.35,70.36,71.42,72.13,71.35,70.09,68.72,67.49,66.66,66.62,66.74,66.81,66.73,67.07,67.09,66.26,64.63,62.72,60.93,59.06,57.15,55.32,53.93,52.71,51.62,50.72,50.31,50.60,51.25,52.20,53.47,54.66,55.47,55.44,54.37,53.42,52.47,52.06,52.44,53.73,53.71,52.68,51.08,49.47,48.66,47.86,47.23,46.98,47.59,48.33,49.19,51.36,57.02,62.55,66.72,70.02,72.88,74.50,75.38,76.74,78.63,79.78,81.38,83.63,86.00,87.77,89.23,90.66,91.92,93.16,95.67,99.21,101.98,102.48,98.68,91.26,84.26,78.23,73.44,69.73,66.49,63.35,60.34,57.99,56.20,54.30,52.52,51.24,51.22,51.57,52.69,54.54,55.73,55.49,55.40,55.77,56.41,56.39,55.69,55.47,56.73,58.44,59.48,59.14,57.41,55.23,51.74,48.57,45.88,43.52,41.03,39.42,38.31,37.46,36.85,36.65,36.73,36.90,36.91,36.27,35.08,33.64,32.24,30.91,29.27,27.17,24.55,21.35,17.92,13.68,10.18,9.76,9.56,9.39,9.24,9.08,8.93,8.77,8.62,8.54,8.69,8.85,8.94,8.98,8.98,8.85,8.81,9.43,10.74,11.93,13.16,14.21,15.14,16.10,16.92,17.70,18.44,19.15,19.92,20.67,21.51,22.44,23.40,24.38,25.31
148.34,152.83,156.30,160.19,163.33,165.05,165.32,164.98,164.65,163.99,163.29,163.03,163.30,163.62,164.04,164.53,164.55,164.81,165.24,165.80,166.41,167.31,168.27,169.12,169.71,169.92,169.54,168.39,166.23,162.43,158.49,154.85,151.12,146.69,140.95,137.00,133.95,131.04,127.43,123.45,120.35,118.19,116.35,115.34,113.56,111.52,109.84,108.85,107.60,106.14,104.56,103.17,102.14,101.47,101.11,101.04,100.73,96.83,92.26,89.23,88.62,88.83,89.45,91.43,97.27,106.14,110.15,110.72,110.01,105.87,100.53,93.91,86.56,80.82,79.20,78.26,77.42,76.65,76.02,75.35,74.69,74.05,73.40,72.78,72.12,71.43,70.78,70.12,69.44,69.28,70.15,70.94,72.14,73.29,73.88,72.75,71.32,69.86,68.71,68.35,68.60,68.81,68.86,68.71,68.76,68.10,66.69,64.73,62.78,60.92,59.09,57.39,55.98,55.17,54.21,53.26,52.46,52.15,52.14,52.42,53.08,54.26,55.41,56.37,56.73,56.25,55.84,56.00,55.88,55.65,56.49,55.29,53.54,51.64,49.92,49.06,48.30,47.76,47.56,48.15,48.81,49.88,52.68,59.45,65.42,69.43,72.26,74.69,77.08,78.90,80.27,81.25,81.91,83.26,85.02,86.45,86.74,86.75,87.32,88.14,89.29,92.08,96.33,100.32,102.36,100.03,93.28,86.37,80.24,75.50,71.83,68.38,64.93,61.52,58.63,56.29,53.90,51.63,49.81,49.30,49.14,49.51,50.46,51.58,51.93,52.24,52.54,52.54,52.59,52.54,53.03,54.57,56.12,57.15,56.64,54.62,52.53,49.73,47.18,44.88,42.60,40.19,38.15,36.68,35.78,35.00,34.81,34.89,35.13,35.47,35.36,34.35,32.87,31.38,29.92,27.96,25.84,23.56,20.58,17.39,13.62,10.49,9.80,9.57,9.39,9.24,9.08,8.91,8.75,8.61,8.53,8.65,8.78,8.86,8.85,8.78,8.64,8.72,9.54,11.05,12.18,13.34,14.41,15.45,16.53,17.52,18.40,19.21,19.98,20.73,21.37,22.12,22.99,23.92,24.92,25.81
146.39,150.51,153.99,156.84,159.41,160.94,161.28,160.84,160.46,160.10,159.74,159.38,159.56,159.74,160.00,160.35,160.67,161.14,161.66,162.22,162.84,163.69,164.60,165.42,166.05,166.85,166.91,166.37,165.08,162.31,158.67,155.05,151.43,147.58,141.99,137.84,134.37,130.93,126.92,122.79,119.72,117.69,115.90,114.80,112.89,110.65,108.67,107.28,105.56,103.74,102.00,100.61,99.46,98.72,98.37,98.29,97.54,93.65,89.98,88.68,88.32,88.78,89.93,93.31,102.61,108.52,111.30,111.73,110.69,107.28,102.13,95.37,87.72,81.68,79.60,78.54,77.87,77.35,76.67,76.03,75.37,74.68,73.93,73.29,72.63,71.92,71.17,70.60,70.23,70.77,72.78,73.61,74.72,75.47,75.42,73.95,72.42,71.11,70.32,70.45,70.81,71.12,71.21,70.94,70.25,68.76,67.02,65.21,63.41,61.38,59.66,58.34,57.46,56.74,55.81,54.90,54.18,53.87,53.78,53.77,54.06,55.10,56.19,57.21,58.02,58.52,58.51,61.34,61.56,58.96,58.22,56.48,54.50,52.49,50.62,49.51,48.80,48.31,48.06,48.55,49.15,50.91,54.70,61.62,68.21,71.67,73.83,76.35,78.74,80.48,81.77,82.79,83.79,84.87,85.19,84.67,83.39,82.57,82.45,83.23,85.04,88.08,92.67,97.41,100.98,101.45,96.99,90.81,84.36,78.89,75.32,71.59,67.64,63.57,59.68,57.16,54.88,52.72,50.68,49.20,48.04,47.66,48.12,48.45,48.80,49.07,49.21,49.21,49.22,49.80,50.92,52.46,54.01,55.12,54.66,52.63,50.55,48.45,46.37,44.27,42.09,39.63,37.05,35.06,33.99,33.21,33.02,33.07,33.35,33.98,34.60,33.81,32.27,30.73,29.07,26.99,24.77,22.51,20.07,16.81,13.39,10.68,9.80,9.57,9.39,9.24,9.07,8.85,8.69,8.57,8.50,8.53,8.61,8.73,8.88,9.05,9.15,9.29,10.07,11.48,12.51,13.48,14.36,15.25,16.34,17.72,18.86,19.87,20.80,21.51,22.14,22.78,23.50,24.43,25.43,26.29
144.16,147.99,151.45,154.23,156.68,158.21,158.74,158.75,158.44,158.11,157.74,157.25,157.28,157.27,157.39,157.73,158.04,158.35,158.68,159.07,159.61,160.30,161.05,161.83,162.66,163.75,164.14,163.97,163.13,161.12,158.26,155.10,151.74,148.18,143.43,139.45,135.84,132.29,128.43,124.60,121.37,118.97,117.54,116.51,114.83,112.65,110.25,108.51,106.90,105.29,103.62,101.69,99.79,98.23,97.00,96.00,94.45,91.69,89.31,88.34,88.22,88.96,91.09,95.44,103.62,108.63,111.12,111.98,112.03,108.71,103.66,97.04,89.53,83.47,80.44,79.04,78.51,78.01,77.35,76.67,75.94,75.18,74.48,73.91,73.49,73.18,72.88,72.53,73.24,74.79,76.74,77.27,77.55,77.39,76.69,75.38,73.87,72.98,72.82,73.25,73.79,74.14,74.11,73.55,72.42,70.56,68.61,66.77,64.99,62.97,61.50,60.36,59.17,58.32,57.42,56.52,55.77,55.58,55.49,55.35,55.36,55.94,56.89,57.89,59.15,60.94,64.04,66.64,66.64,63.95,60.27,57.80,55.61,53.58,51.66,50.11,49.30,48.92,48.80,49.11,49.91,52.11,56.59,64.51,69.95,72.90,74.85,77.09,79.29,80.60,81.47,82.16,82.97,83.50,83.34,82.35,80.51,78.92,78.26,78.89,81.03,84.89,89.90,95.09,99.48,101.57,99.46,95.05,89.34,83.38,79.09,75.04,71.01,66.82,62.26,59.06,56.57,54.46,52.37,50.48,48.87,47.70,47.01,46.31,46.39,46.64,46.84,46.84,47.03,47.86,49.22,50.90,52.37,53.42,53.02,51.13,48.89,46.71,44.99,43.38,41.33,38.81,36.11,33.83,32.33,31.45,31.23,31.36,31.79,32.60,33.45,33.09,31.95,30.54,28.76,26.66,24.45,22.24,19.96,16.66,13.24,10.60,9.75,9.56,9.39,9.22,9.03,8.83,8.64,8.53,8.53,8.64,8.76,8.93,9.12,9.31,9.50,9.73,10.43,11.61,12.54,13.40,14.20,15.05,16.09,17.56,18.87,19.99,20.93,21.67,22.53,23.37,24.18,24.95,25.90,26.72
141.81,145.36,148.82,151.82,154.29,155.86,156.59,157.11,156.96,156.62,156.15,155.55,155.43,155.22,155.22,155.53,155.71,155.78,155.88,156.10,156.56,157.10,157.68,158.39,159.31,160.49,161.06,161.07,160.49,159.10,157.17,154.67,151.74,148.54,144.92,141.29,137.72,134.23,130.50,127.09,123.77,120.97,119.87,118.90,117.50,115.49,112.87,110.85,109.41,108.05,106.40,103.96,101.29,98.79,96.48,94.26,91.94,90.30,89.02,88.01,88.17,89.17,92.13,97.00,102.87,107.41,110.13,111.90,113.45,110.12,105.22,98.94,91.84,85.68,81.82,79.97,79.33,78.66,78.01,77.28,76.48,75.67,75.13,74.75,74.66,74.84,75.06,75.15,76.95,79.36,80.98,81.20,80.56,79.35,77.90,76.86,75.48,75.07,75.51,76.15,76.95,77.34,77.13,76.22,74.77,72.69,70.59,68.67,66.89,65.09,63.95,62.92,61.32,60.25,59.21,58.20,57.35,57.24,57.13,56.91,56.73,56.86,57.65,58.68,60.58,63.90,69.39,70.79,70.25,67.91,62.17,59.08,56.70,54.66,52.71,50.77,49.86,49.60,49.70,50.04,51.04,53.43,58.12,66.41,70.75,73.30,75.03,76.76,78.62,79.52,80.02,80.40,80.87,80.90,80.49,79.43,77.47,75.38,74.30,74.78,77.16,81.72,87.15,92.83,97.95,101.21,101.07,98.60,94.03,87.90,82.92,78.44,74.31,70.23,65.44,61.54,58.64,56.39,54.30,52.20,50.31,48.51,46.78,45.28,44.87,44.78,44.76,44.76,45.10,46.06,47.53,49.33,50.73,51.70,51.40,49.67,47.16,44.81,43.38,42.23,40.34,37.83,35.16,32.74,30.89,29.95,29.70,29.89,30.44,31.30,32.23,32.32,31.66,30.41,28.57,26.51,24.39,22.26,20.06,16.74,13.18,10.41,9.70,9.55,9.38,9.19,8.98,8.82,8.60,8.50,8.55,8.79,8.95,9.15,9.35,9.51,9.74,10.04,10.66,11.62,12.44,13.22,13.99,14.83,15.84,17.29,18.70,19.88,20.77,21.52,22.59,23.67,24.64,25.35,26.34,27.15
139.31,142.57,146.09,149.39,151.92,153.52,154.34,155.10,155.28,155.03,154.50,153.95,153.63,153.33,153.20,153.26,153.19,153.15,153.15,153.28,153.75,154.28,154.84,155.34,155.78,156.71,156.96,156.77,156.21,155.16,154.23,152.68,150.61,148.36,146.16,143.19,140.00,136.79,132.62,129.67,126.64,123.82,122.62,121.51,120.21,118.56,116.44,114.37,112.85,111.25,109.30,107.01,104.06,100.89,97.57,94.08,91.35,89.73,88.56,87.54,88.10,89.25,92.10,96.26,100.07,103.64,107.56,111.43,114.49,111.45,106.93,101.43,95.25,88.50,84.65,82.22,80.63,79.37,78.57,77.79,77.01,76.28,76.08,76.21,76.59,77.14,77.66,78.78,80.97,83.37,84.94,85.11,83.90,81.68,79.15,78.30,77.38,77.32,77.97,78.70,79.99,80.43,79.99,78.75,77.06,74.92,72.75,70.71,68.93,68.00,67.30,66.37,64.76,63.39,61.69,60.12,58.99,58.73,58.47,58.22,58.05,58.08,58.67,60.05,63.28,68.62,71.30,70.95,69.20,66.62,63.25,60.09,57.60,55.52,53.47,51.48,50.60,50.49,50.98,52.15,53.11,55.03,58.49,64.06,69.18,71.69,72.74,73.51,74.73,75.57,76.22,76.69,76.87,76.78,76.04,74.82,73.45,71.71,70.43,70.89,73.60,77.82,83.56,90.15,96.42,100.41,100.83,99.85,96.83,91.49,86.71,81.38,76.75,72.99,69.23,65.08,61.37,58.37,56.28,54.14,52.08,50.19,48.53,47.23,45.82,44.17,42.78,42.78,42.98,43.99,45.52,47.23,48.62,49.63,49.50,47.91,44.92,42.78,41.53,40.50,38.81,36.50,34.03,31.76,30.03,29.39,29.06,29.16,29.60,30.17,31.08,31.49,31.20,30.10,28.30,26.41,24.49,22.55,20.55,17.30,13.31,10.11,9.70,9.55,9.35,9.15,8.97,8.76,8.58,8.50,8.55,8.79,8.95,9.15,9.35,9.51,9.74,10.04,10.61,11.47,12.20,12.97,13.74,14.58,15.58,16.99,18.34,19.46,20.25,20.90,21.87,22.98,24.16,25.32,26.66,27.63
136.94,140.02,143.35,146.79,149.63,151.54,152.61,153.49,153.82,153.58,152.99,152.39,151.91,151.41,151.02,150.80,150.58,150.40,150.30,150.37,150.73,151.33,151.80,152.15,152.37,152.48,152.00,151.34,150.77,150.59,150.17,148.75,146.77,145.03,144.01,142.55,140.77,138.56,134.66,131.91,129.19,126.68,125.41,123.97,122.61,121.15,119.41,117.58,115.64,113.65,111.61,109.44,105.93,102.12,97.99,93.34,90.06,88.78,88.03,87.07,87.99,89.02,91.19,94.20,96.71,99.79,104.35,109.46,113.85,113.43,109.77,104.83,99.48,93.53,88.96,85.64,83.20,81.08,79.42,78.31,77.66,77.39,77.51,77.87,78.60,79.73,81.25,82.91,85.10,87.29,88.82,88.97,87.46,84.77,81.62,80.08,79.76,80.22,81.10,81.97,83.27,83.54,82.89,81.49,79.52,77.41,75.57,74.10,72.94,72.17,71.37,70.28,68.65,66.83,64.81,62.92,61.43,60.79,60.47,60.16,59.94,60.00,61.01,63.35,67.12,71.66,71.36,69.23,66.48,63.79,61.85,59.55,57.58,55.81,53.96,52.21,51.40,51.45,52.25,53.72,54.88,56.52,59.10,63.19,67.40,69.11,69.36,69.25,69.81,70.43,71.00,71.39,71.40,71.20,70.14,68.67,67.52,66.64,66.89,68.90,72.76,77.21,83.06,89.33,95.29,99.99,100.50,99.82,97.45,93.09,88.74,83.65,79.07,75.30,71.80,67.56,63.49,60.08,57.80,55.67,53.64,51.82,50.28,49.14,47.54,45.35,43.01,41.46,41.23,42.05,43.55,45.28,46.61,47.77,47.87,46.41,42.92,39.99,38.17,36.97,35.57,33.84,32.12,30.57,29.36,28.82,28.44,28.52,28.98,29.44,30.13,30.53,30.40,29.54,27.96,26.31,24.62,22.87,21.01,17.93,13.60,9.93,9.66,9.50,9.29,9.09,8.93,8.74,8.55,8.48,8.55,8.75,8.93,9.13,9.32,9.51,9.71,9.99,10.53,11.29,11.99,12.75,13.53,14.35,15.29,16.71,17.89,18.84,19.57,20.22,21.11,22.22,23.55,25.09,26.68,27.90
134.67,137.65,140.71,144.17,147.39,149.75,151.15,152.07,152.45,152.20,151.53,150.77,150.08,149.32,148.65,148.17,147.90,147.58,147.39,147.37,147.59,148.23,148.58,148.75,148.80,147.78,146.41,145.25,144.76,145.72,145.55,143.88,141.61,140.10,139.89,140.15,140.21,139.41,136.30,133.78,131.40,129.23,127.69,125.83,124.33,122.99,121.59,120.21,117.79,115.44,113.49,111.46,107.39,102.95,98.11,92.47,88.63,87.73,87.46,86.54,87.71,88.44,89.63,91.33,93.09,96.00,100.91,106.76,112.24,115.43,113.13,108.82,104.19,99.57,94.03,89.68,86.38,83.31,80.48,78.89,78.39,78.73,79.22,79.79,80.88,82.69,85.40,87.32,89.30,91.18,92.65,92.74,91.07,88.19,84.72,82.14,82.47,83.49,84.62,85.62,86.67,86.66,85.81,84.33,82.14,80.16,78.87,78.26,77.94,76.98,75.82,74.45,72.81,70.50,68.36,66.28,64.34,63.23,62.88,62.53,62.26,62.47,64.14,67.61,71.29,73.50,70.36,66.60,63.07,60.36,59.25,58.16,57.00,55.68,54.16,52.79,52.11,52.32,53.41,54.88,56.35,57.82,59.77,63.02,65.51,66.02,65.39,64.50,64.41,64.74,65.11,65.32,65.25,64.94,63.62,61.95,60.88,61.15,63.73,68.03,73.36,78.33,84.22,89.58,94.49,99.71,99.94,98.89,96.66,93.32,89.55,85.34,81.17,77.22,73.47,69.20,65.01,61.42,58.94,56.88,55.02,53.39,52.01,50.98,49.59,47.44,44.45,40.72,39.83,40.28,41.63,43.42,44.67,46.03,46.43,45.15,41.23,36.87,34.12,32.66,31.63,30.69,29.93,29.31,28.77,28.23,27.83,27.95,28.46,28.92,29.31,29.55,29.45,28.84,27.53,26.17,24.72,23.15,21.39,18.40,13.82,9.83,9.59,9.44,9.23,9.03,8.88,8.72,8.50,8.44,8.54,8.70,8.92,9.10,9.29,9.51,9.66,9.93,10.41,11.10,11.80,12.56,13.33,14.13,14.97,16.41,17.38,18.12,18.81,19.50,20.33,21.44,22.90,24.75,26.53,28.03
132.66,135.82,139.10,142.36,145.42,147.97,149.79,150.61,151.02,150.70,149.72,148.27,146.79,145.63,145.00,144.96,145.03,144.65,144.33,144.20,144.21,144.57,144.46,143.87,142.79,140.74,138.97,138.37,139.24,141.43,141.36,139.84,137.61,135.55,133.86,133.63,134.27,135.10,134.36,133.59,131.71,128.57,124.51,122.23,120.72,119.72,119.02,118.63,116.91,115.28,114.16,112.67,109.23,104.39,98.73,93.04,89.50,87.79,86.65,85.44,85.87,85.85,86.20,87.32,89.66,93.26,98.61,104.53,109.74,114.07,115.67,114.00,109.37,104.01,98.85,93.73,89.00,85.29,81.92,79.89,79.18,79.69,81.42,83.34,85.58,87.95,89.93,91.79,93.59,95.20,96.45,95.91,93.93,90.91,87.49,85.40,85.88,87.10,88.44,89.39,90.10,89.78,88.71,87.19,85.49,84.36,83.61,83.09,82.62,81.51,80.23,78.81,77.22,75.06,73.00,70.54,67.81,66.41,65.96,65.76,65.87,66.67,68.46,71.04,72.75,72.17,68.55,64.80,61.54,59.07,57.62,56.50,55.46,54.34,53.01,51.89,51.57,52.11,53.41,54.82,56.33,57.88,59.70,62.22,63.67,62.98,61.39,60.08,59.84,59.94,60.09,60.16,60.14,59.56,58.61,57.67,57.20,58.75,62.77,68.18,74.10,79.37,85.59,90.71,94.76,98.80,97.61,95.75,93.29,90.21,87.47,84.80,81.59,77.53,72.39,67.94,63.76,60.44,58.69,56.82,55.70,54.76,53.63,52.31,50.95,49.11,46.42,42.39,40.08,39.38,39.99,41.52,42.97,44.41,45.38,45.05,41.28,34.60,31.18,30.34,29.85,29.54,29.11,28.61,28.07,27.53,27.29,27.45,27.89,28.35,28.74,29.01,28.85,28.02,26.76,25.52,24.22,22.80,21.24,16.92,12.64,9.76,9.53,9.38,9.20,9.01,8.81,8.66,8.44,8.43,8.61,8.76,8.94,9.13,9.33,9.51,9.66,9.85,10.26,10.92,11.67,12.39,13.14,13.92,14.72,15.86,16.71,17.39,18.04,18.74,19.56,20.88,22.63,24.43,26.26,27.97
131.35,134.71,138.06,141.09,143.75,146.24,148.32,148.96,149.03,148.32,146.95,145.17,143.37,142.23,141.83,142.05,142.26,141.95,141.48,141.01,140.68,140.78,140.20,138.93,137.02,133.98,132.18,132.30,134.37,137.57,138.13,136.82,134.40,131.85,128.65,127.28,127.50,128.91,130.48,131.74,130.74,127.23,121.90,119.14,117.36,116.09,115.02,115.00,114.20,113.58,113.31,112.64,110.34,106.09,100.53,94.79,90.17,87.59,85.86,84.29,83.90,83.24,82.99,83.76,86.49,90.73,96.41,102.36,107.45,112.34,116.91,117.82,114.05,107.56,102.51,97.13,91.69,87.05,83.72,81.38,80.51,81.37,83.84,86.50,89.24,91.82,93.67,95.60,97.38,98.90,99.97,99.12,96.84,93.68,90.39,88.88,89.50,90.75,92.04,92.86,93.43,93.06,92.16,91.09,89.94,89.23,88.68,88.08,87.18,85.78,84.37,82.92,81.33,79.32,77.49,75.25,72.60,70.77,69.62,69.23,69.54,70.39,72.09,73.60,73.51,70.93,67.30,63.65,60.60,58.32,56.67,55.31,54.08,52.92,51.77,50.95,51.00,51.84,53.28,54.72,56.23,57.78,59.45,61.40,61.91,60.55,58.48,56.78,56.21,55.83,55.57,55.43,55.43,54.94,54.40,54.13,54.54,57.63,62.63,68.58,74.73,80.22,86.11,90.93,94.59,97.68,95.17,92.56,89.95,87.28,84.99,83.08,79.77,74.91,70.20,66.02,62.17,59.13,57.50,55.70,54.86,54.30,53.57,52.59,51.64,50.28,48.03,44.12,40.84,38.99,38.62,39.65,41.35,42.85,44.12,44.47,41.64,34.83,30.70,29.18,28.80,28.64,28.32,27.88,27.36,26.82,26.73,26.94,27.34,27.78,28.16,28.45,28.24,27.22,25.98,24.81,23.59,22.28,20.86,15.18,11.32,9.71,9.50,9.32,9.16,8.97,8.75,8.59,8.40,8.41,8.61,8.79,8.95,9.13,9.32,9.48,9.63,9.78,10.12,10.70,11.47,12.20,12.94,13.70,14.50,15.45,16.26,16.97,17.65,18.40,19.21,20.55,22.38,24.18,26.05,27.90
130.68,134.24,137.53,140.32,142.34,144.54,146.74,147.14,146.51,145.12,143.31,141.53,139.83,139.11,139.08,139.43,139.59,139.47,138.83,137.83,137.00,136.89,135.82,133.94,131.47,127.49,125.96,126.96,130.11,134.10,135.80,134.74,131.90,128.90,124.18,121.10,119.97,121.01,124.85,128.38,128.59,125.28,119.80,116.52,114.23,112.14,109.71,109.48,109.85,110.46,111.07,111.49,110.80,108.02,103.39,97.60,90.67,87.15,85.08,83.10,81.82,80.60,79.98,80.61,83.53,88.39,94.30,100.25,105.34,110.29,116.96,120.40,118.27,110.30,105.11,99.95,94.41,88.59,85.83,83.30,82.32,83.70,86.47,89.30,91.97,94.41,96.71,98.80,100.74,102.30,103.23,102.38,99.80,96.50,93.44,92.56,93.31,94.41,95.43,96.06,96.67,96.48,96.11,95.94,95.38,94.71,94.06,93.24,91.64,89.82,88.27,86.80,85.17,83.31,81.84,80.36,78.58,76.21,73.80,72.92,73.25,73.65,75.11,75.36,73.64,69.76,66.57,63.09,60.19,58.06,56.36,54.54,52.85,51.44,50.44,49.96,50.39,51.50,53.04,54.58,56.06,57.53,59.02,60.59,60.22,58.67,56.56,54.50,53.44,52.33,51.50,51.08,51.08,50.99,50.90,51.29,52.79,57.66,63.25,69.22,75.27,80.90,85.86,90.32,94.02,96.37,92.64,89.33,86.66,84.53,82.14,80.29,75.91,69.62,66.99,63.51,60.26,57.52,55.46,53.60,52.65,52.19,51.97,51.93,51.70,50.98,49.30,45.88,42.06,39.06,37.50,37.82,39.81,41.34,42.66,43.44,42.29,37.34,32.45,29.09,28.41,27.96,27.56,27.14,26.66,26.12,26.15,26.43,26.82,27.20,27.59,27.88,27.61,26.45,25.22,24.04,22.84,21.59,20.27,13.21,9.87,9.66,9.50,9.27,9.09,8.91,8.68,8.53,8.37,8.38,8.56,8.79,8.95,9.10,9.26,9.41,9.57,9.72,9.99,10.44,11.22,11.99,12.72,13.46,14.30,15.16,16.01,16.82,17.60,18.44,19.23,20.45,22.13,23.98,25.91,27.84
130.17,133.85,137.26,140.09,141.99,143.65,144.96,144.68,143.79,142.15,140.23,138.69,137.18,136.67,136.92,137.65,138.19,137.99,137.27,136.18,134.90,133.91,132.45,130.03,126.36,122.72,122.03,123.96,127.86,131.92,134.27,133.65,130.83,127.25,122.65,119.43,117.64,117.40,119.59,123.38,125.32,124.22,119.49,115.25,112.05,109.52,107.32,106.61,106.92,107.66,108.47,108.93,108.60,106.66,103.06,98.02,90.29,86.49,84.39,82.40,80.76,79.80,79.47,80.11,82.53,87.69,93.39,98.90,103.69,107.97,114.14,118.04,117.39,110.73,105.71,100.83,95.68,90.00,87.18,84.70,84.05,85.97,88.47,91.26,94.01,96.63,99.09,101.46,103.48,105.09,106.23,105.09,102.54,99.55,97.01,96.68,97.18,97.98,98.84,99.55,100.96,101.69,102.01,102.15,101.60,100.94,100.04,98.83,97.16,95.41,93.43,91.24,88.87,86.73,85.21,83.82,82.30,80.57,78.69,77.55,77.10,76.87,76.12,74.59,72.13,68.79,65.67,62.43,59.73,57.65,55.81,53.95,52.13,50.59,49.66,49.38,49.77,50.79,52.29,53.84,55.32,56.76,57.99,58.68,58.34,57.04,55.11,52.94,51.20,50.07,49.29,48.82,48.82,48.79,48.91,49.65,51.64,57.86,63.76,69.60,75.48,81.22,86.27,90.55,93.71,95.18,91.92,88.29,84.72,81.37,77.60,74.12,70.43,66.67,63.88,60.57,57.65,55.23,53.29,51.43,50.27,49.79,49.91,50.15,50.43,50.13,48.81,45.93,42.57,39.71,37.59,36.44,37.41,39.41,41.23,42.30,42.21,39.43,34.16,29.26,28.52,27.91,27.46,26.87,26.02,25.48,25.59,25.92,26.30,26.69,27.08,27.24,26.85,25.69,24.50,23.30,22.10,20.62,17.79,12.29,9.78,9.59,9.44,9.25,9.09,8.90,8.68,8.53,8.37,8.36,8.48,8.67,8.87,9.04,9.19,9.35,9.50,9.66,9.88,10.25,11.02,11.79,12.55,13.34,14.23,15.08,15.93,16.77,17.59,18.44,19.23,20.47,22.19,24.09,26.02,27.96
129.57,133.15,136.50,139.26,141.23,142.53,143.07,142.26,141.03,139.23,137.26,135.68,134.52,134.27,134.75,135.77,136.69,136.46,135.74,134.65,133.10,131.39,129.33,126.37,122.21,119.00,119.08,121.54,125.62,130.01,132.71,132.51,129.90,125.96,121.92,118.78,116.32,114.62,115.00,118.42,121.53,122.45,119.02,114.20,110.24,107.22,105.03,103.87,104.10,104.96,105.94,106.35,106.09,104.73,101.62,95.96,89.26,85.67,83.50,81.51,79.87,79.13,79.10,79.90,81.97,86.92,92.29,97.52,102.22,106.07,111.47,115.41,115.93,110.93,106.10,101.36,96.51,91.28,88.36,86.08,85.75,87.95,90.25,92.87,95.67,98.53,101.35,104.03,106.17,107.84,109.08,108.04,105.94,103.54,101.52,101.09,101.30,101.93,102.86,103.97,105.90,107.11,107.76,107.98,107.48,106.84,105.82,104.40,102.74,100.90,98.55,95.81,92.89,90.40,88.68,87.21,85.73,84.28,82.63,81.07,79.72,78.70,76.41,73.77,70.88,67.86,64.73,61.70,59.18,57.17,55.24,53.38,51.51,49.95,49.07,48.78,49.15,50.10,51.50,53.05,54.48,55.66,56.43,56.54,56.34,55.33,53.64,51.45,49.36,48.14,47.37,46.90,46.81,46.97,47.49,48.67,50.96,57.99,64.12,69.90,75.65,81.36,86.56,90.61,93.24,94.19,91.55,88.01,83.82,79.17,74.36,69.80,66.32,63.80,60.84,57.68,54.92,52.67,50.89,49.17,47.80,47.16,47.35,47.73,48.44,48.55,47.77,45.93,42.94,40.23,37.77,35.58,35.37,37.47,39.63,41.01,41.72,40.58,35.50,29.89,28.77,28.09,27.49,26.62,25.45,24.87,25.05,25.40,25.77,26.15,26.54,26.65,26.22,25.08,23.94,22.75,21.58,19.94,15.98,11.57,9.64,9.46,9.32,9.21,9.08,8.90,8.68,8.53,8.37,8.34,8.44,8.59,8.80,8.97,9.13,9.28,9.46,9.62,9.80,10.10,10.84,11.62,12.41,13.24,14.14,15.01,15.87,16.73,17.59,18.44,19.25,20.50,22.24,24.19,26.14,28.08
128.83,131.98,134.95,137.46,139.76,141.03,141.03,139.92,138.22,136.38,134.43,132.37,131.80,131.89,132.54,133.64,134.97,134.80,134.16,133.18,131.63,129.50,126.51,123.02,119.49,116.78,117.50,119.85,123.27,128.39,131.05,131.19,129.07,125.13,122.23,119.42,116.25,112.81,111.41,113.62,117.01,119.56,118.20,113.40,108.97,105.34,102.70,101.15,101.36,102.40,103.55,103.81,103.27,102.17,98.69,90.21,87.30,84.63,82.26,80.30,79.20,78.56,78.78,79.95,81.97,85.95,90.82,96.02,101.01,104.80,109.22,112.67,113.91,110.93,106.31,101.46,96.75,92.36,89.35,87.45,87.42,89.48,91.72,94.02,96.75,99.96,103.47,106.47,108.82,110.55,111.73,111.38,110.38,108.99,107.41,105.90,105.79,106.48,107.82,109.76,111.76,112.75,113.11,113.17,112.76,112.18,111.24,109.92,108.35,106.16,103.51,100.53,97.41,94.47,92.38,90.62,88.87,87.08,85.08,82.82,80.47,78.40,75.71,73.04,70.17,66.96,63.73,60.83,58.49,56.60,54.67,52.80,51.03,49.59,48.74,48.10,48.53,49.48,50.67,52.22,53.52,54.09,54.10,54.12,54.15,53.49,52.08,49.99,48.10,46.66,45.78,45.38,45.04,45.63,46.85,48.62,50.96,57.99,64.27,70.11,75.75,81.27,86.60,90.36,92.49,93.48,91.61,88.76,84.46,78.50,73.25,68.55,64.44,60.91,57.91,54.87,52.06,49.73,48.15,46.78,45.22,44.18,44.02,44.41,45.45,45.99,45.98,45.98,43.16,40.52,38.00,35.49,33.94,35.55,37.75,39.49,40.65,40.30,36.27,31.21,29.22,28.59,27.64,26.39,24.99,24.31,24.51,24.86,25.19,25.58,25.97,26.14,25.79,24.70,23.61,22.51,21.42,19.73,15.33,11.09,9.31,9.22,9.13,9.12,9.05,8.90,8.68,8.53,8.37,8.34,8.44,8.59,8.75,8.91,9.07,9.22,9.45,9.62,9.78,10.02,10.66,11.47,12.31,13.16,14.02,14.94,15.81,16.68,17.59,18.44,19.29,20.54,22.25,24.25,26.25,28.21
127.11,129.77,132.12,134.22,135.98,136.92,136.86,135.91,134.33,132.63,130.82,128.84,128.49,129.26,130.60,132.11,133.46,133.50,132.81,131.47,129.40,126.35,122.93,119.45,116.31,115.03,116.33,118.60,121.52,126.41,129.63,130.10,128.29,125.25,122.55,119.44,115.69,111.49,108.94,110.18,112.99,116.06,117.79,113.16,108.67,104.63,100.99,98.63,98.61,99.61,100.78,101.14,100.28,98.30,94.05,85.94,83.53,81.91,80.60,79.29,78.24,78.25,78.97,80.40,82.69,85.99,90.04,94.69,99.69,103.64,107.91,111.42,113.23,111.51,108.50,104.03,98.89,94.39,90.96,89.04,89.01,90.90,93.14,95.38,97.95,101.09,105.13,108.48,111.02,112.83,114.05,114.15,113.45,112.61,111.82,110.53,110.53,111.51,113.21,115.26,116.95,117.68,117.81,117.63,117.00,116.22,115.20,113.96,112.54,110.14,107.30,104.23,101.14,98.01,95.58,93.51,91.54,89.40,86.95,84.09,81.04,78.31,75.53,72.75,69.78,66.53,63.20,60.38,58.14,56.39,54.70,53.16,51.25,49.46,48.41,47.59,47.97,48.90,50.00,51.17,51.81,51.92,51.73,51.69,51.77,51.47,50.49,48.69,46.88,45.20,44.13,43.72,43.70,44.95,46.53,48.31,50.38,57.12,63.37,69.34,75.17,80.94,86.20,89.82,91.82,92.78,91.47,88.78,84.31,77.97,72.07,67.19,62.89,59.09,56.03,52.98,50.26,48.03,46.40,44.76,43.08,41.73,41.03,41.50,42.58,43.36,43.86,44.49,42.89,40.73,38.19,35.43,33.09,33.84,35.59,37.41,39.10,39.30,36.81,32.92,29.71,28.81,27.58,26.14,24.68,23.78,23.95,24.31,24.66,25.01,25.39,25.63,25.34,24.26,23.18,22.16,21.20,19.89,16.80,11.38,9.01,8.98,8.94,8.90,8.86,8.80,8.68,8.53,8.37,8.32,8.38,8.54,8.69,8.87,9.05,9.21,9.40,9.56,9.72,9.95,10.52,11.34,12.21,13.09,13.94,14.83,15.72,16.61,17.49,18.34,19.22,20.54,22.30,24.27,26.27,28.23
124.88,127.04,128.85,130.66,131.80,132.33,132.21,131.30,130.03,128.66,127.10,125.24,125.15,126.59,128.64,130.63,132.06,132.35,131.60,129.78,126.86,122.95,119.17,115.79,113.13,113.40,115.19,117.43,120.07,124.50,128.34,128.79,126.80,124.37,122.05,118.82,114.71,110.07,106.78,107.35,109.50,112.66,116.94,113.06,108.79,104.47,100.01,96.86,95.98,96.43,97.49,98.06,97.04,94.17,89.29,82.38,80.05,79.27,78.92,78.26,77.46,78.18,79.48,81.25,83.85,86.64,89.98,93.96,98.58,102.66,106.91,110.54,112.83,112.23,110.63,106.70,101.39,96.65,92.86,90.96,90.94,92.55,94.67,96.81,99.36,102.61,106.99,110.40,113.00,114.92,116.32,116.75,116.30,115.90,115.80,115.14,115.47,116.76,118.65,120.52,121.77,122.26,122.24,121.91,121.11,120.12,118.99,117.75,116.33,113.81,110.79,107.53,104.32,101.11,98.39,96.01,93.79,91.35,88.52,85.14,81.49,78.18,75.39,72.51,69.47,66.23,62.91,60.17,58.06,56.47,55.06,53.66,51.54,49.40,48.17,47.18,47.43,48.28,49.27,49.99,50.02,49.82,49.57,49.40,49.47,49.42,48.76,47.20,45.46,43.69,42.49,42.08,42.55,44.35,46.16,47.88,49.71,55.97,62.18,68.38,74.59,80.69,85.39,88.73,90.83,91.92,91.16,88.50,83.82,77.28,70.88,65.87,61.54,57.72,54.66,51.59,48.96,46.78,44.95,43.01,41.21,39.58,38.36,38.85,39.87,40.86,41.77,42.72,42.35,40.73,38.25,35.35,32.48,32.26,33.42,35.27,37.36,37.99,36.90,34.22,30.29,29.04,27.58,26.01,24.47,23.27,23.38,23.76,24.12,24.43,24.82,25.11,24.88,23.82,22.80,21.87,21.05,20.13,18.43,11.90,8.95,8.93,8.90,8.81,8.77,8.73,8.68,8.53,8.37,8.29,8.32,8.49,8.65,8.84,9.04,9.19,9.35,9.50,9.66,9.89,10.39,11.21,12.10,13.00,13.85,14.69,15.59,16.48,17.35,18.21,19.13,20.50,22.29,24.25,26.27,28.23
121.81,123.46,125.09,127.05,127.84,127.94,127.45,126.05,125.26,124.60,123.56,121.61,122.06,123.93,126.44,128.96,130.84,131.41,130.63,128.28,123.93,119.57,115.37,112.01,110.22,111.82,113.92,116.30,119.09,123.02,127.24,126.79,123.26,120.09,119.26,116.74,112.79,108.04,104.91,105.46,107.19,109.88,114.55,113.02,109.52,105.14,100.75,97.05,93.70,92.28,92.96,93.93,93.21,90.08,85.23,79.95,78.51,77.81,77.40,77.04,77.33,78.65,80.60,83.02,85.82,88.44,91.51,94.81,98.06,102.10,106.26,109.86,112.40,113.03,111.46,108.21,103.79,98.95,95.15,93.71,93.83,94.86,96.54,98.32,101.29,105.40,109.68,112.30,114.63,116.75,118.63,119.20,119.35,119.35,119.42,119.80,120.82,122.29,123.94,125.32,125.98,126.29,126.31,126.08,125.48,124.40,123.14,121.69,119.88,117.37,114.12,110.34,106.37,103.31,100.41,97.71,95.17,92.52,89.59,85.85,81.66,77.81,75.00,72.16,69.17,66.00,62.97,60.42,58.50,57.15,55.93,54.02,51.60,49.40,48.16,46.92,46.89,47.51,48.30,48.53,48.45,48.28,48.01,47.50,47.56,47.40,46.65,45.10,43.51,42.01,40.93,40.61,41.73,43.58,45.45,47.27,49.18,54.55,60.77,67.49,74.37,80.77,83.64,86.25,88.88,90.62,90.50,87.83,82.84,76.07,69.72,64.72,60.56,57.04,54.07,51.11,48.46,46.05,43.74,41.74,39.83,37.97,36.42,36.71,37.57,38.74,40.00,41.06,41.35,40.19,37.97,35.15,32.23,30.89,31.35,33.29,35.38,36.28,35.90,34.15,31.05,29.46,27.90,26.25,24.47,22.83,22.82,23.18,23.55,23.86,24.24,24.57,24.39,23.39,22.62,21.82,21.09,20.36,19.26,12.62,9.53,9.41,9.28,9.14,9.02,8.86,8.68,8.53,8.37,8.27,8.27,8.49,8.65,8.81,8.97,9.13,9.28,9.44,9.62,9.86,10.22,11.06,11.94,12.80,13.65,14.50,15.36,16.25,17.16,18.07,19.05,20.38,22.13,24.18,26.25,28.23
119.30,120.37,121.86,123.90,124.54,124.28,123.36,121.91,121.25,120.68,119.70,117.80,119.04,121.61,124.57,127.28,129.50,130.22,128.97,125.78,120.99,116.73,112.73,109.58,107.97,110.25,112.72,115.33,118.23,121.84,126.09,125.76,122.20,118.57,116.64,114.08,110.36,105.61,102.59,102.69,104.35,107.36,112.22,113.03,110.48,106.15,101.62,96.66,92.04,89.46,89.26,90.00,89.34,86.31,82.11,78.76,77.50,76.67,76.35,76.58,77.61,79.28,81.60,84.41,87.30,90.84,94.38,97.49,99.85,102.77,106.25,109.52,112.08,113.25,111.68,108.90,105.15,100.49,97.28,96.45,97.08,98.40,100.22,102.39,105.34,108.92,112.38,114.70,117.08,119.63,122.33,123.29,123.91,124.43,125.04,125.90,127.10,128.39,129.64,130.74,130.95,130.90,130.74,130.55,129.97,128.89,127.31,125.30,123.03,120.47,117.11,113.01,108.40,105.22,102.02,98.96,96.10,93.26,90.12,85.93,81.26,77.38,74.44,71.56,68.65,65.69,63.06,60.93,59.26,57.94,56.57,54.23,51.62,49.40,48.16,46.78,46.33,46.53,47.03,47.07,46.97,46.78,46.42,45.81,45.70,45.39,44.54,43.01,41.64,40.66,40.01,39.87,40.80,42.61,44.48,46.38,48.42,52.73,58.59,65.22,71.94,77.70,79.78,81.55,83.65,85.85,87.56,85.99,81.53,74.95,68.58,63.57,59.58,56.36,53.53,50.79,48.15,45.57,42.96,40.71,38.62,36.59,34.77,34.42,35.28,36.51,37.81,39.03,39.92,39.28,37.40,34.75,32.02,30.07,30.07,31.95,33.90,34.68,34.66,33.73,31.73,30.03,28.00,25.79,23.63,22.24,22.28,22.63,22.98,23.33,23.68,24.00,23.96,23.30,22.57,21.83,21.15,20.35,18.74,12.51,9.64,9.53,9.44,9.26,9.09,8.92,8.73,8.57,8.42,8.27,8.20,8.40,8.56,8.73,8.91,9.06,9.22,9.37,9.56,9.80,10.04,10.85,11.72,12.57,13.42,14.30,15.19,16.10,17.06,17.99,18.98,20.28,21.99,24.07,26.16,28.19
117.09,117.49,118.78,120.77,121.37,120.91,119.72,118.41,117.69,116.90,115.74,113.97,116.13,119.52,122.92,125.64,128.10,128.84,127.00,123.01,118.24,114.23,110.62,107.71,106.03,108.58,111.44,114.36,117.33,120.79,124.92,125.16,122.23,118.30,114.24,111.24,107.70,103.03,100.16,99.73,101.40,104.94,109.96,112.86,111.38,107.26,102.44,96.12,90.84,87.45,86.14,86.27,85.53,82.87,79.63,78.10,76.70,75.75,75.64,76.56,78.09,80.00,82.56,85.63,88.61,93.45,97.69,100.88,102.77,104.31,106.82,109.59,112.08,113.43,111.80,109.32,106.18,102.14,99.91,99.81,101.02,102.84,104.91,107.53,110.18,112.69,115.10,117.50,120.18,123.27,126.71,128.12,129.15,130.21,131.45,132.60,133.79,134.80,135.69,136.60,136.48,136.09,135.66,135.33,134.63,133.51,131.53,128.80,125.94,123.25,119.86,115.58,110.46,106.93,103.34,99.91,96.71,93.65,90.24,85.62,80.61,76.95,73.86,70.92,68.12,65.47,63.28,61.61,60.18,58.77,57.05,54.36,51.62,49.39,48.14,46.68,45.81,45.50,45.61,45.61,45.54,45.29,44.83,44.21,43.87,43.37,42.47,41.06,39.96,39.55,39.41,39.46,39.92,41.57,43.41,45.38,47.57,50.81,56.12,62.33,68.45,73.15,74.96,75.97,77.23,79.82,83.52,83.47,79.98,73.89,67.51,62.48,58.65,55.74,53.06,50.57,47.95,45.22,42.45,39.87,37.54,35.31,33.27,32.16,33.05,34.29,35.54,36.95,38.34,38.25,36.81,34.34,31.89,29.61,29.22,30.86,32.62,33.14,33.29,33.03,32.16,30.47,27.87,24.98,22.42,21.57,21.75,22.09,22.42,22.80,23.12,23.43,23.55,23.30,22.54,21.83,21.17,20.18,17.48,11.99,9.54,9.47,9.47,9.25,9.08,8.94,8.79,8.63,8.47,8.28,8.14,8.28,8.44,8.64,8.84,8.99,9.15,9.31,9.50,9.72,9.87,10.62,11.47,12.32,13.18,14.11,15.04,16.00,16.99,17.92,18.91,20.19,21.86,23.94,26.02,28.11
115.09,114.53,115.21,116.40,117.18,117.48,117.17,115.91,114.98,113.62,112.00,110.54,113.83,118.03,121.75,124.29,126.71,126.94,125.01,121.32,116.70,112.51,108.67,105.69,104.21,106.16,109.46,112.78,115.88,119.78,123.79,124.53,122.31,118.42,112.83,108.93,105.10,100.66,98.23,97.91,99.24,102.40,108.01,111.46,111.25,107.99,102.57,96.30,90.95,86.98,84.50,83.30,82.31,80.68,78.75,77.26,75.87,75.37,75.84,77.19,78.62,80.87,83.65,86.79,90.12,95.67,100.12,103.62,106.54,107.97,109.38,111.43,113.95,115.00,112.94,110.31,107.99,106.72,106.47,107.20,108.42,109.73,111.11,112.48,114.13,116.04,118.01,121.48,125.28,128.84,131.64,133.19,134.55,135.90,137.34,138.98,140.54,141.79,142.75,143.56,143.59,143.38,142.66,141.34,140.05,138.37,135.85,132.44,128.39,125.29,121.96,117.86,112.66,108.14,103.97,100.11,96.52,93.06,89.22,84.61,79.94,76.62,73.63,70.70,68.09,66.02,64.28,62.70,61.21,59.57,57.11,54.36,51.62,49.36,48.01,46.66,45.52,44.68,44.20,44.15,44.07,43.79,43.29,42.61,42.08,41.35,40.60,39.95,39.35,39.04,38.99,39.20,39.67,40.73,42.44,44.57,46.79,49.39,53.99,59.34,64.44,67.86,69.76,71.01,72.46,75.40,78.83,79.73,77.76,73.01,66.88,61.79,58.05,55.46,52.98,50.50,47.86,45.11,42.38,39.61,36.75,34.08,31.84,30.53,31.14,32.43,33.98,35.54,36.88,37.56,36.87,34.41,32.16,29.97,28.99,29.56,31.16,31.58,31.69,31.58,31.20,29.56,26.87,23.81,21.15,20.89,21.17,21.52,21.84,22.23,22.60,22.89,23.03,22.92,22.26,21.58,20.92,19.61,15.19,11.16,9.42,9.27,9.21,9.09,9.03,8.96,8.85,8.64,8.47,8.31,8.18,8.23,8.37,8.54,8.71,8.87,9.08,9.25,9.44,9.65,9.81,10.43,11.24,12.15,13.05,14.03,14.98,15.94,16.93,17.86,18.85,20.11,21.73,23.82,25.85,27.91
113.26,111.91,111.68,112.20,113.02,113.79,114.15,113.31,112.14,110.34,108.59,107.92,111.57,116.33,120.53,123.32,125.77,125.60,123.61,120.11,115.39,110.85,106.64,103.48,102.07,103.77,107.35,111.12,114.64,118.79,122.83,123.94,121.93,117.28,110.83,106.43,102.61,98.64,96.26,96.22,97.74,100.93,106.49,110.27,110.93,108.21,102.27,96.10,90.83,86.54,83.23,80.98,80.00,78.91,77.58,76.14,75.00,75.17,76.23,77.80,79.36,82.21,85.40,88.79,92.63,97.84,102.03,105.54,108.89,110.93,112.55,114.53,116.71,117.19,115.23,113.04,111.57,111.63,112.32,113.33,114.42,115.42,116.48,117.35,118.69,120.63,122.99,126.88,130.77,134.15,136.65,138.63,140.56,142.40,144.15,145.89,147.35,148.58,149.57,150.31,150.57,150.69,150.28,149.01,146.80,143.85,140.26,135.99,130.84,126.95,123.29,119.14,113.89,108.70,104.08,99.80,95.74,92.03,88.06,83.65,79.40,76.40,73.68,70.95,68.60,66.88,65.39,63.97,62.40,60.49,57.82,54.84,51.87,49.44,48.11,46.85,45.81,44.90,44.12,43.71,43.25,42.67,42.02,41.38,40.81,40.14,39.56,39.21,38.83,38.61,38.66,38.97,39.38,40.06,41.63,43.84,46.27,48.62,52.55,56.92,60.90,63.59,65.44,66.74,68.15,70.82,73.93,75.51,74.87,71.55,65.61,60.93,57.53,55.12,52.72,50.23,47.58,44.86,42.21,39.38,36.29,33.27,30.70,29.47,29.92,31.04,32.51,34.13,35.40,36.47,36.43,34.63,32.55,30.48,28.76,27.92,29.16,29.62,29.79,29.71,29.37,27.72,25.09,22.37,20.35,20.35,20.64,20.99,21.33,21.69,22.02,22.29,22.47,22.51,21.92,21.27,20.57,18.96,13.31,10.45,9.26,9.03,8.96,8.88,8.86,8.82,8.73,8.56,8.45,8.33,8.22,8.13,8.30,8.46,8.62,8.78,9.01,9.18,9.37,9.59,9.71,10.22,11.01,11.98,12.96,13.96,14.91,15.87,16.87,17.79,18.78,20.00,21.57,23.65,25.69,27.76
111.56,109.56,108.19,108.12,108.88,109.92,110.77,110.61,109.21,107.07,105.44,105.94,109.34,114.45,119.27,122.63,125.17,124.70,122.66,119.27,114.25,109.23,104.56,101.11,99.71,101.41,105.14,109.39,113.58,117.82,122.00,123.38,121.20,115.17,108.37,103.77,100.19,96.88,94.25,94.63,96.74,100.29,105.31,109.24,110.45,108.03,101.64,95.62,90.54,86.11,82.26,79.17,78.39,77.47,76.19,74.80,74.11,75.09,76.76,78.41,80.27,83.89,87.67,91.43,95.91,99.96,103.53,106.85,110.16,113.33,116.21,118.59,120.15,119.84,118.38,117.12,116.49,116.80,117.64,118.49,119.34,120.21,121.21,122.16,123.72,126.16,129.56,133.39,136.57,139.24,141.72,144.35,147.03,149.53,151.65,153.20,154.21,155.22,156.20,156.89,157.44,158.03,158.37,157.96,154.57,149.80,144.74,139.47,133.29,128.32,124.03,119.66,114.39,108.75,103.80,99.09,94.50,90.64,86.78,82.74,78.97,76.27,73.94,71.57,69.50,67.97,66.58,65.38,63.71,61.48,59.01,55.69,52.29,49.60,48.37,47.21,46.56,45.93,45.05,44.05,42.91,41.84,40.96,40.42,39.95,39.54,39.15,38.77,38.38,38.24,38.39,38.76,39.07,39.52,40.93,43.18,45.95,48.35,51.64,54.94,57.73,60.13,61.80,63.01,64.19,66.12,68.87,70.93,71.45,69.65,63.85,59.94,57.07,54.73,52.34,49.81,47.16,44.51,41.95,39.17,36.06,32.78,29.78,28.85,29.22,30.00,31.10,32.73,33.90,35.06,35.60,34.96,33.03,31.10,28.54,26.03,26.72,27.35,27.64,27.51,26.88,25.18,22.71,20.71,19.90,19.90,20.16,20.51,20.87,21.18,21.42,21.65,21.88,22.07,21.52,20.92,20.16,18.23,11.74,9.84,9.07,8.78,8.70,8.62,8.60,8.57,8.49,8.41,8.40,8.36,8.25,8.01,8.22,8.40,8.55,8.71,8.94,9.12,9.31,9.51,9.59,10.01,10.79,11.81,12.89,13.90,14.85,15.81,16.80,17.73,18.72,19.89,21.37,23.46,25.55,27.63
110.15,107.69,105.63,105.51,106.26,107.16,107.72,107.32,104.96,102.82,102.15,104.22,107.96,113.07,118.09,122.04,124.54,123.81,121.56,117.94,112.42,107.42,102.97,99.80,98.62,100.17,103.82,108.17,112.63,117.27,121.49,122.98,120.91,114.78,107.54,101.83,97.32,93.79,91.51,92.31,95.24,99.53,104.06,107.82,108.53,105.89,100.10,93.88,88.18,83.48,79.99,77.84,76.83,75.72,74.49,73.40,74.18,75.74,77.59,79.44,81.94,85.68,89.61,93.56,97.84,101.37,104.43,107.27,110.17,113.38,116.46,118.95,120.69,121.72,121.29,120.81,120.62,120.83,121.91,122.91,123.97,125.21,126.42,127.52,129.20,131.71,135.06,138.65,141.83,144.83,147.97,151.83,154.61,156.58,157.99,159.19,160.15,161.14,162.20,163.34,163.74,163.64,162.95,161.45,157.81,152.04,146.17,140.60,134.61,129.30,124.49,119.67,114.25,108.47,103.19,98.28,93.72,89.76,86.18,82.57,79.24,76.83,74.75,72.93,71.25,69.64,68.30,66.79,64.80,62.26,59.19,55.96,52.80,50.30,49.08,48.37,47.76,47.05,46.12,44.97,43.68,42.43,41.31,40.43,39.86,39.35,38.88,38.44,38.01,37.82,37.92,38.28,38.74,39.25,40.13,41.76,44.49,47.13,49.81,52.43,54.94,57.49,57.97,58.64,59.98,61.91,64.56,66.92,67.78,66.18,61.77,58.77,56.37,54.18,51.88,49.31,46.62,43.87,41.12,38.24,35.10,32.01,29.39,28.41,28.48,29.08,30.06,31.34,32.59,33.75,34.64,34.98,33.30,31.54,29.26,26.76,25.53,25.06,24.96,24.77,23.95,22.74,21.26,20.13,19.71,19.76,19.91,20.08,20.30,20.61,20.80,21.08,21.37,21.56,21.07,20.52,19.26,16.69,11.58,9.79,8.98,8.65,8.57,8.49,8.47,8.46,8.43,8.35,8.34,8.32,8.26,8.07,8.14,8.30,8.49,8.65,8.83,8.99,9.13,9.26,9.33,9.71,10.44,11.43,12.51,13.52,14.53,15.55,16.56,17.58,18.59,19.76,21.24,23.27,25.31,27.34
109.22,106.28,103.28,102.94,103.66,104.46,104.76,104.01,101.51,99.71,99.82,102.91,106.79,111.96,117.25,121.65,123.85,122.91,120.36,116.37,110.56,105.55,101.42,98.64,97.68,99.34,102.96,107.35,112.00,116.97,121.16,122.63,120.56,114.40,106.71,100.32,95.15,91.25,89.28,90.27,93.73,98.66,103.02,106.53,106.68,103.53,97.58,91.16,85.18,80.63,77.81,76.23,75.24,74.17,73.19,72.74,74.42,76.29,78.16,80.04,82.79,86.42,90.38,94.42,98.31,101.36,104.07,106.66,109.37,112.81,115.83,118.25,120.13,122.01,122.61,123.16,123.83,124.54,125.71,126.84,128.04,129.39,130.85,132.24,134.06,136.56,139.99,143.50,146.92,150.41,154.18,158.24,160.73,162.27,163.32,164.39,165.51,166.47,167.44,168.68,168.79,167.95,166.21,163.58,159.66,153.34,147.05,141.31,135.42,129.78,124.54,119.39,113.96,108.20,102.69,97.80,93.63,89.89,86.62,83.33,80.21,77.80,76.02,74.57,73.12,71.49,70.09,68.10,65.45,62.26,58.95,56.07,53.48,51.48,50.34,49.77,49.04,48.14,47.07,45.79,44.42,43.06,41.78,40.63,39.89,39.29,38.76,38.26,37.77,37.45,37.49,37.90,38.44,38.98,39.54,40.68,43.05,45.77,47.94,50.11,52.50,54.72,54.33,54.34,55.40,57.44,60.29,63.07,64.40,63.20,60.04,57.71,55.63,53.54,51.34,48.62,45.82,42.99,40.15,37.35,34.23,31.34,29.11,28.08,27.73,28.07,28.95,30.08,31.32,32.44,33.51,34.44,33.30,31.76,29.80,27.53,25.36,23.99,23.22,22.65,21.76,20.97,20.23,19.73,19.55,19.58,19.65,19.74,19.88,20.15,20.33,20.64,20.94,21.05,20.63,19.77,18.00,15.16,11.33,9.73,8.91,8.58,8.61,8.56,8.52,8.51,8.50,8.45,8.42,8.39,8.31,8.14,8.09,8.21,8.39,8.52,8.66,8.79,8.90,8.97,9.05,9.44,10.12,11.05,12.13,13.13,14.19,15.24,16.25,17.33,18.37,19.56,21.05,23.05,25.04,27.06
