63.47,63.97,64.70,66.01,67.47,68.92,70.60,73.54,76.47,79.22,81.64,83.57,85.00,86.38,87.41,87.95,88.18,88.39,88.68,89.06,89.40,89.13,88.00,86.38,84.69,83.52,83.08,83.90,85.86,87.87,91.08,96.20,101.42,104.01,106.72,109.35,111.98,114.55,116.34,117.42,118.16,118.76,119.46,120.73,122.31,124.16,126.22,128.07,129.36,129.70,129.44,130.45,133.86,137.77,141.50,144.44,146.20,145.84,143.91,141.22,140.20,142.31,145.49,149.44,154.81,161.59,168.17,174.12,179.12,183.10,186.38,189.32,192.12,194.99,196.77,197.66,197.77,197.28,197.38,198.51,200.33,202.47,204.12,206.00,207.71,209.28,211.10,212.52,213.27,213.77,214.46,214.19,213.72,213.70,214.25,214.60,214.04,212.56,210.42,208.05,205.73,202.77,198.72,193.44,187.99,182.49,177.38,172.57,167.40,162.16,158.59,156.79,156.52,156.84,157.15,157.18,156.60,154.43,151.40,148.13,144.64,140.69,138.13,139.48,142.57,145.55,148.45,152.07,155.45,158.29,160.63,163.65,167.19,171.53,176.97,183.31,189.69,195.33,199.61,201.62,201.75,200.63,198.18,194.05,188.62,183.14,179.44,178.94,181.70,186.22,191.77,197.77,203.21,208.05,210.94,212.11,212.09,209.74,205.55,200.69,195.86,191.27,186.22,181.62,177.39,172.95,169.13,166.07,163.34,160.56,157.78,154.44,150.94,147.47,144.26,140.95,137.55,134.17,130.92,127.15,123.52,121.82,122.64,123.53,123.83,124.07,124.39,124.85,125.20,124.87,123.98,122.69,121.30,119.48,117.03,113.78,109.48,103.88,100.28,98.79,98.80,96.49,93.62,92.09,92.74,93.55,93.97,94.28,93.96,91.78,89.70,87.69,85.73,83.78,82.20,81.32,80.70,80.07,79.21,78.71,78.06,77.22,76.22,76.02,75.41,74.67,73.99,73.37,72.69,71.95,71.17,70.35,69.47,68.58,67.71,66.87,66.17,65.36,64.46,63.50,62.57,61.88,61.38,61.06,60.91,60.68,60.09,59.31,58.44,57.44,56.02,54.54,53.07,51.60,50.13,49.13
65.01,65.21,65.20,66.10,67.38,68.65,70.15,73.08,75.92,78.68,81.35,83.89,85.51,87.01,88.33,89.39,89.94,90.31,90.59,90.81,91.01,91.00,90.98,90.60,89.53,87.63,85.61,84.78,85.56,87.54,90.79,95.83,100.95,103.68,106.86,110.12,113.38,116.55,119.50,120.85,121.66,122.30,123.01,124.03,125.39,127.48,130.53,132.26,133.87,134.48,133.96,133.17,134.83,137.59,140.88,144.16,147.68,148.68,147.54,144.87,142.28,143.40,146.02,149.75,155.17,162.50,169.22,175.19,180.50,184.82,188.66,192.27,195.73,199.01,200.99,202.29,203.01,203.18,203.12,203.72,204.85,206.27,207.10,208.79,210.47,211.96,213.56,215.04,215.59,215.80,216.36,216.28,216.15,216.72,217.93,218.14,217.22,215.14,212.24,209.17,206.18,202.55,197.94,192.27,186.74,181.55,176.68,172.00,167.14,162.62,160.51,160.55,162.00,162.72,162.90,162.01,159.86,156.72,152.99,149.04,144.95,140.71,139.62,141.35,144.48,147.77,151.14,155.66,159.39,161.81,163.34,165.73,169.01,173.45,179.30,185.59,191.73,197.04,201.03,202.88,203.06,202.15,199.99,196.08,191.41,186.53,183.29,183.06,184.78,188.78,193.89,199.39,204.42,208.55,210.97,211.89,211.74,209.75,205.65,200.83,196.15,191.79,187.04,183.06,179.58,175.60,171.49,168.15,165.23,162.37,159.41,155.39,151.00,146.71,143.12,139.30,135.57,132.15,129.24,126.65,124.44,123.66,124.58,125.37,125.65,125.86,126.09,126.33,126.14,124.91,123.30,121.89,120.21,117.82,115.09,111.71,106.21,101.03,98.32,97.38,96.74,94.92,94.20,94.56,95.79,96.61,97.04,97.28,96.75,94.12,92.16,90.40,88.65,86.80,84.94,83.74,82.83,81.98,80.91,80.43,79.75,78.81,77.71,77.01,76.32,75.63,74.93,74.26,73.54,72.70,71.77,70.83,69.90,68.98,68.12,67.36,66.68,65.94,65.07,64.09,63.20,62.68,62.22,61.84,61.68,61.24,60.49,59.62,58.74,57.63,56.17,54.65,53.14,51.56,49.83,48.81
66.54,66.68,66.61,66.73,67.51,68.61,70.08,72.61,75.32,78.08,80.77,83.32,85.64,87.51,89.07,90.35,90.96,91.42,91.74,91.93,91.98,92.19,92.42,92.43,91.97,90.22,88.30,86.84,86.37,87.85,91.70,96.16,100.28,103.11,106.34,109.54,112.66,115.70,119.05,120.80,122.16,123.42,124.52,126.03,127.72,129.80,132.41,134.64,136.70,138.01,138.29,137.46,137.24,138.28,140.71,144.48,148.20,150.67,151.20,149.55,147.11,146.93,148.20,151.03,156.15,163.32,170.11,176.27,181.77,187.07,191.61,195.57,199.03,201.82,204.09,205.78,206.99,207.90,208.58,209.31,210.11,210.99,211.72,212.99,214.43,215.75,216.55,217.71,218.18,218.27,218.42,218.63,219.13,219.83,220.54,220.65,219.67,217.45,214.16,210.15,205.93,201.51,196.73,191.59,186.84,182.32,177.95,173.61,169.09,165.51,164.64,165.73,167.58,168.74,168.52,166.57,162.93,158.56,154.18,149.78,145.40,141.15,140.69,142.66,145.76,149.01,153.27,157.77,161.27,163.66,165.78,167.90,171.24,175.83,181.52,187.27,193.19,198.21,201.78,203.92,204.61,203.58,201.16,198.03,193.49,189.24,186.51,186.14,187.27,190.75,195.41,200.48,204.86,208.71,210.85,211.52,211.24,209.70,205.64,201.02,196.88,192.72,188.17,184.49,181.69,179.25,174.77,170.32,166.40,163.18,159.08,154.31,149.30,144.50,140.77,136.40,132.59,129.68,127.84,125.74,125.24,125.86,126.99,127.19,127.50,127.75,127.71,127.02,125.55,123.76,122.02,120.57,118.30,115.62,112.74,109.02,102.08,99.31,97.75,96.79,96.11,95.48,95.87,96.95,98.37,99.38,99.72,99.87,99.71,98.76,96.28,93.91,91.78,89.93,88.08,86.61,85.45,84.48,83.46,82.64,81.53,80.25,79.05,78.00,77.25,76.57,75.80,74.94,74.01,73.08,72.14,71.15,70.22,69.33,68.52,67.81,67.18,66.49,65.67,64.76,64.01,63.51,63.05,62.66,62.44,61.76,60.87,59.92,58.98,57.78,56.30,54.73,53.11,51.38,49.78,48.84
68.05,68.10,68.02,67.80,68.16,68.91,70.15,72.38,74.83,77.49,80.20,82.75,85.30,87.55,89.47,91.01,91.89,92.50,92.87,93.05,93.18,93.52,93.88,94.07,93.87,92.57,90.83,89.16,88.07,88.59,92.18,95.91,99.14,101.64,104.92,108.02,110.84,113.44,116.69,118.96,120.87,122.51,123.72,125.39,127.40,129.73,132.34,135.03,137.94,140.15,141.19,140.84,140.16,140.43,142.00,145.06,148.87,151.99,153.89,154.19,152.65,152.32,152.87,154.67,158.70,166.03,172.91,178.92,184.01,189.55,194.39,198.43,201.67,204.30,206.77,208.86,210.55,211.90,212.97,213.86,214.70,215.55,216.31,217.27,218.33,219.29,219.73,220.40,220.70,220.75,220.76,220.91,221.43,222.04,222.49,222.40,221.24,219.10,215.73,210.78,205.85,200.94,196.24,191.91,187.89,183.84,179.90,175.99,171.85,169.39,169.70,171.70,173.89,174.88,173.22,169.64,164.76,159.61,155.05,150.53,146.24,142.64,142.28,144.11,146.93,149.88,154.34,158.63,162.06,164.65,167.10,169.53,172.98,177.35,182.35,187.65,193.54,198.68,202.36,204.83,206.14,205.22,202.62,199.79,195.86,192.55,190.43,189.86,190.39,193.21,197.23,201.71,205.55,208.89,210.61,211.04,210.77,209.35,205.54,201.39,197.84,193.68,189.27,185.89,183.45,181.13,176.41,170.84,165.53,161.26,156.42,151.37,146.33,141.62,137.93,134.19,131.57,130.02,129.21,128.13,128.30,129.03,129.73,129.60,129.44,129.21,128.63,127.10,124.81,122.67,120.63,118.54,115.91,113.18,110.33,106.76,100.53,99.09,98.36,97.77,97.34,97.37,98.33,99.69,101.01,101.66,101.79,101.77,101.63,101.21,99.08,96.85,94.72,92.80,90.88,89.18,87.77,86.59,85.36,84.17,82.71,81.19,79.92,78.86,78.00,77.19,76.34,75.38,74.41,73.45,72.48,71.51,70.55,69.68,68.92,68.26,67.68,67.01,66.24,65.43,64.86,64.36,63.82,63.30,62.87,62.17,61.25,60.25,59.22,57.89,56.30,54.65,52.97,51.19,49.75,48.90
69.59,69.56,69.47,69.16,69.15,69.49,70.38,72.33,74.46,76.97,79.64,82.18,84.74,87.35,89.66,91.45,92.70,93.53,93.98,94.21,94.53,94.91,95.35,95.62,95.52,94.80,93.30,91.65,90.28,89.64,92.43,95.32,97.79,99.80,103.06,106.00,108.46,110.51,113.35,116.04,118.43,120.37,121.68,123.41,125.73,128.41,131.21,134.31,138.17,141.30,143.08,143.55,143.27,143.35,144.14,145.91,149.69,153.01,156.03,158.57,158.32,158.42,158.66,159.55,162.45,169.96,176.71,182.25,186.69,192.09,197.00,200.96,203.93,206.57,209.23,211.70,213.84,215.49,216.73,217.81,218.83,219.87,220.71,221.43,222.08,222.62,222.92,223.09,223.19,223.24,223.24,223.16,223.42,223.83,224.14,223.77,222.33,220.34,217.08,211.27,205.92,200.73,196.26,192.79,189.39,185.71,182.18,178.79,175.18,173.99,175.35,177.98,180.32,180.70,177.23,171.89,165.93,160.24,155.72,151.30,147.28,144.61,144.08,145.57,147.97,150.55,154.83,158.79,162.19,165.08,167.74,170.72,174.28,178.25,182.34,187.25,193.15,198.58,202.75,205.68,207.63,206.98,204.34,201.55,198.45,196.23,194.79,194.01,193.99,195.99,199.12,202.78,206.10,208.78,210.04,210.27,210.11,208.73,205.38,201.86,198.88,194.65,190.33,187.19,184.83,181.91,176.81,170.13,163.40,157.85,152.49,147.43,142.73,138.54,135.23,132.75,131.85,131.92,132.00,132.09,132.40,132.67,132.72,132.39,131.50,130.51,129.18,126.86,124.01,121.62,119.17,116.21,113.33,110.67,108.00,104.95,100.66,100.04,99.99,100.00,99.98,100.35,101.47,102.75,103.68,103.70,103.55,103.32,103.01,102.49,101.07,99.30,97.35,95.36,93.36,91.48,89.83,88.39,86.83,85.27,83.53,81.84,80.54,79.61,78.62,77.66,76.72,75.73,74.79,73.82,72.84,71.90,70.90,70.03,69.30,68.69,68.14,67.49,66.75,66.03,65.61,65.07,64.44,63.74,63.04,62.43,61.57,60.57,59.45,57.96,56.23,54.49,52.77,50.99,49.74,48.95
71.47,71.50,71.45,71.09,71.02,71.06,71.35,72.71,74.74,76.96,79.28,81.67,84.33,87.04,89.45,91.34,92.74,94.00,94.95,95.58,95.99,96.38,96.78,97.10,97.22,97.10,96.03,94.59,93.04,91.47,92.53,94.44,96.64,98.65,101.32,103.74,105.98,108.09,109.89,111.42,113.54,116.26,119.10,121.43,123.97,126.67,129.42,132.62,136.50,139.87,142.34,144.38,145.72,146.56,147.21,148.09,151.13,154.40,157.71,160.71,161.84,162.39,163.06,164.87,169.80,176.19,180.75,184.50,188.80,194.15,198.79,202.65,205.82,208.66,211.60,214.31,216.66,218.55,219.85,220.90,221.82,222.67,223.41,224.11,224.71,225.17,225.42,225.53,225.62,225.69,225.73,225.54,225.75,226.02,226.03,225.13,223.05,220.98,217.93,211.97,206.47,201.68,197.61,194.13,190.68,187.26,184.30,181.91,180.03,180.66,181.95,183.35,184.35,183.10,179.14,173.45,166.87,160.69,156.15,152.02,148.45,146.07,145.40,146.41,148.44,151.02,154.85,158.21,161.35,164.38,167.39,170.35,173.72,177.38,181.17,185.74,191.01,196.64,202.20,206.55,208.85,208.92,207.13,204.24,201.71,200.54,199.92,199.17,198.89,199.52,200.41,201.67,204.25,206.06,207.03,207.41,207.51,207.02,205.09,202.54,199.67,195.59,191.25,187.63,184.46,180.85,173.40,165.88,159.10,153.48,147.83,143.01,139.26,136.78,135.94,135.22,134.92,134.92,135.00,135.19,135.64,136.10,136.33,135.81,134.31,132.22,129.62,126.45,123.43,120.59,117.62,114.28,111.20,108.77,106.75,105.15,104.31,104.55,105.36,106.30,106.82,106.98,107.21,107.07,106.42,105.84,105.30,104.81,104.22,103.16,101.66,99.91,98.04,96.20,94.35,92.54,90.78,89.07,87.36,85.60,83.79,82.14,80.99,79.95,78.98,78.04,77.12,76.22,75.30,74.36,73.39,72.35,71.30,70.32,69.49,68.88,68.28,67.65,66.87,65.97,65.20,64.54,63.86,63.15,62.40,61.84,61.31,60.61,59.55,57.87,56.06,54.27,52.50,50.67,49.65,48.92
73.46,73.61,73.64,73.28,73.16,73.00,72.90,73.45,75.05,76.94,79.02,81.26,83.99,86.74,89.20,91.19,92.65,94.23,95.65,96.75,97.32,97.77,98.19,98.57,98.90,99.14,98.60,97.39,95.61,93.47,92.96,93.93,95.83,97.84,99.99,101.99,103.98,105.98,107.34,108.56,110.48,113.27,116.77,119.63,122.38,125.11,127.82,130.72,134.35,137.95,141.23,144.38,147.04,148.87,149.96,150.53,152.68,155.57,158.82,162.05,164.80,166.05,167.38,169.96,175.46,180.37,183.68,186.66,190.76,196.07,200.51,204.29,207.60,210.85,214.10,216.94,219.31,221.24,222.62,223.68,224.55,225.34,226.09,226.78,227.37,227.81,227.99,228.10,228.18,228.22,228.19,227.98,227.98,228.00,227.80,226.88,224.57,222.40,219.41,213.60,208.00,203.48,199.57,195.88,192.40,189.88,188.14,187.10,186.73,187.69,188.37,188.47,187.80,185.00,180.61,174.75,167.83,161.23,156.70,152.83,149.63,147.60,147.05,147.62,149.29,151.96,155.30,158.13,160.93,163.87,166.93,169.78,173.01,176.49,180.01,184.15,188.84,194.42,200.71,205.97,209.18,210.15,209.16,206.80,204.92,204.56,204.70,204.46,204.00,203.29,202.47,201.90,202.58,203.43,203.47,203.35,204.02,204.29,203.56,202.00,199.59,195.78,191.54,187.31,182.94,177.97,170.17,162.54,155.70,149.98,144.58,140.75,138.45,137.64,138.16,138.21,138.16,138.12,138.18,138.46,139.14,139.78,139.97,138.88,136.60,133.50,129.90,126.27,122.97,119.87,116.92,114.08,111.29,109.49,108.37,107.92,108.56,108.78,109.63,110.67,111.13,111.10,110.74,109.82,108.39,107.38,106.26,105.29,104.34,103.03,101.62,99.95,98.10,96.18,94.46,92.73,90.97,89.19,87.52,85.78,84.02,82.47,81.44,80.41,79.47,78.56,77.64,76.79,75.83,74.85,73.84,72.74,71.60,70.52,69.62,69.00,68.41,67.74,66.87,65.82,64.82,64.02,63.29,62.57,61.80,61.23,60.86,60.30,59.23,57.51,55.70,53.90,52.15,50.51,49.51,48.77
75.54,75.89,76.00,75.69,75.51,75.28,74.95,74.52,75.39,76.91,78.84,80.94,83.72,86.45,88.92,90.99,92.46,94.24,96.13,97.76,98.52,99.07,99.56,100.05,100.57,100.96,101.03,100.06,97.99,95.60,93.66,93.73,95.32,97.32,99.04,100.69,102.39,104.13,105.60,107.24,109.03,111.27,114.67,117.98,120.95,123.70,126.38,128.64,131.78,135.61,139.82,143.66,147.36,150.39,152.45,153.21,154.33,156.57,159.44,162.71,167.29,169.42,171.63,174.85,179.66,182.77,185.62,188.75,192.62,197.87,202.19,205.89,209.30,213.14,216.72,219.60,221.83,223.61,225.08,226.17,227.06,227.91,228.76,229.42,230.04,230.53,230.61,230.76,230.87,230.84,230.62,230.46,230.14,229.80,229.47,229.00,226.79,224.50,221.44,216.02,210.38,206.02,202.08,197.99,194.51,193.42,193.45,194.10,195.06,195.03,194.62,193.38,190.75,186.47,181.69,175.81,168.80,161.86,157.36,153.70,150.82,149.19,148.99,149.16,150.47,153.31,156.11,158.48,160.88,163.51,166.37,169.02,172.18,175.58,178.85,182.49,186.65,191.97,198.41,204.11,208.73,210.77,210.53,209.26,208.08,208.31,209.18,209.88,209.27,207.28,205.20,203.29,201.06,200.88,199.41,198.25,199.75,200.66,200.94,200.38,198.75,195.34,191.28,186.33,180.40,173.51,167.10,159.98,153.07,147.22,142.57,140.36,139.97,140.78,141.70,141.65,141.55,141.50,141.50,141.89,142.88,143.68,143.62,141.64,138.43,134.40,130.05,126.27,122.65,119.43,116.96,115.41,113.30,112.51,112.50,112.92,113.31,112.76,112.91,113.37,113.23,113.01,112.34,111.21,109.70,108.39,106.52,104.87,103.51,102.19,101.02,99.50,97.61,95.42,93.80,92.17,90.51,88.85,87.37,85.83,84.23,82.81,81.88,80.95,80.08,79.20,78.28,77.43,76.39,75.31,74.22,73.06,71.83,70.65,69.68,69.07,68.53,67.75,66.76,65.61,64.45,63.50,62.71,61.99,61.22,60.60,60.26,59.68,58.54,56.92,55.17,53.39,51.73,50.48,49.32,48.51
77.17,78.06,78.19,77.93,77.52,77.05,76.57,76.15,76.37,77.45,79.12,80.93,83.52,86.19,88.71,90.88,92.49,94.39,96.33,98.09,99.34,100.19,100.91,101.54,102.12,102.65,102.81,101.78,99.56,97.21,95.32,94.55,95.09,97.00,98.94,101.03,103.06,104.90,106.51,108.08,109.99,112.37,115.20,117.09,119.54,122.29,124.98,127.46,130.54,134.38,138.85,143.10,147.17,150.55,153.31,155.71,156.46,157.81,160.49,164.76,169.30,171.80,174.31,177.54,181.81,184.60,187.29,190.39,194.33,199.40,203.74,207.57,211.19,215.34,219.22,222.23,224.40,226.04,227.55,228.73,229.85,231.11,232.20,233.37,234.34,234.85,234.44,234.56,234.36,233.92,233.41,233.16,232.81,232.55,232.37,231.85,230.14,227.68,224.23,219.30,214.01,209.29,205.04,201.30,199.36,199.53,199.94,200.14,200.57,199.97,198.88,196.72,192.84,187.56,182.57,176.91,170.24,163.19,158.52,154.99,152.82,152.73,152.72,152.96,154.15,156.68,159.27,161.77,163.93,165.70,167.27,169.11,171.64,174.63,177.67,180.54,184.58,189.85,196.15,202.53,207.95,210.75,211.33,211.10,210.30,209.91,209.96,210.40,210.97,209.69,207.69,205.33,202.49,199.79,196.10,192.84,191.93,192.33,192.85,193.00,192.50,191.06,187.84,183.11,177.27,170.99,164.70,157.93,151.67,146.89,144.65,144.21,144.61,145.34,145.98,145.87,145.68,145.56,145.58,146.39,147.48,147.87,146.96,144.52,140.17,135.17,130.44,127.18,124.61,122.21,120.48,119.79,118.61,117.98,117.72,117.70,117.65,116.81,116.17,115.52,114.40,113.26,112.02,110.61,109.01,107.31,105.39,103.56,101.98,100.86,99.70,98.22,96.43,94.41,92.89,91.36,89.77,88.23,87.19,86.17,85.05,83.91,82.89,81.91,80.93,79.90,78.83,77.79,76.68,75.55,74.41,73.26,72.02,70.84,69.85,69.19,68.55,67.64,66.57,65.41,64.26,63.22,62.30,61.47,60.65,59.89,59.19,58.42,57.46,56.31,54.69,53.09,51.66,50.42,49.21,48.41
78.78,80.24,80.65,80.50,79.80,78.93,78.16,77.83,77.71,78.36,79.62,81.11,83.52,86.10,88.59,90.80,92.60,94.59,96.58,98.45,100.08,101.26,102.24,103.02,103.64,104.32,104.67,103.68,101.30,98.80,96.98,95.67,95.43,96.96,99.07,101.49,103.86,105.93,107.69,109.49,111.73,114.32,116.75,118.16,120.34,122.96,125.50,127.66,130.41,134.05,138.48,142.88,147.11,150.85,154.31,157.91,159.00,160.14,162.79,167.50,171.46,173.85,176.33,179.56,183.90,186.71,189.43,192.52,196.35,201.10,205.44,209.51,213.49,217.84,221.74,224.78,226.98,228.57,230.13,231.40,232.75,234.36,235.74,237.16,238.26,238.75,238.14,238.05,237.58,236.87,236.20,235.89,235.60,235.47,235.46,235.07,233.75,231.30,227.73,223.24,217.95,213.04,208.97,206.19,205.43,205.90,206.12,205.76,205.26,204.00,202.19,199.29,194.69,188.68,183.61,178.23,171.94,164.92,159.85,156.56,155.24,156.27,156.56,156.90,157.98,160.23,162.78,165.36,167.40,168.81,169.92,171.27,173.13,175.25,177.24,179.16,182.94,188.04,194.09,200.96,206.95,210.49,211.87,212.32,211.42,210.53,209.92,209.90,211.63,211.18,209.30,206.45,203.10,198.32,192.95,188.13,185.21,185.05,185.52,186.04,186.25,186.12,183.69,179.51,174.05,168.08,162.30,156.28,151.03,147.55,147.22,148.05,149.06,149.82,150.31,150.24,150.03,149.93,150.16,151.34,152.25,152.04,150.29,147.43,142.50,137.29,132.67,129.60,127.59,125.64,124.20,123.63,122.75,122.07,121.55,121.11,120.50,119.27,117.90,116.36,114.54,112.90,111.32,109.70,107.99,106.06,104.13,102.23,100.56,99.51,98.30,96.98,95.51,93.89,92.46,91.03,89.62,88.37,87.67,86.94,86.08,85.10,84.04,82.96,81.78,80.51,79.22,78.08,76.92,75.76,74.60,73.42,72.21,71.03,70.02,69.28,68.51,67.50,66.38,65.22,64.06,62.97,61.95,60.99,60.10,59.23,58.30,57.39,56.52,55.65,54.25,52.88,51.66,50.51,49.33,48.56
80.38,82.43,83.54,83.59,82.47,80.98,79.72,79.54,79.57,79.81,80.40,81.55,83.82,86.25,88.61,90.77,92.82,94.89,96.93,98.88,100.71,102.28,103.55,104.49,105.12,105.94,106.67,105.87,103.32,100.38,98.60,97.22,96.60,97.35,99.50,102.08,104.75,107.22,109.13,111.65,114.50,117.36,119.69,122.07,124.40,126.67,128.82,129.85,131.88,134.97,138.96,143.16,147.28,151.44,155.61,159.70,162.12,164.07,166.93,171.19,173.87,175.45,177.46,180.68,186.01,189.25,192.27,195.39,198.82,203.07,207.37,211.81,216.38,220.77,224.29,227.23,229.57,231.25,232.87,234.26,235.79,237.66,239.38,240.62,241.53,241.99,241.58,241.05,240.36,239.62,238.94,238.64,238.53,238.60,238.78,238.79,237.70,235.49,232.24,228.09,222.33,217.46,214.33,213.34,213.17,212.53,211.79,210.82,208.89,206.79,204.19,200.77,196.21,189.86,184.92,179.90,174.02,167.19,161.43,158.50,158.24,159.71,160.50,160.96,161.91,163.96,166.71,169.25,171.36,173.14,175.09,176.47,177.61,178.20,177.91,178.64,181.93,186.67,192.33,199.40,205.67,209.89,212.04,212.63,210.98,209.79,208.83,208.13,210.90,211.37,209.62,206.17,202.38,196.21,189.99,184.47,180.27,179.52,179.58,179.95,180.28,180.40,178.68,175.44,170.73,164.51,159.86,155.19,151.44,149.55,150.30,151.69,153.06,154.12,154.65,154.80,154.67,154.70,155.47,156.90,157.23,156.15,153.62,150.37,145.71,141.37,137.64,134.22,131.96,129.89,128.06,126.52,125.00,124.03,123.29,122.50,121.15,119.36,117.39,115.31,113.20,111.71,110.13,108.43,106.58,104.65,102.72,100.90,99.32,98.18,96.82,95.83,95.00,94.08,92.76,91.43,90.35,89.62,89.12,88.33,87.40,86.39,85.38,84.10,82.62,80.99,79.35,78.26,77.11,75.96,74.78,73.55,72.38,71.22,70.18,69.33,68.36,67.31,66.19,65.03,63.87,62.78,61.67,60.58,59.59,58.67,57.69,56.73,55.81,54.89,53.84,52.79,51.77,50.81,49.79,49.07
81.80,84.34,86.13,86.71,85.99,84.62,83.15,82.50,82.53,82.50,82.63,83.39,84.97,86.80,88.78,90.78,92.58,94.62,96.75,98.87,100.80,102.48,104.11,105.56,106.70,107.63,108.54,108.60,107.40,104.63,100.75,98.45,97.68,97.73,99.98,102.63,105.41,108.12,110.84,113.91,117.10,120.27,123.29,126.06,128.48,130.58,132.34,133.03,134.43,136.61,139.74,144.28,149.09,153.94,158.61,162.78,165.37,167.99,171.37,175.53,177.51,178.54,180.31,183.59,189.03,192.50,195.63,198.67,201.85,206.06,210.08,214.40,219.01,222.92,226.35,229.28,231.71,233.61,235.44,237.08,238.70,240.37,241.98,243.20,244.12,244.64,244.42,243.87,243.17,242.44,241.80,241.45,241.27,241.29,241.43,241.34,240.69,239.00,236.17,232.25,227.22,222.71,219.94,219.50,219.14,218.19,216.95,215.24,212.37,208.97,205.72,202.33,198.34,192.14,187.12,182.03,176.16,169.28,163.90,161.13,160.83,162.25,163.19,163.96,164.98,166.69,169.88,172.50,174.77,176.85,178.97,180.62,181.76,182.24,181.97,182.14,183.82,186.92,191.55,198.57,205.12,209.72,212.33,213.57,211.82,210.75,210.33,210.47,212.08,211.40,208.97,205.31,201.41,193.89,187.61,182.72,178.71,177.07,176.22,175.86,175.69,175.18,173.65,170.48,165.98,161.05,157.70,154.89,153.08,152.70,154.12,155.74,157.09,158.03,158.61,158.77,158.73,158.73,159.05,159.89,159.87,158.86,156.67,152.48,148.00,143.93,140.34,136.99,134.34,131.94,129.83,128.06,126.44,124.83,123.31,121.88,120.45,118.53,116.42,114.23,112.07,110.36,108.71,107.25,106.01,104.70,103.42,102.14,100.93,99.94,98.92,98.06,97.22,96.26,94.99,93.69,92.57,91.67,90.79,89.80,88.71,87.55,86.29,84.65,82.90,81.12,79.42,78.30,77.18,76.04,74.87,73.68,72.52,71.39,70.30,69.28,68.20,67.12,66.00,64.84,63.68,62.55,61.41,60.30,59.29,58.36,57.41,56.46,55.54,54.66,53.67,52.69,51.74,50.86,50.09,49.50
83.06,86.10,88.47,89.61,89.38,88.29,86.81,85.76,85.64,85.34,85.13,85.54,86.52,87.76,89.33,91.17,92.71,94.48,96.54,98.77,100.83,102.61,104.56,106.47,108.13,109.19,110.26,111.12,111.19,108.82,103.55,100.12,98.64,98.20,100.49,103.20,106.04,108.91,112.36,115.95,119.57,123.21,126.85,129.89,132.35,134.28,135.75,136.54,137.58,139.18,141.80,146.69,152.06,157.26,162.04,166.15,168.91,172.14,175.89,179.80,181.37,182.23,183.99,187.26,192.47,195.97,199.04,201.99,205.08,209.15,212.89,216.98,221.40,224.84,228.18,231.10,233.58,235.73,237.81,239.72,241.42,242.92,244.38,245.60,246.61,247.29,247.31,246.68,245.96,245.27,244.67,244.26,243.94,243.85,243.93,243.68,243.40,242.20,239.85,236.30,232.19,228.19,225.56,224.95,224.19,223.03,221.39,219.11,215.74,211.20,207.33,203.93,200.44,194.77,189.69,184.39,178.37,171.35,166.38,163.78,163.37,164.60,165.64,166.71,167.93,169.52,172.95,175.61,178.07,180.44,182.55,184.42,185.74,186.50,186.76,186.65,186.96,188.50,191.95,198.49,205.09,209.82,212.69,214.54,212.91,212.22,212.27,212.66,212.61,210.71,207.73,203.97,199.46,191.43,185.45,181.29,177.80,175.44,173.70,172.50,171.65,170.42,168.83,165.78,161.80,158.41,156.49,155.46,155.36,156.21,158.07,159.70,160.87,161.58,162.21,162.38,162.27,161.98,161.65,161.70,161.28,160.19,158.04,153.20,148.98,145.10,141.54,138.39,135.50,132.92,130.67,128.75,126.99,124.84,122.66,120.70,119.28,117.39,115.32,113.22,111.27,109.50,108.01,106.96,106.34,105.59,104.92,104.13,103.23,102.36,101.65,100.78,99.78,98.72,97.52,96.21,94.94,93.75,92.50,91.26,89.96,88.56,87.02,85.09,83.15,81.26,79.53,78.37,77.28,76.16,75.00,73.84,72.67,71.55,70.42,69.25,68.09,66.98,65.85,64.68,63.52,62.36,61.21,60.09,59.09,58.16,57.24,56.32,55.40,54.54,53.57,52.62,51.72,50.94,50.40,49.91
83.99,87.61,90.30,91.93,92.00,91.25,90.15,89.20,88.56,87.97,87.62,87.84,88.72,89.61,90.85,92.51,94.05,95.00,96.53,98.69,100.95,102.98,105.07,107.15,109.10,110.36,111.66,112.79,113.23,111.50,107.84,103.12,99.29,98.91,101.10,103.81,106.70,109.64,113.29,117.31,121.77,126.28,129.98,133.25,135.60,137.31,138.74,140.42,141.78,143.81,147.05,152.05,157.25,161.76,165.75,169.67,173.16,176.89,180.47,183.51,185.18,186.79,188.97,192.08,196.54,199.67,202.37,205.18,208.56,211.99,215.57,219.39,223.30,226.58,229.69,232.48,234.99,237.39,239.72,241.84,243.71,245.34,246.75,248.00,249.22,250.25,250.61,249.55,248.71,248.09,247.54,247.03,246.54,246.32,246.35,246.05,245.85,244.95,243.15,240.44,237.07,233.88,231.12,228.99,227.74,226.16,224.23,221.88,218.91,213.85,209.39,205.59,202.15,197.76,192.79,187.13,180.69,173.43,168.42,166.11,165.97,166.91,168.03,169.38,171.03,173.12,176.10,178.68,181.36,184.04,185.95,187.81,189.43,190.76,191.75,191.79,191.92,192.77,194.99,199.99,206.03,210.42,213.14,215.23,214.05,214.16,214.04,212.37,210.45,208.15,205.42,201.63,195.05,188.71,183.59,179.72,176.90,174.40,172.07,170.07,168.38,166.61,164.60,162.27,159.87,157.91,157.66,157.95,158.76,160.11,161.97,163.25,163.97,164.33,165.01,165.32,164.70,163.56,162.53,161.64,160.60,158.56,155.08,150.64,146.94,143.34,139.90,137.10,134.41,132.19,130.11,127.88,125.63,123.29,121.06,119.08,117.56,115.89,114.09,112.43,111.21,110.03,109.35,108.95,108.65,108.00,107.47,106.77,105.90,104.99,104.22,103.07,101.86,100.90,99.85,98.46,96.95,95.46,94.17,92.66,91.00,89.25,87.47,85.54,83.56,81.60,79.79,78.63,77.53,76.41,75.25,74.10,72.88,71.71,70.53,69.32,68.16,67.01,65.83,64.62,63.46,62.30,61.14,60.03,59.02,58.10,57.21,56.32,55.40,54.49,53.55,52.62,51.78,51.24,50.76,50.29
85.02,88.86,91.53,93.51,94.45,94.42,93.71,93.03,92.08,91.10,90.48,90.64,91.21,91.92,92.99,94.46,95.79,96.47,97.39,98.86,101.04,103.23,105.47,107.69,109.80,111.22,112.67,114.08,114.94,113.61,110.75,106.55,102.36,100.11,101.99,104.57,107.46,110.53,114.66,119.21,124.33,129.51,133.50,136.70,139.14,141.07,142.80,144.90,146.80,149.17,152.42,157.13,161.60,165.72,169.78,174.27,177.70,180.99,184.11,186.92,188.72,190.51,192.89,196.02,199.88,202.88,205.55,208.37,211.69,214.76,218.04,221.50,225.02,228.27,231.13,233.78,236.33,238.87,241.44,243.77,245.86,247.73,249.61,251.40,253.20,254.79,255.54,254.89,253.91,252.79,251.66,250.63,249.84,249.37,249.17,248.83,248.59,247.94,246.75,244.94,242.48,239.92,237.41,235.03,232.45,229.39,226.55,223.89,220.75,215.85,211.08,206.92,203.62,200.06,195.39,189.63,182.92,175.93,170.69,168.38,168.63,170.32,172.01,173.74,175.59,177.64,180.32,182.67,185.15,187.76,190.03,192.31,194.33,195.90,196.84,197.27,197.49,198.00,199.36,203.01,207.61,211.12,213.51,215.57,214.72,214.12,212.98,210.65,208.07,205.61,202.46,198.01,191.32,186.09,181.81,178.42,175.82,173.28,170.91,168.76,166.83,165.10,163.57,162.10,160.85,160.22,161.03,162.05,163.24,164.62,166.16,166.92,167.11,166.82,166.15,165.26,163.94,162.41,160.96,159.45,157.59,154.92,151.35,147.55,144.11,140.76,137.60,135.04,132.72,130.80,128.92,126.73,124.37,122.28,120.52,119.04,117.64,116.26,115.10,114.11,113.14,112.28,111.81,111.41,110.85,110.09,109.63,109.11,108.43,107.65,106.47,105.15,103.87,102.79,101.58,100.03,98.34,96.64,95.05,93.33,91.51,89.63,87.78,85.85,83.91,81.99,80.16,78.86,77.69,76.51,75.32,74.13,72.89,71.68,70.48,69.24,68.09,66.95,65.79,64.60,63.44,62.28,61.10,59.97,59.01,58.08,57.18,56.29,55.40,54.47,53.54,52.73,52.07,51.60,51.14,50.68
86.10,90.01,92.57,94.82,96.74,97.58,97.37,97.09,95.87,94.47,93.52,93.66,93.90,94.49,95.43,96.65,97.74,98.43,98.80,99.37,101.21,103.48,105.83,108.16,110.35,111.98,113.58,115.25,116.54,115.66,113.30,110.14,106.31,101.86,103.09,105.44,108.37,111.65,116.25,121.33,127.04,132.79,137.12,140.13,142.73,145.10,147.40,149.79,152.26,154.90,157.96,162.16,165.66,169.47,173.87,179.06,182.14,184.76,187.38,190.17,192.08,193.82,196.25,199.41,202.77,205.73,208.51,211.36,214.47,217.34,220.33,223.47,226.70,229.89,232.52,235.07,237.66,240.31,243.11,245.63,247.94,250.13,252.63,255.09,257.53,259.67,260.78,260.82,259.78,258.09,256.28,254.69,253.59,252.87,252.43,252.05,251.73,251.26,250.54,249.54,247.91,245.79,243.59,241.37,237.36,232.58,228.60,225.47,221.97,217.45,212.51,208.04,204.90,201.90,197.62,191.93,185.08,178.54,173.16,170.90,171.63,174.33,176.67,178.77,180.73,182.68,185.06,187.07,189.14,191.49,194.29,197.07,199.41,201.02,201.67,202.53,202.97,203.36,204.15,206.57,209.48,211.89,213.85,215.79,215.22,213.50,211.20,208.76,205.95,203.30,199.43,194.10,188.02,183.54,180.04,177.20,174.68,172.19,170.02,168.07,166.31,164.98,164.25,163.65,163.35,163.86,165.39,166.77,168.01,169.17,170.15,170.25,169.80,168.72,166.34,163.89,161.83,160.04,158.27,156.29,153.62,150.58,147.38,144.26,140.99,137.85,135.00,132.66,130.79,129.16,127.47,125.48,123.39,121.82,120.71,119.85,118.60,117.54,117.08,116.77,115.93,115.22,114.68,113.98,112.97,112.02,111.59,111.22,110.76,110.14,108.51,107.03,105.69,104.38,102.86,101.14,99.32,97.44,95.50,93.63,91.74,89.83,87.96,86.03,84.15,82.29,80.48,79.04,77.75,76.50,75.26,74.03,72.79,71.56,70.33,69.09,67.91,66.81,65.70,64.55,63.39,62.24,61.04,59.92,59.00,58.07,57.14,56.24,55.38,54.48,53.63,52.98,52.50,52.02,51.55,51.06
87.31,91.18,93.98,96.33,98.50,100.15,101.16,101.62,99.85,98.00,96.82,96.86,97.15,97.50,98.03,98.83,99.97,101.03,101.37,101.32,101.97,103.99,106.24,108.53,110.71,112.94,114.85,116.66,118.20,118.70,116.98,113.66,109.55,105.68,104.74,106.56,109.85,113.67,118.02,123.50,129.78,136.00,140.38,143.34,146.02,148.99,152.67,155.61,158.28,161.09,164.19,167.50,170.03,173.40,177.63,182.32,185.35,188.06,190.68,193.28,195.05,196.76,198.96,201.71,204.77,207.71,210.46,213.17,216.01,218.92,222.08,225.30,228.43,231.28,233.86,236.44,239.12,241.97,244.87,247.49,250.03,252.65,255.40,258.14,260.62,262.66,263.96,264.25,263.64,262.39,260.83,259.43,258.30,257.58,257.23,256.90,256.59,255.86,254.84,253.89,252.11,249.88,247.38,244.64,240.68,235.35,230.40,226.26,222.62,218.27,213.25,208.66,205.67,202.77,198.88,193.61,187.09,180.75,176.25,175.00,176.47,179.12,181.61,183.66,185.86,188.57,190.36,191.69,193.12,195.03,197.92,200.76,202.69,203.89,204.74,205.64,206.43,207.20,208.11,209.64,211.41,212.80,214.13,216.17,215.89,214.27,211.95,209.40,205.85,202.26,197.48,191.51,185.57,181.20,178.16,175.85,173.54,171.50,169.63,168.35,167.79,167.45,167.29,167.34,167.72,168.58,170.26,171.19,171.83,172.52,172.21,171.26,169.80,167.80,164.97,162.13,159.50,157.08,154.81,152.49,149.76,146.85,143.91,141.14,138.05,134.97,132.21,130.21,128.93,127.63,126.12,124.37,123.86,123.34,122.69,121.81,120.47,119.66,119.35,119.24,118.93,118.18,117.16,116.04,114.93,113.83,113.30,112.80,112.23,111.61,110.03,108.34,106.62,104.87,103.00,101.21,99.34,97.37,95.38,93.46,91.57,89.67,87.70,85.77,83.90,82.02,80.18,78.88,77.50,76.18,74.94,73.71,72.47,71.27,70.05,68.76,67.49,66.36,65.27,64.17,63.07,61.92,60.81,59.80,58.93,58.00,57.08,56.16,55.28,54.57,54.24,53.82,53.25,52.67,52.09,51.48
88.46,92.17,95.11,97.70,100.20,102.50,104.50,105.90,105.15,103.86,102.51,101.50,101.75,102.19,102.62,102.98,103.69,104.12,104.01,103.65,103.77,104.96,106.68,108.71,110.86,113.34,115.57,117.67,119.58,120.98,119.91,117.04,113.07,108.99,106.74,107.94,111.17,115.31,119.70,125.26,131.73,138.13,142.42,145.50,148.90,153.02,157.96,161.76,164.75,167.67,170.74,173.44,174.90,177.51,181.25,185.50,188.52,191.26,193.89,196.40,198.04,199.69,201.66,204.04,206.77,209.59,212.26,214.89,217.58,220.63,223.89,227.09,230.07,232.68,235.24,237.85,240.60,243.60,246.59,249.41,252.20,255.05,258.05,260.87,263.41,265.53,266.89,267.62,267.50,266.73,265.60,264.55,263.54,262.76,262.27,261.88,261.33,260.37,259.13,257.94,255.85,253.43,250.68,247.52,243.09,237.44,232.13,227.57,223.55,219.03,213.75,208.98,206.11,203.33,199.83,195.00,188.87,182.93,179.43,178.91,180.65,183.10,185.73,187.98,190.40,193.27,194.87,195.80,196.93,198.69,201.43,204.17,205.94,207.01,207.88,208.84,209.81,210.66,211.32,211.93,213.05,214.00,214.96,216.50,216.66,215.16,212.93,210.60,206.73,202.80,197.79,191.71,185.64,181.29,178.37,176.28,174.23,172.09,170.63,170.18,170.73,171.24,171.81,172.43,173.05,173.69,174.59,174.88,174.62,173.89,172.47,170.68,168.45,165.79,162.81,159.87,157.00,154.21,151.55,149.04,146.20,143.38,140.79,138.45,135.48,132.69,130.46,129.09,128.15,127.25,126.21,125.02,125.18,125.16,124.74,123.84,122.50,121.60,121.23,121.18,121.16,120.33,119.10,117.81,116.68,115.55,114.74,113.92,113.05,112.17,110.70,108.98,107.12,105.18,103.17,101.30,99.38,97.38,95.37,93.40,91.49,89.56,87.52,85.56,83.64,81.72,79.88,78.70,77.35,76.00,74.68,73.36,72.04,70.80,69.59,68.33,67.11,65.95,64.84,63.75,62.67,61.52,60.49,59.59,58.79,57.90,56.98,56.14,55.49,55.15,55.12,54.81,54.19,53.57,52.93,52.27
89.56,93.02,96.03,98.97,101.84,104.71,107.49,109.97,111.35,111.35,109.93,107.20,107.35,108.10,108.64,108.56,108.47,107.55,106.71,106.26,106.33,106.26,107.14,108.77,110.87,113.34,115.87,118.39,120.76,122.70,122.31,120.30,116.80,111.95,108.99,109.50,112.38,116.67,121.30,126.70,133.07,139.46,143.56,146.86,151.46,157.10,163.21,168.08,171.48,174.49,177.44,179.76,180.11,181.74,184.78,188.64,191.65,194.39,197.02,199.52,201.07,202.61,204.36,206.39,208.79,211.40,213.97,216.54,219.21,222.45,225.75,228.85,231.64,234.11,236.65,239.29,242.10,245.19,248.28,251.38,254.41,257.38,260.63,263.37,266.00,268.34,269.66,270.97,271.35,271.07,270.53,269.91,269.13,268.28,267.48,266.94,266.00,264.82,263.41,261.78,259.25,256.58,253.63,250.11,244.86,239.04,233.80,229.24,224.69,219.78,214.11,209.10,206.31,203.68,200.53,196.14,190.48,185.09,182.69,182.68,184.34,186.50,189.26,191.88,194.49,197.11,198.82,199.53,200.62,202.47,204.87,207.41,209.19,210.33,211.11,212.09,213.14,213.84,213.99,213.68,214.48,215.40,216.19,216.80,217.49,216.16,214.09,212.20,208.34,204.48,199.74,193.96,187.55,183.16,180.12,177.99,176.27,173.65,172.68,173.17,174.74,175.97,177.39,178.47,179.04,179.02,178.50,177.99,176.61,173.79,171.37,168.91,166.10,162.98,160.06,157.26,154.39,151.43,148.42,145.86,142.88,140.12,137.93,136.09,133.22,130.90,129.50,128.96,128.20,127.73,127.36,126.94,127.09,127.19,126.82,125.90,124.66,123.43,122.83,122.74,122.80,121.87,120.61,119.35,118.27,117.18,115.97,114.69,113.38,112.07,110.76,109.14,107.31,105.37,103.36,101.41,99.44,97.44,95.43,93.42,91.46,89.48,87.40,85.39,83.38,81.40,79.57,78.49,77.28,75.92,74.46,72.99,71.52,70.20,68.99,67.84,66.75,65.55,64.39,63.31,62.23,61.08,60.10,59.29,58.60,57.75,56.86,56.19,55.93,56.09,56.18,55.89,55.27,54.66,53.97,53.32
89.79,93.52,97.00,100.08,103.15,106.18,109.14,111.86,114.10,115.52,115.68,114.16,113.77,113.87,113.84,113.31,112.44,111.10,109.78,108.79,108.52,108.38,108.92,110.01,111.51,113.88,116.39,118.90,121.32,123.50,124.06,123.12,120.58,116.42,111.93,111.18,113.36,117.53,121.81,126.86,132.73,138.72,143.22,146.91,151.91,157.99,164.64,169.90,173.77,177.09,180.06,181.98,183.33,185.62,188.69,191.90,194.71,197.50,200.17,202.61,204.36,205.81,207.44,209.36,211.61,214.02,216.37,218.93,222.01,225.00,228.05,230.86,233.33,235.60,238.07,240.81,243.74,246.73,249.96,253.24,256.41,259.47,263.16,266.28,269.04,271.44,273.20,274.55,274.96,274.75,274.31,273.99,273.54,273.02,272.46,271.87,270.79,269.46,267.81,265.69,262.85,259.62,256.21,252.61,247.35,241.18,235.67,231.05,226.60,222.24,216.48,210.73,206.75,203.87,200.70,196.60,191.62,187.36,185.88,186.32,187.98,189.89,192.31,194.89,197.69,200.67,202.92,204.03,205.26,207.12,209.76,212.73,214.72,215.81,216.31,216.01,216.39,216.65,216.40,215.99,216.45,217.13,217.78,218.15,218.64,217.85,216.19,214.01,210.40,206.67,202.62,197.85,191.39,186.37,182.79,180.25,178.21,176.58,176.70,177.77,179.15,179.93,180.79,181.38,181.47,180.71,179.73,177.86,175.19,171.90,168.25,165.17,162.43,159.89,157.45,154.84,152.02,148.99,145.73,142.78,140.47,138.41,136.49,135.34,133.78,132.54,131.78,131.44,130.60,130.03,129.60,129.16,129.07,129.10,128.83,128.06,126.78,125.40,124.60,124.15,123.57,122.39,121.06,119.72,118.41,116.93,115.65,114.45,113.26,112.00,110.74,109.11,107.23,105.24,103.23,101.21,99.26,97.39,95.48,93.53,91.56,89.55,87.46,85.45,83.44,81.47,79.62,78.39,77.19,75.89,74.46,72.99,71.52,70.17,68.93,67.77,66.53,65.22,63.98,62.86,61.78,60.63,59.71,58.97,58.28,57.63,57.21,57.01,57.01,57.12,57.20,56.94,56.35,55.68,54.94,54.09
89.93,93.85,97.60,100.85,104.04,107.17,110.27,113.44,116.35,118.78,120.27,120.32,120.01,119.76,119.28,118.34,116.76,114.92,113.26,112.01,111.48,111.20,111.38,111.91,112.71,114.52,116.85,119.34,121.86,124.40,125.85,125.83,124.17,120.77,115.82,113.82,114.74,118.16,122.24,126.84,132.14,137.74,142.54,146.47,151.48,157.52,164.31,170.37,174.58,178.14,181.36,183.41,185.75,188.60,191.74,194.75,197.66,200.56,203.32,205.79,207.73,209.25,210.82,212.62,214.74,216.94,219.26,221.94,225.15,227.92,230.63,233.10,235.30,237.46,239.91,242.62,245.48,248.38,251.76,255.15,258.51,261.91,266.07,269.46,272.32,274.79,277.06,278.71,279.36,279.33,279.03,278.74,278.31,277.86,277.43,276.75,275.72,274.35,272.47,269.86,266.43,262.70,258.93,255.16,249.90,243.87,238.43,233.74,229.05,224.71,218.95,212.81,207.73,204.61,201.38,197.62,193.40,189.99,189.16,189.88,191.54,193.34,195.41,198.00,200.99,204.23,206.98,208.75,210.59,212.82,215.25,217.94,219.79,220.81,221.18,220.31,220.22,220.04,219.40,218.76,218.82,219.44,220.24,220.58,220.88,220.34,218.92,216.60,212.97,209.03,205.20,201.16,195.50,189.74,185.59,182.77,180.60,179.81,180.38,181.59,182.83,183.33,183.62,183.43,182.65,181.25,179.35,176.37,172.79,169.03,164.79,161.71,159.22,157.05,155.00,152.70,150.09,147.21,144.17,141.63,139.79,138.20,136.68,135.93,135.24,134.84,134.70,134.67,133.78,133.03,132.38,131.79,131.49,131.21,130.67,129.77,128.43,126.82,125.66,124.76,123.67,122.56,121.23,119.79,118.29,116.59,115.29,114.16,113.07,111.88,110.66,108.97,106.99,104.94,102.96,100.95,99.05,97.28,95.45,93.55,91.61,89.61,87.53,85.56,83.58,81.62,79.76,78.42,77.18,75.83,74.39,72.98,71.54,70.18,68.90,67.67,66.33,64.95,63.66,62.49,61.39,60.41,59.66,59.03,58.33,57.86,57.76,57.87,58.04,58.14,58.22,57.99,57.42,56.65,55.70,54.55
89.96,93.98,97.74,101.19,104.42,107.55,110.79,114.65,117.99,120.92,123.44,125.51,126.03,125.81,125.02,123.70,121.52,119.09,117.23,116.06,115.38,114.86,114.67,114.63,114.62,115.29,117.24,119.71,122.40,125.44,127.68,128.41,127.50,125.00,120.88,117.61,116.60,118.54,122.56,126.58,131.25,136.44,141.44,145.43,149.98,155.39,161.83,169.17,173.57,177.29,181.05,183.89,187.20,190.49,193.76,197.12,200.47,203.57,206.44,209.07,211.21,212.96,214.58,216.24,218.26,220.23,222.78,225.71,228.72,231.29,233.54,235.60,237.60,239.76,242.26,244.78,247.37,250.17,253.69,257.14,260.75,264.77,269.43,272.99,275.87,278.43,281.30,283.59,284.72,285.02,284.90,284.31,283.50,282.85,282.39,281.56,280.81,279.53,277.45,274.34,269.99,265.82,261.82,257.78,252.52,247.25,242.29,237.50,232.17,227.19,221.53,215.42,209.38,206.01,202.68,199.31,195.96,193.05,192.54,193.37,195.00,196.85,198.59,201.23,204.42,207.79,210.98,213.74,216.77,219.82,221.45,222.99,224.30,225.24,225.67,225.09,224.75,224.15,223.11,222.08,221.70,222.46,223.76,224.35,224.46,223.82,222.41,220.15,216.17,211.62,207.44,203.77,199.93,193.31,188.57,185.61,183.56,183.41,183.65,184.44,185.63,186.03,185.76,184.41,182.32,180.38,176.98,173.23,169.20,164.96,160.92,158.57,156.58,154.54,152.74,150.91,148.67,146.24,144.00,142.84,141.25,139.82,138.86,138.16,137.81,137.94,138.39,138.80,137.94,136.89,135.83,134.91,134.46,133.53,132.30,130.91,129.52,127.55,125.85,124.40,122.98,122.31,121.07,119.52,117.84,116.14,114.88,113.80,112.77,111.68,110.52,108.72,106.57,104.44,102.50,100.61,98.82,97.10,95.32,93.47,91.61,89.67,87.59,85.72,83.81,81.87,80.01,78.62,77.25,75.75,74.23,72.98,71.59,70.24,68.91,67.54,66.15,64.76,63.45,62.23,61.08,60.48,60.03,59.54,58.84,58.52,58.57,58.79,59.01,59.15,59.25,59.04,58.47,57.56,56.18,54.65
88.78,93.10,97.03,100.68,103.99,107.17,110.52,114.81,118.97,122.88,126.26,128.84,131.07,132.01,131.93,130.91,128.05,124.94,122.29,120.38,119.46,118.53,117.90,117.48,117.17,117.10,118.13,120.09,122.82,126.00,128.65,130.03,129.98,128.54,125.44,121.98,119.67,119.65,123.15,126.79,130.89,135.48,140.41,144.33,148.45,153.34,159.40,166.07,171.13,175.62,179.86,183.27,187.51,191.52,195.33,199.25,202.87,206.28,209.40,212.17,214.42,216.25,218.03,219.88,221.89,224.07,226.69,229.49,232.18,234.60,236.86,239.05,241.20,243.36,245.60,248.10,250.88,253.88,257.34,260.85,264.69,269.05,273.72,277.19,280.37,283.52,286.59,288.47,289.52,289.97,290.04,289.47,288.76,288.09,287.45,286.38,285.26,283.70,281.46,278.25,273.19,268.51,264.31,260.46,255.86,250.91,246.11,241.45,236.35,230.27,224.06,217.94,212.15,208.18,204.70,201.59,198.86,196.75,196.94,198.12,199.69,201.11,202.33,204.80,208.22,212.21,216.02,218.66,221.09,223.44,225.20,226.70,228.20,229.48,230.26,229.94,229.72,229.30,228.52,227.43,227.27,227.91,228.82,229.09,228.75,227.75,226.13,223.88,220.34,215.50,210.57,206.11,202.53,197.16,192.32,188.79,187.18,187.23,187.44,187.84,188.27,187.88,185.76,183.27,180.79,178.48,174.77,171.07,167.52,164.20,160.84,158.85,157.12,155.26,153.44,151.54,149.59,147.85,146.71,146.31,145.30,144.26,143.46,142.38,141.93,142.15,142.57,142.20,141.01,139.42,137.77,136.31,134.63,132.94,131.47,130.08,128.08,126.04,124.32,122.89,121.65,121.21,120.25,118.94,117.39,115.69,114.51,113.46,112.41,111.37,110.14,108.21,105.98,103.86,101.84,99.99,98.19,96.41,94.68,92.95,91.23,89.39,87.26,85.40,83.56,81.68,79.79,78.27,76.68,75.04,73.45,72.13,70.83,69.63,68.43,67.13,65.83,64.49,63.18,61.99,61.22,60.80,60.44,60.07,59.64,59.37,59.45,59.70,59.97,60.12,60.10,59.79,59.04,57.58,56.00,54.33
87.89,92.31,96.36,100.14,103.49,106.70,110.16,114.79,119.76,124.68,129.04,132.27,135.68,137.52,138.11,137.50,134.64,131.07,127.62,124.84,123.49,122.13,121.14,120.42,119.86,119.29,119.53,120.85,123.27,126.46,129.29,131.12,131.82,131.38,129.24,126.25,123.33,121.59,123.94,127.07,130.69,134.80,139.62,143.45,147.24,151.62,157.08,162.74,168.55,173.87,178.49,182.59,187.60,192.27,196.64,201.10,205.06,208.84,212.27,215.21,217.57,219.55,221.51,223.53,225.53,227.92,230.53,233.15,235.60,237.89,240.27,242.67,245.04,247.41,249.78,252.36,255.12,257.94,261.24,264.89,269.02,273.61,278.09,281.56,284.99,288.41,291.31,292.81,293.77,294.33,294.56,294.10,293.62,293.05,292.32,291.27,289.93,288.04,285.46,282.04,276.61,271.37,266.79,263.05,259.13,254.52,249.88,245.30,240.47,233.87,227.19,220.86,215.23,210.65,206.93,204.07,202.09,201.10,202.12,203.52,204.73,205.27,206.24,208.67,212.25,216.54,220.41,222.84,224.76,226.66,228.93,230.82,232.57,234.03,234.97,234.81,234.74,234.54,234.07,233.19,233.19,233.58,233.97,233.81,233.00,231.67,229.88,227.61,224.41,219.63,214.27,209.04,204.99,200.84,196.43,192.95,191.80,191.78,191.70,191.42,190.81,189.32,185.74,182.41,179.66,177.16,173.92,170.58,167.55,165.08,162.42,160.29,158.33,156.41,154.55,152.82,151.32,150.32,150.13,150.29,149.93,149.36,148.66,147.30,146.58,146.53,146.45,144.96,143.11,140.98,138.81,136.78,134.11,131.93,130.21,128.62,126.13,124.11,122.32,120.82,119.78,119.37,118.67,117.74,116.60,115.21,114.13,113.08,112.01,110.99,109.60,107.52,105.18,103.03,101.07,99.34,97.59,95.74,94.00,92.32,90.65,88.86,86.77,84.90,83.05,81.20,79.36,77.74,75.99,74.26,72.62,71.20,70.00,68.93,67.85,66.65,65.41,64.13,62.96,62.04,61.63,61.34,61.06,60.78,60.53,60.37,60.50,60.75,60.97,61.00,60.76,60.25,59.27,57.40,55.65,53.86
87.95,92.02,95.97,99.76,103.07,106.28,109.82,114.70,120.32,126.23,131.83,136.42,139.63,141.56,142.41,142.29,140.86,137.32,133.25,129.56,127.37,125.59,124.39,123.51,122.67,121.99,121.87,122.39,123.82,126.86,129.45,131.36,132.51,132.92,131.57,130.13,127.93,125.08,125.11,127.39,130.68,134.64,139.31,143.09,146.73,150.60,154.97,159.50,166.09,172.17,177.00,182.09,187.52,192.65,197.53,202.37,206.88,211.17,214.99,218.16,220.68,222.96,225.11,227.17,229.18,231.61,234.11,236.59,238.98,241.17,243.75,246.40,249.05,252.06,255.50,258.33,260.50,262.23,265.23,269.17,273.68,278.35,282.33,286.12,289.57,292.51,294.57,296.01,297.00,297.62,297.96,297.74,297.62,297.31,296.76,296.31,295.26,293.02,289.72,285.76,280.61,274.71,269.36,265.40,262.02,257.96,253.54,248.90,244.16,238.40,231.58,224.65,218.66,213.54,209.42,206.81,205.94,206.67,208.66,209.98,210.15,209.02,210.33,213.08,216.68,220.46,223.15,225.45,227.59,229.95,233.31,236.15,238.10,239.29,239.89,239.73,239.73,239.67,239.46,239.23,239.12,239.07,238.89,238.24,236.98,235.47,233.63,231.31,228.01,223.91,218.92,213.26,207.69,204.07,201.12,199.10,198.37,197.81,196.78,195.25,193.15,190.13,186.27,182.70,179.70,177.34,175.92,173.40,170.66,168.51,166.50,163.23,160.07,157.56,155.70,154.77,154.12,153.89,154.29,154.69,155.08,155.07,154.42,153.16,151.92,150.93,149.59,146.56,143.47,140.85,138.39,135.75,132.93,130.83,128.73,126.37,123.84,121.95,119.79,117.85,116.90,116.20,115.66,115.30,115.06,114.66,113.71,112.63,111.55,110.48,108.81,106.53,104.00,101.65,100.08,98.75,97.18,95.27,93.37,91.55,89.73,87.91,86.07,84.15,82.15,80.26,78.60,76.97,75.22,73.49,71.83,70.31,69.24,68.22,67.18,66.07,64.84,63.59,62.86,62.71,62.51,62.32,62.11,61.85,61.55,61.64,61.88,62.07,62.08,61.71,61.04,60.16,58.94,57.02,55.13,53.22
89.64,93.11,96.52,99.82,103.07,106.35,109.99,114.97,121.11,127.76,134.14,139.32,142.45,144.60,145.79,146.04,145.15,141.87,137.74,133.73,131.04,128.96,127.53,126.47,125.53,124.91,124.82,125.03,125.64,127.35,129.60,131.60,133.22,134.50,133.75,133.33,131.91,129.12,127.75,128.92,131.45,134.92,139.07,142.80,146.41,150.13,154.16,158.33,164.70,170.95,176.32,181.80,187.49,192.86,197.97,203.02,208.74,213.58,217.69,221.17,223.87,226.35,228.64,230.78,232.86,235.17,237.52,239.85,242.13,244.29,247.18,250.36,253.61,256.81,259.68,262.07,264.04,265.70,269.13,273.48,278.13,282.55,286.37,290.04,293.34,296.09,298.01,299.58,300.82,301.78,302.48,302.73,302.66,302.34,301.88,301.42,300.36,298.43,295.45,291.21,285.76,279.33,273.17,268.28,264.88,261.29,257.34,252.92,247.76,242.26,235.76,229.06,223.16,217.72,213.15,210.53,210.32,212.18,214.92,216.37,216.38,215.47,216.22,218.03,220.54,223.35,225.70,228.24,231.07,234.32,238.18,240.96,242.91,244.19,245.02,245.31,245.69,245.98,246.09,246.02,245.65,245.05,244.17,242.91,241.27,239.46,237.37,234.88,231.67,227.76,223.23,218.09,212.29,207.83,204.81,203.00,202.06,201.29,199.79,197.53,194.51,190.85,187.17,184.12,181.83,180.25,179.62,178.14,175.93,173.28,171.01,167.87,163.64,159.11,157.07,156.91,157.19,157.66,158.20,158.59,159.04,159.15,158.73,157.83,156.20,153.66,150.35,146.72,143.17,140.12,137.20,134.10,131.20,128.62,126.11,123.58,121.14,118.13,115.39,113.49,113.01,112.65,112.56,112.69,112.94,113.12,112.62,111.79,110.73,109.50,107.89,105.71,103.29,101.01,99.51,98.33,96.84,94.92,93.02,91.23,89.39,87.51,85.66,83.72,81.71,79.75,77.92,76.22,74.49,72.77,71.12,69.65,68.59,67.55,66.50,65.46,64.41,63.76,63.55,63.65,63.53,63.38,63.21,62.99,62.72,62.91,63.02,62.79,62.09,61.44,60.62,59.63,58.35,56.49,54.56,52.61
91.68,94.58,97.42,100.23,103.41,106.77,110.53,115.60,122.17,129.31,136.13,141.63,144.81,147.30,148.90,149.50,148.78,145.89,141.94,137.78,134.61,132.34,130.69,129.49,128.57,128.02,128.07,128.15,128.12,128.43,130.12,132.02,133.97,135.96,135.82,136.14,135.55,133.41,131.27,131.25,132.72,135.39,138.93,142.62,146.23,149.92,153.88,158.01,163.97,170.22,176.11,181.68,187.53,193.08,198.44,203.88,210.74,216.06,220.41,224.19,227.10,229.77,232.19,234.42,236.60,238.80,240.99,243.16,245.27,247.54,250.74,254.37,258.06,261.19,263.15,265.01,267.00,269.14,273.16,277.79,282.41,286.57,290.38,293.85,296.94,299.57,301.58,303.34,304.90,306.25,307.36,308.05,307.95,307.55,307.07,306.37,305.19,303.66,301.23,296.95,291.24,284.60,277.81,271.67,267.91,264.57,261.09,256.97,251.39,245.94,239.88,233.69,228.03,222.52,217.60,214.86,215.00,217.66,220.88,222.43,222.51,222.27,222.31,222.93,224.19,226.11,228.68,231.62,235.14,239.17,243.21,245.69,247.66,249.26,250.49,251.44,252.35,253.06,253.44,253.20,252.42,251.18,249.58,247.72,245.71,243.60,241.27,238.57,235.37,231.50,227.42,223.03,217.56,212.29,208.64,206.35,204.79,203.82,201.96,199.19,195.61,191.72,188.47,186.19,184.85,184.16,183.93,183.31,181.54,178.20,175.34,172.51,167.52,161.19,158.68,159.10,160.17,161.21,161.78,162.06,162.35,162.41,162.07,161.32,159.21,155.10,149.96,146.11,142.40,138.92,135.52,132.06,129.03,125.87,123.00,120.50,118.05,114.02,110.89,109.19,109.11,109.07,109.31,109.75,110.33,110.95,111.03,110.48,109.42,108.13,106.67,104.79,102.68,100.63,99.12,97.99,96.56,94.68,92.86,91.18,89.38,87.48,85.54,83.59,81.59,79.55,77.51,75.71,73.97,72.25,70.60,69.17,68.04,66.94,65.90,64.96,64.25,64.27,64.50,64.68,64.60,64.47,64.32,64.15,63.94,64.04,63.86,63.09,61.69,60.81,59.93,58.91,57.62,55.88,53.98,52.03
92.93,95.77,98.59,101.54,104.60,107.98,111.98,117.30,124.03,130.93,137.47,143.17,146.84,149.93,152.12,153.12,152.25,150.04,146.45,142.06,138.10,135.83,134.11,132.92,132.27,131.67,131.71,131.74,131.64,131.95,132.23,133.23,134.85,136.79,137.54,138.29,138.59,138.07,136.42,135.35,135.07,136.05,139.15,142.77,146.36,150.07,154.08,158.41,164.53,170.88,176.75,181.98,187.83,193.64,199.68,206.50,213.32,218.72,223.22,227.16,230.37,233.38,235.96,238.21,240.49,242.88,244.99,246.89,248.75,251.56,254.96,258.31,261.28,263.82,265.74,267.60,269.99,273.66,277.79,282.01,286.31,290.61,294.57,298.03,300.94,303.35,305.41,307.36,309.21,310.88,312.28,312.92,312.88,312.42,311.67,310.52,309.19,307.54,305.18,301.54,296.57,290.95,284.22,276.55,271.70,267.83,264.36,260.62,255.33,249.77,244.05,238.37,232.97,228.16,223.42,220.48,220.27,223.07,225.93,227.18,227.10,226.81,226.70,226.87,227.75,229.75,233.71,237.27,240.85,244.54,248.28,250.78,253.23,255.47,257.16,259.05,260.68,261.80,262.13,261.06,259.31,257.28,255.08,252.78,250.32,248.14,245.81,242.93,239.19,235.41,231.60,227.62,223.04,218.92,214.49,210.38,207.46,205.84,203.41,200.40,196.99,193.34,190.96,189.51,188.80,188.56,188.44,187.69,185.65,181.97,178.27,174.75,170.26,165.00,161.06,161.25,162.36,163.56,164.27,164.40,164.62,164.37,163.33,161.50,158.30,153.43,147.93,144.19,140.48,136.61,132.82,129.28,125.76,122.33,119.45,116.98,113.84,110.97,108.60,107.02,106.55,105.87,105.50,105.66,106.42,107.49,108.18,107.74,106.55,105.80,104.37,103.19,101.93,100.26,98.95,97.79,96.42,94.77,93.10,91.61,90.04,88.30,86.31,84.26,82.20,80.15,78.14,76.24,74.36,72.52,70.75,69.12,67.79,66.62,65.67,65.00,65.03,65.26,65.52,65.70,65.63,65.53,65.40,65.28,65.22,64.63,63.69,62.47,61.10,60.01,59.02,57.95,56.71,55.17,53.37,51.55
93.53,96.40,99.35,102.45,105.53,109.04,113.27,118.62,125.26,132.09,138.62,144.43,148.72,152.35,155.09,156.64,156.05,154.23,151.02,146.80,142.49,139.72,137.72,136.50,136.03,135.69,135.82,135.95,135.97,136.15,135.90,136.12,136.82,137.82,138.78,139.95,140.88,141.16,139.88,138.60,137.68,137.77,139.99,143.42,147.02,150.72,154.55,158.86,165.14,171.67,177.67,182.95,188.68,194.63,201.14,208.76,215.68,221.24,225.88,229.94,233.48,236.77,239.65,242.16,244.54,247.44,249.92,251.92,253.55,256.16,259.10,261.89,264.34,266.47,268.79,271.28,274.28,278.32,282.24,286.38,290.69,295.04,298.62,301.77,304.49,306.94,309.49,311.71,313.72,315.49,316.96,317.52,317.55,317.07,316.08,314.65,313.20,311.42,309.06,305.81,301.31,296.27,290.24,283.10,276.37,271.66,267.79,263.95,258.99,253.52,248.05,242.67,237.42,232.83,228.77,226.23,225.80,227.92,229.96,231.05,231.33,231.30,231.29,231.83,233.22,235.69,239.62,243.33,247.00,250.63,254.08,256.56,259.08,261.57,263.82,266.16,267.99,269.09,269.22,267.77,265.72,263.33,260.67,257.77,254.80,252.50,250.30,247.65,244.26,240.31,236.30,232.39,228.39,224.41,219.98,215.49,211.54,208.20,205.09,202.04,198.97,195.88,194.39,193.55,193.10,192.96,192.67,191.58,189.32,185.66,180.63,176.34,171.99,167.52,163.72,163.50,164.50,165.85,166.76,166.84,166.33,165.04,162.93,160.44,155.95,150.63,145.45,141.87,138.37,134.35,130.45,127.22,123.85,120.93,118.39,115.95,112.80,110.31,108.15,106.32,104.87,103.26,102.27,102.01,102.47,103.27,103.98,103.92,103.30,103.04,102.10,101.10,99.72,97.78,96.79,95.93,95.05,94.10,93.18,91.90,90.43,88.67,86.48,84.27,82.15,80.13,78.20,76.14,74.29,72.56,70.88,69.18,67.69,66.52,65.78,65.54,65.98,66.27,66.52,66.73,66.65,66.57,66.45,66.17,65.58,64.52,63.23,61.84,60.46,59.21,58.14,57.02,55.80,54.45,52.73,51.14
93.70,96.63,99.83,103.08,106.27,109.96,114.42,119.70,126.13,132.96,139.63,145.49,150.46,154.61,157.84,159.94,159.88,158.31,155.54,151.80,147.40,143.90,141.54,140.25,139.84,139.90,140.15,140.45,140.68,140.67,140.40,139.96,139.48,139.11,139.89,141.40,142.78,143.32,142.32,141.34,140.50,140.23,141.39,144.53,148.10,151.72,155.21,159.36,165.80,172.60,178.85,184.37,189.94,195.97,202.80,210.79,217.88,223.64,228.42,232.59,236.46,240.02,243.27,246.19,248.76,252.32,255.38,257.66,259.07,261.07,263.19,265.33,267.40,269.30,272.23,275.68,279.38,283.08,286.65,290.88,295.36,299.62,302.55,305.25,307.83,310.52,313.76,316.32,318.42,320.14,321.52,321.97,322.07,321.57,320.41,318.78,317.22,315.29,312.86,309.85,305.67,300.97,295.97,290.49,281.65,275.90,271.35,267.12,262.47,257.19,251.91,246.69,241.55,236.91,233.76,231.92,231.34,232.32,233.32,234.36,235.27,235.69,236.00,237.38,239.76,242.93,246.07,249.66,253.41,257.08,260.21,262.68,265.06,267.58,270.42,272.93,274.67,275.52,275.34,273.80,271.84,269.36,266.34,262.79,259.29,256.81,254.74,252.52,249.99,245.80,241.41,237.36,233.67,229.23,225.17,221.11,216.41,210.86,207.05,204.10,201.49,199.15,198.51,198.08,197.62,197.34,196.72,195.15,192.68,189.21,182.66,177.58,173.15,169.25,166.48,165.80,166.61,168.11,169.28,169.32,167.69,164.91,161.51,158.58,152.79,147.24,142.74,139.35,136.17,132.18,128.40,125.72,122.90,120.89,118.85,116.46,113.69,111.12,108.84,106.55,103.84,101.20,99.58,98.78,98.59,98.70,99.09,99.48,99.78,99.95,99.73,98.57,96.57,94.05,93.45,93.09,92.92,92.92,93.09,92.05,90.61,88.74,86.26,83.86,81.68,79.70,77.85,75.60,73.87,72.38,70.94,69.27,67.67,66.56,66.11,66.38,67.00,67.28,67.51,67.74,67.67,67.58,67.43,66.86,65.40,64.00,62.61,61.22,59.82,58.43,57.28,56.13,54.93,53.79,52.14,50.83
92.97,96.12,99.64,102.99,106.24,110.08,114.82,120.55,126.93,133.61,140.16,146.07,151.43,156.15,159.40,160.81,161.05,160.22,158.77,156.35,152.00,148.92,146.65,145.01,143.84,143.45,143.60,143.76,143.72,143.57,143.37,143.02,142.70,142.63,143.45,144.53,145.38,145.64,144.79,144.16,143.97,144.41,145.73,147.90,150.49,153.30,156.21,160.12,166.96,174.60,181.67,186.55,192.27,198.51,205.31,212.71,219.51,225.27,230.37,235.03,239.05,242.88,246.37,249.83,254.08,257.66,260.37,262.25,263.47,265.38,267.44,269.73,272.25,274.83,277.81,281.15,284.72,288.32,292.13,296.10,299.83,303.05,305.83,308.83,312.06,315.42,318.56,321.66,324.17,325.85,326.56,326.82,326.64,326.00,324.88,323.26,321.52,319.08,316.13,313.17,309.77,305.48,300.57,295.16,288.29,281.27,275.42,270.70,265.81,260.51,255.26,250.16,245.25,240.62,237.28,235.24,234.48,235.06,235.92,236.92,238.00,239.06,240.59,242.63,245.29,248.63,252.66,256.31,259.55,262.39,264.93,267.57,270.51,273.49,276.25,279.25,281.12,281.88,281.54,279.94,277.72,275.34,272.62,269.12,265.28,261.99,259.11,256.50,254.22,251.17,247.75,243.94,239.26,234.05,229.10,224.54,220.38,215.13,211.28,208.64,206.92,205.47,204.63,203.58,202.34,201.27,200.29,198.34,195.34,191.22,185.02,179.39,174.60,170.82,168.19,167.70,168.74,170.56,172.21,171.71,168.58,164.23,159.69,155.52,150.44,145.39,140.90,137.56,134.38,131.11,128.24,126.15,123.92,121.96,119.97,117.76,115.14,112.68,110.26,107.73,104.93,102.09,99.78,97.90,96.45,95.76,95.77,95.66,95.49,95.91,95.52,94.10,92.22,90.55,90.20,90.20,90.54,91.10,91.47,91.11,90.03,88.23,85.75,83.25,80.86,78.58,76.37,74.08,72.34,70.98,69.86,68.79,67.55,66.79,66.63,67.09,67.86,68.37,68.63,68.71,68.69,68.39,67.70,66.63,65.27,63.78,62.32,60.88,59.44,58.05,56.70,55.66,54.86,53.96,52.61,51.22
92.25,95.77,99.45,102.85,106.13,110.00,114.80,120.73,127.13,133.79,140.31,146.21,151.82,156.96,160.36,161.53,162.14,161.76,161.00,159.49,156.16,153.24,151.02,149.31,147.91,147.14,146.96,146.83,146.60,146.41,146.30,146.13,146.04,146.24,146.87,147.48,147.91,148.01,147.51,147.32,147.58,148.33,149.57,151.13,153.20,155.59,158.18,162.53,169.97,177.72,184.31,188.89,194.72,201.14,207.88,214.69,221.09,226.92,232.35,237.45,241.64,245.68,249.74,254.00,258.78,262.16,264.66,266.67,268.64,271.10,273.21,275.37,277.80,280.59,283.51,286.65,289.96,293.37,297.04,300.62,303.84,306.62,309.65,313.01,316.74,320.58,323.85,327.17,329.62,331.07,331.53,332.07,331.97,331.30,330.08,328.26,326.18,323.25,319.75,316.38,313.36,309.43,304.69,299.31,293.66,286.17,279.59,274.35,269.15,263.68,258.32,253.21,248.46,243.87,240.49,238.38,237.55,237.93,238.82,239.99,241.38,242.91,245.18,247.86,250.96,254.47,258.41,261.77,264.65,267.27,270.05,273.18,276.80,280.39,283.36,286.04,287.72,288.35,287.90,286.38,284.17,281.80,279.15,275.85,272.18,268.43,264.86,261.73,259.05,256.23,253.26,249.85,245.14,239.63,234.01,228.74,224.26,219.50,215.68,213.15,211.91,210.96,209.96,208.58,206.89,205.23,203.53,201.00,197.47,192.84,186.99,181.05,176.18,172.69,170.19,170.15,171.49,173.52,175.42,174.23,169.98,164.54,159.20,154.34,149.64,145.09,140.90,137.51,134.52,131.62,129.07,127.06,125.18,123.28,121.25,119.01,116.39,113.97,111.53,108.95,106.14,103.25,100.55,98.06,95.84,94.30,93.33,92.48,91.93,92.30,91.85,90.56,89.00,87.79,87.29,87.35,87.90,88.72,89.13,89.18,88.37,86.81,84.80,82.25,79.81,77.42,75.04,72.58,71.03,69.92,69.11,68.50,67.80,67.47,67.58,68.11,68.96,69.76,70.16,70.02,69.49,68.80,67.74,66.43,65.11,63.59,62.11,60.65,59.23,57.99,56.86,56.14,55.68,54.94,53.76,52.35
91.56,95.58,99.26,102.66,105.94,109.72,114.35,120.22,126.71,133.50,140.09,145.89,151.60,157.02,160.70,162.10,163.15,162.93,162.22,161.20,159.90,156.84,154.63,153.14,152.04,150.98,150.23,149.68,149.30,149.21,149.20,149.27,149.50,149.94,150.13,150.26,150.36,150.44,150.48,150.84,151.33,151.97,152.91,154.22,156.24,158.61,161.12,166.61,174.88,181.98,186.74,191.37,197.30,203.84,210.52,216.74,222.65,228.56,234.36,239.83,244.22,248.43,253.38,258.71,262.85,265.82,268.24,270.92,274.58,278.28,280.53,282.27,284.08,286.57,289.32,292.17,295.12,298.23,301.36,304.43,307.40,310.34,314.00,317.80,321.88,326.03,329.64,332.84,334.77,335.78,336.42,337.76,338.07,337.47,336.02,333.81,331.21,327.78,323.72,319.46,316.42,312.81,308.32,302.93,297.73,290.60,283.87,278.04,272.50,266.68,261.07,255.85,251.14,246.66,243.37,241.34,240.55,240.94,242.04,243.60,245.42,247.25,249.77,253.06,256.76,260.44,263.30,266.00,268.72,271.71,275.58,279.53,283.97,288.30,291.76,293.30,294.47,294.91,294.45,293.12,291.20,288.76,285.95,282.99,280.01,276.14,272.03,268.22,264.51,260.96,257.91,255.09,251.31,245.98,239.91,233.71,228.04,223.98,220.24,217.65,216.46,215.61,214.50,213.05,211.26,209.20,206.45,203.13,199.05,194.09,188.58,182.55,177.87,174.88,172.48,173.16,174.87,176.98,178.92,176.89,171.91,165.87,160.07,155.06,150.43,146.38,142.78,139.24,136.62,133.76,130.94,128.48,126.69,124.85,122.71,120.20,117.43,114.99,112.64,110.19,107.48,104.69,101.92,99.28,96.81,94.33,91.76,89.95,89.10,89.12,88.75,87.98,86.93,85.77,84.73,84.55,85.01,85.76,86.08,86.24,85.61,84.47,83.39,80.84,78.51,76.23,73.85,71.09,69.94,69.22,68.68,68.42,68.43,68.62,68.97,69.45,70.30,71.48,72.09,71.69,70.07,68.81,67.55,66.23,64.92,63.45,61.98,60.54,59.20,58.25,57.78,57.60,57.42,56.72,55.59,54.23
91.72,95.68,99.35,102.47,105.55,109.09,113.51,119.52,126.15,132.84,139.30,145.27,150.99,156.63,160.56,162.17,163.53,163.87,163.40,162.41,161.34,159.63,157.95,156.50,155.43,154.58,153.96,153.73,153.85,153.91,153.71,153.71,153.92,154.24,154.03,153.79,153.68,153.76,153.84,154.04,154.42,154.98,155.77,157.23,159.33,162.04,165.39,171.27,178.21,184.28,189.11,194.38,200.31,206.64,213.08,219.26,224.90,230.86,236.72,242.15,246.59,251.61,256.92,262.13,266.45,271.03,274.72,277.76,280.56,283.84,286.08,287.95,289.86,292.28,295.02,297.55,300.04,302.85,305.76,309.06,312.56,316.07,319.27,322.86,326.87,331.19,335.46,338.11,339.95,341.29,342.46,343.71,344.06,343.55,342.17,339.75,336.37,332.51,328.24,323.54,319.28,315.30,311.12,306.40,301.22,294.52,287.98,281.97,276.04,269.82,263.94,258.54,253.72,249.42,246.36,244.61,244.12,244.74,246.09,247.93,250.10,252.42,255.27,258.25,261.33,264.49,267.31,270.97,274.66,278.15,281.54,285.67,290.00,294.03,297.16,298.82,300.19,300.93,300.78,299.43,297.63,295.25,292.29,288.80,285.53,282.24,278.87,275.39,271.51,268.21,264.94,261.35,257.09,252.05,246.68,241.19,235.78,231.17,227.67,225.27,223.67,221.49,219.43,217.46,215.37,212.83,209.36,205.19,200.44,195.26,190.05,184.80,180.51,177.55,175.84,177.06,178.69,180.24,181.37,179.33,173.60,167.32,162.24,157.40,153.22,149.67,146.40,142.75,139.23,136.14,133.37,130.80,128.61,126.68,124.36,121.47,118.37,116.10,113.79,111.33,108.76,105.94,103.08,100.31,97.71,95.11,92.58,90.44,88.83,87.82,86.80,85.89,84.94,83.78,82.51,81.93,81.89,82.20,82.37,82.53,82.29,81.74,81.10,79.51,77.50,75.25,72.93,70.61,69.83,69.41,69.10,69.06,69.34,70.36,71.70,72.87,73.68,74.73,74.72,73.26,71.01,69.36,67.98,66.76,65.68,64.30,62.86,61.46,60.23,59.48,59.25,59.19,59.05,58.45,57.41,55.97
92.00,95.89,99.55,102.41,105.26,108.57,112.78,118.81,125.54,132.14,138.49,144.59,150.27,155.94,160.07,162.04,163.64,164.60,164.62,163.89,162.94,162.26,161.06,159.75,158.75,158.16,157.77,157.83,158.27,158.37,158.08,158.09,158.31,158.47,158.00,157.54,157.30,157.38,157.42,157.47,157.77,158.31,158.98,160.45,162.47,165.21,168.94,175.24,181.21,186.64,191.73,197.48,203.44,209.54,215.70,221.77,227.36,233.40,239.20,244.35,248.95,254.53,260.21,265.68,270.77,276.18,280.51,283.74,286.13,289.14,291.51,293.58,295.56,297.72,300.27,302.53,304.80,307.75,310.89,314.32,317.94,321.56,324.47,328.11,332.17,336.47,340.80,343.16,345.13,346.84,348.33,349.40,349.70,349.20,347.86,345.44,341.50,337.17,332.46,327.12,322.06,317.72,313.66,309.43,304.35,298.25,292.00,285.84,279.73,273.27,267.08,261.35,256.24,252.32,249.73,248.44,248.38,249.44,251.06,252.92,255.00,257.38,260.13,262.82,265.63,268.68,271.92,276.11,280.28,284.04,287.32,291.66,295.79,299.39,302.25,304.08,305.78,306.85,306.98,305.84,304.25,301.95,298.91,295.19,291.81,288.79,285.74,282.33,278.52,275.23,271.71,267.68,263.15,258.26,253.33,248.41,243.53,238.81,235.68,233.44,231.41,228.42,225.64,222.99,220.16,216.58,212.47,207.61,202.33,197.00,192.06,187.86,184.41,181.84,180.53,181.51,182.63,183.33,183.26,181.11,175.52,169.58,164.95,160.17,156.18,152.89,149.91,146.46,142.39,138.94,136.00,133.35,130.80,128.64,126.18,123.21,119.97,117.71,115.43,113.00,110.41,107.52,104.66,101.89,99.23,96.64,94.21,91.75,89.38,87.54,86.05,84.92,83.84,82.51,81.04,80.14,79.72,79.65,79.71,79.79,79.78,79.59,79.13,78.31,76.61,74.47,72.31,70.66,70.29,70.18,70.21,70.66,71.58,73.28,75.23,76.82,77.60,78.12,77.33,75.06,72.44,70.43,68.85,67.64,66.79,65.50,64.21,62.98,61.90,61.35,61.25,61.24,61.11,60.59,59.50,57.84
92.38,96.23,99.92,102.58,105.20,108.28,112.30,118.13,124.89,131.44,137.72,143.82,149.40,154.79,159.02,161.61,163.36,165.00,165.90,165.91,165.11,164.72,163.88,162.87,162.03,161.74,161.68,161.88,162.20,162.15,161.98,162.20,162.53,162.49,162.03,161.57,161.33,161.39,161.33,161.33,161.65,162.26,162.89,164.07,165.66,167.88,171.08,177.93,183.83,189.34,194.81,200.67,206.72,212.63,218.42,224.20,230.09,236.28,241.84,246.37,251.32,256.96,263.11,269.64,276.41,281.01,284.69,287.89,291.00,294.20,296.96,299.29,301.21,302.73,304.76,306.81,309.34,313.18,317.30,320.58,323.48,326.37,329.43,333.66,337.99,341.99,345.28,347.89,350.33,352.37,353.75,354.57,354.74,354.12,352.71,350.63,346.57,341.70,336.13,329.70,324.71,320.13,315.88,311.76,306.92,301.71,295.86,289.58,283.67,277.23,270.67,264.35,258.69,255.47,253.75,253.22,253.74,255.59,257.53,258.97,260.18,261.87,263.74,266.35,269.60,273.38,277.65,281.47,285.09,288.73,292.76,297.43,301.27,304.40,307.18,309.16,311.26,312.65,312.96,312.51,311.28,309.08,306.11,302.79,299.71,296.34,292.69,288.82,285.35,281.51,277.73,274.00,269.77,264.78,259.67,254.86,250.77,246.89,244.31,242.12,239.76,237.00,234.02,230.50,226.18,220.62,215.91,210.63,205.10,199.70,195.01,192.22,190.35,188.89,187.39,186.84,186.69,186.16,184.34,181.79,177.84,173.23,168.44,163.46,159.15,155.76,153.02,150.26,146.41,142.45,138.90,136.14,133.40,130.78,128.27,125.74,122.76,120.16,117.90,115.59,112.71,109.72,107.01,104.42,101.86,99.37,96.96,94.07,91.01,88.78,87.27,85.81,84.25,82.49,80.83,79.81,79.22,78.94,78.95,78.85,78.76,78.51,77.85,77.33,75.89,74.00,72.17,71.51,71.59,71.83,72.37,73.86,76.10,78.17,79.97,81.42,82.20,81.55,79.81,77.30,74.67,72.32,70.40,69.04,68.38,67.14,66.21,65.38,64.54,64.19,64.13,64.09,63.93,63.46,62.05,59.95
91.34,95.42,99.15,102.13,105.05,108.31,112.25,117.49,124.09,130.64,136.72,142.08,147.96,153.45,157.95,161.12,162.94,164.72,166.30,167.37,167.39,167.21,166.75,166.14,165.54,165.23,165.19,165.32,165.51,165.55,165.74,166.14,166.57,166.73,166.70,166.67,166.75,166.96,166.96,166.89,167.08,167.53,168.07,168.78,169.83,171.42,173.91,180.00,185.95,191.52,196.87,203.10,209.15,214.67,220.08,226.12,232.34,238.28,243.47,247.86,253.00,258.93,265.65,272.80,279.51,283.88,287.75,291.45,295.16,298.84,301.96,304.54,306.57,307.88,309.76,312.05,314.94,318.76,322.61,325.78,328.65,331.58,334.75,338.76,342.78,346.48,349.65,352.32,354.77,356.80,358.16,359.01,359.20,358.60,357.21,355.24,351.51,346.49,340.48,333.79,327.97,322.83,318.19,313.83,309.19,304.31,298.97,293.23,287.52,281.27,274.69,268.26,262.63,260.01,258.98,258.95,259.59,260.77,262.02,263.04,264.02,265.33,267.13,270.30,274.25,278.41,282.42,286.09,289.75,293.56,297.73,301.89,305.75,309.45,313.12,315.21,316.95,318.08,318.52,318.37,317.37,315.61,313.08,309.68,305.66,302.27,299.09,295.73,292.25,288.29,284.34,280.45,276.16,271.60,266.78,261.87,257.13,253.74,251.15,248.80,246.30,243.40,240.11,236.15,231.33,225.47,219.61,213.71,208.08,203.00,198.95,197.03,195.89,194.81,193.02,190.98,189.44,187.94,185.74,183.23,180.60,177.73,174.39,169.69,164.97,160.42,156.54,154.23,150.77,146.99,143.46,140.66,138.20,136.19,134.12,131.67,128.46,125.35,122.50,119.57,116.09,113.00,110.04,107.27,104.69,102.17,99.63,96.62,93.41,90.78,88.80,87.04,85.24,83.19,81.26,79.91,79.00,78.45,78.21,78.01,77.84,77.54,76.88,76.22,74.94,73.60,72.69,72.94,73.82,74.59,75.56,77.89,80.31,82.37,84.14,85.72,86.57,85.54,83.26,80.23,77.21,75.09,73.52,72.27,71.06,69.82,68.80,67.98,67.37,67.06,66.94,66.86,66.74,66.47,64.79,62.22
89.87,94.21,98.04,101.55,104.86,108.30,112.13,116.77,123.02,129.50,135.43,140.05,146.26,151.92,156.74,160.46,162.37,164.25,166.43,168.51,169.45,169.58,169.53,169.34,169.03,168.71,168.71,168.81,168.93,169.24,169.85,170.46,171.00,171.45,171.82,172.18,172.53,172.87,172.97,172.91,172.97,173.20,173.59,173.85,174.35,175.29,176.95,181.82,187.73,193.30,198.45,205.03,210.99,216.14,221.31,227.78,234.34,239.95,244.75,249.08,254.40,260.70,267.91,275.38,281.67,286.03,290.32,294.64,298.95,303.15,306.66,309.55,311.81,313.14,315.02,317.61,320.84,324.51,328.02,331.14,334.09,337.09,340.23,343.75,347.29,350.73,353.98,356.69,359.04,360.95,362.31,363.15,363.37,362.86,361.59,359.69,356.30,351.33,345.15,338.43,331.69,325.90,320.79,316.06,311.54,306.81,301.87,296.72,291.29,285.42,278.96,272.60,267.22,265.15,264.54,264.78,265.40,265.73,266.31,267.11,268.13,269.35,271.41,275.03,279.33,283.50,287.03,290.67,294.41,298.29,302.40,306.28,310.47,314.82,319.04,321.14,322.45,323.34,323.93,323.89,323.03,321.68,319.59,316.22,311.52,307.89,304.90,302.03,298.64,294.88,290.98,286.96,282.60,278.45,273.97,269.04,263.66,260.34,257.44,254.76,252.06,248.83,245.18,240.88,235.83,229.96,223.22,216.96,211.38,206.64,203.16,201.60,200.69,199.65,197.63,194.22,191.40,189.10,186.88,184.60,183.00,181.61,179.84,175.91,171.14,165.82,161.03,158.78,155.68,152.32,149.07,146.29,143.96,142.43,140.75,138.42,134.97,131.58,128.03,124.20,119.98,116.54,113.22,110.14,107.36,104.76,102.08,99.10,95.92,92.95,90.41,88.29,86.28,84.09,81.94,80.20,78.94,78.16,77.66,77.33,77.02,76.62,76.00,75.26,74.25,73.55,73.56,74.50,76.01,77.35,78.89,82.00,84.36,86.27,87.97,89.63,90.49,89.38,86.99,83.85,80.63,78.70,77.41,76.22,74.47,73.25,72.04,71.06,70.48,70.14,69.91,69.77,69.65,69.43,67.51,64.52
88.18,92.60,96.76,101.05,104.58,107.90,111.44,115.78,121.20,127.39,133.34,137.81,144.17,149.98,155.10,159.28,161.44,163.68,166.34,169.01,170.69,171.52,171.99,172.21,172.25,172.23,172.60,172.92,173.20,174.15,175.23,176.13,176.89,177.58,177.91,178.14,178.37,178.63,178.83,179.04,179.13,179.13,179.17,179.17,179.24,179.47,180.12,183.36,188.76,194.21,199.29,205.92,211.62,216.65,221.99,229.06,235.91,241.23,245.64,249.88,255.44,262.19,269.50,276.74,282.83,287.41,292.20,297.16,302.11,306.75,310.74,314.15,316.93,318.65,320.66,323.41,326.83,330.64,334.65,337.91,340.69,343.24,345.94,348.73,351.76,355.01,358.26,361.15,363.39,365.10,366.45,366.89,367.09,366.79,365.83,364.08,360.75,356.12,350.33,343.61,336.42,329.99,324.23,319.05,314.38,309.62,304.73,299.78,294.89,289.83,283.72,277.57,272.73,271.05,270.21,270.17,270.66,270.75,271.59,272.77,274.23,276.05,278.75,281.93,285.25,288.47,291.91,295.64,299.21,302.64,306.45,311.53,316.77,321.24,324.01,325.87,327.19,328.28,329.15,328.96,328.08,326.70,324.78,322.20,318.67,313.86,309.25,305.99,303.29,300.45,297.22,293.51,289.36,285.09,280.80,276.31,271.43,267.12,263.38,260.00,256.71,252.89,248.76,244.16,238.88,232.65,226.33,220.71,215.62,210.92,207.44,205.03,203.34,201.94,199.87,195.52,191.84,189.06,186.95,185.17,183.84,182.76,181.64,179.74,176.12,172.16,168.38,165.09,162.09,159.39,156.80,154.10,151.08,148.67,146.84,145.08,141.73,139.01,134.91,129.81,124.70,120.07,116.34,112.88,109.38,106.58,103.91,101.14,98.19,95.07,92.00,89.34,87.05,85.05,82.95,80.72,79.13,78.32,77.67,77.07,76.44,75.79,75.17,74.87,74.59,74.58,75.03,76.02,77.34,79.22,81.88,85.73,88.08,89.75,91.12,92.49,93.11,92.31,90.88,89.10,86.67,84.31,82.51,81.04,79.39,78.27,76.91,75.53,74.36,73.87,73.45,73.19,72.90,72.09,69.99,66.79
86.38,90.95,95.58,100.33,103.87,106.99,110.19,114.08,118.98,124.86,130.76,135.44,141.56,147.76,153.16,157.23,159.94,162.52,165.21,167.98,170.64,171.76,172.94,174.18,175.34,175.71,176.33,176.92,177.51,178.61,179.71,180.64,181.41,182.09,182.46,182.70,182.94,183.24,183.57,183.99,184.28,184.36,184.22,184.11,183.85,183.55,183.48,185.55,189.94,194.86,199.86,206.24,211.83,217.17,223.01,230.34,237.03,242.05,246.25,250.52,256.45,263.41,270.60,277.52,283.51,288.50,293.67,298.97,304.24,309.39,313.98,317.92,321.08,323.10,325.70,329.21,333.21,336.91,340.32,343.40,346.09,348.43,350.84,353.26,356.27,359.81,363.25,366.22,368.55,370.24,371.32,371.57,371.79,371.46,370.32,368.39,364.85,360.00,354.24,348.22,341.22,334.66,328.64,323.16,317.62,312.58,307.66,302.80,298.08,293.55,288.25,282.72,277.82,276.73,276.53,276.93,277.75,278.81,280.25,281.65,283.04,284.69,286.98,289.39,291.90,294.57,297.97,301.13,304.10,307.36,312.26,317.75,322.79,327.01,330.13,332.60,333.99,334.98,335.80,335.60,334.80,333.21,330.87,327.92,324.60,319.99,315.18,311.08,307.28,304.47,301.69,298.62,295.32,291.27,286.97,282.55,278.07,273.70,268.96,264.54,260.65,256.40,251.78,246.69,240.96,234.33,228.03,222.77,218.08,213.54,209.67,206.50,204.05,201.98,199.30,193.93,189.48,186.35,184.41,183.15,182.07,181.02,179.94,178.87,176.35,173.96,171.80,169.26,166.75,164.22,161.82,159.64,157.19,155.10,153.07,150.59,146.44,143.65,139.89,135.08,129.63,124.12,119.50,115.39,111.57,108.28,105.44,102.56,99.57,96.53,93.30,90.72,88.61,86.66,83.98,81.20,79.36,78.59,77.89,77.17,76.51,75.98,75.63,75.61,75.62,75.85,76.42,77.42,78.84,81.46,85.10,88.90,91.08,92.63,93.91,95.15,95.72,95.23,94.24,92.91,90.87,88.91,87.29,85.77,83.88,82.07,80.49,79.15,78.07,77.39,76.97,76.48,75.63,73.99,71.55,68.24
84.58,89.31,94.37,99.38,102.88,105.81,108.71,112.07,116.63,122.18,127.93,132.86,138.50,145.10,150.80,154.68,157.96,160.80,163.29,165.88,169.42,170.78,172.80,175.30,177.84,178.87,179.81,180.73,181.69,182.72,183.67,184.51,185.23,185.83,186.34,186.68,187.01,187.43,187.93,188.52,189.05,189.34,189.09,188.88,188.33,187.62,187.02,188.20,191.32,195.45,200.33,206.41,212.03,217.80,224.15,231.53,237.83,242.59,246.70,251.07,257.39,264.45,271.42,277.97,283.88,289.35,294.80,300.25,305.68,311.39,316.66,321.13,324.63,326.99,330.38,334.81,339.43,342.89,345.38,348.18,350.83,353.08,355.41,357.81,361.10,365.12,368.86,371.76,374.16,375.83,376.53,376.69,376.91,376.43,374.92,372.68,368.88,363.63,357.71,352.43,346.00,339.55,333.46,327.82,321.29,315.78,310.70,305.81,301.10,296.92,292.57,287.84,282.74,282.34,283.11,284.26,285.56,287.97,290.06,291.57,292.71,293.94,295.45,297.08,298.96,301.29,304.59,306.95,309.28,312.61,319.05,324.45,328.73,332.52,336.58,339.87,341.33,342.12,342.77,342.64,341.97,340.15,337.22,333.48,329.90,326.07,321.74,316.74,311.27,307.92,305.29,302.88,300.64,297.00,292.69,288.17,283.92,279.90,274.26,268.73,264.12,259.54,254.41,248.77,242.51,235.46,228.96,223.87,219.47,215.04,210.59,206.75,203.53,200.61,197.00,190.62,185.59,182.32,180.59,179.72,178.70,177.47,176.11,175.29,173.81,172.96,172.54,171.53,169.75,167.30,165.00,163.53,162.24,161.02,158.82,155.15,149.79,146.61,143.56,139.76,134.39,128.25,122.60,117.76,113.76,109.87,106.76,103.63,100.46,97.60,94.42,92.20,90.44,88.49,85.03,81.74,79.67,78.90,78.21,77.46,76.94,76.70,76.71,76.87,76.98,77.23,77.77,78.84,80.56,83.93,88.33,91.67,93.65,95.19,96.50,97.70,98.30,98.09,97.26,95.92,94.07,92.77,91.54,90.03,87.83,85.17,83.37,82.23,81.49,80.61,80.23,79.46,77.94,75.42,72.56,69.20
83.30,87.78,92.51,97.42,101.32,104.56,107.42,110.38,114.86,119.97,124.97,129.02,133.92,139.95,146.10,151.44,154.32,156.80,158.95,161.07,163.78,166.55,169.77,172.99,175.83,179.27,181.79,183.49,184.61,185.89,186.95,187.83,188.73,189.93,190.83,191.56,192.23,192.90,193.69,194.34,194.82,194.99,194.60,193.81,192.90,191.99,191.27,191.91,193.80,196.76,201.00,207.62,213.87,219.39,225.00,231.98,237.99,242.72,246.99,251.57,257.74,265.10,271.94,277.96,283.58,289.26,294.68,300.03,305.59,311.94,318.11,323.21,327.06,330.56,334.56,338.74,342.70,345.96,349.23,352.30,354.97,357.26,360.43,364.39,368.51,372.61,376.70,378.70,380.24,381.24,381.52,381.67,381.49,380.80,379.46,377.28,373.86,368.94,362.72,355.65,350.26,343.95,337.76,332.40,326.90,320.41,314.29,308.94,304.23,300.32,296.18,291.94,288.00,288.19,289.26,290.63,292.05,293.81,295.43,296.89,298.38,300.25,302.26,304.38,306.51,308.62,311.03,313.49,316.58,320.75,326.70,331.15,335.18,338.59,341.08,343.34,344.74,345.72,346.45,346.63,345.99,344.48,342.08,338.84,335.08,331.09,326.88,322.50,317.98,312.99,308.90,306.01,303.77,300.85,297.21,292.85,287.88,283.76,278.74,272.87,266.58,261.75,256.17,250.14,243.60,236.30,229.22,223.97,219.24,213.92,209.02,204.82,200.82,196.65,191.76,184.94,180.55,178.27,176.87,175.01,172.72,170.48,168.74,168.21,167.53,167.13,166.96,166.65,165.88,164.83,163.73,162.83,162.53,161.80,159.94,156.37,150.02,146.87,144.12,140.95,136.76,130.91,125.10,119.77,115.13,110.94,107.66,104.30,100.90,98.05,95.34,93.26,91.47,89.52,86.27,83.02,80.57,79.17,78.53,77.87,77.62,77.69,77.80,77.96,78.21,78.57,79.19,80.90,83.38,86.76,90.50,93.30,95.62,97.49,98.99,100.18,100.64,100.35,99.49,98.16,96.36,94.55,92.67,90.78,88.98,87.40,85.68,84.24,83.25,82.07,81.40,80.49,78.87,75.96,72.84,69.39
82.12,86.22,90.80,95.24,99.37,102.96,106.05,109.10,113.33,117.91,122.31,126.00,129.86,134.55,140.21,146.37,149.74,152.44,154.59,156.48,158.64,161.89,165.92,170.02,173.70,178.31,181.87,184.69,186.94,188.84,190.47,192.06,193.59,194.95,196.03,196.83,197.57,198.38,199.31,199.94,200.27,200.25,199.79,198.77,197.66,196.64,195.91,196.16,197.14,199.28,203.08,209.64,216.01,221.14,226.03,232.42,238.14,242.82,247.16,251.83,257.99,265.63,272.28,277.75,283.21,289.03,294.41,299.64,305.13,311.72,318.57,324.48,329.09,333.22,337.45,341.61,345.57,349.16,353.11,356.54,359.46,362.13,366.20,371.06,375.37,378.98,382.59,384.16,385.28,385.96,386.12,386.22,385.74,384.83,383.49,381.39,378.46,374.11,368.05,360.04,354.25,348.37,342.44,336.60,331.53,325.13,318.70,312.76,307.51,303.66,299.80,296.15,293.18,293.67,294.87,296.31,297.76,299.22,300.65,302.23,304.25,307.14,309.16,311.21,313.26,315.27,317.28,319.95,323.46,327.78,332.70,336.48,340.14,343.17,344.92,346.75,348.63,350.20,351.16,351.07,349.99,348.37,346.14,343.03,339.39,335.55,331.46,327.12,323.00,317.88,313.22,309.49,306.58,303.83,300.59,296.46,291.14,286.57,281.59,275.37,268.07,263.02,257.24,251.02,244.30,236.86,229.59,224.02,218.70,212.46,207.23,202.66,198.18,193.43,188.03,181.65,177.44,175.00,173.18,170.14,167.07,164.47,162.65,161.70,160.78,160.31,160.27,160.35,160.42,160.40,160.32,160.25,160.70,160.55,159.01,155.57,149.62,146.79,144.30,141.56,138.23,132.70,126.99,121.44,116.35,112.11,108.56,104.93,101.34,98.43,96.16,94.29,92.55,90.61,87.84,84.75,81.98,79.91,78.92,78.45,78.42,78.64,78.82,79.32,80.31,81.34,82.25,83.94,86.46,89.46,92.56,95.09,97.59,99.76,101.29,101.95,101.83,101.23,100.18,98.72,96.81,94.63,92.54,90.67,89.13,87.94,86.45,85.07,84.00,82.82,81.86,80.68,78.89,75.83,72.62,69.15
81.02,84.64,89.20,92.85,97.08,101.07,104.61,108.15,111.99,115.96,119.92,123.69,126.27,128.92,133.31,139.75,144.36,147.75,150.21,152.06,153.92,156.88,161.35,166.50,171.47,176.18,180.34,184.58,188.78,191.61,194.17,197.06,199.60,200.76,201.85,202.44,203.02,203.88,204.81,205.35,205.45,205.17,204.71,203.73,202.58,201.54,200.88,200.89,201.20,202.83,206.36,212.33,218.42,223.04,227.22,232.87,238.29,242.88,247.23,251.91,258.16,266.06,272.47,277.35,282.76,288.67,294.03,299.11,304.36,310.85,318.20,325.07,330.79,335.11,339.23,343.59,348.09,352.48,357.02,360.87,364.25,367.60,372.60,377.80,381.74,384.40,386.83,388.36,389.44,390.10,390.40,390.40,389.71,388.58,387.09,385.08,382.72,379.16,373.67,365.41,358.02,352.82,347.45,340.49,335.32,329.93,323.81,317.14,310.91,306.93,303.43,300.45,298.30,298.84,300.01,301.40,302.80,304.27,305.74,307.59,310.30,314.52,316.14,317.64,319.33,321.34,323.35,326.33,329.96,333.86,337.30,340.64,343.82,346.47,348.18,350.11,352.93,355.42,356.74,355.91,353.96,351.89,349.54,346.23,342.97,339.56,335.55,330.76,326.59,322.63,318.15,313.27,309.13,306.08,303.00,299.14,293.81,288.50,283.07,276.45,268.75,263.50,257.73,251.47,244.67,237.18,230.06,224.04,217.89,210.71,205.24,200.31,195.60,190.84,185.59,180.37,175.95,172.38,169.52,165.15,161.70,159.27,157.65,155.67,153.63,152.64,152.64,152.87,153.60,154.31,155.09,156.07,157.06,157.57,156.31,153.05,148.69,146.42,144.17,141.68,138.94,133.75,128.35,122.83,117.46,113.36,109.47,105.53,101.76,98.75,96.90,95.32,93.68,91.74,89.72,86.87,83.83,81.07,79.38,79.18,79.32,79.55,79.78,80.92,83.14,85.31,86.72,87.82,89.74,92.05,94.53,97.01,99.55,101.99,103.44,103.11,102.05,100.92,99.56,97.85,95.69,93.26,91.33,89.82,88.42,87.04,85.91,84.90,83.90,82.97,81.73,80.18,78.13,75.12,71.96,68.55
80.63,83.39,87.75,91.57,95.28,98.95,102.61,106.30,110.19,113.91,117.42,120.76,123.21,125.48,128.55,132.79,136.90,140.98,144.05,146.27,148.61,152.46,157.85,163.50,168.24,173.05,177.91,182.83,187.61,191.67,195.59,198.96,201.55,203.09,204.51,205.74,206.99,208.33,209.40,209.93,210.05,209.85,209.44,208.69,207.84,207.02,206.31,205.50,205.23,206.26,209.23,215.42,220.43,224.52,228.41,233.14,238.40,242.95,247.31,252.04,258.35,266.22,272.57,277.30,282.22,288.15,293.21,297.82,302.64,308.89,316.56,324.10,330.59,335.35,340.37,345.28,350.25,355.66,360.61,364.86,368.76,372.70,377.48,381.86,385.63,388.81,391.64,393.42,394.62,395.32,395.61,395.61,395.03,393.81,391.95,389.42,386.71,383.33,378.54,371.38,363.07,356.94,351.82,346.64,340.89,334.95,328.72,322.35,316.34,311.27,307.29,304.55,303.16,303.65,304.85,306.35,308.15,311.16,313.88,315.91,317.66,319.98,321.12,322.48,324.23,326.54,329.89,333.24,336.58,339.77,342.40,345.22,348.07,350.87,353.57,355.99,357.86,358.97,359.15,358.11,355.83,353.33,350.70,347.67,344.57,341.51,338.10,334.03,329.13,324.98,320.69,316.10,311.59,307.85,304.17,299.94,294.55,288.74,283.13,276.52,268.89,263.64,257.94,251.73,244.91,237.32,230.33,223.97,217.34,209.92,204.34,199.38,194.71,190.18,185.70,181.11,176.59,172.16,167.80,163.11,159.71,156.96,154.38,151.60,148.96,146.62,144.96,144.61,145.10,145.96,147.11,148.48,150.26,150.80,150.17,148.48,146.03,143.98,141.68,138.95,135.66,131.30,127.07,122.59,117.86,114.30,110.89,107.24,103.56,100.45,98.87,97.46,95.87,93.87,91.47,88.69,85.81,83.08,81.00,81.48,82.70,84.17,85.60,87.15,88.90,90.54,91.84,92.64,93.58,95.04,97.04,99.37,101.72,102.36,101.67,100.24,98.63,97.77,96.63,94.87,92.90,90.87,89.09,87.57,86.22,85.07,84.46,83.85,82.90,81.97,80.69,79.01,76.87,74.15,70.97,67.50
81.18,82.75,86.54,90.40,93.78,97.13,100.63,104.27,108.04,111.49,114.68,117.74,120.03,122.08,124.37,127.20,130.64,134.48,137.75,140.51,143.48,147.96,154.06,160.29,165.32,170.06,175.27,180.62,185.90,190.83,196.11,200.06,202.79,204.85,206.68,208.52,210.42,212.34,213.76,214.41,214.62,214.49,214.09,213.46,212.79,212.07,211.29,210.05,209.50,210.05,212.36,218.10,222.39,226.14,229.80,233.87,238.72,243.07,247.40,252.18,258.55,266.40,272.70,277.32,281.95,287.59,292.43,296.84,301.38,307.38,314.92,322.72,329.95,335.60,341.25,346.62,352.03,358.09,363.76,368.43,372.67,376.97,381.50,385.46,389.45,393.35,396.40,398.32,399.67,400.49,400.83,400.81,400.16,398.82,396.77,393.97,390.82,387.41,383.15,377.11,368.75,361.77,356.26,351.90,346.34,340.34,334.08,327.75,321.65,316.08,311.87,309.31,308.55,309.32,310.82,312.53,314.45,317.64,320.48,322.33,323.46,324.64,325.86,327.62,330.01,333.10,337.21,340.67,343.73,346.50,349.01,351.11,353.30,355.72,358.41,360.18,360.84,360.66,359.84,358.64,356.11,353.47,350.93,348.40,345.56,342.88,340.07,336.73,331.38,326.96,322.74,318.36,313.52,309.18,304.96,300.29,294.51,288.33,282.55,276.07,268.81,263.56,257.86,251.60,244.74,237.26,230.46,223.92,217.15,209.91,204.29,199.35,194.75,190.38,186.28,182.14,177.67,172.81,167.59,162.86,159.45,156.45,153.30,149.95,146.86,143.58,140.64,139.31,139.18,139.66,140.62,141.96,143.71,143.94,143.73,143.37,142.34,140.58,138.32,135.53,132.15,128.63,125.28,121.77,118.04,115.02,112.06,108.78,105.36,102.35,100.91,99.57,97.92,95.68,93.01,90.35,87.72,85.23,83.24,84.46,86.32,88.32,90.26,91.91,93.48,94.96,96.25,96.79,97.09,97.92,99.35,101.08,102.07,100.85,98.47,96.21,94.76,94.25,93.40,91.80,89.99,88.22,86.55,85.02,83.75,83.05,82.87,82.60,81.85,80.90,79.51,77.71,75.54,73.12,69.95,66.53
83.03,82.98,85.70,89.36,92.69,95.76,98.71,102.01,105.38,108.56,111.60,114.61,116.65,118.67,120.94,123.57,126.18,128.44,131.31,134.84,138.65,143.36,149.81,156.76,162.87,167.32,172.34,177.83,183.54,188.81,195.45,200.12,203.19,205.94,208.26,210.63,213.14,215.74,217.80,218.77,219.14,219.08,218.63,217.95,217.26,216.49,215.58,214.54,214.11,214.39,215.88,220.19,224.31,227.97,231.45,235.27,239.33,243.28,247.48,252.32,258.79,266.61,272.87,277.45,282.08,286.97,291.73,296.31,300.79,306.54,313.31,320.84,328.73,335.91,341.81,347.48,353.27,359.43,366.27,371.40,375.76,380.07,384.36,388.52,393.29,398.12,401.07,402.94,404.49,405.57,406.00,405.93,404.97,403.44,401.45,398.81,395.12,391.41,387.41,382.46,375.28,367.62,360.83,355.80,351.58,346.27,340.10,333.38,326.75,321.53,317.46,315.02,314.71,316.22,318.42,320.50,322.09,323.45,324.77,325.91,326.99,328.22,330.30,333.25,337.09,341.65,345.61,348.84,351.66,354.41,357.75,358.84,359.95,361.18,362.36,361.86,361.02,359.75,358.17,356.87,354.19,351.82,349.93,348.18,345.75,343.50,341.27,338.65,333.25,328.50,324.15,319.83,314.70,309.88,305.26,300.07,293.42,287.04,281.10,274.93,268.43,263.17,257.35,250.92,244.01,236.92,230.37,223.92,217.46,211.00,205.43,200.58,196.08,191.75,187.45,183.51,179.29,174.61,169.44,165.06,161.54,158.41,155.31,151.72,148.38,144.78,141.15,138.30,137.01,136.35,136.38,137.08,137.65,137.08,136.99,137.55,137.21,135.88,133.82,131.24,128.45,125.77,122.87,120.20,117.92,115.44,112.86,110.03,107.11,104.50,102.99,101.58,99.73,97.02,94.25,91.80,89.53,87.55,86.35,88.36,90.22,91.67,93.07,94.43,96.30,98.17,99.62,99.96,100.10,100.60,101.36,101.86,99.81,96.70,93.36,90.65,90.39,90.31,89.82,88.69,86.97,85.26,83.61,82.11,80.94,80.97,81.08,81.07,80.76,79.76,78.16,76.24,74.14,72.01,68.91,65.66
86.40,85.18,85.38,88.01,91.02,93.98,96.80,99.79,102.78,105.76,108.65,111.37,113.29,115.28,117.51,120.06,122.66,124.94,127.66,130.99,134.93,139.56,146.00,153.07,159.49,164.31,169.31,175.15,181.56,186.64,192.52,197.90,202.36,205.68,209.00,212.25,215.42,218.43,220.68,222.16,223.26,223.98,224.10,223.65,223.14,222.51,221.70,220.65,220.20,220.16,220.83,223.54,226.77,230.26,233.95,237.81,241.38,244.80,248.66,253.43,259.54,266.95,273.00,277.58,282.26,287.32,292.40,297.34,302.03,307.46,313.88,321.41,329.73,337.39,343.14,348.70,354.52,360.83,368.06,373.44,377.98,382.47,386.92,392.03,397.04,401.42,404.48,406.74,408.69,410.10,410.72,410.05,408.87,407.25,405.18,402.43,398.98,395.35,391.33,386.42,379.75,372.89,366.48,360.97,356.16,351.38,346.06,340.15,333.97,327.40,323.15,321.24,321.26,322.17,323.68,325.24,326.59,327.84,329.16,330.54,332.22,334.58,337.11,340.45,344.18,347.85,350.83,353.87,356.52,358.79,361.09,361.89,361.93,361.46,360.67,358.65,356.62,354.73,353.13,352.07,350.41,349.08,347.98,346.52,344.89,343.28,341.58,339.38,334.01,329.35,325.07,320.79,315.79,310.68,305.52,299.66,292.39,286.27,280.24,274.01,267.62,262.08,256.47,250.14,243.23,236.32,229.90,223.80,217.81,211.86,206.84,202.48,198.19,193.73,189.07,185.24,181.30,176.97,172.05,167.60,163.87,160.75,157.92,154.08,150.39,146.51,142.69,139.60,137.57,135.80,134.36,133.36,133.08,132.17,131.51,131.32,131.17,130.33,128.85,126.88,124.64,122.55,120.39,118.51,116.96,114.86,112.70,110.34,107.90,105.68,103.82,102.05,100.08,97.67,95.19,92.89,90.95,89.48,88.73,90.27,92.02,93.64,95.12,96.73,98.29,99.62,100.57,100.92,101.08,101.15,100.90,99.74,95.84,92.24,89.25,86.98,86.73,86.64,86.32,85.55,84.10,82.39,80.65,79.13,78.18,78.12,78.30,78.42,78.26,77.72,76.40,74.74,72.86,70.86,67.97,64.91
89.79,87.90,86.16,87.40,89.58,92.15,94.84,97.57,100.24,103.02,105.78,108.27,110.08,111.98,114.13,116.59,119.27,121.90,124.61,127.66,131.53,136.11,142.40,149.38,155.95,161.01,166.07,172.20,179.14,184.37,189.37,195.08,200.65,204.71,209.16,213.23,216.99,220.43,222.94,224.99,226.92,228.61,229.60,229.64,229.44,229.03,228.35,227.31,226.80,226.48,226.45,227.66,229.93,233.15,237.00,240.96,244.01,247.02,250.66,255.38,261.11,267.75,273.33,277.86,282.69,288.28,293.78,298.99,303.80,309.07,315.39,323.01,331.59,339.28,344.81,350.32,356.22,362.57,369.73,375.29,380.04,384.67,389.47,395.36,400.44,404.38,407.73,410.70,413.02,414.51,415.03,413.73,412.29,410.56,408.43,405.76,402.54,399.08,395.16,390.32,383.84,377.79,372.00,366.35,360.89,356.32,351.69,346.64,341.11,333.88,329.57,327.94,328.06,328.35,329.14,330.19,331.35,332.63,334.18,335.90,338.11,341.34,343.75,346.86,349.99,352.59,354.76,357.56,359.88,361.43,362.42,362.60,361.44,359.30,356.72,353.76,351.03,348.88,347.48,346.75,346.09,345.78,345.46,344.40,343.51,342.43,340.99,338.82,333.74,329.49,325.53,321.44,316.70,311.24,305.57,299.19,291.52,285.62,279.47,273.03,266.48,260.72,255.43,249.30,242.44,235.61,229.34,223.66,218.14,212.50,207.93,204.06,200.05,195.56,190.52,186.64,182.80,178.65,173.97,169.36,165.47,162.35,159.67,155.65,151.72,147.78,144.02,140.95,138.32,135.61,132.94,130.51,129.50,128.28,127.00,125.89,125.57,125.04,124.10,122.76,121.08,119.53,118.01,116.72,115.67,113.96,112.18,110.26,108.27,106.38,104.23,102.14,100.10,98.06,95.94,93.82,92.16,91.08,90.49,91.48,93.10,94.92,96.58,98.37,99.59,100.36,100.81,101.14,101.28,100.83,99.47,96.78,91.97,88.29,85.64,83.71,83.20,83.01,82.79,82.27,81.00,79.40,77.65,76.13,75.40,75.12,75.23,75.39,75.37,75.26,74.38,73.07,71.45,69.58,67.02,64.20
92.55,90.98,89.47,88.78,89.00,90.39,92.76,95.29,97.80,100.38,102.99,105.58,107.25,108.93,110.87,113.19,115.77,118.84,121.80,124.78,128.41,133.22,139.17,145.78,152.41,157.08,162.35,168.52,175.41,181.92,186.68,191.80,197.25,202.54,208.28,212.82,216.92,220.96,224.16,226.87,229.62,232.37,234.70,235.79,236.19,236.04,235.52,234.62,234.03,233.54,233.15,233.17,234.60,237.38,241.11,245.11,247.47,250.42,254.21,259.00,264.54,269.69,274.18,278.47,283.75,290.38,296.34,301.51,306.06,311.68,318.30,326.13,334.67,341.66,347.03,352.81,359.04,365.20,371.47,377.10,382.11,386.71,392.11,397.98,403.03,407.15,411.13,415.43,417.97,418.88,418.52,416.73,414.91,412.97,410.90,408.86,405.56,402.31,398.92,394.72,387.91,381.99,376.68,371.66,366.30,361.24,356.49,351.89,347.00,341.73,337.82,335.66,335.34,335.59,336.26,337.20,338.26,339.14,340.76,342.66,344.92,347.80,348.85,350.51,352.55,354.70,356.86,359.31,360.84,361.25,361.11,359.53,356.82,353.36,349.63,346.87,344.56,342.84,341.79,341.51,341.30,341.54,341.92,341.75,341.32,340.36,338.50,335.50,331.31,328.11,325.01,321.53,317.24,311.14,305.09,298.63,291.01,285.01,278.65,271.77,264.64,259.04,254.15,248.35,241.64,234.72,228.73,223.54,218.37,212.69,208.06,204.49,200.91,196.71,191.32,187.00,182.75,178.37,173.78,168.97,165.10,161.91,158.97,154.95,151.10,147.58,144.36,141.33,138.23,135.06,132.02,129.32,127.77,126.08,124.36,122.73,121.51,120.84,120.15,119.30,118.21,117.20,115.90,114.74,113.88,112.72,111.20,109.63,108.05,106.31,104.17,101.98,99.92,98.09,96.36,94.49,93.02,92.02,90.99,91.80,93.29,95.08,96.83,98.43,99.52,100.13,100.34,100.48,100.42,99.24,96.73,93.01,89.16,85.73,82.85,80.62,79.66,79.33,79.13,78.67,77.24,76.07,74.54,73.10,72.52,72.10,71.89,71.91,72.13,72.16,71.83,70.99,69.64,67.97,66.03,63.56
95.18,93.69,92.24,91.04,90.50,90.86,92.08,93.60,95.87,98.20,100.54,102.94,104.60,106.16,107.93,110.09,112.39,115.51,118.66,121.83,125.41,129.89,135.60,142.09,148.74,153.90,159.21,165.05,171.59,178.85,184.14,189.35,194.55,199.45,204.95,210.59,215.77,220.15,223.94,227.48,231.19,234.93,238.13,239.75,240.53,240.80,240.87,240.44,240.50,240.75,241.02,241.10,242.02,243.99,246.84,250.18,252.77,255.92,259.90,264.68,268.90,272.49,275.87,279.68,285.23,292.17,298.28,303.49,308.07,314.67,321.51,329.18,337.34,343.68,349.24,355.21,361.30,366.77,373.17,378.94,383.98,388.52,394.40,400.16,405.25,409.87,414.92,418.28,420.10,420.60,420.09,418.69,416.73,414.66,412.70,410.85,408.04,405.06,401.91,398.39,392.50,386.69,381.34,376.59,371.58,366.38,361.52,357.04,352.50,347.97,344.42,342.18,341.43,341.56,342.06,342.91,344.02,345.07,346.47,347.91,349.29,350.58,351.11,352.04,353.40,355.12,356.86,358.08,358.47,357.91,356.35,353.62,350.24,346.54,342.90,340.13,337.76,336.01,335.00,334.81,335.05,335.64,336.24,336.29,335.95,335.10,333.57,331.27,328.43,326.06,323.68,320.81,316.57,310.61,304.57,298.16,290.86,284.69,277.87,270.54,263.17,257.68,253.03,247.40,240.74,233.83,228.19,223.26,218.32,212.88,208.32,204.76,201.12,196.79,191.24,186.37,181.69,177.09,172.52,167.02,162.88,159.37,155.93,151.91,147.97,144.73,142.15,139.81,136.77,133.68,130.72,128.12,126.49,124.71,122.91,121.18,119.67,118.55,117.58,116.68,115.79,114.94,113.78,112.71,111.93,111.10,109.95,108.69,107.37,105.95,104.30,102.37,100.48,98.87,97.10,95.24,93.61,92.28,91.05,91.30,92.51,94.13,95.48,96.64,97.43,97.88,98.06,98.14,97.61,95.96,93.22,89.80,86.65,83.56,80.73,78.39,76.92,75.97,75.29,74.62,73.36,72.64,71.74,70.88,70.51,70.19,69.96,69.89,70.02,70.14,70.02,69.32,68.08,66.67,64.85,62.66
97.77,96.24,94.80,93.64,92.83,92.39,92.31,92.65,94.49,96.39,98.31,100.42,102.07,103.52,105.17,107.18,109.22,112.19,115.43,118.81,122.43,126.44,131.85,138.24,144.98,150.93,156.33,161.82,167.90,175.39,181.57,187.19,192.13,196.16,200.83,207.45,213.78,218.55,222.92,227.29,231.89,236.49,240.38,242.28,243.44,244.33,245.27,245.61,246.73,248.08,249.29,249.82,250.40,251.54,253.36,255.90,258.97,262.27,266.27,270.86,273.57,275.75,278.05,281.27,286.89,293.74,299.83,305.11,309.89,317.56,324.51,331.85,339.51,345.34,351.18,357.24,363.03,367.79,374.78,380.69,385.66,390.18,396.48,402.11,407.34,412.54,418.44,420.16,421.03,421.26,420.82,420.05,418.12,416.00,414.12,412.25,410.10,407.42,404.41,401.52,397.07,391.49,385.97,381.29,376.71,371.59,366.64,362.07,357.77,353.50,350.25,348.09,346.99,346.92,347.23,347.97,349.11,350.43,351.51,352.26,352.50,351.99,352.15,352.55,353.35,354.61,355.65,355.36,354.47,352.96,350.07,346.66,343.11,339.66,336.53,333.61,331.00,329.05,327.95,327.77,328.41,329.19,329.75,329.73,329.34,328.60,327.62,326.49,325.06,323.46,321.70,319.37,315.10,309.72,303.95,297.69,290.76,284.41,277.06,269.36,262.00,256.52,251.97,246.42,239.80,232.92,227.62,222.83,218.05,212.97,208.50,204.81,200.91,196.31,190.71,185.36,180.31,175.51,170.86,164.58,160.06,156.17,152.18,148.11,144.09,141.10,139.12,137.60,134.92,132.20,129.60,127.30,125.78,124.09,122.34,120.60,118.96,117.35,115.94,114.75,113.79,112.84,111.75,110.75,110.00,109.39,108.58,107.56,106.43,105.35,104.30,102.78,101.16,99.77,97.87,95.96,94.07,92.31,90.96,90.50,91.28,92.61,93.40,94.06,94.51,94.80,94.97,95.02,94.08,92.26,89.79,87.17,84.54,81.78,79.09,76.68,74.68,72.99,71.73,70.85,69.89,69.58,69.34,69.13,68.98,68.81,68.65,68.52,68.46,68.61,68.55,67.86,66.64,65.48,63.65,61.70
100.39,98.75,97.36,96.20,95.31,94.77,94.56,94.60,95.04,95.61,96.62,98.44,99.79,101.05,102.63,104.72,106.95,109.46,112.37,115.65,119.17,123.27,127.92,133.71,140.99,147.43,153.62,159.51,165.18,171.09,178.46,184.69,189.67,193.80,197.68,203.29,209.50,215.45,220.67,225.38,230.21,235.12,239.70,241.64,243.73,246.01,248.31,250.43,253.37,255.81,257.20,257.62,258.02,259.02,260.76,263.25,266.17,268.74,271.66,275.21,277.91,279.57,281.15,283.61,288.59,294.80,300.60,305.97,311.18,319.00,325.61,332.45,339.74,345.82,351.52,357.32,362.99,368.04,375.91,381.82,386.72,391.62,398.16,403.79,409.46,415.06,419.62,420.84,421.64,421.88,421.21,420.43,418.91,416.98,414.87,412.96,411.06,408.65,405.90,403.30,400.36,395.77,390.56,385.61,381.37,376.71,371.71,366.71,362.61,358.72,355.49,353.24,352.21,351.70,351.75,352.24,353.06,353.88,354.68,354.96,354.66,353.85,352.66,352.08,352.10,352.57,352.33,350.96,348.78,346.02,342.99,340.11,337.21,334.29,331.34,328.03,325.21,323.09,321.87,322.09,322.83,323.32,323.46,323.35,322.86,322.19,321.43,320.68,320.04,319.22,317.89,315.68,311.81,307.76,302.87,297.02,290.19,283.68,275.93,268.34,261.68,255.76,250.85,245.30,238.89,231.96,226.75,221.97,217.27,212.47,208.04,203.98,199.72,195.01,189.66,184.38,179.32,174.35,169.26,162.83,158.02,153.85,149.64,145.17,141.58,138.97,137.18,135.80,133.93,132.08,130.30,128.65,127.33,125.88,124.04,121.83,119.60,117.96,116.43,114.83,113.08,111.49,110.25,109.28,108.54,107.98,107.13,106.12,105.03,104.01,103.15,102.08,100.92,99.72,98.01,96.22,94.42,92.64,90.99,89.89,89.80,90.33,90.78,91.20,91.47,91.53,91.37,91.28,90.76,89.92,88.64,86.56,83.92,81.27,78.62,75.95,73.51,71.45,70.19,69.69,69.02,68.79,68.55,68.30,68.14,67.93,67.72,67.54,67.43,67.53,67.35,66.58,65.35,64.14,62.68,60.90
102.95,101.27,99.84,98.68,97.76,97.15,96.85,96.83,96.71,96.65,96.95,97.98,98.87,99.73,100.98,102.89,105.35,107.62,110.11,113.01,116.51,120.46,124.73,129.82,136.16,143.47,150.06,156.10,161.77,167.43,174.92,181.26,186.40,190.94,194.67,199.43,205.05,211.24,217.03,222.32,227.47,232.48,237.15,239.91,242.69,245.60,248.63,252.00,256.39,259.61,261.06,262.02,262.97,264.36,266.29,268.73,271.33,273.65,276.16,279.03,281.42,282.85,284.11,286.06,290.16,295.74,301.27,306.75,312.36,319.87,326.14,332.70,339.83,345.92,351.47,356.95,362.43,367.92,376.65,382.64,387.56,392.84,399.49,405.17,411.14,416.92,420.45,421.58,422.32,422.45,421.59,420.73,419.44,417.71,415.64,413.74,411.92,409.79,407.39,404.98,402.66,399.18,394.70,389.57,385.10,381.04,376.89,372.44,367.64,363.76,360.42,358.04,357.07,356.29,356.07,356.27,356.74,357.24,357.66,357.34,356.30,354.82,352.86,351.49,350.56,349.78,348.23,346.09,343.40,340.34,337.39,334.63,331.73,328.71,325.66,322.87,320.26,318.11,316.69,316.49,316.79,316.88,316.75,316.62,316.29,315.89,315.47,315.10,314.91,314.51,313.57,311.85,309.02,305.70,301.43,296.00,289.35,282.90,274.80,267.41,261.66,255.59,249.97,244.13,237.85,231.07,225.91,221.18,216.63,212.10,207.67,203.40,198.89,193.99,188.70,183.58,178.54,173.44,168.11,161.91,156.94,152.55,148.36,144.60,141.87,139.56,137.61,136.15,134.53,133.18,132.04,130.97,129.16,127.65,125.81,123.46,120.75,118.82,117.01,115.12,113.01,111.07,109.57,108.35,107.31,106.63,105.72,104.71,103.67,102.67,101.85,101.01,100.04,98.88,97.37,95.81,94.17,92.45,90.73,89.35,88.62,88.48,88.76,89.04,89.19,89.15,88.90,88.72,88.42,88.06,87.44,86.02,83.48,80.92,78.33,75.61,72.99,70.80,69.46,68.94,68.37,68.04,67.72,67.42,67.24,67.01,66.80,66.61,66.47,66.46,66.12,65.28,64.08,62.87,61.62,60.02
105.47,103.78,102.26,101.11,100.19,99.53,99.17,99.25,99.19,98.98,98.75,98.69,99.00,99.30,100.05,101.58,104.24,106.42,108.42,110.75,114.29,117.92,122.10,126.43,130.81,139.18,145.86,151.90,157.86,164.18,171.05,177.14,182.53,187.70,191.73,195.76,200.48,206.23,212.41,218.40,223.95,228.93,233.27,237.38,240.68,243.67,246.97,251.21,256.73,260.51,261.97,263.92,265.92,268.07,270.38,272.81,274.99,277.44,279.99,282.46,284.32,285.75,287.00,288.63,291.73,296.67,301.93,307.51,313.51,320.37,326.31,332.73,339.82,345.76,351.16,356.27,361.52,367.53,377.08,383.22,388.23,393.91,400.55,406.32,412.48,418.31,421.01,422.36,423.06,422.97,421.96,420.96,419.78,418.26,416.41,414.55,412.70,410.85,408.87,406.56,404.24,401.93,398.46,393.25,388.16,384.79,382.08,378.83,372.77,368.66,365.12,362.59,361.65,360.71,360.24,360.09,360.20,360.50,360.46,359.45,357.55,355.13,352.79,350.79,348.78,346.47,343.61,340.92,338.25,335.54,332.81,329.89,326.54,323.01,319.69,318.06,315.92,313.83,312.14,310.97,310.46,310.07,309.77,309.69,309.69,309.70,309.70,309.70,309.71,309.48,308.91,307.96,306.57,303.58,299.71,294.72,288.33,282.07,273.67,266.53,261.83,255.80,249.26,242.92,236.73,230.25,225.08,220.45,216.10,211.84,207.37,203.01,198.30,193.15,187.83,182.93,177.92,172.72,167.30,161.59,156.56,152.02,148.05,145.76,144.15,142.09,139.74,138.01,136.24,135.14,134.52,133.96,131.19,129.42,127.65,125.37,122.29,119.86,117.67,115.56,113.39,111.31,109.49,107.82,106.29,105.35,104.35,103.34,102.33,101.33,100.47,99.66,98.73,97.49,96.17,94.92,93.50,91.88,90.27,88.86,87.66,86.96,87.17,87.40,87.46,87.40,87.24,87.01,86.77,86.54,86.21,85.52,83.17,80.71,78.18,75.56,72.94,70.78,69.31,68.50,67.88,67.33,66.88,66.53,66.29,66.05,65.87,65.72,65.56,65.41,64.88,63.98,62.82,61.66,60.50,59.09
