57.87,56.33,54.67,52.99,51.32,50.08,49.51,49.75,50.91,52.34,53.85,55.33,56.80,58.32,59.83,61.30,62.59,63.86,65.17,66.55,67.97,69.32,71.31,73.79,76.53,79.29,82.26,85.49,89.32,94.94,100.29,105.60,110.82,115.78,120.30,123.67,126.11,127.91,129.57,130.82,132.16,133.84,136.13,138.44,140.89,143.31,145.46,147.11,148.57,150.44,152.83,155.18,156.34,156.72,156.50,155.94,155.55,155.91,156.67,157.83,161.13,167.00,173.40,179.50,184.72,189.54,196.51,204.99,213.92,221.71,229.09,236.15,242.87,248.96,254.76,260.11,264.73,268.25,269.74,270.40,270.54,270.40,270.13,270.06,271.59,274.78,278.77,281.74,286.52,292.72,299.49,304.53,308.25,310.63,311.88,312.78,312.23,311.22,308.70,302.70,297.12,292.04,286.13,278.81,273.34,268.98,265.06,261.12,256.52,251.12,245.55,238.96,230.58,225.43,220.70,216.32,212.03,206.90,201.49,197.34,194.25,191.26,188.98,186.56,186.16,189.19,193.51,197.51,201.26,204.71,207.76,211.78,215.99,220.34,224.93,232.36,238.74,243.94,248.03,251.50,255.26,260.72,267.80,275.70,281.16,285.65,289.79,293.87,296.29,293.31,288.76,283.99,278.83,273.12,268.23,264.62,262.54,259.23,253.04,246.92,242.37,238.35,233.98,230.32,227.50,225.27,224.13,222.84,221.16,218.96,216.41,213.99,211.43,208.28,203.40,198.47,193.55,188.10,181.44,176.28,170.58,164.16,157.23,151.49,147.18,143.37,139.74,136.07,134.04,131.42,127.58,122.32,117.96,113.47,109.20,105.30,101.73,97.68,93.41,89.46,86.52,83.74,81.12,78.81,76.92,75.58,74.51,73.99,73.87,73.63,72.70,71.60,70.22,68.50,66.83,64.98,63.06,61.24,59.97,58.99,58.10,57.11,55.77,54.32,52.77,51.21,49.69,47.89,46.27,44.72,43.17,41.54,39.99,38.69,37.54,36.42,35.26,34.08,32.90,31.72,30.54,29.60,28.78,28.00,27.23,26.48,25.72,25.01,24.38,23.63,22.92,22.23,21.51,20.73,20.12,19.75
56.69,55.28,53.71,52.08,50.61,49.60,49.23,49.66,50.76,52.23,53.91,55.58,57.26,58.93,60.41,61.62,62.86,64.15,65.47,66.82,68.28,69.74,71.54,73.56,75.66,77.82,80.70,84.26,88.51,93.54,98.77,103.63,107.85,111.24,115.86,118.80,120.69,122.08,123.64,125.04,126.60,128.50,130.88,133.52,135.84,137.70,139.05,140.41,142.36,144.62,146.93,148.85,149.78,149.86,149.71,150.18,150.14,152.09,155.18,158.82,163.50,169.10,175.04,180.93,186.25,191.58,198.31,206.30,215.12,222.51,230.32,237.64,243.99,249.14,254.14,258.67,262.30,264.49,264.89,264.99,264.80,264.32,263.41,264.23,266.93,271.19,276.02,280.98,286.52,293.01,300.53,304.53,307.51,309.55,310.75,311.41,311.29,310.38,307.44,300.60,295.89,290.85,284.98,278.27,273.20,268.64,264.40,260.21,255.51,250.46,245.04,238.56,230.52,225.62,220.77,216.21,211.80,206.43,201.02,196.64,193.24,190.30,186.72,184.11,184.10,187.46,191.03,194.57,198.05,201.37,204.32,207.38,210.89,215.98,223.81,231.97,238.11,242.61,245.88,248.61,252.30,257.75,264.71,272.32,279.44,284.47,288.63,292.87,295.54,292.29,287.60,282.95,277.98,272.20,266.37,262.23,261.63,257.63,251.65,245.84,241.18,236.42,231.73,227.44,224.25,223.30,222.03,221.03,219.42,216.53,213.98,211.56,208.71,205.12,200.38,196.14,191.45,186.12,180.12,175.89,171.16,165.31,158.45,153.20,148.76,144.86,141.39,138.16,135.26,132.25,128.55,123.76,118.95,114.13,109.76,105.93,102.31,98.39,94.20,90.23,87.10,84.32,81.94,80.10,78.88,78.38,77.86,77.57,77.36,76.71,75.35,73.70,72.05,70.66,69.78,68.04,65.88,63.65,61.93,61.04,60.21,59.20,57.82,56.22,54.41,52.66,51.09,49.24,47.53,45.77,43.96,42.13,40.38,39.01,37.83,36.61,35.45,34.24,33.01,31.78,30.55,29.65,28.84,28.07,27.30,26.59,25.99,25.40,24.77,24.07,23.37,22.68,21.92,20.94,20.17,19.75
55.29,53.96,52.54,51.05,49.93,49.21,48.99,49.58,50.80,52.36,54.09,55.79,57.48,59.15,60.62,61.83,63.11,64.42,65.73,67.07,68.49,70.04,71.79,73.66,75.58,77.50,80.02,83.45,87.71,92.18,96.78,101.22,105.15,108.19,111.63,114.28,116.19,117.52,118.94,120.47,122.33,124.51,126.91,129.47,131.73,133.61,135.09,136.45,137.92,139.49,141.04,142.21,143.18,144.67,146.71,149.12,151.12,154.07,157.56,161.35,165.96,171.30,177.26,183.45,189.03,194.25,200.27,207.51,216.09,223.13,230.73,237.83,243.83,248.30,252.44,256.00,258.68,260.18,260.38,260.35,260.10,259.72,260.13,262.51,266.54,271.87,277.84,282.82,288.10,293.89,300.14,303.15,305.46,307.23,308.55,309.47,310.05,308.90,305.70,300.45,296.09,291.48,285.88,279.16,274.35,269.81,265.44,261.09,256.42,251.50,246.53,240.92,234.08,227.04,221.39,216.46,211.71,206.26,200.88,196.35,192.57,189.08,185.30,182.38,181.96,184.88,188.15,191.48,194.87,198.26,201.45,204.96,208.76,213.78,221.05,229.19,235.42,240.32,244.29,247.52,251.98,257.69,264.20,270.58,278.96,284.36,288.42,292.52,294.71,291.53,286.99,282.37,277.22,269.91,263.56,259.65,259.29,254.98,249.91,244.62,239.42,234.12,229.03,224.32,220.59,218.93,217.68,216.07,214.06,211.70,209.45,206.98,204.24,201.12,197.39,193.45,188.87,183.88,178.89,175.14,170.85,165.32,158.65,153.78,149.50,145.75,142.36,139.11,135.92,132.49,128.62,124.21,119.81,115.25,110.90,106.89,103.17,99.03,94.83,91.00,88.01,85.70,83.82,82.66,82.25,81.90,81.64,81.27,80.59,79.21,77.35,75.37,73.53,72.05,71.19,69.71,67.84,65.79,63.92,62.95,61.92,60.74,59.48,57.60,55.59,53.60,51.70,49.68,47.85,46.03,44.18,42.32,40.50,39.11,37.92,36.69,35.49,34.29,33.08,31.84,30.61,29.67,28.90,28.22,27.58,26.93,26.35,25.80,25.21,24.56,23.84,23.12,22.37,21.41,20.46,19.92
53.85,52.59,51.33,50.10,49.29,48.84,48.83,49.53,50.86,52.48,54.22,55.94,57.65,59.31,60.79,62.04,63.36,64.68,66.00,67.33,68.71,70.32,72.04,73.83,75.66,77.43,79.63,82.83,86.98,91.02,94.99,98.90,102.47,105.33,107.69,110.03,111.96,113.31,114.64,116.25,118.32,120.72,123.12,125.49,127.64,129.55,131.21,132.60,133.53,134.59,135.99,137.57,139.30,142.41,146.42,150.36,154.05,157.63,161.19,164.87,169.29,174.57,180.74,187.33,193.26,198.67,204.06,210.34,218.17,224.56,231.39,237.84,243.34,247.11,250.25,252.88,254.88,256.02,256.23,256.31,256.39,256.70,258.44,262.50,267.82,273.92,280.38,285.07,289.79,294.57,299.15,301.16,302.91,304.48,305.92,307.16,308.42,307.54,304.67,300.87,296.84,292.71,287.58,281.12,276.07,271.45,266.97,262.50,257.88,253.03,248.39,243.44,237.51,228.47,221.97,216.64,211.62,206.15,200.80,195.94,191.66,187.94,184.19,181.11,180.19,182.26,185.32,188.55,192.04,195.74,199.41,203.53,207.74,212.67,219.09,226.81,233.19,238.65,243.43,247.34,252.36,258.28,264.63,270.68,279.28,284.71,288.64,292.47,293.86,290.79,286.47,281.89,276.53,267.54,260.98,257.50,256.78,252.71,248.38,243.41,237.74,232.14,226.57,221.50,217.33,214.63,212.94,210.64,208.28,206.36,204.34,202.02,199.58,197.03,194.14,190.22,185.78,181.34,177.45,174.11,170.04,164.72,158.38,153.91,149.87,146.28,143.00,139.73,136.29,132.51,128.48,124.31,120.39,116.20,112.00,107.91,103.96,99.59,95.50,91.97,89.26,87.43,86.12,85.59,85.80,85.57,85.44,84.82,83.50,81.33,78.99,76.82,74.91,73.30,72.27,70.91,69.27,67.42,65.54,64.39,63.14,61.80,60.60,58.47,56.27,54.07,51.90,49.83,47.93,46.09,44.25,42.41,40.56,39.14,37.95,36.73,35.49,34.31,33.10,31.87,30.67,29.73,29.00,28.40,27.86,27.24,26.67,26.12,25.59,25.02,24.33,23.61,22.85,21.93,20.89,20.21
52.41,51.18,50.09,49.40,48.71,48.48,48.83,49.53,50.90,52.51,54.24,56.00,57.77,59.48,61.00,62.30,63.61,64.98,66.32,67.64,68.97,70.57,72.30,74.05,75.78,77.56,79.57,82.53,86.44,90.27,93.83,96.97,99.78,102.39,104.35,106.26,107.99,109.48,110.86,112.40,114.44,116.89,119.28,121.32,123.26,125.04,126.60,127.99,128.59,129.97,132.91,137.69,141.82,146.38,151.10,155.28,159.17,162.78,166.35,170.12,174.58,180.28,186.94,194.02,200.39,206.94,212.09,217.00,222.89,227.96,232.93,237.90,242.56,245.49,247.27,249.19,251.10,252.44,252.79,253.37,254.65,256.84,259.22,264.96,271.44,277.63,282.96,287.28,291.14,294.52,297.32,298.29,299.66,301.18,302.70,304.18,306.04,306.70,305.50,301.89,298.30,294.68,290.43,285.08,278.64,273.63,269.03,264.49,259.92,255.07,250.37,245.35,239.34,229.51,222.25,216.52,211.50,206.08,200.74,195.13,190.07,187.09,183.45,180.65,179.28,179.82,182.78,186.07,190.01,194.52,199.08,203.73,208.24,213.27,219.57,226.25,232.79,238.79,244.04,248.65,253.43,259.28,266.34,274.51,281.02,285.73,289.52,292.87,292.98,290.03,285.98,281.42,275.96,265.53,259.30,256.43,254.38,251.70,247.49,242.26,236.48,231.03,224.82,219.47,215.15,211.41,208.12,205.27,202.84,200.73,198.66,196.91,195.12,193.04,190.29,185.85,181.69,178.19,175.48,172.58,168.38,163.12,157.37,153.44,149.65,146.23,143.10,139.97,136.17,132.23,128.14,123.95,120.38,116.61,112.83,108.95,104.46,99.99,96.33,93.45,91.18,89.70,88.98,88.91,89.29,89.30,89.13,87.97,85.74,82.78,80.02,77.94,76.22,74.49,73.11,71.53,69.78,67.96,66.29,64.76,63.33,61.95,60.60,58.32,55.94,53.60,51.43,49.65,47.81,45.99,44.20,42.41,40.56,39.11,37.91,36.73,35.49,34.27,33.04,31.83,30.72,29.88,29.19,28.59,28.05,27.43,26.83,26.27,25.80,25.38,24.88,24.20,23.37,22.51,21.56,20.72
51.07,50.04,49.20,48.66,48.25,48.35,48.99,49.75,51.18,52.76,54.42,56.16,57.90,59.59,61.12,62.46,63.78,65.15,66.50,67.81,69.13,70.70,72.39,74.11,75.82,77.59,79.55,82.34,85.90,89.07,91.99,94.68,97.10,99.21,100.67,102.30,104.00,105.67,107.20,108.87,110.72,112.79,115.08,117.16,119.10,121.12,123.51,126.61,128.98,131.93,136.01,141.25,146.12,151.02,155.74,159.88,163.85,167.99,172.11,176.15,180.56,186.65,193.73,201.27,208.52,214.58,219.18,223.48,228.55,232.13,235.05,238.14,241.42,243.29,243.97,245.29,247.16,248.95,250.14,251.72,254.07,257.36,260.96,267.17,273.53,279.20,283.90,287.97,291.21,293.50,294.80,295.28,296.47,298.01,299.67,301.40,303.59,305.38,305.74,303.32,300.00,296.59,292.79,288.15,280.99,275.72,271.05,266.47,261.70,256.74,251.86,246.43,239.64,229.63,222.18,216.34,211.29,205.63,199.75,193.91,188.85,185.70,182.97,180.08,178.07,177.90,180.76,184.40,188.67,193.42,198.28,203.11,207.81,212.92,219.05,225.79,232.37,238.45,243.88,249.03,254.06,260.73,268.73,276.77,282.11,286.48,290.06,292.79,292.52,289.74,285.76,281.03,275.40,264.61,258.61,256.04,253.65,251.30,246.53,240.86,235.21,229.80,223.47,218.03,213.46,208.98,204.58,201.00,198.03,195.44,193.39,191.74,189.97,187.81,184.92,181.50,178.28,175.44,173.07,170.15,165.85,161.04,156.40,152.65,149.12,145.85,142.76,139.71,135.88,131.89,127.86,123.90,120.42,116.83,113.24,109.53,105.01,100.94,97.82,95.43,93.38,92.17,91.63,91.60,91.77,91.20,90.51,88.73,85.88,82.56,79.79,77.68,75.89,74.10,72.67,71.04,69.30,67.53,65.84,64.17,62.57,61.01,59.47,57.41,55.21,52.97,50.83,49.17,47.50,45.79,44.03,42.22,40.44,39.01,37.79,36.59,35.39,34.22,33.07,31.95,30.87,30.00,29.31,28.73,28.15,27.57,27.01,26.51,26.09,25.71,25.26,24.67,23.93,23.08,22.19,21.30
49.83,49.04,48.43,47.93,47.90,48.36,49.21,50.09,51.57,53.12,54.70,56.38,58.07,59.69,61.21,62.58,63.89,65.26,66.61,67.92,69.23,70.77,72.41,74.11,75.81,77.57,79.49,82.10,85.23,87.58,89.88,92.21,94.29,95.78,96.80,98.31,100.12,102.05,103.83,105.80,107.58,109.30,111.48,113.87,116.09,118.68,122.19,127.19,131.71,136.36,141.27,146.11,151.10,155.87,160.31,164.34,168.46,173.17,177.86,182.15,186.44,192.79,200.26,208.35,216.42,221.49,225.58,229.61,234.24,236.43,237.50,238.78,240.51,241.16,240.92,241.69,243.44,245.61,247.78,250.52,253.90,257.97,262.86,269.08,274.86,279.77,284.01,287.74,290.36,291.73,291.89,292.09,293.27,294.94,296.80,298.79,301.20,303.81,305.54,304.75,301.67,298.42,294.91,290.74,283.33,277.72,272.91,268.32,263.27,258.15,253.10,247.17,239.30,229.31,221.86,215.94,210.69,204.80,198.42,192.51,187.52,183.86,182.14,179.11,176.55,176.12,179.03,183.09,187.56,192.20,197.07,201.93,206.75,211.92,217.89,225.04,231.70,237.72,243.17,248.78,254.16,261.70,270.51,277.95,282.66,286.89,290.32,292.50,292.15,289.60,285.67,280.74,274.91,264.15,258.31,255.92,253.52,251.14,245.69,239.55,234.01,228.53,222.35,216.85,211.98,206.96,201.83,197.48,193.78,190.55,188.40,186.62,184.69,182.34,179.36,177.27,175.05,172.70,170.36,167.26,163.04,158.86,155.33,151.67,148.35,145.19,142.14,139.14,135.42,131.49,127.58,123.90,120.42,116.93,113.49,109.94,105.73,102.20,99.58,97.58,95.70,94.64,93.99,93.66,93.38,92.06,90.71,88.29,84.95,81.55,78.94,76.78,74.87,73.06,71.70,70.12,68.45,66.74,64.99,63.28,61.52,59.73,57.95,56.15,54.22,52.19,50.16,48.55,47.07,45.50,43.80,41.98,40.28,38.88,37.65,36.45,35.30,34.20,33.16,32.14,31.06,30.11,29.40,28.84,28.24,27.71,27.23,26.80,26.41,26.02,25.57,25.07,24.48,23.64,22.79,21.89
48.94,48.27,47.68,47.43,47.87,48.61,49.50,50.59,52.08,53.63,55.18,56.77,58.35,59.88,61.31,62.64,63.96,65.29,66.61,67.92,69.23,70.77,72.41,74.09,75.74,77.40,79.15,81.39,83.95,85.55,87.69,89.50,90.79,91.49,92.61,94.54,96.89,99.36,101.64,104.47,107.00,109.19,111.47,114.80,118.40,122.37,126.85,131.69,136.45,141.26,146.18,151.25,156.23,160.64,164.68,168.75,173.46,178.10,182.51,186.60,190.70,196.64,204.56,213.53,221.36,226.00,230.27,234.46,238.49,239.94,240.52,241.02,241.45,240.41,239.71,239.94,241.09,242.87,245.52,249.27,253.63,258.29,263.83,269.92,275.10,279.21,282.96,285.74,287.37,288.09,288.24,288.24,289.93,292.15,294.36,296.69,299.20,301.83,304.17,305.55,302.74,299.94,296.69,292.43,285.95,279.50,274.09,269.50,264.31,259.04,253.96,247.65,238.60,228.46,220.93,214.49,208.38,202.83,197.06,190.90,185.04,180.74,179.20,176.37,174.11,174.14,177.79,182.16,186.33,190.25,194.68,199.51,204.32,209.47,215.41,222.80,229.82,235.92,241.17,247.02,252.47,259.63,268.16,276.64,281.77,286.23,289.80,292.10,291.50,289.36,285.74,280.76,274.74,264.00,258.18,255.79,253.40,251.06,245.51,239.14,233.25,227.32,221.57,215.96,210.58,205.62,200.67,195.77,191.16,187.10,184.05,181.85,179.89,177.86,175.52,173.58,171.53,169.30,166.91,163.76,160.37,156.99,153.70,150.28,146.96,143.84,140.88,137.99,134.46,130.86,127.22,123.58,120.10,116.88,113.64,110.35,107.28,103.95,101.49,99.71,98.13,96.72,95.23,93.80,92.48,91.11,89.13,86.14,82.57,79.61,77.35,75.24,73.31,71.60,70.38,69.11,67.62,65.94,64.34,62.60,60.76,58.75,56.48,54.58,52.69,50.90,49.27,47.77,46.34,44.90,43.40,41.77,40.13,38.75,37.58,36.51,35.41,34.37,33.33,32.27,31.25,30.26,29.50,28.93,28.43,28.00,27.55,27.12,26.72,26.28,25.82,25.38,24.88,24.15,23.31,22.37
48.03,47.50,47.11,47.34,48.03,48.87,49.80,51.08,52.59,54.10,55.58,57.03,58.52,59.95,61.32,62.63,63.94,65.23,66.53,67.85,69.19,70.62,72.12,73.70,75.32,76.94,78.60,80.38,82.16,83.44,85.24,86.82,88.11,89.19,90.83,93.33,96.11,98.82,101.81,105.07,108.07,110.78,113.46,117.18,121.51,126.23,131.13,136.01,141.06,146.03,150.90,156.11,160.79,165.06,169.19,173.59,178.65,183.11,187.07,190.70,194.57,200.16,208.33,217.81,224.97,229.82,234.33,238.33,241.48,242.67,243.05,242.97,242.35,240.17,239.12,238.88,239.44,240.86,243.85,247.98,252.85,258.15,264.01,269.77,274.40,277.85,280.77,282.49,283.25,283.41,283.36,283.52,286.51,290.08,293.14,295.70,298.33,300.82,303.10,305.13,303.31,301.16,298.27,294.21,288.05,280.89,274.93,270.18,264.84,259.48,254.29,247.89,238.83,228.81,221.01,213.96,207.08,201.16,195.78,189.81,183.79,179.05,176.91,174.05,171.98,172.17,176.59,181.03,184.89,188.26,192.03,196.72,201.49,206.51,212.13,219.24,226.64,233.26,238.85,244.98,250.44,257.03,265.05,274.29,279.83,284.74,288.74,291.40,291.12,289.30,285.83,280.80,274.67,263.94,258.15,255.80,253.46,251.18,245.99,239.65,233.27,227.22,222.03,216.23,210.05,204.57,199.59,194.38,189.28,184.67,181.06,178.41,176.23,174.19,171.86,169.64,167.43,165.18,162.80,159.97,157.15,154.31,151.36,148.03,144.94,142.00,139.16,136.37,133.15,129.83,126.40,122.84,119.49,116.42,113.33,110.25,107.72,104.80,102.42,100.49,98.70,96.88,94.90,92.94,91.12,89.43,87.20,84.20,80.81,78.03,75.85,73.71,71.80,70.34,69.30,68.17,66.81,65.24,63.72,62.00,60.06,57.85,55.35,53.21,51.32,49.72,48.40,47.08,45.73,44.34,42.90,41.38,39.93,38.70,37.62,36.62,35.57,34.53,33.49,32.44,31.44,30.41,29.65,29.12,28.66,28.24,27.81,27.39,26.96,26.50,26.06,25.64,25.19,24.61,23.72,22.75
47.11,46.73,46.68,47.52,48.31,49.12,50.09,51.55,53.08,54.53,55.90,57.21,58.60,59.94,61.25,62.57,63.88,65.13,66.41,67.74,69.12,70.37,71.65,73.07,74.68,76.30,77.91,79.16,80.10,81.34,82.73,84.27,86.06,88.22,90.64,93.81,96.95,99.74,103.54,106.95,110.24,113.48,116.73,120.53,125.18,130.22,135.18,140.21,145.58,150.70,155.50,160.72,164.96,169.26,173.83,178.72,183.98,188.20,191.62,194.63,198.26,203.54,211.81,221.44,227.71,233.18,237.92,241.53,243.65,244.89,245.25,244.74,243.26,240.30,238.97,238.27,238.27,239.35,242.53,246.62,251.69,257.62,263.60,268.90,273.02,275.89,277.79,278.42,278.41,278.06,277.73,278.39,283.13,288.51,292.73,295.43,298.21,300.45,302.26,303.95,303.53,302.12,299.68,296.01,289.74,281.98,275.51,270.51,265.02,259.60,254.23,247.91,239.61,229.88,221.71,214.04,206.47,199.75,194.61,189.09,183.34,178.32,175.10,172.08,170.11,170.21,175.36,179.75,183.33,186.29,189.31,193.79,198.44,203.25,208.36,214.82,222.58,229.98,236.34,242.78,248.19,254.11,261.45,271.19,277.14,282.64,287.27,290.47,290.89,289.32,285.89,280.84,274.68,263.95,258.19,255.90,253.66,251.42,246.89,240.77,233.85,227.92,223.35,217.38,210.28,203.85,198.69,193.33,188.00,183.03,179.03,175.92,173.38,171.09,168.37,165.58,163.02,160.63,158.31,155.97,153.54,151.06,148.49,145.20,142.48,139.83,137.14,134.44,131.59,128.53,125.26,121.81,118.65,115.67,112.70,109.80,107.41,105.01,102.67,100.35,98.02,95.78,93.54,91.42,89.45,87.28,85.04,82.40,79.47,76.70,74.43,72.20,70.35,69.21,68.36,67.27,66.00,64.60,63.13,61.47,59.41,57.02,54.47,52.00,50.08,48.63,47.54,46.46,45.19,43.80,42.33,40.87,39.70,38.69,37.74,36.74,35.74,34.68,33.63,32.63,31.62,30.55,29.83,29.37,28.90,28.44,28.03,27.61,27.15,26.69,26.29,25.86,25.42,25.03,24.08,23.08
46.45,46.50,46.99,47.73,48.50,49.36,50.38,51.70,53.08,54.47,55.84,57.15,58.54,59.88,61.19,62.50,63.81,65.06,66.34,67.65,68.94,70.17,71.43,72.71,74.04,75.61,76.90,78.14,79.43,80.87,82.59,84.38,86.33,88.55,91.51,94.83,98.30,101.83,105.98,109.57,112.89,116.15,119.60,124.33,129.30,134.36,139.48,144.86,150.16,155.15,159.76,164.14,168.68,173.63,178.93,184.41,189.82,193.90,197.06,199.81,203.49,208.86,215.98,223.94,230.51,236.23,240.39,243.42,245.83,247.12,247.45,246.59,244.47,241.12,239.39,238.01,237.39,238.52,240.52,244.32,249.29,254.94,261.56,266.55,270.17,272.54,273.75,274.15,273.75,273.15,273.12,276.49,282.07,287.82,292.54,295.30,298.12,300.31,301.96,303.51,303.28,302.14,300.08,296.87,290.26,282.15,275.46,270.35,264.71,259.10,253.40,246.94,238.98,229.50,221.65,214.19,206.65,199.83,194.46,188.86,183.18,178.32,174.96,171.69,169.25,168.61,173.07,177.99,182.16,185.41,188.47,192.55,196.51,200.56,205.08,210.85,217.66,225.53,233.99,240.97,246.08,251.59,258.19,266.25,272.97,279.04,284.47,289.01,290.21,288.45,285.07,280.54,274.77,264.07,258.38,256.15,253.91,251.67,247.58,242.07,235.76,230.28,225.86,221.21,215.24,206.44,200.95,195.33,189.59,183.88,178.56,174.88,171.93,169.15,165.99,162.80,159.84,157.12,154.59,151.76,149.19,146.74,144.30,141.75,139.52,137.29,134.94,132.39,129.64,126.68,123.54,120.29,117.28,114.32,111.40,108.59,106.19,103.84,101.55,99.20,96.68,94.29,92.04,89.85,87.62,85.10,82.72,80.43,78.14,75.67,73.36,71.24,69.52,68.38,67.48,66.42,65.15,63.71,62.30,60.90,58.90,56.46,53.96,51.49,49.60,48.12,46.89,45.65,44.40,43.13,41.84,40.42,39.39,38.44,37.50,36.55,35.65,34.69,33.70,32.69,31.69,30.62,29.87,29.37,28.90,28.49,28.06,27.61,27.15,26.74,26.31,25.88,25.49,25.16,24.48,23.59
45.98,46.36,47.15,47.90,48.68,49.58,50.63,51.89,53.18,54.50,55.83,57.12,58.48,59.81,61.11,62.40,63.69,64.94,66.20,67.48,68.72,69.95,71.17,72.36,73.52,75.04,76.29,77.60,79.10,80.71,82.67,84.62,86.60,88.78,92.21,96.01,99.91,103.80,108.11,111.89,115.38,118.87,122.87,127.99,133.04,138.24,143.83,149.34,154.49,159.19,163.47,167.51,172.74,178.30,184.03,189.92,195.31,199.35,202.49,205.31,209.37,214.46,220.46,227.02,233.36,238.75,242.51,245.31,247.93,249.50,249.70,248.46,245.86,242.26,239.86,237.89,236.84,237.66,239.07,242.24,246.58,251.68,258.02,263.03,266.48,268.46,269.41,269.51,268.80,268.60,270.41,275.27,281.24,287.24,292.41,295.33,298.26,300.32,301.73,303.15,302.89,301.92,300.01,296.77,290.23,282.09,275.29,270.01,264.25,258.49,252.49,245.77,237.84,228.84,221.38,214.23,206.92,200.02,194.48,188.88,183.33,178.47,175.01,171.57,168.58,166.88,170.81,175.64,180.10,183.89,187.36,191.28,194.71,198.04,201.93,207.14,213.27,221.15,230.57,238.44,243.81,249.04,254.89,261.79,269.10,275.61,281.45,286.59,288.89,287.40,284.24,280.07,274.65,264.37,258.73,256.39,254.17,251.95,248.26,243.24,237.34,232.30,227.94,224.01,219.06,210.36,204.12,198.29,192.52,186.52,180.07,175.22,171.24,167.73,164.26,160.83,157.60,154.55,151.61,148.12,145.17,142.73,140.68,138.75,136.78,134.75,132.58,130.15,127.48,124.71,121.78,118.70,115.76,112.85,109.96,107.18,104.74,102.41,100.21,97.95,95.37,92.80,90.54,88.34,86.00,83.39,81.00,78.92,76.98,74.78,72.58,70.62,69.01,67.81,66.77,65.64,64.38,63.02,61.70,60.41,58.50,56.11,53.63,51.16,49.31,47.81,46.45,45.09,43.83,42.61,41.38,40.06,39.11,38.19,37.29,36.39,35.52,34.60,33.65,32.67,31.69,30.66,29.91,29.40,28.93,28.52,28.09,27.64,27.18,26.78,26.34,25.93,25.57,25.28,24.82,24.01
45.73,46.32,47.16,48.00,48.85,49.77,50.83,52.14,53.39,54.63,55.87,57.12,58.43,59.75,61.03,62.27,63.51,64.75,65.99,67.22,68.46,69.70,70.88,72.02,73.13,74.60,76.11,77.60,79.12,80.89,82.99,84.97,86.88,88.91,92.73,97.35,101.81,105.65,109.91,113.88,117.67,121.65,126.59,131.48,136.36,141.81,148.24,153.65,158.55,162.79,166.57,170.81,177.20,183.31,189.14,195.22,200.42,204.50,207.89,211.14,215.95,220.37,225.28,230.74,236.29,240.70,244.23,247.20,249.94,252.05,252.01,250.35,247.44,243.74,240.38,237.92,236.64,236.78,238.23,240.37,243.51,247.77,252.82,258.23,261.86,263.58,264.73,264.48,263.53,264.47,269.78,274.79,280.68,286.79,292.33,295.55,298.64,300.51,301.58,302.90,302.34,301.45,299.42,295.61,289.61,281.77,274.97,269.48,263.62,257.76,251.47,244.38,236.14,227.89,220.87,214.16,207.30,200.35,194.67,189.18,183.80,178.79,175.28,171.76,168.12,164.99,168.58,172.63,177.07,181.69,185.95,189.98,193.03,195.71,198.91,203.73,209.47,216.86,225.96,235.12,241.35,246.47,251.54,257.85,265.57,272.35,278.19,283.13,286.87,286.14,283.37,279.43,274.30,264.86,259.26,256.59,254.43,252.26,248.94,244.26,238.56,233.96,229.54,225.68,221.63,215.75,208.28,202.30,196.92,191.12,183.78,177.07,171.41,166.87,163.25,159.77,156.39,153.01,149.42,145.09,141.52,139.06,137.68,136.24,134.27,132.19,130.04,127.72,125.10,122.60,119.98,117.04,114.10,111.22,108.36,105.56,103.02,100.68,98.63,96.57,94.09,91.32,89.04,86.89,84.62,82.21,79.93,77.89,76.02,74.06,72.11,70.36,68.84,67.54,66.25,64.95,63.71,62.53,61.36,60.00,58.19,55.98,53.51,51.03,49.22,47.70,46.24,44.79,43.51,42.24,40.96,39.79,38.85,37.97,37.12,36.26,35.34,34.41,33.48,32.55,31.62,30.68,29.98,29.46,29.00,28.54,28.13,27.71,27.24,26.78,26.38,25.99,25.64,25.40,25.09,24.33
45.56,46.31,47.17,48.06,48.92,49.87,50.95,52.17,53.41,54.64,55.86,57.06,58.32,59.59,60.85,62.08,63.32,64.52,65.71,66.90,68.09,69.28,70.42,71.52,72.63,74.15,75.72,77.25,78.76,80.44,82.59,84.70,86.79,89.04,94.53,99.55,103.96,107.81,112.15,116.08,120.17,124.65,129.77,134.69,140.56,146.82,152.74,157.79,162.20,166.37,170.66,175.72,181.80,188.14,194.36,200.06,204.70,209.13,213.38,217.46,221.56,225.45,229.62,234.14,238.82,242.50,245.78,248.76,251.53,254.01,253.75,251.96,249.26,245.82,241.43,238.37,236.64,235.54,237.03,238.82,241.30,244.69,248.60,252.35,255.94,258.90,260.06,260.12,259.99,262.16,268.85,273.96,279.54,285.79,292.15,295.80,298.89,300.65,301.49,302.30,301.66,300.86,298.69,294.36,288.59,281.03,274.06,268.11,262.33,256.42,250.07,242.75,234.03,226.47,219.92,213.61,207.14,200.51,194.67,189.11,183.65,178.13,175.09,171.81,167.86,163.77,166.60,169.58,173.19,177.42,181.74,186.73,190.90,194.31,197.33,200.99,206.62,213.98,222.67,231.71,238.79,244.29,249.09,254.67,262.27,269.80,276.43,281.61,285.51,285.08,282.44,278.54,273.94,265.31,259.73,256.71,254.51,252.30,249.06,244.55,239.04,234.66,230.45,226.58,222.57,217.42,211.22,205.83,200.69,195.18,189.07,182.45,176.26,170.83,166.08,162.03,158.04,153.97,149.76,145.67,141.81,138.90,137.07,134.87,132.47,130.04,127.65,125.29,122.55,120.30,118.06,115.38,112.58,109.77,106.90,103.99,101.26,99.14,97.18,95.19,92.99,90.88,88.95,87.01,84.93,82.72,80.67,78.81,76.99,74.83,72.67,70.72,69.05,67.69,66.28,64.84,63.49,62.25,61.05,59.56,57.67,55.51,53.26,50.88,49.12,47.64,46.17,44.70,43.31,41.95,40.65,39.53,38.64,37.78,36.91,36.02,35.13,34.25,33.35,32.43,31.55,30.67,29.98,29.47,29.00,28.58,28.16,27.71,27.25,26.84,26.41,26.05,25.75,25.48,25.17,24.56
45.49,46.33,47.19,48.10,48.96,49.92,51.02,52.18,53.39,54.61,55.81,56.97,58.19,59.41,60.63,61.84,63.06,64.23,65.40,66.57,67.71,68.82,69.90,70.99,72.14,73.65,75.20,76.73,78.25,79.89,82.14,84.47,86.92,89.64,96.58,101.85,106.17,110.17,114.61,118.68,122.99,127.78,133.21,138.46,144.87,151.34,156.72,161.34,165.42,169.72,174.63,180.37,186.39,192.85,199.13,204.28,208.72,213.44,218.21,222.73,226.35,229.90,233.55,237.32,241.10,244.18,247.23,250.24,253.17,255.94,255.85,254.11,251.38,247.83,242.71,239.06,236.74,234.68,235.86,237.36,239.33,241.87,244.83,247.30,250.56,254.06,255.46,256.10,257.19,260.59,267.79,273.00,278.25,284.54,291.49,295.64,298.91,300.66,301.26,301.60,300.98,299.93,297.47,292.98,287.06,279.70,272.73,266.60,260.93,255.06,248.61,241.02,231.91,225.08,218.99,213.02,206.82,200.32,194.44,188.91,183.34,177.18,174.25,171.14,167.07,162.39,164.65,166.90,169.77,173.49,178.07,184.04,189.24,193.34,196.32,199.23,204.81,212.13,220.47,228.91,236.42,242.32,247.18,252.33,260.07,268.38,275.70,280.90,284.72,284.14,281.39,277.55,273.44,265.74,260.23,256.85,254.61,252.25,248.90,244.43,239.19,235.04,231.01,227.07,223.01,218.41,213.48,208.65,203.64,198.25,193.18,187.12,181.03,175.26,169.71,165.11,160.54,155.92,151.30,147.59,143.69,140.42,138.01,135.06,132.20,129.40,126.68,124.07,121.10,118.85,116.79,114.36,111.78,109.11,106.24,103.19,100.13,98.18,96.35,94.50,92.60,91.01,89.37,87.60,85.66,83.60,81.69,79.93,78.10,75.78,73.43,71.17,69.23,67.80,66.30,64.78,63.33,61.99,60.75,59.13,57.17,55.03,52.94,50.67,48.98,47.53,46.06,44.61,43.15,41.71,40.38,39.32,38.44,37.58,36.71,35.78,34.92,34.06,33.19,32.28,31.42,30.56,29.93,29.45,29.02,28.62,28.19,27.73,27.28,26.87,26.45,26.12,25.87,25.54,25.23,24.74
45.55,46.40,47.25,48.11,48.96,49.92,51.02,52.18,53.35,54.52,55.68,56.84,58.01,59.18,60.35,61.52,62.69,63.85,65.04,66.24,67.33,68.29,69.29,70.40,71.69,73.10,74.47,75.94,77.56,79.25,81.72,84.45,87.51,91.12,98.89,104.16,108.47,112.87,117.40,121.98,126.38,131.09,137.26,143.34,149.22,154.72,159.69,163.82,167.89,172.62,178.20,184.24,190.94,197.36,203.00,207.41,212.39,217.24,221.80,225.94,229.76,233.31,236.78,240.12,243.01,245.66,248.51,251.61,254.97,257.94,258.71,257.34,254.04,249.60,244.33,240.11,237.02,234.55,234.80,236.02,237.65,239.38,241.74,244.03,246.45,248.91,251.00,252.60,255.47,260.06,266.51,271.82,276.81,282.87,289.92,294.66,298.53,300.42,300.78,300.78,300.29,298.37,295.36,291.37,284.66,277.34,270.72,264.97,259.45,253.72,247.08,239.15,229.83,223.79,218.16,212.43,206.27,199.53,193.82,188.51,182.86,175.86,172.28,169.13,165.23,160.58,162.70,164.91,167.36,170.57,175.90,182.75,188.55,193.00,196.13,199.19,204.73,211.98,220.09,227.24,234.39,240.65,246.13,251.43,259.89,268.98,276.62,281.39,284.86,283.38,280.13,276.41,272.70,266.16,260.79,257.05,254.80,252.09,248.28,243.71,238.85,235.00,231.01,226.93,222.83,218.77,214.72,210.22,205.15,199.55,194.78,189.82,184.81,179.68,174.18,169.14,164.14,159.24,154.63,151.37,147.84,144.47,141.40,137.95,134.68,131.49,128.32,125.12,121.74,119.07,116.78,114.51,112.28,109.88,107.09,103.85,100.19,98.26,96.66,95.10,93.49,92.00,90.46,88.77,86.88,84.87,82.93,81.06,79.12,76.80,74.36,71.67,69.33,67.80,66.20,64.69,63.20,61.73,60.50,58.74,56.72,54.58,52.49,50.38,48.76,47.34,45.88,44.47,43.02,41.56,40.20,39.19,38.27,37.39,36.52,35.59,34.67,33.81,32.95,32.08,31.17,30.31,29.76,29.42,29.09,28.64,28.22,27.80,27.34,26.88,26.53,26.25,25.99,25.61,25.30,24.83
45.41,46.28,47.16,48.01,48.86,49.80,50.87,52.03,53.19,54.35,55.50,56.66,57.78,58.90,60.04,61.20,62.36,63.48,64.62,65.74,66.75,67.72,68.68,69.72,70.89,72.24,73.65,75.12,76.64,78.22,80.35,83.20,87.38,93.69,100.71,105.66,110.11,115.04,119.87,124.76,129.54,134.49,140.32,146.12,151.73,156.98,161.69,165.75,170.19,175.20,180.84,187.02,194.05,200.18,205.27,209.59,214.30,218.85,223.11,227.03,230.77,234.27,237.64,240.84,243.62,246.29,249.16,252.33,255.86,258.87,259.86,258.98,256.22,251.28,245.96,241.33,237.69,235.18,234.04,234.40,235.62,237.18,238.92,240.72,242.59,244.72,247.54,250.65,254.54,259.35,265.08,270.34,275.18,280.79,287.21,292.27,296.22,298.42,299.11,299.00,297.93,295.87,292.82,288.61,281.28,274.31,268.44,263.41,257.88,252.11,245.23,237.17,228.17,222.23,217.08,211.71,205.60,198.80,193.17,187.96,182.16,174.24,170.16,166.92,163.37,159.34,160.93,163.22,166.16,170.18,176.56,183.21,188.77,193.10,196.35,199.71,205.03,211.98,220.06,227.98,235.05,241.18,246.70,252.18,260.40,269.77,277.59,281.83,283.95,282.29,279.26,275.85,272.37,266.41,261.14,257.10,254.43,251.46,247.27,242.62,238.08,234.37,230.40,226.05,221.50,217.21,213.63,209.41,204.52,199.15,194.67,190.22,185.78,181.23,176.21,170.91,165.95,161.43,157.35,154.27,150.95,147.67,144.43,140.49,136.94,133.44,129.94,126.46,122.99,119.99,117.45,115.25,113.04,110.78,108.04,104.72,101.09,98.91,97.18,95.63,94.09,92.62,91.12,89.49,87.65,85.68,83.75,81.84,79.81,77.38,74.69,71.86,69.43,67.85,66.22,64.69,63.15,61.61,60.25,58.36,56.27,54.12,52.00,50.10,48.54,47.11,45.69,44.29,42.87,41.44,40.11,39.11,38.18,37.30,36.42,35.50,34.61,33.72,32.83,31.95,31.06,30.20,29.67,29.35,29.00,28.62,28.23,27.81,27.35,26.93,26.60,26.31,26.01,25.63,25.31,24.83
45.21,46.10,47.02,47.88,48.73,49.65,50.68,51.84,52.99,54.14,55.30,56.44,57.52,58.61,59.71,60.86,62.01,63.09,64.16,65.20,66.13,67.12,68.07,69.01,70.01,71.27,72.74,74.19,75.59,77.09,78.87,82.02,87.52,96.38,102.28,106.91,111.57,116.97,122.11,127.21,132.28,137.39,142.71,148.06,153.54,158.72,163.21,167.27,172.11,177.36,182.96,189.18,196.31,202.14,206.84,211.23,215.45,219.56,223.50,227.21,230.74,234.04,237.19,240.27,243.35,246.07,249.16,252.58,256.16,259.24,260.40,260.06,258.07,252.92,247.61,242.61,238.51,236.04,233.74,233.05,233.62,235.01,236.21,237.58,239.12,241.18,244.57,249.11,253.70,258.44,263.52,268.54,273.14,278.20,283.86,289.02,292.87,295.34,296.43,296.25,294.61,292.50,289.42,284.81,277.30,271.12,266.17,261.78,256.30,250.38,243.23,235.12,226.65,220.65,215.90,210.86,204.80,198.09,192.51,187.35,181.38,172.69,168.39,165.10,161.81,158.33,159.28,161.69,165.35,170.43,177.63,183.92,189.12,193.27,196.58,200.20,205.32,211.98,220.11,229.22,236.44,242.43,247.80,253.43,261.33,270.72,278.47,282.11,282.91,281.27,278.57,275.43,272.14,266.51,261.22,256.89,253.83,250.60,246.11,241.42,237.18,233.54,229.13,224.09,218.89,214.42,211.10,207.14,202.62,197.76,193.57,189.47,185.44,181.34,176.72,171.45,166.87,162.96,159.49,156.51,153.39,150.26,147.03,142.78,139.03,135.25,131.40,127.67,124.15,120.90,118.14,115.97,113.73,111.54,108.80,105.43,101.95,99.53,97.65,96.06,94.53,93.05,91.57,89.97,88.17,86.24,84.30,82.36,80.27,77.75,74.84,71.96,69.53,67.91,66.29,64.73,63.14,61.53,59.95,57.87,55.71,53.55,51.37,49.76,48.30,46.91,45.54,44.15,42.75,41.36,40.06,39.06,38.13,37.25,36.37,35.45,34.59,33.69,32.77,31.85,30.99,30.15,29.62,29.29,28.90,28.58,28.22,27.82,27.37,26.98,26.65,26.34,26.01,25.63,25.30,24.80
44.99,45.91,46.83,47.74,48.61,49.50,50.49,51.64,52.75,53.88,55.02,56.12,57.20,58.29,59.37,60.47,61.57,62.61,63.63,64.62,65.55,66.49,67.43,68.34,69.23,70.24,71.57,72.95,74.34,75.99,77.91,82.29,89.27,98.42,103.44,108.09,113.04,118.59,123.93,129.02,133.75,138.40,143.67,149.11,154.59,159.67,163.97,167.88,172.87,178.37,184.15,190.22,196.99,202.74,207.53,211.87,215.59,219.25,222.82,226.26,229.35,232.00,234.41,237.12,241.24,243.66,247.49,251.78,255.28,258.66,260.41,260.70,259.23,254.52,249.27,243.96,239.47,236.99,234.79,232.97,232.14,232.63,233.68,235.06,236.75,238.99,242.33,247.51,252.39,257.01,261.63,265.97,269.80,274.20,279.38,284.09,287.67,290.12,291.29,291.01,289.51,287.01,283.32,278.36,272.18,268.01,264.15,259.87,254.73,248.53,241.03,232.94,225.18,219.28,214.59,209.60,203.65,197.33,191.85,186.66,180.56,171.67,168.00,164.84,161.38,157.58,157.93,160.50,164.77,170.50,177.40,183.80,189.08,193.24,196.45,200.02,205.16,211.86,220.08,229.89,237.83,244.04,249.26,254.84,263.11,272.07,278.98,281.83,282.38,280.81,278.14,274.94,271.80,266.19,260.53,255.85,252.93,249.40,244.79,240.21,236.21,232.52,226.06,219.06,212.88,209.15,205.71,202.04,198.26,194.52,190.63,186.90,183.17,179.17,174.25,169.89,166.34,163.26,160.13,157.30,154.43,151.51,148.42,144.52,140.74,136.64,132.31,128.14,124.46,121.09,118.27,116.10,113.86,111.63,108.82,105.36,101.82,99.54,97.74,96.21,94.72,93.19,91.66,90.03,88.24,86.30,84.32,82.33,80.23,77.81,74.95,72.05,69.60,67.97,66.35,64.79,63.21,61.51,59.44,57.03,54.75,52.57,50.35,49.13,47.99,46.82,45.54,44.15,42.75,41.36,40.06,39.06,38.13,37.25,36.37,35.45,34.54,33.66,32.77,31.84,30.93,30.13,29.62,29.29,28.90,28.53,28.19,27.84,27.44,27.05,26.68,26.34,26.01,25.63,25.26,24.77
44.70,45.63,46.56,47.49,48.38,49.28,50.25,51.37,52.46,53.57,54.68,55.76,56.81,57.88,58.95,60.00,61.05,62.06,63.05,64.01,64.93,65.83,66.73,67.60,68.46,69.35,70.45,71.72,73.24,75.39,77.90,83.38,91.10,99.41,104.09,108.72,113.64,119.02,124.36,129.36,133.89,138.27,143.26,148.93,154.51,159.63,163.98,167.98,173.07,178.60,184.24,189.87,196.44,202.19,207.05,211.38,214.71,217.86,220.95,223.93,226.22,227.74,229.42,231.88,235.97,239.86,244.65,249.55,253.64,257.18,259.79,261.05,260.39,256.35,251.13,245.74,241.00,237.92,235.74,233.48,231.73,230.96,231.48,232.95,234.98,237.47,240.53,245.83,250.89,255.46,259.50,263.17,266.44,270.03,274.11,277.89,280.91,283.02,283.95,283.39,281.87,279.48,276.29,272.42,268.13,265.08,261.72,257.55,252.56,246.56,238.75,230.63,223.96,217.93,213.15,208.25,202.60,196.58,191.16,185.90,179.73,170.94,167.58,164.41,160.85,156.95,156.36,158.83,163.43,169.53,176.20,182.69,188.36,192.89,196.06,199.26,204.26,210.99,219.33,229.14,237.81,244.51,249.92,255.62,263.55,271.90,278.36,281.23,281.59,280.23,277.75,274.62,271.56,265.83,259.41,254.04,251.49,248.05,243.63,239.17,235.18,231.21,222.20,213.70,207.18,202.92,199.48,196.35,193.40,190.46,187.03,183.35,179.26,174.86,170.68,167.15,164.25,161.50,158.30,155.49,152.98,150.51,147.84,144.64,141.17,137.08,132.59,128.30,124.41,120.95,118.09,115.89,113.68,111.48,108.56,104.87,101.09,99.06,97.44,95.96,94.49,93.01,91.49,89.84,88.05,86.12,84.18,82.20,80.11,77.78,75.04,72.17,69.68,68.00,66.41,64.83,63.12,61.19,58.85,56.32,53.91,51.67,49.66,48.61,47.60,46.52,45.35,44.12,42.75,41.36,40.06,39.06,38.13,37.23,36.34,35.45,34.52,33.63,32.74,31.85,30.99,30.26,29.77,29.41,29.03,28.67,28.33,27.96,27.52,26.97,26.59,26.25,25.94,25.58,25.20,24.73
44.38,45.31,46.24,47.17,48.09,49.02,49.98,51.05,52.13,53.21,54.29,55.37,56.38,57.43,58.47,59.48,60.48,61.48,62.43,63.36,64.28,65.14,65.99,66.84,67.69,68.54,69.39,70.54,72.26,75.12,78.47,84.85,92.82,99.77,104.38,108.92,113.64,118.69,123.93,128.79,133.21,137.43,142.03,147.96,153.68,158.89,163.44,167.65,172.83,178.28,183.63,188.69,195.06,200.87,205.86,210.14,213.13,215.77,218.29,220.69,222.02,222.26,223.21,225.45,229.12,235.25,241.09,246.51,251.52,255.23,258.78,261.15,261.48,258.27,253.10,247.76,242.86,238.83,236.62,234.29,231.91,229.81,229.53,231.07,233.43,236.16,238.90,243.94,249.13,253.72,257.18,260.22,263.03,265.77,268.48,271.10,273.42,275.01,275.55,274.66,273.08,271.09,268.96,266.84,264.58,262.15,258.98,254.92,250.04,244.48,236.46,228.34,222.85,216.61,211.65,206.84,201.59,195.81,190.42,185.10,178.90,170.36,167.12,163.87,160.21,156.26,154.60,156.94,161.73,168.01,174.49,181.02,187.27,192.43,195.69,198.35,203.09,209.75,218.09,227.53,236.79,244.13,249.99,255.89,263.10,270.71,276.91,280.22,280.56,279.53,277.35,274.36,271.36,265.45,258.05,251.81,249.68,246.57,242.55,238.30,234.10,229.52,217.98,208.35,201.74,196.35,192.99,190.53,188.37,185.98,182.94,179.06,174.33,169.41,166.37,163.61,161.18,158.57,155.10,152.20,150.03,148.08,146.02,143.72,140.73,136.85,132.42,128.18,124.07,120.56,117.70,115.48,113.31,111.11,108.04,104.06,100.05,98.30,96.87,95.46,94.01,92.62,91.13,89.49,87.70,85.78,83.91,81.98,79.92,77.69,75.11,72.29,69.77,68.01,66.46,64.83,62.93,60.70,58.22,55.68,53.15,50.87,49.19,48.17,47.16,46.12,45.05,44.04,42.73,41.35,40.06,39.06,38.13,37.20,36.30,35.44,34.52,33.59,32.71,31.88,31.12,30.49,30.00,29.61,29.23,28.92,28.55,28.13,27.62,26.85,26.44,26.13,25.82,25.51,25.13,24.70
44.07,44.99,45.92,46.85,47.77,48.70,49.65,50.67,51.75,52.80,53.84,54.92,55.93,56.91,57.90,58.90,59.91,60.82,61.70,62.59,63.52,64.37,65.22,66.07,66.92,67.77,68.66,69.86,71.77,75.41,79.82,86.02,93.05,99.26,103.57,107.68,112.09,117.07,122.16,127.00,131.42,135.56,139.82,145.54,151.15,156.40,161.16,165.76,171.08,176.56,181.84,186.50,191.82,197.91,203.66,207.39,210.08,212.26,214.07,215.56,216.20,216.27,216.52,218.07,223.02,229.70,236.45,242.87,248.63,253.12,257.09,260.23,261.88,259.90,255.19,250.00,244.83,239.86,237.35,234.86,232.39,230.05,228.44,229.29,231.10,233.50,236.63,240.61,245.83,250.91,254.34,256.78,259.12,261.36,263.48,265.21,266.94,267.88,267.99,267.50,266.16,264.86,263.56,262.17,260.44,258.16,255.17,251.49,247.30,241.97,234.43,226.82,221.58,215.59,210.28,205.29,200.28,194.70,189.33,184.06,178.04,169.84,166.42,163.10,159.06,154.17,152.07,155.26,160.47,166.45,172.77,178.97,185.95,192.45,196.89,199.06,203.05,208.67,215.81,224.56,233.39,241.32,248.28,254.47,260.78,267.43,273.16,276.93,278.46,278.38,276.77,274.01,271.16,264.94,256.56,249.32,247.01,244.44,241.65,238.04,233.07,225.67,214.49,204.82,197.42,191.39,188.43,186.35,184.33,181.67,177.44,172.53,167.85,163.81,160.58,158.28,156.64,154.68,151.26,147.86,145.27,143.39,142.06,140.74,138.33,135.00,131.05,126.96,122.76,119.44,116.84,114.71,112.55,109.88,106.29,102.13,99.12,97.29,95.82,94.47,93.11,91.83,90.40,88.79,87.01,85.24,83.36,81.45,79.51,77.43,75.09,72.39,69.88,68.07,66.53,64.59,62.41,60.06,57.59,55.05,52.66,50.60,49.06,47.95,46.87,45.78,44.66,43.60,42.44,41.24,40.06,39.06,38.13,37.20,36.28,35.38,34.51,33.59,32.75,32.03,31.42,30.85,30.33,29.87,29.48,29.17,28.81,28.33,27.68,26.91,26.39,26.00,25.69,25.38,25.00,24.60
43.75,44.67,45.60,46.53,47.45,48.37,49.28,50.26,51.31,52.33,53.35,54.41,55.41,56.36,57.31,58.29,59.24,60.10,60.95,61.82,62.75,63.60,64.45,65.30,66.16,67.09,68.09,69.31,71.27,75.71,80.73,86.50,92.49,97.94,101.93,105.72,109.75,114.28,119.22,124.04,128.75,133.24,137.25,142.29,147.82,153.34,158.40,163.24,168.68,174.16,179.33,183.79,188.33,193.88,199.64,204.24,206.53,208.21,209.42,210.24,210.21,210.14,210.52,212.60,218.91,226.07,233.08,239.68,245.69,250.92,255.09,258.65,261.35,261.52,257.38,252.38,247.14,241.73,238.49,235.75,233.23,230.72,228.38,227.84,228.79,230.95,233.90,237.39,242.14,247.03,250.79,253.18,255.03,256.64,258.13,259.31,260.31,260.67,260.49,260.10,259.13,258.28,257.48,256.65,255.47,253.73,251.29,248.17,244.57,239.02,231.98,224.99,219.66,213.69,208.48,203.59,198.62,192.95,187.82,182.58,176.64,169.18,165.68,162.21,157.71,152.03,150.31,153.90,159.09,164.73,171.14,177.10,184.38,191.97,198.34,200.35,203.52,207.80,213.36,221.34,229.58,237.93,245.79,252.15,257.79,263.48,268.84,273.38,275.78,276.57,275.78,273.65,270.92,264.55,255.86,248.36,246.01,243.67,241.33,237.78,232.13,223.03,212.27,202.85,195.20,188.81,185.46,182.86,180.24,176.94,171.84,166.48,161.84,158.09,154.59,152.80,151.66,150.08,146.88,143.31,140.60,138.99,138.38,137.64,135.64,132.77,129.25,125.33,121.42,118.36,115.90,113.71,111.52,108.24,104.33,100.43,98.17,96.34,94.80,93.43,92.12,90.83,89.39,87.84,86.19,84.54,82.70,80.85,78.99,77.03,74.91,72.40,69.99,68.12,66.37,64.20,61.86,59.47,57.07,54.63,52.45,50.60,49.13,48.00,46.88,45.77,44.63,43.50,42.35,41.16,40.00,39.02,38.09,37.18,36.27,35.35,34.47,33.66,32.93,32.31,31.77,31.23,30.69,30.18,29.74,29.40,29.03,28.51,27.78,26.98,26.33,25.87,25.56,25.25,24.87,24.47
43.43,44.35,45.28,46.21,47.13,48.02,48.89,49.82,50.82,51.82,52.83,53.83,54.84,55.79,56.71,57.63,58.49,59.34,60.19,61.06,61.98,62.84,63.69,64.54,65.40,66.48,67.67,68.87,70.78,76.00,81.25,86.34,91.23,95.89,99.54,103.12,106.69,110.42,115.22,120.01,125.27,130.52,134.39,138.29,143.76,149.77,155.21,160.15,165.68,171.15,176.19,180.60,184.61,188.87,194.00,200.71,202.52,203.67,204.38,204.73,204.06,203.87,205.14,208.84,216.58,224.15,230.85,236.91,242.72,248.64,252.83,256.46,260.00,263.13,259.67,254.90,249.76,244.35,239.98,236.94,234.40,231.79,229.25,226.71,226.49,228.49,230.76,234.29,238.10,242.20,246.59,249.43,250.80,251.64,252.46,253.40,253.55,253.40,253.03,252.50,252.01,251.38,250.80,250.38,249.74,248.90,247.34,244.95,241.85,235.65,229.14,222.88,217.16,210.99,206.28,201.75,196.65,190.63,185.92,180.70,174.76,168.38,164.91,161.21,156.17,149.83,149.25,152.84,157.60,162.87,169.58,175.39,182.59,191.05,200.00,202.16,204.47,207.12,210.74,217.88,225.41,234.00,242.61,249.02,254.17,258.94,264.01,269.60,272.59,274.17,274.41,273.28,270.65,264.25,255.88,248.77,246.52,244.13,241.52,237.53,231.26,221.48,211.19,202.27,194.85,188.37,183.92,179.98,176.10,171.85,166.15,160.86,156.25,152.27,148.42,147.18,146.29,144.83,142.03,138.55,136.01,134.85,134.96,134.41,132.69,130.20,127.06,123.34,120.06,117.31,114.86,112.49,110.25,106.24,102.17,98.94,97.22,95.45,93.81,92.34,91.03,89.64,88.14,86.66,85.24,83.69,81.95,80.17,78.37,76.52,74.58,72.34,70.10,68.16,66.01,63.68,61.29,58.92,56.67,54.42,52.49,50.86,49.39,48.31,47.17,46.04,44.94,43.71,42.42,41.11,39.89,38.96,38.03,37.15,36.27,35.35,34.42,33.78,33.24,32.69,32.15,31.61,31.07,30.53,29.99,29.61,29.22,28.68,27.90,27.05,26.27,25.74,25.43,25.13,24.74,24.31
43.14,44.03,44.96,45.89,46.81,47.70,48.56,49.44,50.34,51.28,52.24,53.20,54.20,55.15,56.06,56.93,57.78,58.63,59.46,60.29,61.22,62.07,63.01,64.02,65.07,66.25,67.47,68.67,70.44,74.93,79.93,84.64,88.96,92.92,96.36,99.35,102.12,105.08,109.63,114.66,120.27,125.90,130.19,134.22,139.18,145.21,152.13,156.88,161.83,166.96,172.08,176.53,180.41,184.06,187.85,192.22,194.57,196.30,197.03,196.68,196.27,197.92,201.88,207.94,215.41,223.02,229.62,235.40,240.69,246.45,251.10,255.13,258.87,262.69,261.15,257.38,252.45,247.28,241.88,238.25,235.51,232.93,230.33,227.79,226.04,225.74,227.94,230.71,234.02,237.72,241.62,244.19,245.72,246.78,247.65,248.29,248.38,247.98,247.35,246.86,246.63,246.40,246.21,246.05,245.71,245.12,243.84,241.51,237.57,231.58,225.64,219.68,213.47,208.24,203.80,199.39,194.56,189.06,184.52,178.88,172.72,167.77,164.24,160.01,154.88,149.35,148.43,150.84,155.05,160.55,167.36,173.43,180.36,188.35,197.23,201.15,203.93,206.31,209.13,214.34,221.36,229.09,237.04,244.74,250.01,254.74,259.30,263.92,268.41,271.30,272.81,272.78,270.49,264.03,256.44,250.07,247.22,244.58,241.83,237.60,231.02,221.50,211.15,202.16,194.74,188.35,183.55,178.65,173.66,168.59,163.07,158.00,153.35,149.07,145.06,142.63,141.25,139.72,136.56,133.46,131.45,130.62,130.77,130.70,129.19,126.76,123.76,120.72,118.21,115.79,113.43,111.02,107.88,103.68,100.18,97.90,96.20,94.51,92.83,91.23,89.82,88.33,86.80,85.30,83.86,82.41,80.89,79.30,77.61,75.76,73.88,71.91,69.89,67.85,65.59,63.26,60.96,58.77,56.86,54.96,53.17,51.50,49.89,48.62,47.36,46.12,44.88,43.55,42.23,40.92,39.71,38.83,37.95,37.06,36.22,35.48,34.64,34.03,33.52,33.01,32.47,31.93,31.39,30.85,30.31,29.88,29.38,28.75,27.97,27.17,26.35,25.70,25.23,24.88,24.49,24.09
42.81,43.74,44.66,45.57,46.49,47.38,48.23,49.04,49.85,50.72,51.63,52.56,53.54,54.48,55.38,56.23,57.06,57.90,58.72,59.54,60.45,61.34,62.37,63.48,64.63,65.84,67.07,68.30,69.95,73.54,78.17,82.41,86.18,89.69,93.09,95.81,98.15,100.60,104.67,109.74,115.44,121.19,125.92,130.06,134.61,140.50,148.19,153.28,157.90,162.65,167.59,172.01,175.84,179.02,181.69,184.12,186.63,188.27,188.82,188.49,189.57,193.62,199.85,207.39,214.63,222.00,228.49,234.12,239.09,244.72,249.78,254.21,258.18,262.37,262.49,259.73,255.14,250.14,244.24,239.89,236.66,234.11,231.50,228.97,226.27,224.23,225.09,227.27,230.01,233.13,236.44,238.74,240.44,241.77,242.77,243.27,243.34,242.74,241.88,241.47,241.43,241.47,241.49,241.41,241.16,240.63,239.39,237.00,232.70,227.10,221.49,215.77,209.75,205.20,201.07,196.86,192.32,187.54,183.20,177.16,170.75,167.03,163.73,159.24,153.96,148.70,147.45,149.04,152.68,158.01,164.75,171.08,177.83,185.33,193.69,199.42,202.80,205.15,207.50,211.19,217.50,224.47,231.88,240.06,245.80,250.67,254.93,258.94,264.09,268.29,271.20,272.29,270.38,263.86,256.99,251.25,247.76,244.96,242.10,237.72,230.95,221.62,211.23,202.16,194.70,188.37,183.35,177.74,171.99,166.57,161.40,156.34,151.44,146.74,142.35,138.72,136.42,134.45,131.45,128.81,127.17,126.46,126.49,126.60,125.24,123.05,120.46,118.09,116.10,113.96,111.61,108.99,105.31,101.43,98.56,96.84,95.10,93.42,91.65,89.93,88.43,86.96,85.45,83.95,82.49,81.12,79.78,78.39,76.85,75.02,73.22,71.49,69.65,67.55,65.30,63.04,60.85,58.82,57.12,55.44,53.75,52.05,50.38,48.95,47.57,46.23,44.89,43.50,42.14,40.81,39.60,38.73,37.89,37.08,36.32,35.66,34.86,34.25,33.73,33.26,32.74,32.20,31.67,31.15,30.60,30.12,29.54,28.86,28.07,27.29,26.46,25.68,25.04,24.70,24.31,23.94
42.43,43.48,44.41,45.26,46.18,47.06,47.89,48.60,49.31,50.11,50.99,51.92,52.85,53.78,54.68,55.52,56.30,57.14,57.98,58.83,59.68,60.67,61.76,62.89,63.98,65.15,66.37,67.67,69.24,71.74,75.86,79.48,82.70,86.11,89.71,92.69,95.19,97.49,100.72,105.57,110.96,116.44,121.62,125.77,130.10,135.61,142.95,149.17,153.91,158.23,162.58,166.85,170.75,173.62,175.56,176.90,178.91,179.40,179.45,180.24,184.63,191.78,199.54,207.19,214.38,221.09,227.44,233.15,238.06,243.70,249.06,253.86,258.12,262.36,263.65,261.88,257.84,252.89,247.29,241.99,237.88,235.33,232.77,230.17,227.39,224.59,222.19,224.04,226.12,228.36,231.00,233.05,234.91,236.51,237.74,238.34,238.42,237.65,236.61,236.36,236.41,236.48,236.45,236.21,235.71,235.01,233.50,230.90,227.04,222.02,216.42,210.88,206.05,201.69,197.99,194.12,189.85,186.06,181.98,175.59,168.90,166.12,163.46,159.14,153.58,147.72,146.22,147.60,150.68,155.19,161.58,168.16,174.90,181.90,189.27,196.78,200.88,203.47,205.78,208.63,213.93,220.36,227.45,234.84,241.56,246.77,251.07,255.11,259.62,265.10,269.56,271.80,270.34,263.77,257.47,252.19,248.08,245.23,242.32,237.89,231.08,221.80,211.42,202.30,194.77,188.43,183.37,177.38,171.40,166.30,161.72,156.32,150.85,145.57,140.44,135.72,131.86,128.94,126.92,124.82,123.30,122.41,122.10,121.92,120.64,118.99,117.23,115.50,113.64,111.66,109.24,106.12,102.48,99.69,97.52,95.74,93.90,92.07,90.19,88.37,86.77,85.50,84.08,82.61,81.16,79.84,78.63,77.44,76.10,74.31,72.66,71.11,69.40,67.31,65.20,63.09,61.05,59.14,57.44,55.80,54.13,52.45,50.82,49.29,47.82,46.40,45.01,43.62,42.18,40.81,39.58,38.67,37.88,37.27,36.67,35.91,35.07,34.40,33.86,33.40,32.93,32.39,31.89,31.40,30.86,30.33,29.74,29.03,28.19,27.42,26.58,25.68,24.88,24.63,24.25,23.91
41.95,43.17,44.10,44.99,45.84,46.65,47.41,48.10,48.80,49.53,50.35,51.28,52.20,53.07,53.92,54.76,55.58,56.42,57.27,58.12,58.97,59.89,60.94,62.07,63.25,64.53,65.81,67.12,68.56,70.43,73.64,76.75,79.70,82.69,86.41,89.78,92.77,95.50,98.76,103.19,107.97,112.91,118.08,122.39,126.42,130.92,136.53,142.86,147.95,152.40,156.53,160.49,164.22,166.82,168.48,169.68,171.65,172.89,174.79,178.34,183.86,191.97,199.65,206.44,213.29,220.03,226.36,232.08,237.17,243.18,248.76,253.89,258.49,262.41,264.56,263.50,259.94,255.53,250.34,244.69,239.86,236.65,234.14,231.51,228.55,225.35,222.25,221.71,222.16,223.36,225.14,227.19,229.34,231.01,231.98,232.52,232.59,232.20,231.60,231.24,230.79,230.56,230.37,230.06,229.44,228.60,227.06,224.48,220.37,215.19,209.70,204.71,201.00,197.57,194.45,191.09,187.41,184.11,179.24,173.32,167.89,165.43,162.88,158.43,152.75,146.95,145.16,146.39,148.81,152.22,157.82,164.41,171.21,177.94,184.36,191.50,197.22,201.40,204.27,206.98,211.03,216.80,223.90,231.41,238.22,243.57,247.96,252.02,257.00,263.16,268.44,271.47,270.45,263.88,257.53,252.19,247.97,245.07,242.15,237.63,230.72,221.78,211.56,202.41,194.80,188.55,183.40,177.27,171.21,166.22,162.07,156.79,151.15,145.49,139.99,134.84,130.55,127.19,124.72,122.18,120.16,118.89,118.27,117.13,115.78,114.54,113.38,112.13,110.57,108.58,106.02,102.88,100.16,97.91,95.96,94.17,92.31,90.42,88.46,86.54,84.84,83.52,82.21,80.94,79.72,78.49,77.32,76.16,74.98,73.74,72.25,70.75,69.08,67.11,65.11,63.07,61.08,59.20,57.54,55.92,54.25,52.57,50.95,49.45,48.03,46.61,45.14,43.71,42.24,40.84,39.62,38.86,38.24,37.62,36.93,36.11,35.31,34.61,34.02,33.53,33.06,32.53,32.04,31.55,31.01,30.51,29.93,29.17,28.20,27.30,26.38,25.50,24.79,24.56,24.22,23.90
41.44,42.78,43.78,44.69,45.49,46.22,46.91,47.61,48.30,49.00,49.75,50.64,51.54,52.36,53.17,54.02,54.87,55.71,56.55,57.40,58.27,59.12,60.12,61.26,62.52,63.90,65.24,66.61,68.02,69.53,72.03,74.74,77.44,79.99,83.68,87.35,90.80,93.99,97.40,101.30,105.38,109.69,114.46,118.89,122.80,126.54,130.58,136.45,141.66,146.16,150.02,153.51,156.94,159.55,161.43,162.95,165.53,168.17,172.14,178.01,184.03,192.72,200.06,205.76,211.86,218.73,225.05,230.88,236.47,242.95,248.82,254.25,259.10,262.50,265.19,264.78,261.85,258.06,253.27,247.63,242.27,238.08,235.54,232.87,229.82,226.47,223.10,220.24,218.96,219.04,220.05,221.97,224.13,225.72,226.50,227.03,227.11,227.05,226.79,226.17,225.09,224.47,224.02,223.45,222.54,221.42,219.68,217.00,212.86,207.73,202.54,198.16,195.37,192.83,190.33,187.59,184.55,181.54,176.06,170.95,167.03,164.68,162.15,157.33,151.48,146.07,144.09,145.25,147.24,149.88,154.87,161.31,167.90,174.20,179.89,186.27,193.36,199.22,203.00,205.77,208.88,214.08,221.11,228.78,235.52,241.06,245.67,249.81,255.27,261.80,267.58,271.23,270.58,264.01,257.39,251.80,247.69,244.77,241.84,237.28,230.33,221.75,211.64,202.46,194.81,188.67,183.47,177.26,171.17,166.25,162.39,157.32,151.64,145.72,139.95,134.60,130.14,126.52,123.52,120.51,117.95,116.10,114.86,112.82,111.35,110.35,109.61,108.67,107.28,105.27,102.73,99.92,98.04,96.14,94.29,92.49,90.62,88.67,86.64,84.66,82.87,81.51,80.28,79.18,78.16,77.03,75.88,74.73,73.68,72.94,71.66,70.22,68.60,66.79,64.90,62.95,61.00,59.13,57.49,55.84,54.18,52.54,50.93,49.50,48.17,46.80,45.31,43.83,42.38,41.01,39.85,39.18,38.65,37.96,37.16,36.32,35.54,34.81,34.19,33.67,33.19,32.67,32.17,31.68,31.15,30.68,30.10,29.30,28.22,27.20,26.20,25.35,24.74,24.50,24.19,23.89
40.96,42.19,43.46,44.32,45.07,45.77,46.46,47.16,47.85,48.55,49.26,50.00,50.80,51.63,52.47,53.32,54.17,54.96,55.78,56.65,57.56,58.41,59.42,60.58,61.88,63.20,64.62,66.18,67.86,69.51,72.03,74.54,76.90,79.16,82.51,86.14,89.75,93.16,96.63,99.75,103.09,106.65,110.18,114.59,118.90,122.90,126.53,130.97,135.58,139.62,142.85,145.55,148.45,151.76,155.03,157.58,162.28,167.08,172.41,178.45,184.48,193.90,201.08,205.55,209.92,216.87,223.17,229.36,236.24,243.26,249.61,255.34,260.17,262.74,265.19,265.46,263.60,260.35,255.81,250.90,245.43,239.71,236.93,234.21,231.40,228.29,224.48,220.62,217.90,216.72,217.27,218.60,219.95,221.14,222.13,222.90,223.06,222.94,222.41,221.19,219.52,218.48,217.49,216.08,214.38,212.59,210.03,206.80,203.65,199.50,195.05,191.23,188.92,186.74,184.91,182.94,180.52,177.51,172.50,168.69,166.10,163.66,161.18,155.53,149.31,144.80,142.92,144.18,146.39,149.34,154.47,160.43,166.02,171.39,176.86,182.55,189.94,196.94,202.27,205.29,208.43,213.33,219.91,227.38,234.06,240.05,245.21,249.61,254.97,261.28,267.14,271.14,270.63,264.12,256.94,250.85,247.18,244.31,241.39,236.90,230.11,221.77,211.57,202.36,194.78,188.79,183.65,177.42,171.32,166.44,162.58,157.74,152.19,146.19,140.22,134.94,130.44,126.73,123.78,120.76,117.81,114.98,112.31,109.88,108.18,107.12,106.40,105.41,103.69,101.72,99.72,97.88,96.20,94.43,92.60,90.75,88.83,86.79,84.76,82.79,80.95,79.69,78.46,77.33,76.32,75.28,74.20,73.07,72.05,71.46,70.47,69.19,67.71,66.10,64.35,62.55,60.71,58.86,57.11,55.37,53.76,52.23,50.67,49.39,48.18,46.95,45.62,44.09,42.72,41.55,40.57,39.70,38.98,38.19,37.37,36.58,35.74,34.97,34.34,33.85,33.33,32.84,32.34,31.82,31.35,30.82,30.23,29.42,28.34,27.28,26.26,25.39,24.73,24.44,24.13,23.86
40.25,41.33,42.99,43.74,44.45,45.12,45.79,46.49,47.21,47.96,48.71,49.40,50.11,50.89,51.72,52.57,53.42,54.23,55.06,55.93,56.86,57.81,58.83,59.97,61.29,62.78,64.36,66.05,67.81,69.51,71.85,74.18,76.45,78.69,81.79,85.28,88.86,92.29,95.42,98.18,101.05,104.11,107.21,110.86,114.89,118.97,122.77,126.82,131.07,134.88,137.95,140.21,143.15,147.36,152.10,156.03,161.40,166.97,172.72,178.62,184.54,194.44,201.58,205.42,209.18,215.75,222.67,229.81,237.16,244.35,250.62,256.15,260.71,262.99,265.31,266.02,264.92,262.24,258.75,254.56,249.49,243.65,238.95,235.84,233.04,229.90,225.75,221.20,217.83,215.70,214.68,215.49,216.37,217.34,218.35,219.13,219.30,219.19,218.66,217.33,215.32,213.00,210.83,209.12,207.50,205.18,202.39,199.27,195.96,192.13,188.13,184.53,181.94,180.17,178.65,177.08,175.16,172.21,167.80,165.27,164.04,161.95,158.61,153.07,147.26,142.94,141.58,143.38,146.22,149.78,155.23,160.84,166.11,171.20,176.37,181.86,189.46,196.72,202.17,205.16,208.24,212.84,218.95,225.94,232.83,239.13,244.66,249.44,254.53,260.48,266.76,271.78,271.28,264.88,257.11,250.32,246.72,243.90,240.86,236.39,229.87,221.60,211.61,202.46,194.88,189.14,183.91,177.76,171.71,166.72,162.79,158.06,152.63,146.66,140.46,135.27,130.77,126.99,123.99,120.90,117.69,114.44,111.30,108.78,106.84,105.27,103.88,102.35,100.71,99.03,97.38,95.80,94.25,92.63,90.91,89.05,87.05,84.98,82.94,81.04,79.40,78.13,76.91,75.70,74.50,73.43,72.41,71.35,70.36,69.68,68.70,67.56,66.30,64.95,63.39,61.75,59.96,58.07,56.36,54.69,53.14,51.66,50.15,49.02,47.91,46.79,45.62,44.35,43.16,42.08,41.07,40.04,39.22,38.41,37.61,36.83,35.98,35.19,34.53,34.00,33.50,33.00,32.49,31.99,31.49,30.92,30.31,29.51,28.42,27.34,26.30,25.40,24.73,24.42,24.11,23.83
39.52,40.45,42.42,43.05,43.73,44.39,45.04,45.75,46.53,47.34,48.13,48.83,49.44,50.17,50.97,51.81,52.66,53.51,54.36,55.24,56.17,57.24,58.28,59.40,60.72,62.41,64.18,65.96,67.73,69.45,71.55,73.75,76.01,78.30,81.12,84.42,87.91,91.29,94.01,96.60,99.20,101.93,104.91,107.63,111.08,115.07,119.27,123.33,127.36,131.07,134.23,136.49,139.90,145.05,150.98,156.10,161.51,167.19,172.93,178.59,184.49,194.70,201.83,205.38,209.17,215.37,223.10,231.24,238.69,245.78,251.73,256.85,261.02,263.27,265.51,266.58,266.14,264.07,261.76,258.28,253.80,248.39,241.52,237.74,234.70,231.39,227.02,221.99,218.30,215.39,212.56,212.61,213.05,213.84,214.83,215.53,215.69,215.64,215.20,214.02,211.58,207.75,204.24,202.25,200.90,198.33,195.66,192.89,189.11,185.41,181.72,178.19,175.07,173.60,172.20,170.85,169.31,166.51,162.81,161.39,161.27,159.58,155.23,150.21,145.19,140.95,140.29,142.79,146.36,150.60,156.34,161.67,166.86,171.97,177.05,182.58,190.27,197.36,202.35,205.19,208.14,212.42,218.05,224.49,231.69,238.20,243.99,249.16,254.00,259.56,266.37,272.55,272.07,265.99,257.65,250.04,246.29,243.51,240.30,235.81,229.53,221.26,211.56,202.57,195.07,189.60,184.24,178.19,172.20,167.01,163.00,158.32,153.01,147.11,140.67,135.57,131.08,127.24,124.13,120.96,117.57,114.18,110.99,108.53,106.43,104.30,102.09,99.90,98.37,96.92,95.39,93.72,92.23,90.77,89.17,87.36,85.32,83.23,81.23,79.46,78.06,76.73,75.50,74.20,72.77,71.58,70.59,69.62,68.64,67.75,66.69,65.66,64.63,63.56,62.19,60.70,58.96,57.03,55.38,53.83,52.34,50.91,49.51,48.52,47.53,46.49,45.44,44.51,43.52,42.49,41.41,40.27,39.41,38.62,37.86,37.08,36.24,35.44,34.74,34.15,33.68,33.15,32.65,32.16,31.61,30.99,30.38,29.57,28.50,27.41,26.33,25.40,24.73,24.42,24.11,23.80
39.30,40.10,41.53,42.26,42.92,43.61,44.36,45.23,46.06,46.83,47.56,48.25,48.87,49.56,50.31,51.11,51.96,52.81,53.69,54.61,55.59,56.62,57.70,58.85,60.08,61.72,63.51,65.35,67.18,69.05,71.03,73.17,75.39,77.53,79.51,82.67,86.22,89.58,92.45,95.10,97.81,100.60,103.39,106.05,108.81,112.22,116.64,120.45,124.46,128.29,131.92,135.95,141.15,146.74,152.04,156.16,161.62,166.98,172.40,178.10,184.74,194.88,201.90,205.71,210.63,217.65,225.63,233.68,240.96,247.35,252.88,257.58,261.35,263.65,265.89,267.50,267.93,266.56,264.30,261.36,257.37,252.16,245.88,240.57,236.27,232.59,228.47,223.55,219.46,216.03,212.90,210.53,209.70,210.14,211.38,212.14,212.30,212.25,211.92,211.13,207.20,202.66,198.35,194.95,192.81,191.36,189.41,186.68,183.44,180.42,177.05,173.54,170.26,168.25,166.74,165.41,163.94,161.59,158.97,157.73,157.06,154.93,150.95,146.63,142.64,139.68,139.81,142.83,146.79,151.23,156.63,161.65,166.52,171.86,178.34,184.22,191.37,197.87,202.59,205.28,207.90,211.76,216.94,223.03,230.45,236.98,242.77,248.10,253.29,258.73,265.63,272.26,272.22,267.62,258.95,250.15,245.97,243.19,239.73,235.02,228.69,220.37,210.70,202.31,195.61,190.24,184.74,178.63,172.57,167.21,163.19,158.55,153.34,147.52,140.88,135.72,131.15,127.20,124.00,120.78,117.45,114.18,111.13,108.71,107.00,105.15,103.00,100.61,98.37,96.11,93.87,91.73,90.15,88.74,87.24,85.57,83.88,81.78,80.06,78.61,77.17,75.68,74.27,72.88,71.46,70.02,68.91,67.89,66.84,65.66,64.68,63.61,62.61,61.78,60.56,59.22,57.62,55.78,53.93,52.36,50.99,49.83,48.87,48.03,47.08,46.07,45.05,44.13,43.18,42.22,41.25,40.26,39.51,38.78,38.05,37.27,36.48,35.66,34.93,34.33,33.81,33.32,32.82,32.27,31.68,31.06,30.44,29.66,28.62,27.48,26.39,25.44,24.73,24.42,24.11,23.80
39.13,39.78,40.72,41.52,42.26,43.03,43.85,44.75,45.58,46.31,46.98,47.68,48.29,48.97,49.67,50.40,51.22,52.09,53.01,53.98,54.98,56.04,57.16,58.33,59.55,61.14,62.96,64.83,66.69,68.63,70.53,72.77,75.17,77.39,79.10,82.35,86.12,89.69,92.79,95.64,98.74,102.01,104.94,107.26,109.44,112.13,115.86,119.17,123.21,127.03,130.66,135.77,142.13,148.25,153.44,157.00,162.08,167.10,172.16,177.51,184.38,194.81,202.36,207.01,212.98,220.40,228.39,236.09,242.71,248.56,253.82,258.28,261.79,264.17,266.45,268.23,269.10,268.53,267.12,264.85,261.07,255.59,249.79,243.92,238.79,234.44,230.31,225.40,220.93,217.01,213.56,210.05,207.66,206.34,205.91,206.03,206.14,206.11,205.82,205.09,201.55,197.31,193.11,189.56,186.97,185.33,183.47,181.09,178.36,175.84,172.71,169.32,166.15,163.88,162.32,161.11,159.95,158.32,156.21,154.64,153.11,150.42,146.78,143.37,140.57,138.78,139.33,142.65,146.81,151.28,156.39,161.33,166.29,171.93,178.92,184.77,191.45,197.62,202.38,204.92,207.40,210.94,215.65,221.28,228.82,235.41,241.34,246.96,252.41,257.73,264.39,270.95,271.65,268.16,259.80,250.16,243.86,241.76,238.53,233.91,227.72,219.46,210.12,202.19,195.95,190.76,185.13,178.99,172.86,167.29,163.30,158.66,153.47,147.62,140.70,135.67,131.16,127.21,124.03,121.47,118.63,115.90,113.43,110.75,108.84,106.91,104.71,102.10,99.44,96.80,94.06,91.19,89.17,87.54,85.87,84.05,82.39,80.54,79.08,77.83,76.42,74.87,73.38,71.96,70.57,69.03,67.73,66.47,65.19,63.85,62.71,61.58,60.61,59.90,58.91,57.67,56.15,54.38,52.50,51.05,49.87,48.94,48.19,47.42,46.57,45.63,44.63,43.71,42.83,41.97,41.13,40.29,39.58,38.89,38.18,37.43,36.69,35.88,35.13,34.48,33.94,33.47,32.94,32.36,31.74,31.09,30.47,29.69,28.68,27.58,26.47,25.48,24.73,24.42,24.11,23.80
39.01,39.47,39.96,40.81,41.72,42.61,43.46,44.30,45.08,45.76,46.41,47.10,47.72,48.39,49.05,49.69,50.46,51.36,52.33,53.34,54.34,55.50,56.65,57.84,59.10,60.64,62.48,64.38,66.25,68.18,70.04,72.49,75.25,77.73,79.60,83.10,87.20,91.14,94.54,97.71,101.43,105.45,108.76,110.55,112.20,114.10,116.51,119.14,123.24,126.97,130.26,135.89,142.94,149.64,155.09,158.43,162.83,167.50,172.17,176.90,183.63,194.57,203.14,209.03,215.98,223.50,231.32,238.48,244.10,249.50,254.61,258.95,262.33,264.80,267.14,268.82,269.80,270.11,270.11,268.62,264.86,258.78,253.36,247.64,242.00,236.77,232.44,227.47,222.65,218.24,214.46,210.75,206.64,202.52,199.05,198.02,197.99,197.99,197.67,196.75,194.99,191.79,188.37,185.59,182.81,180.03,177.80,175.97,173.73,171.56,168.62,165.41,162.58,160.27,158.70,157.66,156.96,156.27,154.25,151.96,149.36,146.03,142.73,140.37,138.86,138.16,138.85,142.31,146.52,150.90,155.77,160.77,166.13,172.12,178.95,184.51,190.75,196.80,201.84,204.24,206.70,209.99,214.23,219.32,226.87,233.58,239.75,245.75,251.40,256.61,262.78,268.89,270.52,267.87,260.31,250.09,240.46,239.52,236.85,232.56,226.66,218.54,209.72,202.17,196.13,191.18,185.43,179.28,173.08,167.29,163.35,158.69,153.44,147.49,140.23,135.47,131.14,127.27,124.21,122.82,120.77,118.88,117.32,114.16,111.64,109.36,107.02,104.16,101.30,98.59,95.51,91.73,89.01,86.97,84.93,82.76,80.90,79.46,78.25,77.09,75.78,74.23,72.75,71.34,70.00,68.46,66.91,65.28,63.66,62.26,60.80,59.59,58.64,57.94,57.25,56.08,54.58,52.87,51.10,49.87,48.94,48.19,47.49,46.72,46.00,45.18,44.19,43.26,42.46,41.73,41.04,40.34,39.65,38.95,38.26,37.56,36.87,36.11,35.34,34.61,34.07,33.59,33.04,32.42,31.80,31.11,30.47,29.69,28.69,27.68,26.55,25.52,24.73,24.42,24.11,23.80
38.84,39.28,39.76,40.46,41.29,42.16,43.00,43.80,44.53,45.19,45.83,46.52,47.14,47.82,48.48,49.11,49.83,50.73,51.69,52.72,53.83,55.03,56.24,57.48,58.77,60.11,61.91,63.80,65.66,67.54,69.44,72.36,75.93,79.40,82.60,86.42,90.22,93.64,97.09,102.43,107.00,110.32,112.89,114.45,116.10,118.30,121.37,124.00,127.76,131.85,136.05,140.79,146.34,151.66,156.64,161.36,166.12,170.68,175.19,180.03,187.25,196.70,204.92,211.61,218.36,225.13,233.04,240.36,245.35,250.31,255.35,259.77,263.25,265.87,268.05,269.57,270.52,271.13,271.23,270.39,267.87,263.25,256.59,250.96,245.29,239.62,234.90,230.22,225.33,220.59,216.37,212.67,208.55,204.17,199.87,196.82,194.25,192.48,191.48,191.05,189.89,187.79,185.23,182.58,179.80,177.06,174.63,172.39,169.85,167.29,164.39,161.69,159.79,158.12,156.57,155.36,154.56,154.01,152.35,149.31,145.47,141.95,140.37,139.12,138.11,137.45,138.09,141.23,145.34,149.86,154.63,159.44,164.78,170.69,177.10,182.76,188.77,194.95,200.67,203.42,206.02,209.04,212.88,217.98,224.05,230.42,236.88,243.25,249.59,255.15,260.60,265.50,267.77,265.63,259.80,250.68,239.10,237.17,234.55,230.88,225.67,217.36,209.17,202.09,196.10,190.75,185.31,179.28,173.08,167.29,163.30,158.62,153.31,147.26,140.15,135.63,132.14,129.41,127.28,125.99,124.03,122.18,120.69,118.32,115.47,112.59,109.73,106.72,103.81,100.56,96.98,93.15,89.85,87.56,85.39,83.09,80.93,79.28,77.85,76.49,75.08,73.68,72.31,70.96,69.61,68.02,66.38,64.71,63.05,61.51,60.08,58.88,57.85,56.90,55.96,54.89,53.59,52.10,50.68,49.44,48.52,47.81,47.11,46.34,45.62,44.84,43.95,43.17,42.44,41.71,40.97,40.28,39.58,38.92,38.26,37.56,36.92,36.25,35.53,34.79,34.20,33.63,33.04,32.41,31.74,31.09,30.47,29.69,28.69,27.68,26.64,25.65,24.86,24.55,24.24,23.96
38.68,39.11,39.58,40.13,40.88,41.70,42.51,43.26,43.96,44.61,45.26,45.95,46.59,47.25,47.88,48.48,49.22,50.10,51.09,52.19,53.37,54.60,55.85,57.12,58.41,59.65,61.44,63.39,65.36,67.32,69.59,73.07,77.31,81.46,85.58,89.48,93.01,96.35,101.35,107.31,111.80,114.69,117.19,119.02,121.00,123.63,127.23,130.25,133.58,137.55,142.02,145.94,150.10,154.15,158.51,163.82,168.76,173.29,177.96,183.40,191.05,199.24,206.86,213.77,220.39,226.70,234.52,241.78,246.36,251.07,256.14,260.64,264.17,266.96,268.99,270.36,271.28,272.09,272.25,271.70,270.09,266.91,259.96,254.24,248.48,242.56,237.17,232.71,228.05,223.29,218.71,214.85,210.80,206.47,201.95,197.71,193.60,190.42,188.33,187.32,185.75,184.05,182.04,179.61,176.85,174.14,171.59,169.11,166.29,163.55,160.89,158.71,157.36,156.03,154.46,153.07,152.06,151.47,149.76,146.32,142.17,139.38,138.72,138.07,137.36,136.72,137.36,139.98,143.70,148.13,153.06,157.77,163.03,168.79,174.84,180.49,186.46,192.70,198.69,202.05,205.70,209.07,212.47,216.75,221.29,227.19,233.74,240.32,247.28,253.22,258.39,262.63,265.10,263.73,259.07,250.68,238.43,235.87,233.23,229.77,224.72,216.08,208.47,201.86,195.97,190.32,185.18,179.31,173.15,167.29,163.25,158.54,153.29,147.52,141.13,137.46,135.00,133.13,131.29,129.66,127.50,125.45,123.76,121.69,118.68,115.48,112.32,109.26,106.12,102.47,98.54,94.62,90.79,88.21,85.93,83.59,81.29,79.45,77.84,76.35,74.86,73.48,72.08,70.66,69.19,67.55,65.88,64.20,62.53,60.89,59.55,58.39,57.33,56.25,55.19,54.17,53.04,51.76,50.53,49.33,48.43,47.72,46.98,46.19,45.43,44.66,43.85,43.15,42.46,41.74,41.02,40.33,39.61,38.96,38.31,37.62,36.98,36.34,35.64,34.89,34.28,33.66,33.04,32.40,31.70,31.09,30.47,29.70,28.72,27.76,26.78,25.84,25.06,24.71,24.40,24.14
38.53,38.99,39.44,39.85,40.49,41.23,41.99,42.69,43.39,44.04,44.68,45.38,46.06,46.71,47.27,47.79,48.63,49.48,50.53,51.75,52.98,54.22,55.50,56.79,58.03,59.26,61.09,63.19,65.40,67.62,70.66,74.83,79.58,84.02,88.53,92.24,95.52,99.32,107.73,112.41,115.65,118.45,121.68,124.39,127.14,130.34,134.31,138.22,141.00,144.24,148.22,151.39,154.29,157.22,160.76,165.67,170.61,175.17,180.42,187.08,195.08,202.28,208.98,215.42,221.99,228.21,235.71,242.63,247.06,251.77,257.00,261.57,265.10,268.09,269.97,271.19,272.07,272.99,273.15,272.46,271.32,269.56,263.50,257.47,251.54,245.60,239.23,234.87,230.78,226.45,221.58,217.37,213.45,209.58,205.57,201.18,196.75,192.60,188.95,186.01,182.80,180.63,178.79,176.67,173.96,171.26,168.71,166.18,163.11,160.44,158.29,156.63,155.38,153.99,152.38,150.81,149.46,148.57,146.31,142.89,139.61,138.70,137.94,137.27,136.59,135.95,136.64,138.53,141.49,145.55,150.97,155.68,160.77,166.28,172.09,177.59,183.74,189.95,195.70,199.99,205.85,210.28,213.20,215.66,218.61,223.86,230.27,236.85,244.36,250.72,256.14,260.38,262.51,262.22,258.05,249.95,238.61,235.86,233.09,229.37,223.82,214.69,207.59,201.44,195.72,189.88,185.01,179.37,173.28,167.28,163.19,158.44,153.43,148.37,143.41,141.36,140.13,138.79,136.45,133.93,131.20,128.67,126.47,124.11,121.12,117.95,114.77,111.75,108.19,104.29,100.21,96.12,91.84,88.94,86.55,84.30,82.05,80.04,78.32,76.78,75.24,73.71,72.14,70.48,68.74,67.05,65.41,63.78,62.14,60.44,59.24,58.17,57.14,56.06,55.05,54.04,53.02,51.96,50.72,49.61,48.75,48.01,47.18,46.33,45.49,44.68,43.91,43.22,42.52,41.86,41.21,40.52,39.76,39.09,38.44,37.75,37.06,36.37,35.64,34.89,34.28,33.66,33.04,32.40,31.70,31.09,30.47,29.72,28.80,27.94,27.02,26.12,25.36,24.91,24.59,24.33
38.45,38.90,39.31,39.65,40.10,40.72,41.47,42.12,42.81,43.49,44.15,44.80,45.41,45.99,46.56,47.14,47.99,48.92,49.99,51.19,52.43,53.67,54.92,56.23,57.60,58.96,60.79,63.03,65.59,68.17,72.24,76.92,81.76,86.24,90.45,94.09,98.18,103.59,111.75,116.31,119.62,122.64,126.04,129.35,132.71,136.07,139.40,142.94,146.08,149.25,152.52,155.39,158.27,161.29,164.64,168.54,172.74,177.21,182.74,189.68,196.88,203.67,210.07,216.27,222.75,229.48,236.70,243.23,247.96,253.06,258.13,262.69,266.48,269.31,270.89,272.07,273.07,273.99,274.11,273.39,272.23,270.64,266.65,260.56,254.32,248.25,241.67,237.01,233.18,229.52,225.33,220.51,216.31,212.53,208.92,204.82,200.47,196.20,192.07,188.07,184.45,181.61,179.26,177.07,174.46,171.31,168.62,166.36,163.62,160.86,158.91,157.43,155.91,153.73,151.43,149.33,147.64,146.41,144.61,142.28,140.03,138.85,137.86,136.94,136.02,135.19,135.88,137.44,139.56,142.52,147.39,152.61,157.72,162.99,168.78,174.44,180.17,186.13,192.08,196.57,201.48,206.52,211.00,213.76,216.46,220.31,225.61,232.43,239.96,247.50,253.52,257.58,259.98,259.97,256.19,248.84,238.80,236.02,233.15,229.15,223.05,212.72,206.54,201.24,195.85,189.94,185.15,179.78,173.92,167.91,163.85,159.51,155.42,151.70,148.13,146.50,145.21,143.58,141.00,137.98,134.83,131.70,128.70,125.82,122.66,119.42,116.19,113.01,109.52,105.54,101.30,97.03,92.70,89.52,86.98,84.79,82.64,80.50,78.69,77.10,75.51,73.88,72.22,70.51,68.74,66.99,65.28,63.57,61.86,60.16,59.06,58.00,56.96,55.92,54.92,53.91,52.91,51.89,50.78,49.78,48.91,48.10,47.25,46.36,45.50,44.68,43.92,43.27,42.58,41.91,41.24,40.54,39.81,39.10,38.40,37.70,36.96,36.26,35.53,34.77,34.11,33.53,32.93,32.31,31.70,31.04,30.41,29.69,28.81,27.96,27.11,26.31,25.62,25.16,24.84,24.55
38.38,38.80,39.16,39.47,39.78,40.27,40.94,41.57,42.25,42.92,43.58,44.18,44.71,45.24,45.84,46.53,47.41,48.39,49.46,50.62,51.85,53.12,54.37,55.68,57.14,58.64,60.50,62.91,65.80,68.73,73.69,78.80,83.67,88.17,92.04,95.67,100.65,107.76,115.34,119.92,123.40,126.60,130.12,133.95,137.67,140.97,143.69,147.00,150.52,153.75,156.58,159.52,162.65,165.96,169.24,172.20,175.50,179.63,185.07,191.89,198.36,204.87,211.18,217.40,223.93,231.03,237.93,244.10,249.19,254.47,259.30,263.84,267.92,270.57,271.87,272.98,274.05,274.98,275.05,274.25,272.95,271.38,269.10,263.21,256.89,250.87,244.67,239.65,235.84,232.59,229.08,224.26,219.53,215.47,212.09,208.36,204.02,199.76,195.49,190.82,186.77,183.31,180.56,178.49,176.21,173.01,170.28,168.13,165.62,162.78,160.80,159.27,157.53,155.08,152.21,149.41,147.05,145.63,144.29,142.83,141.27,139.71,138.43,137.25,136.08,134.99,134.99,136.21,137.75,139.77,143.61,148.70,153.93,159.36,165.16,171.07,176.54,182.21,188.16,192.97,196.98,202.06,207.50,211.28,214.20,217.09,221.22,227.51,235.12,243.37,250.09,254.58,257.16,257.24,253.92,247.54,239.02,236.17,233.17,228.94,222.43,211.37,205.89,201.22,196.14,190.35,185.67,180.66,175.14,169.27,165.33,161.54,158.34,155.77,153.52,152.07,150.37,148.09,145.02,141.54,137.96,134.31,130.64,127.27,123.84,120.46,117.15,113.87,110.54,106.52,102.13,97.72,93.49,90.07,87.38,85.23,83.11,80.88,79.00,77.36,75.73,74.01,72.31,70.57,68.80,67.02,65.24,63.45,61.66,59.95,58.91,57.85,56.80,55.80,54.79,53.79,52.78,51.78,50.79,49.86,48.98,48.13,47.30,46.39,45.52,44.70,43.95,43.31,42.63,41.92,41.22,40.52,39.81,39.07,38.33,37.62,36.86,36.14,35.41,34.66,33.95,33.37,32.79,32.20,31.66,30.98,30.35,29.65,28.85,28.03,27.25,26.53,25.90,25.43,25.10,24.78
38.28,38.65,38.97,39.28,39.59,39.93,40.37,41.05,41.69,42.32,42.93,43.48,43.95,44.48,45.13,45.97,46.95,47.95,48.96,50.04,51.28,52.64,53.92,55.22,56.63,58.23,60.24,62.86,66.03,69.22,74.73,80.11,85.03,89.57,93.25,96.92,102.71,111.31,118.70,123.24,126.73,129.96,133.63,137.89,141.47,144.38,146.85,150.61,154.31,157.63,160.67,164.35,167.96,171.63,174.93,177.25,179.52,182.82,187.50,193.58,199.75,206.09,212.61,219.34,226.27,233.26,239.72,245.65,251.08,255.97,260.49,265.03,269.36,271.87,272.97,273.94,274.94,275.87,275.89,274.87,273.38,271.83,270.14,264.97,259.10,253.55,248.73,243.39,239.14,235.71,232.60,229.10,223.49,218.45,214.97,211.63,207.04,202.86,198.85,194.08,189.25,185.31,182.59,181.13,179.69,177.37,174.87,172.39,169.79,166.89,164.49,162.51,160.76,159.35,156.38,152.58,148.86,147.59,146.44,145.04,143.43,141.82,140.21,138.78,137.43,136.00,133.83,134.57,136.09,137.74,139.80,143.29,148.81,155.20,161.01,167.33,173.00,178.39,183.74,189.34,193.51,197.54,202.06,207.77,211.56,214.63,217.73,221.79,229.74,237.52,245.01,251.29,253.72,253.75,251.01,245.91,239.27,236.22,233.06,228.68,222.11,211.50,206.12,201.53,196.65,191.35,186.93,182.43,177.48,172.04,168.35,165.27,162.71,160.73,159.67,158.21,155.73,152.28,148.08,144.11,140.07,136.06,132.12,128.36,124.53,120.83,117.37,114.25,111.11,107.06,102.56,98.13,94.19,90.61,87.76,85.59,83.38,81.14,79.23,77.54,75.85,74.09,72.37,70.64,68.86,67.08,65.31,63.46,61.59,59.82,58.78,57.73,56.67,55.67,54.66,53.66,52.65,51.66,50.72,49.79,48.91,48.08,47.30,46.44,45.58,44.77,44.00,43.32,42.63,41.90,41.15,40.46,39.70,38.97,38.25,37.49,36.78,36.04,35.30,34.58,33.82,33.20,32.62,32.07,31.53,30.90,30.28,29.65,28.99,28.27,27.51,26.81,26.22,25.75,25.37,25.04
38.13,38.47,38.78,39.09,39.37,39.66,40.00,40.51,41.09,41.64,42.19,42.73,43.23,43.78,44.51,45.44,46.45,47.45,48.44,49.43,50.52,51.89,53.18,54.45,55.79,57.49,59.94,62.91,66.22,69.65,75.55,81.01,85.86,90.45,94.23,98.64,105.15,113.97,120.86,125.77,129.82,133.49,137.23,141.25,144.79,147.85,150.57,154.47,158.28,161.77,165.21,169.97,174.00,177.80,181.10,183.41,185.35,188.13,191.93,196.88,203.32,210.04,216.79,223.53,230.33,236.51,242.17,247.48,252.60,257.16,261.77,266.47,270.89,273.48,274.45,275.27,276.19,277.15,277.20,276.06,274.37,272.65,270.99,266.79,262.02,257.41,253.27,248.64,244.16,239.85,235.72,232.44,227.59,222.51,217.95,214.15,209.58,205.44,201.52,197.14,191.62,187.37,184.61,183.29,182.20,180.60,178.69,176.49,173.94,171.00,168.37,166.16,164.40,163.13,160.80,157.86,154.74,152.13,149.36,147.29,145.74,144.08,142.20,140.39,138.72,137.06,134.24,133.63,134.37,135.90,137.38,139.65,143.49,148.99,156.00,162.60,168.87,174.52,179.59,184.94,189.60,193.67,197.77,202.98,207.94,211.70,214.85,218.16,223.84,231.40,239.44,246.41,249.18,250.37,248.70,244.75,239.62,236.57,233.24,228.63,222.04,212.61,207.12,202.48,197.91,193.22,189.20,185.01,180.65,176.22,172.29,169.29,166.67,164.41,163.11,161.49,159.19,155.62,150.22,145.57,141.13,136.90,132.85,128.84,124.83,120.96,117.37,114.25,111.12,107.07,102.62,98.32,94.46,90.90,88.02,85.78,83.54,81.30,79.36,77.63,75.93,74.16,72.41,70.67,68.92,67.06,65.18,63.25,61.35,59.65,58.60,57.57,56.54,55.54,54.54,53.53,52.53,51.52,50.52,49.62,48.78,47.99,47.25,46.40,45.58,44.78,44.01,43.28,42.58,41.84,41.08,40.35,39.58,38.85,38.13,37.36,36.67,35.91,35.18,34.47,33.70,33.03,32.44,31.90,31.36,30.78,30.20,29.63,29.08,28.50,27.76,27.09,26.54,26.12,25.69,25.32
37.97,38.28,38.59,38.89,39.12,39.38,39.68,39.98,40.47,40.95,41.43,41.96,42.50,43.12,43.93,44.93,45.91,46.90,47.86,48.79,49.71,50.98,52.23,53.48,54.80,56.76,59.72,63.02,66.42,70.08,76.20,81.65,86.40,91.04,95.10,100.47,107.58,116.08,122.49,127.88,132.59,136.78,140.62,144.30,147.85,151.18,154.31,158.32,162.22,165.99,170.02,175.76,180.15,184.05,187.37,189.87,191.80,194.27,197.37,201.41,208.13,215.14,221.89,228.34,234.76,239.97,244.81,249.45,254.02,258.36,263.27,268.12,272.41,275.16,276.08,276.78,277.58,278.50,278.57,277.48,275.77,273.93,272.15,268.97,265.50,261.99,258.27,254.43,249.81,244.58,239.13,235.36,231.50,226.73,221.12,216.44,211.92,207.75,203.82,199.86,193.94,189.46,186.62,185.32,184.42,183.40,182.06,180.29,177.93,175.14,172.47,170.13,168.28,166.78,165.11,163.36,161.25,157.41,153.12,150.23,148.39,146.34,144.23,142.07,140.03,138.09,135.16,133.09,132.83,134.12,135.42,136.87,138.93,143.15,151.07,157.71,164.43,170.45,175.50,180.34,185.37,189.74,193.66,197.84,203.86,208.44,212.06,215.28,218.44,225.34,233.48,240.90,244.56,247.10,246.66,243.89,240.05,236.97,233.48,228.67,222.12,214.07,208.37,203.67,199.46,195.31,191.73,187.86,184.06,180.64,176.53,173.36,170.31,167.38,165.48,163.62,161.62,158.13,151.56,146.35,141.63,137.29,133.20,129.03,124.85,120.86,117.21,114.06,110.88,106.82,102.44,98.32,94.53,91.06,88.20,85.89,83.63,81.37,79.40,77.64,75.94,74.16,72.38,70.63,68.87,66.93,64.95,62.95,61.04,59.46,58.42,57.42,56.42,55.41,54.41,53.40,52.39,51.37,50.30,49.43,48.63,47.88,47.17,46.33,45.53,44.76,43.98,43.21,42.50,41.75,40.98,40.21,39.45,38.73,38.01,37.25,36.54,35.79,35.06,34.34,33.58,32.87,32.25,31.71,31.17,30.63,30.09,29.59,29.13,28.67,27.99,27.36,26.86,26.46,26.00,25.58
37.81,38.09,38.39,38.64,38.83,39.04,39.29,39.54,39.89,40.28,40.71,41.19,41.73,42.50,43.42,44.40,45.29,46.18,47.12,48.08,48.94,49.69,50.76,52.08,53.65,56.60,59.83,63.19,66.70,70.51,76.38,81.72,86.48,91.17,95.88,102.13,109.45,117.17,123.58,129.29,134.32,138.76,142.90,146.84,150.43,153.85,157.34,161.75,165.74,170.16,175.35,181.24,185.83,189.91,193.43,196.07,198.40,200.95,204.32,208.97,215.30,221.38,227.15,232.70,238.32,242.88,247.37,251.64,255.56,260.00,265.49,270.27,273.73,276.72,277.85,278.55,279.11,279.59,279.61,279.12,278.12,276.68,274.84,272.53,270.30,267.95,264.57,260.44,255.78,250.43,244.28,238.59,234.39,230.12,224.98,218.81,214.05,209.67,205.45,201.40,196.25,191.65,188.57,187.51,186.70,185.86,184.65,183.04,181.27,179.44,177.29,174.97,172.67,170.58,168.64,166.79,164.85,162.34,159.47,156.08,152.30,148.43,146.13,143.89,141.53,138.92,136.05,133.36,132.03,132.26,133.51,135.26,137.82,141.79,147.72,153.52,159.55,165.53,171.20,175.95,180.41,184.64,188.75,192.98,199.24,204.43,208.82,212.72,215.83,219.91,226.52,234.90,241.19,244.10,244.90,243.71,240.68,237.26,233.60,228.80,222.54,215.62,209.68,205.00,201.16,197.16,193.97,190.68,187.38,184.15,180.78,177.23,173.20,169.19,167.04,164.75,162.34,158.28,150.73,145.77,141.19,136.95,132.94,128.77,124.22,120.14,116.66,113.61,110.39,106.18,101.73,97.77,94.32,91.05,88.26,85.93,83.58,81.22,79.21,77.44,75.68,73.90,72.13,70.31,68.42,66.43,64.52,62.57,60.71,59.32,58.30,57.29,56.29,55.28,54.28,53.23,52.20,51.19,50.16,49.35,48.57,47.80,47.05,46.26,45.44,44.63,43.86,43.08,42.33,41.56,40.79,40.02,39.30,38.60,37.90,37.18,36.43,35.70,34.97,34.22,33.51,32.76,32.10,31.52,30.97,30.43,29.93,29.46,29.00,28.60,28.09,27.58,27.10,26.66,26.20,25.74
37.53,37.76,38.03,38.24,38.42,38.63,38.86,39.10,39.40,39.73,40.09,40.47,41.04,41.84,42.76,43.69,44.57,45.45,46.37,47.27,48.06,48.58,49.53,51.04,53.23,56.71,60.11,63.49,66.98,70.90,76.55,81.76,86.49,91.14,96.40,103.43,110.77,117.50,123.94,129.91,135.19,139.84,144.11,148.26,152.10,155.81,159.66,164.71,169.16,174.14,179.99,186.18,191.14,195.32,198.81,201.63,204.14,206.99,210.66,215.42,221.04,226.43,231.51,236.38,241.25,245.59,249.75,253.64,257.27,262.16,267.75,272.43,275.69,278.47,279.63,280.37,280.89,281.20,281.17,280.93,280.32,279.22,277.67,275.77,273.89,271.87,269.02,265.35,260.97,255.74,249.50,242.32,237.19,232.72,227.87,221.24,216.12,211.55,207.39,203.60,199.73,196.06,193.23,191.53,190.05,188.59,187.17,185.76,184.28,182.84,181.07,179.07,177.00,174.74,172.57,170.42,168.28,166.09,163.54,160.20,156.15,151.65,148.28,144.91,141.69,138.71,135.82,133.14,131.33,130.73,131.62,133.52,136.27,140.01,144.85,149.94,155.46,161.32,167.17,171.76,175.81,179.70,183.62,187.81,193.64,199.81,205.41,209.80,213.36,216.53,221.31,228.16,236.28,240.91,243.02,242.83,240.56,237.10,233.54,229.08,223.40,217.06,211.05,206.36,202.72,199.12,196.08,193.00,189.86,186.69,183.51,179.94,175.63,171.02,167.91,164.96,161.63,156.75,149.06,144.29,139.94,135.80,131.71,127.42,122.63,118.60,115.39,112.43,109.06,104.72,100.37,96.85,93.66,90.58,87.87,85.51,83.12,80.81,78.82,77.05,75.30,73.53,71.75,69.90,67.92,65.88,63.92,61.98,60.22,59.06,58.08,57.10,56.12,55.12,54.14,53.11,52.08,51.08,50.11,49.29,48.49,47.68,46.88,46.11,45.28,44.46,43.69,42.92,42.17,41.41,40.64,39.87,39.17,38.47,37.77,37.04,36.30,35.59,34.86,34.10,33.40,32.67,31.96,31.32,30.78,30.24,29.78,29.33,28.87,28.46,28.03,27.58,27.11,26.65,26.19,25.72
37.17,37.36,37.58,37.74,37.95,38.18,38.42,38.65,38.95,39.26,39.54,39.78,40.39,41.17,42.01,42.87,43.80,44.72,45.61,46.42,47.11,47.63,48.52,50.28,53.27,56.99,60.52,63.88,67.25,71.24,76.71,81.80,86.46,91.04,96.79,104.48,111.74,117.41,123.88,130.05,135.53,140.32,144.65,148.98,153.17,157.30,161.56,167.37,172.46,177.92,184.11,190.67,196.09,200.32,203.69,206.71,209.28,212.55,216.51,221.06,225.84,230.66,235.27,239.62,243.79,248.15,251.99,255.51,259.12,264.62,270.04,274.61,278.01,280.31,281.42,282.21,282.80,283.12,283.04,282.85,282.40,281.60,280.52,278.76,276.71,274.53,272.29,269.48,265.56,260.58,254.66,246.32,239.93,234.83,230.15,223.66,218.09,213.43,209.57,206.32,203.97,201.83,199.52,196.80,194.23,191.71,189.87,188.61,187.17,185.72,184.21,182.69,181.19,179.04,176.68,174.19,171.66,169.13,166.22,163.22,159.83,155.46,150.61,145.57,141.19,137.98,135.06,132.74,130.79,129.49,129.82,131.70,134.41,137.93,142.27,146.75,151.91,157.57,163.34,167.77,171.51,174.96,178.47,182.55,187.60,194.78,201.75,206.65,210.95,214.38,217.29,221.24,230.38,237.41,240.94,241.47,239.93,236.55,233.21,229.29,224.41,218.44,212.49,207.77,204.22,201.13,198.12,195.00,191.82,188.63,185.29,181.88,177.69,172.79,168.35,164.57,160.00,154.18,146.87,142.23,138.15,134.12,129.84,125.37,120.47,116.58,113.64,110.77,107.17,102.77,98.64,95.70,92.70,89.83,87.20,84.81,82.42,80.24,78.31,76.55,74.85,73.08,71.30,69.42,67.40,65.31,63.22,61.26,59.64,58.72,57.79,56.86,55.91,54.91,53.98,52.99,51.99,51.01,50.09,49.23,48.39,47.54,46.69,45.91,45.09,44.27,43.50,42.73,42.02,41.28,40.51,39.73,39.03,38.34,37.62,36.85,36.16,35.46,34.73,33.97,33.28,32.58,31.84,31.13,30.59,30.05,29.62,29.20,28.74,28.28,27.87,27.45,26.99,26.52,26.06,25.59
36.69,36.89,37.07,37.28,37.46,37.69,37.98,38.26,38.52,38.81,39.11,39.40,39.86,40.49,41.24,42.10,43.03,43.91,44.78,45.59,46.28,47.46,48.68,50.55,53.60,57.52,61.05,64.32,67.51,71.16,76.71,81.80,86.47,91.30,97.59,105.26,112.30,117.77,124.04,130.13,135.51,140.20,144.58,148.96,153.43,158.20,163.49,169.49,174.75,180.38,186.71,193.12,198.69,203.33,207.12,210.29,213.05,216.63,220.57,224.62,229.14,233.52,237.86,242.17,246.35,250.24,253.78,257.30,261.25,267.15,272.36,276.70,279.99,281.89,283.12,284.03,284.67,285.03,284.91,284.71,284.26,283.45,282.37,280.77,278.85,276.71,274.47,271.70,267.95,263.44,258.37,250.13,242.54,236.51,231.74,225.20,219.28,215.24,212.71,210.65,209.19,207.77,206.17,204.19,201.32,198.27,195.68,193.56,191.38,188.92,187.08,185.58,183.95,182.10,180.14,177.99,175.48,172.07,168.57,165.22,161.82,157.94,153.15,147.96,142.98,138.78,136.21,133.84,131.57,129.67,129.01,129.99,131.94,135.04,139.52,144.11,149.10,154.48,160.01,164.83,168.60,171.88,175.13,178.91,183.67,189.26,195.84,203.20,208.34,212.30,215.51,218.65,223.20,231.15,236.74,239.18,238.44,234.12,230.45,227.09,223.74,219.90,214.36,209.61,205.97,202.98,200.02,196.82,193.47,190.07,186.38,182.64,178.36,173.49,168.41,163.50,157.39,150.67,144.38,139.58,135.50,131.48,127.18,122.85,118.52,114.63,111.23,108.16,104.55,100.80,97.30,94.37,91.46,88.92,86.53,84.17,81.78,79.68,77.79,76.04,74.34,72.56,70.79,68.89,66.82,64.68,62.46,60.56,59.13,58.21,57.28,56.32,55.35,54.39,53.42,52.46,51.53,50.64,49.76,49.00,48.19,47.34,46.49,45.72,44.93,44.15,43.37,42.60,41.85,41.09,40.32,39.54,38.84,38.15,37.44,36.73,36.03,35.33,34.60,33.84,33.15,32.45,31.71,30.99,30.40,29.91,29.46,29.03,28.61,28.15,27.71,27.28,26.86,26.40,25.93,25.43
36.21,36.41,36.59,36.80,37.00,37.25,37.54,37.85,38.11,38.39,38.71,39.05,39.43,39.93,40.58,41.39,42.27,43.13,44.00,44.92,45.88,47.40,48.82,50.85,54.11,58.03,61.43,64.55,67.59,70.96,76.58,81.87,86.85,92.06,98.61,106.07,112.75,117.92,123.91,129.88,135.17,139.79,144.20,148.58,153.38,158.80,164.94,171.07,176.39,182.15,188.65,194.98,200.68,205.62,209.76,213.08,216.13,219.88,223.77,227.50,231.83,236.03,240.22,244.39,248.46,252.03,255.38,259.01,263.45,269.38,274.41,278.49,281.53,283.28,284.71,285.81,286.56,286.92,286.77,286.58,286.14,285.34,284.28,282.71,280.85,278.81,276.67,273.84,270.11,265.74,260.91,252.97,244.93,238.30,233.25,227.52,221.98,218.47,216.60,215.08,214.07,213.01,211.83,210.37,207.84,205.07,202.58,200.28,197.43,194.23,191.74,189.45,186.73,185.01,183.23,181.25,178.86,175.37,171.16,167.23,163.60,159.92,155.30,150.25,144.99,139.95,137.26,134.78,132.36,130.13,128.63,128.80,130.02,132.62,136.96,141.57,146.43,151.58,156.97,162.21,166.04,169.13,172.06,175.60,180.50,185.30,191.22,198.96,205.23,210.03,213.92,217.18,219.98,226.79,232.56,236.16,236.94,232.81,229.31,226.35,223.81,221.15,216.26,211.46,207.47,204.61,201.77,198.66,195.26,191.60,187.78,183.45,178.78,173.82,168.44,162.13,154.83,147.62,141.92,137.25,133.09,128.94,124.57,120.37,116.37,112.51,108.89,105.70,102.18,98.90,95.86,93.01,90.27,87.94,85.69,83.38,81.01,79.05,77.23,75.50,73.80,72.10,70.29,68.26,65.98,63.74,61.56,59.85,58.62,57.69,56.74,55.76,54.78,53.85,52.85,51.88,50.96,50.07,49.24,48.58,47.86,47.08,46.30,45.53,44.76,43.99,43.21,42.44,41.67,40.90,40.13,39.38,38.68,37.99,37.29,36.60,35.88,35.17,34.46,33.72,33.02,32.33,31.59,30.85,30.21,29.77,29.31,28.87,28.46,28.02,27.56,27.12,26.70,26.24,25.80,25.29
35.73,35.92,36.14,36.30,36.57,36.84,37.09,37.40,37.70,38.01,38.34,38.73,39.11,39.51,40.03,40.74,41.52,42.36,43.29,44.41,45.92,47.46,48.95,51.19,54.80,58.52,61.65,64.56,67.49,70.67,76.30,81.99,87.58,93.34,99.84,106.90,113.10,117.88,123.46,129.29,134.51,139.09,143.49,147.83,153.03,159.11,165.90,172.08,177.37,183.22,189.93,196.26,202.04,207.20,211.59,215.06,218.51,222.31,226.09,229.73,233.91,238.20,242.33,246.26,250.14,253.51,256.79,260.66,265.74,271.32,276.19,279.99,282.64,284.49,286.19,287.55,288.46,288.77,288.62,288.47,288.06,287.26,286.26,284.57,282.72,280.83,278.89,275.89,272.03,267.45,262.28,254.83,247.10,240.20,234.67,230.62,226.20,223.14,221.24,219.62,218.61,217.55,216.46,215.32,213.79,212.12,210.59,208.78,205.34,201.68,198.19,194.31,189.54,187.77,185.94,183.98,181.79,179.03,174.00,169.26,165.17,161.39,157.06,152.44,147.22,141.49,138.21,135.58,133.18,130.88,128.69,128.12,128.66,130.68,134.60,139.16,143.89,148.90,154.22,159.91,163.84,166.71,169.26,172.60,178.12,182.93,187.89,193.90,201.61,207.56,212.52,216.83,220.77,224.37,228.43,232.41,235.44,232.64,229.78,227.08,224.61,222.20,218.18,213.34,208.72,206.01,203.37,200.52,197.18,193.20,189.49,184.32,178.96,173.77,168.43,160.44,152.31,145.04,139.49,135.22,130.92,126.52,122.03,117.93,114.02,110.24,106.64,103.40,100.07,97.09,94.32,91.62,89.13,86.89,84.69,82.43,80.11,78.33,76.62,74.92,73.22,71.67,69.80,67.51,64.87,62.49,60.53,59.11,58.11,57.18,56.19,55.18,54.21,53.27,52.27,51.27,50.27,49.31,48.54,47.96,47.37,46.74,46.11,45.34,44.57,43.79,43.02,42.25,41.48,40.70,39.95,39.25,38.55,37.86,37.16,36.47,35.70,34.98,34.29,33.59,32.89,32.20,31.46,30.71,30.02,29.63,29.18,28.72,28.27,27.88,27.43,26.97,26.51,26.04,25.65,25.16
35.26,35.45,35.64,35.89,36.15,36.42,36.70,37.01,37.32,37.66,38.01,38.35,38.73,39.15,39.64,40.22,40.99,41.79,42.63,43.73,45.55,47.42,49.05,51.33,54.96,58.67,61.71,64.54,67.40,70.48,75.90,81.58,87.40,93.61,100.19,107.15,113.49,118.69,123.66,128.91,133.77,138.23,142.73,147.41,153.27,159.84,166.49,172.39,177.72,183.48,189.92,196.44,202.25,207.48,211.97,215.49,219.15,223.59,227.99,231.87,235.77,239.79,243.80,247.74,251.51,254.86,258.40,262.60,267.83,272.89,277.41,280.98,283.53,285.66,287.50,288.95,289.91,290.27,290.12,289.93,289.59,289.01,288.10,286.42,284.59,282.76,280.83,277.86,273.66,268.48,262.67,255.44,248.27,241.80,236.56,233.41,230.77,228.92,227.65,226.54,225.62,224.34,222.71,220.77,218.51,216.32,214.52,212.92,210.78,207.92,204.79,201.20,196.93,193.08,189.35,186.37,184.19,181.49,176.23,170.95,166.33,162.68,159.09,154.96,150.18,144.81,139.51,136.50,134.11,131.75,129.42,127.82,127.89,129.57,132.65,137.16,141.74,146.53,151.63,157.21,161.48,164.65,167.25,170.20,175.76,181.00,186.16,191.72,199.57,205.32,210.25,214.99,220.02,223.04,226.35,229.74,232.53,232.36,230.34,227.74,225.32,222.87,219.84,215.44,210.62,207.55,204.91,202.23,199.12,195.29,190.99,185.06,178.95,173.02,166.63,158.58,150.72,143.80,138.44,134.23,129.91,125.42,120.86,116.91,113.07,109.43,106.02,102.77,99.58,96.64,93.80,90.99,88.57,86.24,83.94,81.69,79.61,77.99,76.40,74.79,73.19,71.69,69.82,67.47,64.65,61.97,60.10,58.79,57.83,56.85,55.85,54.85,53.87,52.94,51.93,50.96,49.85,48.62,47.62,46.94,46.35,45.76,45.14,44.56,44.03,43.46,42.77,42.00,41.23,40.48,39.76,39.06,38.37,37.67,36.96,36.22,35.49,34.79,34.10,33.39,32.65,31.95,31.24,30.53,29.88,29.50,29.06,28.61,28.19,27.76,27.30,26.84,26.39,25.97,25.54,25.06
34.78,34.97,35.16,35.47,35.73,36.01,36.32,36.63,36.95,37.30,37.66,37.99,38.37,38.80,39.26,39.77,40.45,41.19,41.95,43.01,45.04,47.10,48.94,51.33,54.95,58.64,61.66,64.46,67.30,70.29,75.54,81.14,87.04,93.49,100.16,107.16,113.82,119.61,124.06,128.76,133.28,137.67,142.31,147.18,153.46,160.26,166.62,172.32,177.78,183.44,189.51,196.03,202.00,207.41,212.04,215.60,219.33,224.33,229.32,233.43,237.10,240.94,244.91,248.90,252.64,256.08,259.88,264.33,269.55,274.28,278.50,281.85,284.36,286.71,288.64,290.11,291.11,291.62,291.45,291.21,290.91,290.49,289.70,288.25,286.54,284.69,282.70,279.54,274.95,269.24,262.80,256.04,249.63,243.91,239.28,236.62,235.11,234.05,233.21,232.40,231.56,230.25,228.47,226.29,223.85,221.59,219.39,217.29,215.53,213.30,210.55,207.28,203.46,198.52,193.64,189.61,186.58,183.54,178.33,172.83,167.96,164.59,161.47,157.75,153.46,148.54,141.88,138.00,135.24,132.88,130.45,128.09,127.37,128.37,130.91,135.15,139.57,144.24,149.21,154.57,159.11,162.59,165.36,168.17,173.37,178.83,184.26,189.69,197.22,202.86,207.71,212.42,217.82,221.11,224.21,227.15,229.70,231.39,230.36,228.20,225.88,223.44,221.10,217.29,212.65,209.15,206.43,203.83,200.94,197.39,192.48,185.76,178.84,172.11,164.84,156.98,149.63,143.21,138.05,133.97,129.78,125.34,120.70,116.82,113.02,109.43,106.01,102.62,99.43,96.50,93.68,90.86,88.45,86.04,83.64,81.32,79.34,77.80,76.28,74.73,73.19,71.72,69.88,67.48,64.54,61.66,59.83,58.58,57.63,56.63,55.64,54.64,53.66,52.71,51.73,50.79,49.60,48.18,46.95,46.00,45.29,44.72,44.10,43.65,43.33,42.94,42.36,41.66,40.93,40.21,39.52,38.85,38.15,37.46,36.74,35.99,35.28,34.58,33.88,33.18,32.42,31.72,31.02,30.36,29.78,29.39,28.95,28.51,28.10,27.66,27.20,26.73,26.29,25.90,25.46,25.02
34.30,34.48,34.71,35.02,35.32,35.62,35.93,36.24,36.61,36.95,37.29,37.67,38.05,38.45,38.90,39.42,39.85,40.51,41.22,42.26,44.33,46.35,48.46,51.12,54.69,58.33,61.41,64.30,67.16,70.11,75.26,80.73,86.50,92.85,99.57,106.79,114.01,120.60,124.75,128.95,133.21,137.66,142.49,147.23,153.46,160.11,166.05,171.69,177.40,182.99,188.56,194.73,201.09,206.91,211.79,215.34,218.92,224.30,229.72,233.99,237.57,241.43,245.48,249.56,253.40,257.07,261.13,265.65,270.64,275.42,279.43,282.60,285.08,287.53,289.52,290.92,291.91,292.77,292.56,292.23,291.88,291.53,290.88,290.03,288.60,286.64,284.50,280.74,275.73,269.59,262.59,256.77,251.44,246.93,243.35,240.59,239.03,237.95,237.09,236.18,235.33,234.36,233.22,231.88,230.38,229.01,226.37,222.61,219.41,217.39,214.87,211.70,207.97,203.87,199.39,194.34,189.00,185.08,180.24,175.09,170.46,167.58,164.43,161.00,157.19,152.76,146.04,140.46,136.72,134.46,131.93,129.29,127.23,126.91,129.48,133.09,137.33,142.05,147.05,152.06,156.72,160.48,163.58,166.69,170.94,176.22,181.90,187.56,194.16,200.03,204.81,208.80,213.36,218.05,221.69,224.54,227.15,229.23,229.46,228.31,226.21,223.87,221.72,218.67,214.83,210.83,207.95,205.27,202.55,199.46,194.01,186.43,178.58,171.00,163.29,155.82,149.26,143.59,138.63,134.79,131.04,126.83,122.10,118.17,114.37,110.61,106.87,103.09,99.64,96.72,94.09,91.50,89.04,86.58,84.05,81.55,79.42,77.82,76.28,74.73,73.19,71.72,69.91,67.53,64.53,61.61,59.76,58.52,57.57,56.57,55.63,54.64,53.64,52.65,51.72,50.79,49.60,48.14,46.71,45.22,44.24,43.63,43.01,42.62,42.38,42.10,41.68,41.18,40.56,39.89,39.22,38.59,37.90,37.20,36.50,35.79,35.03,34.32,33.63,32.93,32.22,31.53,30.83,30.20,29.72,29.33,28.89,28.43,27.98,27.59,27.13,26.67,26.22,25.84,25.44,25.05
33.82,34.04,34.31,34.62,34.93,35.26,35.60,35.91,36.25,36.60,36.95,37.30,37.68,38.10,38.55,39.05,39.47,39.99,40.57,41.53,43.58,45.74,47.90,50.48,53.83,57.58,60.85,63.85,66.72,69.66,74.83,80.25,85.79,91.65,98.49,105.96,113.62,120.76,125.02,129.17,133.57,138.28,143.19,148.02,153.69,159.56,164.97,169.93,175.89,181.69,187.00,192.63,199.08,205.09,210.23,214.26,217.93,223.26,228.79,233.52,237.35,241.53,245.72,249.84,253.90,257.70,262.09,266.86,271.72,276.39,280.15,283.21,285.80,288.39,290.09,291.34,292.33,293.30,293.47,293.28,292.90,292.45,291.79,291.04,289.98,288.39,285.91,281.78,276.24,269.80,263.10,258.34,255.02,252.47,250.28,248.22,246.81,245.30,243.69,242.17,240.61,238.96,237.33,235.79,234.44,233.21,231.19,228.39,225.67,222.39,219.04,215.54,211.77,207.55,203.29,198.62,193.53,188.76,183.91,178.96,174.38,170.96,167.75,164.33,160.56,156.25,150.56,143.90,138.94,135.99,133.36,130.62,127.97,126.52,127.55,130.63,134.65,139.30,144.28,149.03,153.68,157.87,161.53,164.65,168.10,173.16,178.97,184.72,190.37,196.29,201.37,205.46,209.30,213.53,217.69,221.40,224.28,226.24,226.93,226.65,225.66,224.10,222.09,219.55,216.42,212.69,209.49,206.60,203.80,200.69,195.13,187.23,178.78,170.63,163.34,156.54,150.42,144.92,139.92,136.14,132.52,128.59,124.22,120.24,116.43,112.64,108.79,104.73,100.58,97.44,94.81,92.18,89.59,87.03,84.42,81.82,79.45,77.75,76.17,74.62,73.03,71.52,69.63,67.28,64.48,61.55,59.73,58.50,57.56,56.55,55.58,54.62,53.64,52.64,51.71,50.73,49.43,47.81,46.22,44.57,43.36,42.54,41.93,41.54,41.32,41.13,40.88,40.46,39.94,39.38,38.81,38.28,37.63,36.95,36.25,35.55,34.82,34.12,33.42,32.73,32.03,31.34,30.64,30.02,29.60,29.21,28.80,28.36,27.91,27.52,27.07,26.63,26.21,25.83,25.44,25.03
33.35,33.61,33.93,34.24,34.56,34.90,35.27,35.58,35.90,36.25,36.61,36.93,37.31,37.76,38.22,38.68,39.13,39.53,39.99,40.84,42.74,45.00,47.18,49.63,52.66,56.51,60.05,63.27,66.24,69.17,74.30,79.70,85.07,90.38,97.24,104.93,112.94,120.51,125.00,129.27,133.95,138.99,143.92,148.70,153.71,158.75,163.56,167.84,173.70,179.61,184.99,190.18,196.57,202.71,208.19,212.81,216.62,221.75,227.34,232.65,236.95,241.48,245.80,249.92,254.19,258.15,262.87,267.90,272.69,277.27,280.80,283.76,286.47,289.15,290.55,291.64,292.65,293.67,294.28,294.30,293.91,293.33,292.66,291.92,291.19,290.05,287.47,283.04,277.14,270.66,264.65,261.25,259.83,259.00,258.05,256.81,255.64,253.80,251.48,249.24,246.86,244.42,242.17,240.27,238.52,236.81,235.22,233.60,231.55,227.32,223.22,219.31,215.36,210.79,206.55,202.32,197.84,192.60,187.81,183.07,178.49,174.38,171.13,167.70,163.88,159.53,154.73,147.64,141.57,137.47,134.77,131.98,129.02,126.62,125.74,128.20,131.78,136.21,141.14,145.77,150.34,154.83,158.96,162.23,165.17,170.02,175.84,181.64,186.61,192.32,197.60,202.02,205.58,209.12,213.36,217.59,220.85,223.01,224.04,224.48,224.58,223.84,222.18,220.10,217.55,214.22,210.82,207.79,204.88,201.69,196.39,188.45,179.61,171.03,164.22,157.88,152.01,146.57,141.53,137.65,134.02,130.29,126.29,122.30,118.48,114.69,110.78,106.55,101.61,98.15,95.46,92.75,90.04,87.37,84.70,82.02,79.47,77.66,76.02,74.40,72.75,71.17,69.16,66.85,64.30,61.43,59.69,58.50,57.54,56.55,55.55,54.59,53.63,52.61,51.66,50.59,49.16,47.38,45.67,43.96,42.54,41.50,40.87,40.49,40.28,40.15,40.03,39.66,39.22,38.76,38.29,37.84,37.26,36.62,35.96,35.30,34.60,33.92,33.23,32.53,31.84,31.14,30.46,29.86,29.47,29.09,28.70,28.29,27.84,27.44,27.01,26.60,26.21,25.83,25.46,25.01
32.90,33.18,33.55,33.86,34.21,34.56,34.88,35.19,35.56,35.90,36.24,36.61,36.99,37.44,37.90,38.36,38.76,39.15,39.55,40.22,41.68,43.72,46.00,48.43,50.99,54.79,58.74,62.49,65.85,68.72,73.59,79.01,84.44,89.36,95.82,103.61,111.85,119.59,124.43,128.97,134.05,139.49,144.38,148.45,152.91,157.40,161.50,165.59,170.19,175.75,181.99,187.23,193.33,199.61,205.61,210.83,214.74,219.59,225.23,231.34,236.47,241.24,245.58,249.69,254.06,258.30,263.28,268.49,273.34,278.02,281.38,284.23,286.97,289.55,290.85,291.90,292.92,293.99,294.90,295.17,294.88,294.17,293.60,292.96,292.37,291.58,289.84,285.10,279.44,273.73,268.90,267.78,267.18,266.75,266.27,265.68,264.85,263.24,260.89,258.01,255.04,252.21,249.80,247.79,244.56,241.02,238.40,236.63,234.44,231.34,227.58,223.33,218.80,213.89,209.19,204.51,199.80,195.25,191.11,186.74,182.16,177.65,174.44,171.13,167.30,162.69,157.55,151.57,144.97,138.88,136.18,133.35,130.39,127.43,124.75,126.17,128.68,132.44,137.29,142.21,146.52,150.78,155.00,159.01,162.26,166.94,172.53,178.39,183.45,188.29,193.17,198.06,202.61,206.20,209.15,212.13,215.90,219.64,221.32,222.06,222.47,222.23,221.52,219.99,217.62,214.59,211.49,208.59,205.71,202.60,198.39,190.88,182.07,173.32,166.46,159.72,153.76,148.47,143.57,139.29,135.37,131.54,127.65,123.75,119.95,116.13,112.20,108.01,102.38,98.50,95.65,92.94,90.18,87.42,84.70,82.02,79.47,77.57,75.77,73.98,72.17,70.44,68.36,66.10,63.76,61.13,59.60,58.47,57.49,56.55,55.55,54.59,53.60,52.47,51.43,50.26,48.75,46.93,45.17,43.41,41.82,40.59,39.91,39.59,39.38,39.23,39.08,38.82,38.39,37.92,37.48,37.07,36.58,36.08,35.57,35.04,34.35,33.70,33.04,32.34,31.65,30.95,30.29,29.73,29.34,28.96,28.57,28.18,27.77,27.32,26.96,26.60,26.21,25.83,25.55,25.05
32.50,32.81,33.17,33.51,33.86,34.19,34.51,34.85,35.20,35.55,35.89,36.25,36.67,37.12,37.57,37.99,38.38,38.76,39.17,39.72,40.66,42.58,44.80,47.12,49.47,52.82,56.88,60.93,64.63,67.93,73.17,78.79,84.12,88.55,94.45,101.88,110.07,118.10,123.51,128.27,133.55,139.15,143.88,147.63,151.53,155.38,158.91,162.56,166.47,171.49,177.66,183.72,189.61,196.02,202.46,208.07,212.78,217.62,223.18,229.62,235.43,240.45,244.84,248.93,253.37,258.07,263.35,268.73,273.72,278.39,281.67,284.47,287.21,289.73,290.99,292.04,293.09,294.18,295.28,295.95,296.00,295.43,294.86,294.28,293.74,292.98,291.31,287.73,283.32,279.13,276.24,275.82,275.44,275.03,274.53,273.75,272.71,271.17,269.03,266.20,262.81,259.33,256.16,253.47,250.20,246.68,243.46,240.53,237.35,234.54,231.01,226.81,222.10,216.61,211.32,206.37,201.88,197.99,194.10,190.00,185.57,180.70,177.01,173.60,169.96,165.66,160.37,154.50,147.79,141.16,137.49,134.32,131.08,127.76,124.53,124.41,126.10,129.13,133.15,137.90,142.38,146.70,150.95,155.20,158.94,163.54,168.96,174.97,180.27,184.81,189.29,194.14,199.84,203.49,206.11,208.47,211.38,214.36,216.21,217.55,218.66,219.05,218.91,217.90,216.07,213.74,211.07,208.53,205.94,203.11,199.78,193.03,184.41,175.37,168.52,161.50,155.45,150.19,145.26,140.69,136.54,132.41,128.17,124.31,120.51,116.71,112.75,108.41,102.35,98.35,95.53,92.79,90.04,87.22,84.41,81.68,79.13,77.02,75.01,73.06,71.21,69.33,67.31,65.20,63.00,60.65,59.37,58.35,57.39,56.46,55.53,54.55,53.52,52.43,51.39,50.24,48.72,46.81,44.93,43.05,41.31,39.94,39.21,38.77,38.51,38.33,38.17,37.94,37.54,37.11,36.68,36.26,35.80,35.36,34.93,34.49,33.97,33.42,32.80,32.11,31.45,30.76,30.13,29.60,29.22,28.83,28.44,28.06,27.67,27.27,27.14,26.92,26.52,25.97,25.53,24.93
