e,e,e,e,e,e,e,e,e,e,e,e,e,e,e,e,e,e,e,e,e,e,e,e,e,e,e,e,e,e,e,e,e,e,e,e,e,e,e,e,e,e,e,e,e,e,e,e,e,e,e,e,e,e,e,e,e,e,e,e,e,e,e,e,e,e,e,e,e,e,e,e,e,e,e,e,e,e,e,e,e,e,e,e,e,e,e,e,e,0.15,0.23,0.30,0.38,0.46,0.54,0.61,0.69,0.77,0.80,0.80,0.80,0.80,0.80,0.83,0.90,0.90,0.90,0.94,1.00,1.00,1.07,1.10,1.10,1.11,1.18,1.20,1.24,1.30,1.30,1.30,1.35,1.42,1.50,1.50,1.56,1.63,1.71,1.79,1.80,1.84,1.92,1.99,2.00,2.05,2.10,2.11,2.18,2.26,2.34,2.41,2.49,2.57,2.60,2.62,2.70,2.86,3.01,3.17,3.31,3.39,3.53,3.64,3.72,3.80,3.88,3.96,4.03,4.11,4.19,4.27,4.34,4.42,4.50,4.57,4.65,4.75,4.90,4.98,5.06,5.14,5.22,5.29,5.37,5.45,5.52,5.60,5.68,5.76,5.83,5.92,6.07,6.16,6.24,6.32,6.40,6.47,6.60,6.80,7.10,7.18,7.26,7.49,7.96,8.42,8.82,9.21,9.74,10.78,16.05,21.81,27.63,33.25,37.64,41.75,45.86,49.78,52.18,54.44,56.73,59.21,62.07,65.64,69.04,71.88,73.91,75.31,76.20,76.66,76.76,76.63,76.05,74.81,72.87,70.32,67.83,65.29,62.87,60.77,59.37,57.46,55.03,52.90,52.41,51.93,51.46,51.08,50.89,51.26,51.46,51.58,51.62,51.54,51.39,50.75,48.69,44.40,40.57,38.79,37.71,36.64,35.63,34.69,33.72,32.73,31.80,30.85
e,e,e,e,e,e,e,e,e,e,e,e,e,e,e,e,e,e,e,e,e,e,e,e,e,e,e,e,e,e,e,e,e,e,e,e,e,e,e,e,e,e,e,e,e,e,e,e,e,e,e,e,e,e,e,e,e,e,e,e,e,e,e,e,e,e,e,e,e,e,e,e,e,e,e,e,e,e,e,e,e,e,e,e,e,e,e,e,e,0.09,0.16,0.24,0.32,0.40,0.47,0.55,0.63,0.70,0.73,0.73,0.73,0.73,0.73,0.77,0.83,0.83,0.88,0.91,0.93,0.93,1.01,1.03,1.05,1.10,1.13,1.13,1.17,1.23,1.23,1.28,1.35,1.41,1.44,1.49,1.56,1.63,1.70,1.73,1.78,1.81,1.85,1.93,1.98,2.02,2.05,2.11,2.18,2.26,2.34,2.41,2.43,2.50,2.56,2.64,2.77,2.92,3.08,3.21,3.32,3.44,3.59,3.74,3.86,3.99,4.07,4.15,4.23,4.30,4.38,4.46,4.53,4.61,4.69,4.77,4.84,4.93,5.03,5.11,5.22,5.33,5.41,5.48,5.56,5.64,5.72,5.79,5.87,5.95,6.03,6.10,6.21,6.29,6.39,6.51,6.59,6.67,6.79,6.97,7.23,7.36,7.42,7.60,8.02,8.48,8.92,9.33,10.11,12.18,17.34,23.15,28.86,33.80,37.75,41.75,45.59,49.04,51.59,53.96,56.31,58.85,61.81,66.02,69.82,73.07,75.66,77.36,78.43,79.22,79.82,80.23,79.97,79.05,77.29,74.57,71.44,68.47,65.83,63.62,62.13,60.81,58.95,56.93,55.55,54.52,53.78,53.15,52.57,52.50,52.69,52.78,52.70,52.63,52.38,51.67,49.75,45.88,40.72,38.56,37.45,36.36,35.20,34.24,33.27,32.27,31.30,29.47
e,e,e,e,e,e,e,e,e,e,e,e,e,e,e,e,e,e,e,e,e,e,e,e,e,e,e,e,e,e,e,e,e,e,e,e,e,e,e,e,e,e,e,e,e,e,e,e,e,e,e,e,e,e,e,e,e,e,e,e,e,e,e,e,e,e,e,e,e,e,e,e,e,e,e,e,e,e,e,e,e,e,e,e,e,e,e,e,e,e,0.10,0.18,0.25,0.33,0.41,0.49,0.56,0.64,0.68,0.69,0.67,0.67,0.69,0.72,0.77,0.80,0.85,0.87,0.88,0.90,0.95,0.97,1.00,1.07,1.07,1.09,1.13,1.17,1.20,1.27,1.33,1.38,1.40,1.48,1.56,1.62,1.67,1.70,1.75,1.78,1.81,1.87,1.94,1.99,2.03,2.11,2.18,2.26,2.33,2.37,2.40,2.47,2.56,2.68,2.83,2.99,3.14,3.26,3.35,3.50,3.66,3.81,3.97,4.12,4.20,4.30,4.40,4.49,4.57,4.65,4.73,4.80,4.88,4.96,5.04,5.11,5.19,5.27,5.38,5.50,5.60,5.68,5.75,5.83,5.91,5.98,6.06,6.14,6.22,6.29,6.37,6.45,6.55,6.67,6.75,6.85,6.97,7.13,7.39,7.54,7.61,7.75,8.08,8.55,9.01,9.43,10.45,13.59,18.79,24.60,30.02,34.21,37.83,41.64,45.28,48.54,51.23,53.67,56.05,58.60,61.59,66.22,70.33,73.93,77.03,79.30,80.95,82.34,83.52,84.40,84.14,83.15,81.32,78.60,75.19,71.87,68.89,66.43,64.75,63.59,61.98,60.05,58.24,56.92,55.98,55.18,54.36,54.00,54.03,53.96,53.67,53.34,52.86,52.06,50.36,47.10,40.89,38.42,37.22,35.99,34.66,33.54,32.51,31.46,30.23,26.99
e,e,e,e,e,e,e,e,e,e,e,e,e,e,e,e,e,e,e,e,e,e,e,e,e,e,e,e,e,e,e,e,e,e,e,e,e,e,e,e,e,e,e,e,e,e,e,e,e,e,e,e,e,e,e,e,e,e,e,e,e,e,e,e,e,e,e,e,e,e,e,e,e,e,e,e,e,e,e,e,e,e,e,e,e,e,e,e,e,e,0.04,0.11,0.19,0.27,0.35,0.42,0.50,0.58,0.65,0.68,0.61,0.61,0.66,0.70,0.72,0.79,0.80,0.81,0.83,0.90,0.90,0.91,0.94,1.01,1.01,1.06,1.10,1.12,1.19,1.27,1.30,1.33,1.40,1.48,1.56,1.60,1.62,1.69,1.70,1.75,1.80,1.81,1.88,1.95,2.03,2.11,2.18,2.26,2.30,2.32,2.39,2.47,2.59,2.74,2.90,3.05,3.20,3.33,3.41,3.57,3.72,3.88,4.03,4.19,4.27,4.39,4.54,4.69,4.76,4.84,4.92,4.99,5.07,5.15,5.23,5.30,5.38,5.46,5.54,5.65,5.79,5.87,5.94,6.02,6.10,6.18,6.25,6.33,6.41,6.49,6.56,6.64,6.72,6.80,6.88,7.02,7.13,7.28,7.58,7.73,7.83,7.94,8.15,8.61,9.07,9.50,10.77,14.99,20.44,26.16,31.12,34.46,37.88,41.42,44.95,48.31,51.15,53.60,55.95,58.45,61.39,66.22,70.53,74.41,77.96,81.11,83.81,86.10,87.95,89.22,88.63,87.08,84.90,82.37,79.11,75.49,72.07,69.20,67.22,65.71,63.99,62.12,60.41,59.09,58.05,57.14,56.26,55.81,55.50,55.11,54.51,53.64,52.76,51.84,50.47,48.03,41.08,38.38,37.02,35.51,33.98,32.54,31.39,30.24,28.51,23.24
e,e,e,e,e,e,e,e,e,e,e,e,e,e,e,e,e,e,e,e,e,e,e,e,e,e,e,e,e,e,e,e,e,e,e,e,e,e,e,e,e,e,e,e,e,e,e,e,e,e,e,e,e,e,e,e,e,e,e,e,e,e,e,e,e,e,e,e,e,e,e,e,e,e,e,e,e,e,e,e,e,e,e,e,e,e,e,e,e,e,e,0.05,0.13,0.20,0.28,0.36,0.44,0.51,0.59,0.63,0.60,0.60,0.62,0.64,0.65,0.73,0.74,0.77,0.81,0.84,0.84,0.87,0.91,0.95,0.99,1.03,1.06,1.12,1.19,1.27,1.30,1.32,1.40,1.43,1.50,1.56,1.60,1.64,1.68,1.72,1.75,1.80,1.87,1.95,2.03,2.10,2.14,2.20,2.26,2.32,2.44,2.53,2.65,2.80,2.96,3.11,3.27,3.39,3.48,3.63,3.79,3.94,4.10,4.25,4.33,4.46,4.61,4.77,4.89,4.97,5.07,5.19,5.26,5.34,5.42,5.50,5.57,5.65,5.73,5.82,5.92,6.00,6.12,6.21,6.29,6.37,6.45,6.52,6.60,6.68,6.75,6.83,6.91,6.99,7.06,7.17,7.26,7.41,7.71,7.91,8.03,8.10,8.21,8.67,9.17,9.83,11.59,16.58,22.14,27.39,31.76,34.88,38.14,41.46,44.84,48.18,51.08,53.50,55.86,58.36,61.20,66.32,70.69,74.49,77.90,81.32,84.73,87.57,89.56,90.43,90.18,89.30,87.77,85.57,82.41,79.08,75.77,72.63,69.91,67.82,65.86,63.98,62.23,60.78,59.45,58.24,57.15,56.25,55.54,54.91,54.27,53.44,52.52,51.59,50.06,47.17,40.72,37.99,36.45,34.84,33.33,31.82,30.02,27.85,25.32,21.08
e,e,e,e,e,e,e,e,e,e,e,e,e,e,e,e,e,e,e,e,e,e,e,e,e,e,e,e,e,e,e,e,e,e,e,e,e,e,e,e,e,e,e,e,e,e,e,e,e,e,e,e,e,e,e,e,e,e,e,e,e,e,e,e,e,e,e,e,e,e,e,e,e,e,e,e,e,e,e,e,e,e,e,e,e,e,e,e,e,e,e,e,e,0.14,0.22,0.29,0.37,0.45,0.53,0.58,0.58,0.58,0.58,0.59,0.61,0.67,0.68,0.72,0.78,0.78,0.79,0.84,0.88,0.90,0.97,0.99,1.04,1.11,1.17,1.25,1.29,1.32,1.38,1.40,1.44,1.51,1.58,1.60,1.65,1.69,1.72,1.80,1.87,1.95,2.02,2.08,2.10,2.16,2.25,2.35,2.51,2.59,2.71,2.87,3.02,3.18,3.33,3.45,3.54,3.70,3.85,4.00,4.16,4.29,4.39,4.52,4.68,4.83,4.99,5.08,5.20,5.34,5.43,5.53,5.61,5.69,5.76,5.84,5.92,6.00,6.07,6.15,6.28,6.38,6.46,6.56,6.64,6.71,6.79,6.87,6.95,7.02,7.10,7.18,7.25,7.33,7.41,7.55,7.84,8.09,8.22,8.27,8.33,8.77,9.27,10.31,12.73,18.17,23.64,28.39,32.26,35.23,38.33,41.48,44.75,48.05,50.97,53.35,55.70,58.16,60.82,66.21,70.67,74.39,77.65,81.19,85.07,88.29,90.38,90.94,91.16,90.96,90.09,88.29,85.53,82.48,79.29,76.03,72.79,70.04,67.72,65.69,63.77,61.91,60.17,58.61,57.28,56.07,55.12,54.32,53.64,53.01,52.23,51.35,49.57,45.99,40.34,37.68,36.02,34.36,32.85,31.29,28.97,25.99,22.84,19.63
e,e,e,e,e,e,e,e,e,e,e,e,e,e,e,e,e,e,e,e,e,e,e,e,e,e,e,e,e,e,e,e,e,e,e,e,e,e,e,e,e,e,e,e,e,e,e,e,e,e,e,e,e,e,e,e,e,e,e,e,e,e,e,e,e,e,e,e,e,e,e,e,e,e,e,e,e,e,e,e,e,e,e,e,e,e,e,e,e,e,e,e,e,0.08,0.15,0.23,0.31,0.39,0.46,0.51,0.51,0.51,0.51,0.54,0.60,0.61,0.61,0.66,0.71,0.71,0.78,0.81,0.84,0.90,0.91,0.97,1.04,1.10,1.11,1.18,1.25,1.30,1.32,1.38,1.41,1.45,1.52,1.59,1.61,1.65,1.72,1.80,1.87,1.95,2.00,2.02,2.09,2.16,2.27,2.41,2.57,2.65,2.78,2.93,3.09,3.24,3.40,3.52,3.61,3.76,3.91,4.07,4.21,4.30,4.44,4.59,4.74,4.90,5.05,5.14,5.26,5.41,5.55,5.70,5.80,5.88,5.96,6.03,6.11,6.19,6.26,6.34,6.43,6.51,6.60,6.75,6.83,6.91,6.98,7.06,7.14,7.21,7.29,7.37,7.45,7.52,7.60,7.73,7.97,8.27,8.41,8.48,8.58,8.91,9.36,11.05,14.42,19.71,24.71,29.03,32.59,35.41,38.31,41.42,44.66,47.92,50.79,53.12,55.41,57.74,60.06,65.69,70.30,74.05,77.27,80.75,84.66,88.01,90.27,90.87,91.65,91.88,91.42,90.19,88.41,85.50,82.32,79.23,75.98,72.51,69.60,67.17,64.80,62.01,59.67,57.71,56.07,54.97,54.11,53.24,52.46,52.28,51.89,51.16,49.05,44.57,40.05,37.64,35.98,34.34,32.68,31.06,28.63,25.49,22.14,19.27
e,e,e,e,e,e,e,e,e,e,e,e,e,e,e,e,e,e,e,e,e,e,e,e,e,e,e,e,e,e,e,e,e,e,e,e,e,e,e,e,e,e,e,e,e,e,e,e,e,e,e,e,e,e,e,e,e,e,e,e,e,e,e,e,e,e,e,e,e,e,e,e,e,e,e,e,e,e,e,e,e,e,e,e,e,e,e,e,e,e,e,e,e,e,0.09,0.17,0.24,0.32,0.40,0.45,0.45,0.45,0.45,0.48,0.55,0.55,0.58,0.62,0.65,0.65,0.73,0.78,0.81,0.85,0.89,0.96,1.02,1.06,1.10,1.17,1.22,1.26,1.30,1.34,1.38,1.42,1.46,1.54,1.58,1.64,1.72,1.80,1.84,1.90,1.97,2.01,2.08,2.19,2.32,2.47,2.59,2.70,2.84,3.00,3.15,3.31,3.43,3.55,3.67,3.82,3.98,4.13,4.27,4.35,4.50,4.65,4.80,4.96,5.11,5.21,5.32,5.48,5.63,5.79,5.89,5.98,6.10,6.21,6.30,6.38,6.46,6.53,6.61,6.69,6.77,6.89,6.97,7.07,7.17,7.25,7.33,7.41,7.48,7.56,7.64,7.71,7.79,7.91,8.15,8.42,8.58,8.68,8.77,9.01,9.77,12.15,16.16,21.11,25.63,29.52,32.77,35.44,38.11,41.04,44.18,47.41,50.34,52.74,55.05,57.36,59.64,64.84,69.48,73.43,76.71,79.92,83.35,86.53,89.09,90.46,91.38,91.88,91.82,91.13,89.85,87.57,84.78,81.76,78.71,74.79,71.08,67.91,65.48,62.55,60.09,57.75,55.34,53.69,52.63,51.82,51.25,51.18,50.96,49.98,47.64,43.48,39.87,37.66,35.95,34.29,32.63,30.97,28.50,25.37,22.12,19.33
e,e,e,e,e,e,e,e,e,e,e,e,e,e,e,e,e,e,e,e,e,e,e,e,e,e,e,e,e,e,e,e,e,e,e,e,e,e,e,e,e,e,e,e,e,e,e,e,e,e,e,e,e,e,e,e,e,e,e,e,e,e,e,e,e,e,e,e,e,e,e,e,e,e,e,e,e,e,e,e,e,e,e,e,e,e,e,e,e,e,e,e,e,e,e,0.10,0.18,0.26,0.33,0.39,0.39,0.39,0.39,0.43,0.49,0.50,0.56,0.59,0.59,0.60,0.67,0.75,0.79,0.81,0.88,0.95,0.99,1.01,1.08,1.16,1.19,1.22,1.29,1.30,1.35,1.39,1.41,1.49,1.57,1.64,1.72,1.78,1.80,1.85,1.93,2.01,2.09,2.23,2.39,2.53,2.60,2.75,2.91,3.06,3.21,3.37,3.47,3.58,3.73,3.89,4.04,4.20,4.33,4.41,4.56,4.71,4.87,5.02,5.17,5.27,5.39,5.54,5.70,5.85,5.96,6.06,6.21,6.37,6.47,6.56,6.65,6.72,6.80,6.88,6.96,7.03,7.11,7.23,7.35,7.43,7.52,7.60,7.67,7.75,7.83,7.91,7.98,8.10,8.33,8.57,8.75,8.87,8.95,9.09,10.42,13.50,17.91,22.37,26.41,29.90,32.85,35.37,37.81,40.51,43.50,46.70,49.72,52.21,54.57,56.88,59.20,63.73,68.42,72.60,75.89,78.76,81.59,84.49,87.30,89.55,90.70,91.43,91.71,91.48,90.57,89.01,86.67,83.72,80.91,76.75,72.29,68.34,65.89,63.06,60.57,57.85,54.68,52.39,50.99,50.17,49.76,49.61,49.35,48.05,45.65,42.31,39.68,37.76,36.06,34.36,32.74,31.06,28.59,25.55,22.56,19.80
e,e,e,e,e,e,e,e,e,e,e,e,e,e,e,e,e,e,e,e,e,e,e,e,e,e,e,e,e,e,e,e,e,e,e,e,e,e,e,e,e,e,e,e,e,e,e,e,e,e,e,e,e,e,e,e,e,e,e,e,e,e,e,e,e,e,e,e,e,e,e,e,e,e,e,e,e,e,e,e,e,e,e,e,e,e,e,e,e,e,e,e,e,e,e,0.04,0.12,0.19,0.27,0.32,0.32,0.32,0.37,0.41,0.43,0.49,0.52,0.52,0.54,0.60,0.67,0.71,0.75,0.81,0.88,0.91,0.95,1.00,1.02,1.09,1.16,1.21,1.22,1.28,1.31,1.35,1.41,1.49,1.57,1.64,1.70,1.72,1.78,1.85,1.93,2.01,2.15,2.30,2.45,2.59,2.67,2.82,2.97,3.12,3.28,3.43,3.53,3.64,3.80,3.95,4.11,4.26,4.40,4.47,4.62,4.78,4.93,5.08,5.18,5.31,5.45,5.61,5.76,5.91,6.02,6.12,6.28,6.43,6.57,6.71,6.84,6.92,6.99,7.07,7.15,7.23,7.30,7.39,7.48,7.56,7.70,7.79,7.87,7.94,8.02,8.10,8.18,8.28,8.45,8.74,8.94,9.06,9.13,9.17,11.66,15.41,19.62,23.19,26.81,29.96,32.67,35.04,37.33,39.70,42.45,45.62,48.69,51.27,53.67,55.99,58.31,62.00,66.85,71.27,74.26,76.78,79.11,81.65,84.39,87.03,89.27,90.38,90.68,90.61,90.20,89.01,86.93,84.14,81.58,77.63,72.88,68.39,65.64,62.95,60.13,57.03,53.70,51.16,49.32,48.00,47.13,46.64,45.80,44.34,42.46,40.46,39.36,38.15,36.67,34.94,33.32,31.68,29.32,26.52,24.02,21.36
e,e,e,e,e,e,e,e,e,e,e,e,e,e,e,e,e,e,e,e,e,e,e,e,e,e,e,e,e,e,e,e,e,e,e,e,e,e,e,e,e,e,e,e,e,e,e,e,e,e,e,e,e,e,e,e,e,e,e,e,e,e,e,e,e,e,e,e,e,e,e,e,e,e,e,e,e,e,e,e,e,e,e,e,e,e,e,e,e,e,e,e,e,e,e,e,e,0.13,0.21,0.26,0.26,0.29,0.33,0.36,0.37,0.45,0.46,0.48,0.52,0.60,0.64,0.68,0.72,0.77,0.84,0.88,0.92,0.97,1.00,1.04,1.11,1.17,1.20,1.25,1.28,1.33,1.41,1.49,1.54,1.60,1.67,1.70,1.77,1.85,1.94,2.05,2.21,2.36,2.52,2.66,2.73,2.88,3.03,3.19,3.34,3.50,3.60,3.71,3.86,4.01,4.17,4.31,4.43,4.54,4.69,4.84,5.00,5.15,5.22,5.36,5.51,5.67,5.82,5.98,6.09,6.19,6.34,6.50,6.65,6.79,6.91,7.02,7.13,7.24,7.34,7.42,7.49,7.57,7.65,7.73,7.85,7.94,8.03,8.13,8.21,8.29,8.37,8.46,8.58,8.89,9.11,9.25,9.42,10.30,13.47,17.33,21.11,24.04,27.13,29.91,32.36,34.55,36.63,38.62,41.00,43.90,47.05,49.84,52.35,54.68,56.97,59.83,63.79,68.14,72.16,74.52,76.41,78.55,81.04,83.57,85.93,87.10,87.47,87.59,87.54,87.18,86.13,84.26,81.82,78.11,73.29,68.51,65.59,62.83,59.76,56.41,52.92,50.24,48.14,46.31,44.73,43.64,42.50,41.22,39.90,38.73,38.35,37.72,36.89,35.82,34.35,32.70,30.61,28.45,26.88,24.25
e,e,e,e,e,e,e,e,e,e,e,e,e,e,e,e,e,e,e,e,e,e,e,e,e,e,e,e,e,e,e,e,e,e,e,e,e,e,e,e,e,e,e,e,e,e,e,e,e,e,e,e,e,e,e,e,e,e,e,e,e,e,e,e,e,e,e,e,e,e,e,e,e,e,e,e,e,e,e,e,e,e,e,e,e,e,e,e,e,e,e,e,e,e,e,e,e,e,0.14,0.20,0.20,0.28,0.30,0.30,0.31,0.38,0.40,0.44,0.52,0.59,0.60,0.65,0.70,0.71,0.78,0.86,0.90,0.91,0.99,1.00,1.05,1.12,1.20,1.20,1.26,1.33,1.41,1.48,1.50,1.54,1.62,1.70,1.78,1.86,1.96,2.12,2.27,2.42,2.58,2.72,2.80,2.94,3.10,3.25,3.41,3.56,3.66,3.77,3.92,4.08,4.23,4.35,4.44,4.60,4.75,4.91,5.06,5.21,5.29,5.42,5.58,5.73,5.89,6.04,6.15,6.25,6.41,6.56,6.71,6.84,6.92,7.08,7.23,7.39,7.52,7.60,7.68,7.76,7.84,7.92,7.99,8.07,8.18,8.32,8.40,8.48,8.56,8.64,8.71,9.02,9.27,9.46,9.82,12.08,15.62,19.22,22.39,24.85,27.38,29.75,31.93,33.91,35.74,37.35,39.28,41.80,45.00,48.05,50.74,53.13,55.36,57.46,60.06,64.18,69.80,72.09,73.57,75.29,77.38,79.46,81.35,82.38,82.85,83.21,83.55,84.27,84.65,84.14,81.81,78.35,73.58,68.67,65.66,62.72,59.47,55.97,52.36,49.55,47.30,44.94,42.54,40.71,39.45,38.50,37.75,37.07,36.91,36.75,36.72,36.66,35.49,33.89,32.22,30.86,30.38,27.80
e,e,e,e,e,e,e,e,e,e,e,e,e,e,e,e,e,e,e,e,e,e,e,e,e,e,e,e,e,e,e,e,e,e,e,e,e,e,e,e,e,e,e,e,e,e,e,e,e,e,e,e,e,e,e,e,e,e,e,e,e,e,e,e,e,e,e,e,e,e,e,e,e,e,e,e,e,e,e,e,e,e,e,e,e,e,e,e,e,e,e,e,e,e,e,e,e,e,0.08,0.13,0.13,0.21,0.23,0.25,0.30,0.33,0.38,0.44,0.51,0.53,0.58,0.62,0.65,0.71,0.78,0.82,0.86,0.90,0.93,0.98,1.02,1.06,1.13,1.19,1.26,1.31,1.34,1.42,1.48,1.51,1.56,1.69,1.82,1.92,2.03,2.18,2.33,2.49,2.64,2.78,2.86,3.01,3.16,3.32,3.47,3.57,3.69,3.83,3.99,4.14,4.30,4.41,4.51,4.66,4.82,4.97,5.12,5.27,5.35,5.49,5.64,5.80,5.95,6.06,6.18,6.31,6.47,6.62,6.78,6.90,6.99,7.14,7.30,7.45,7.60,7.73,7.81,7.92,8.03,8.11,8.19,8.26,8.35,8.45,8.53,8.65,8.75,8.83,8.90,9.16,9.44,9.89,10.93,14.52,17.90,20.56,22.65,24.86,27.24,29.18,30.89,32.61,34.05,35.53,37.31,39.53,42.14,45.33,48.56,51.44,53.57,55.82,58.95,63.02,67.58,69.37,70.64,71.75,72.78,73.74,74.72,75.42,76.11,77.16,79.23,81.16,82.55,83.02,81.68,78.44,73.73,68.86,65.85,62.86,59.74,56.43,52.96,49.76,46.95,44.15,41.35,38.79,37.79,36.85,35.94,35.22,35.01,34.72,34.50,34.39,34.26,34.25,33.44,32.20,31.47,29.90
e,e,e,e,e,e,e,e,e,e,e,e,e,e,e,e,e,e,e,e,e,e,e,e,e,e,e,e,e,e,e,e,e,e,e,e,e,e,e,e,e,e,e,e,e,e,e,e,e,e,e,e,e,e,e,e,e,e,e,e,e,e,e,e,e,e,e,e,e,e,e,e,e,e,e,e,e,e,e,e,e,e,e,e,e,e,e,e,e,e,e,e,e,e,e,e,e,e,e,0.08,0.10,0.15,0.19,0.22,0.27,0.30,0.34,0.41,0.47,0.50,0.55,0.58,0.62,0.67,0.75,0.79,0.83,0.87,0.90,0.95,0.98,1.02,1.10,1.18,1.24,1.28,1.31,1.39,1.44,1.50,1.57,1.73,1.86,1.97,2.09,2.24,2.40,2.55,2.69,2.82,2.92,3.07,3.22,3.38,3.53,3.61,3.74,3.90,4.05,4.21,4.36,4.47,4.57,4.72,4.88,5.03,5.18,5.31,5.41,5.55,5.71,5.86,6.01,6.10,6.22,6.38,6.53,6.69,6.84,6.96,7.05,7.21,7.36,7.51,7.67,7.82,7.90,8.03,8.17,8.27,8.37,8.46,8.53,8.61,8.69,8.81,8.91,8.99,9.10,9.33,9.60,10.61,12.90,16.95,19.77,21.70,23.18,25.04,27.26,28.78,29.95,31.19,32.25,33.68,35.44,37.48,39.70,42.65,46.02,49.32,51.85,54.41,58.07,61.94,65.22,66.74,67.82,68.52,68.94,69.28,69.74,70.20,70.88,72.03,74.43,77.02,79.49,81.31,81.03,78.06,73.70,69.21,66.30,63.36,60.35,57.18,53.80,50.43,47.05,43.58,40.09,36.86,36.04,35.20,34.27,33.42,33.09,32.69,32.32,32.16,32.70,33.48,33.49,32.87,32.27,31.25
e,e,e,e,e,e,e,e,e,e,e,e,e,e,e,e,e,e,e,e,e,e,e,e,e,e,e,e,e,e,e,e,e,e,e,e,e,e,e,e,e,e,e,e,e,e,e,e,e,e,e,e,e,e,e,e,e,e,e,e,e,e,e,e,e,e,e,e,e,e,e,e,e,e,e,e,e,e,e,e,e,e,e,e,e,e,e,e,e,e,e,e,e,e,e,e,e,e,e,0.03,0.10,0.10,0.16,0.20,0.21,0.29,0.30,0.35,0.42,0.50,0.50,0.55,0.60,0.61,0.69,0.76,0.80,0.82,0.89,0.90,0.95,1.02,1.10,1.18,1.20,1.24,1.31,1.39,1.40,1.49,1.63,1.79,1.87,2.00,2.15,2.31,2.46,2.62,2.73,2.83,2.98,3.13,3.29,3.44,3.60,3.67,3.81,3.96,4.12,4.27,4.42,4.54,4.63,4.79,4.94,5.10,5.22,5.31,5.46,5.62,5.77,5.92,6.08,6.16,6.29,6.44,6.60,6.75,6.91,7.03,7.11,7.27,7.42,7.58,7.73,7.89,7.97,8.10,8.25,8.40,8.55,8.65,8.72,8.80,8.88,8.96,9.04,9.14,9.29,9.52,9.75,11.61,15.73,19.39,21.24,22.63,23.97,25.39,27.44,28.56,29.12,29.64,30.36,31.81,33.65,35.66,37.68,40.00,43.14,46.76,50.18,53.24,57.43,60.95,62.72,64.19,65.11,65.61,65.86,66.09,66.41,66.73,67.16,67.83,69.14,71.88,75.47,79.00,79.85,77.21,73.47,69.71,67.00,64.21,61.31,58.22,54.89,51.57,47.60,43.21,38.75,34.93,34.19,33.57,32.74,31.69,31.17,30.63,30.17,29.98,30.81,31.59,32.36,32.88,32.77,31.85
e,e,e,e,e,e,e,e,e,e,e,e,e,e,e,e,e,e,e,e,e,e,e,e,e,e,e,e,e,e,e,e,e,e,e,e,e,e,e,e,e,e,e,e,e,e,e,e,e,e,e,e,e,e,e,e,e,e,e,e,e,e,e,e,e,e,e,e,e,e,e,e,e,e,e,e,e,e,e,e,e,e,e,e,e,e,e,e,e,e,e,e,e,e,e,e,e,e,e,e,0.04,0.09,0.12,0.16,0.20,0.24,0.28,0.32,0.36,0.44,0.48,0.52,0.56,0.60,0.63,0.70,0.76,0.81,0.84,0.88,0.95,1.01,1.04,1.12,1.17,1.21,1.25,1.33,1.42,1.54,1.70,1.85,1.93,2.06,2.22,2.37,2.53,2.68,2.80,2.89,3.04,3.20,3.35,3.51,3.66,3.74,3.87,4.03,4.18,4.33,4.45,4.57,4.70,4.85,5.01,5.16,5.29,5.37,5.52,5.68,5.83,5.99,6.14,6.23,6.35,6.51,6.66,6.82,6.97,7.09,7.18,7.33,7.49,7.64,7.79,7.89,8.02,8.16,8.31,8.47,8.62,8.72,8.82,8.94,9.06,9.15,9.22,9.31,9.42,9.65,11.41,14.54,18.48,20.54,22.06,23.43,24.76,26.02,27.06,27.77,28.29,28.75,29.31,30.46,32.17,34.32,36.51,38.57,41.21,44.38,47.81,50.08,52.92,55.96,58.83,61.13,62.22,62.76,63.04,63.32,63.67,64.08,64.63,65.42,66.84,69.04,71.80,74.82,77.36,76.30,73.56,70.21,67.46,64.73,61.98,59.02,55.73,52.32,48.29,43.77,38.67,32.64,31.87,31.61,31.20,30.45,29.91,29.50,29.24,29.23,30.03,30.73,31.48,32.14,32.44,31.81
e,e,e,e,e,e,e,e,e,e,e,e,e,e,e,e,e,e,e,e,e,e,e,e,e,e,e,e,e,e,e,e,e,e,e,e,e,e,e,e,e,e,e,e,e,e,e,e,e,e,e,e,e,e,e,e,e,e,e,e,e,e,e,e,e,e,e,e,e,e,e,e,e,e,e,e,e,e,e,e,e,e,e,e,e,e,e,e,e,e,e,e,e,e,e,e,e,e,e,e,e,e,0.09,0.13,0.18,0.20,0.25,0.29,0.32,0.40,0.46,0.49,0.52,0.58,0.60,0.65,0.71,0.78,0.80,0.87,0.94,0.98,1.00,1.08,1.14,1.18,1.21,1.31,1.45,1.61,1.76,1.92,2.00,2.13,2.28,2.44,2.59,2.74,2.86,2.95,3.11,3.26,3.42,3.57,3.70,3.80,3.93,4.09,4.24,4.40,4.49,4.61,4.76,4.92,5.07,5.22,5.35,5.43,5.59,5.74,5.90,6.05,6.21,6.29,6.42,6.57,6.72,6.88,7.02,7.14,7.24,7.40,7.55,7.71,7.84,7.92,8.07,8.22,8.38,8.53,8.69,8.78,8.90,9.05,9.21,9.31,9.39,9.47,9.57,10.18,13.44,17.40,20.50,21.50,22.79,23.99,25.02,25.93,26.27,26.73,27.25,27.72,28.31,29.34,30.97,33.15,35.40,37.36,39.63,42.33,45.48,47.04,48.72,51.06,54.21,56.74,58.17,59.12,59.78,60.17,60.77,61.39,62.15,63.25,64.86,66.72,68.79,71.17,74.35,74.79,73.24,70.53,67.84,65.17,62.53,59.67,56.41,52.94,48.89,44.33,38.78,30.93,30.05,29.97,29.83,29.33,28.84,28.53,28.46,28.70,29.48,30.13,30.81,31.45,31.86,31.44
e,e,e,e,e,e,e,e,e,e,e,e,e,e,e,e,e,e,e,e,e,e,e,e,e,e,e,e,e,e,e,e,e,e,e,e,e,e,e,e,e,e,e,e,e,e,e,e,e,e,e,e,e,e,e,e,e,e,e,e,e,e,e,e,e,e,e,e,e,e,e,e,e,e,e,e,e,e,e,e,e,e,e,e,e,e,e,e,e,e,e,e,e,e,e,e,e,e,e,e,e,e,0.06,0.10,0.12,0.19,0.21,0.25,0.32,0.40,0.41,0.46,0.50,0.52,0.59,0.61,0.65,0.73,0.79,0.87,0.91,0.93,1.00,1.08,1.11,1.14,1.22,1.36,1.52,1.67,1.83,1.98,2.06,2.19,2.34,2.50,2.65,2.81,2.92,3.02,3.17,3.33,3.48,3.61,3.70,3.85,4.00,4.15,4.31,4.46,4.55,4.67,4.83,4.98,5.13,5.29,5.42,5.50,5.65,5.81,5.96,6.12,6.27,6.36,6.48,6.63,6.79,6.94,7.05,7.16,7.31,7.46,7.62,7.77,7.91,7.98,8.13,8.29,8.44,8.60,8.75,8.85,8.96,9.11,9.27,9.41,9.52,9.62,9.76,11.41,15.94,19.91,21.26,22.27,23.48,24.17,24.35,24.57,24.87,25.33,25.84,26.33,27.26,28.57,30.24,32.23,34.27,36.39,38.57,40.86,43.31,44.48,45.53,46.81,48.50,50.14,52.12,54.12,55.74,56.32,57.54,58.51,59.61,61.28,63.09,64.99,66.86,68.67,70.62,72.22,72.14,70.53,68.09,65.52,62.91,60.07,56.86,53.38,49.29,44.76,39.08,30.24,29.15,28.95,28.78,28.38,28.04,27.73,27.81,28.38,29.16,29.85,30.47,30.91,30.98,30.59
e,e,e,e,e,e,e,e,e,e,e,e,e,e,e,e,e,e,e,e,e,e,e,e,e,e,e,e,e,e,e,e,e,e,e,e,e,e,e,e,e,e,e,e,e,e,e,e,e,e,e,e,e,e,e,e,e,e,e,e,e,e,e,e,e,e,e,e,e,e,e,e,e,e,e,e,e,e,e,e,e,e,e,e,e,e,e,e,e,e,e,e,e,e,e,e,e,e,e,e,e,e,e,0.07,0.11,0.14,0.18,0.22,0.27,0.35,0.39,0.43,0.46,0.50,0.54,0.58,0.64,0.71,0.75,0.82,0.87,0.91,0.95,1.03,1.11,1.18,1.27,1.43,1.58,1.74,1.89,2.04,2.13,2.25,2.41,2.56,2.72,2.84,2.96,3.08,3.24,3.39,3.54,3.67,3.75,3.91,4.06,4.22,4.37,4.53,4.62,4.73,4.89,5.04,5.20,5.33,5.44,5.56,5.72,5.87,6.03,6.17,6.29,6.40,6.54,6.70,6.85,7.01,7.11,7.22,7.37,7.52,7.68,7.83,7.97,8.05,8.20,8.35,8.51,8.66,8.77,8.89,9.02,9.18,9.33,9.49,9.60,9.70,9.85,13.16,17.47,20.67,21.62,22.19,22.79,23.07,23.08,23.12,23.45,23.92,24.53,25.30,26.54,27.95,29.51,31.23,33.28,35.36,37.33,39.15,40.84,41.69,42.35,43.22,44.54,45.97,47.87,49.77,51.41,52.51,53.91,55.12,56.59,58.82,61.39,63.39,65.13,66.80,68.49,70.02,70.54,69.86,67.98,65.63,63.17,60.45,57.33,53.58,49.43,45.08,39.59,30.27,28.87,28.35,27.93,27.47,27.12,26.98,27.24,27.90,28.59,29.32,29.79,29.99,30.03,29.54
e,e,e,e,e,e,e,e,e,e,e,e,e,e,e,e,e,e,e,e,e,e,e,e,e,e,e,e,e,e,e,e,e,e,e,e,e,e,e,e,e,e,e,e,e,e,e,e,e,e,e,e,e,e,e,e,e,e,e,e,e,e,e,e,e,e,e,e,e,e,e,e,e,e,e,e,e,e,e,e,e,e,e,e,e,e,e,e,e,e,e,e,e,e,e,e,e,e,e,e,e,e,e,e,0.09,0.10,0.16,0.19,0.22,0.28,0.36,0.39,0.42,0.49,0.50,0.56,0.63,0.69,0.70,0.77,0.84,0.89,0.90,0.99,1.12,1.24,1.34,1.49,1.65,1.80,1.95,2.09,2.19,2.32,2.47,2.63,2.78,2.88,2.99,3.14,3.30,3.45,3.61,3.74,3.82,3.97,4.13,4.28,4.43,4.58,4.67,4.80,4.95,5.11,5.26,5.37,5.47,5.63,5.78,5.93,6.09,6.23,6.31,6.45,6.61,6.76,6.92,7.07,7.17,7.28,7.43,7.59,7.74,7.89,8.02,8.11,8.26,8.42,8.57,8.71,8.79,8.93,9.09,9.24,9.40,9.54,9.65,9.77,10.02,14.63,18.41,20.78,21.58,21.71,21.70,21.68,21.67,21.67,22.04,22.58,23.35,24.44,25.89,27.34,28.77,30.26,32.27,34.22,35.94,37.34,38.35,38.92,39.31,39.98,41.19,42.56,44.20,45.85,47.43,48.98,50.41,51.78,53.58,56.27,59.51,61.71,63.45,65.05,66.69,67.91,68.78,68.91,67.71,65.58,63.28,60.70,57.69,53.82,49.77,45.59,40.19,30.72,28.93,28.06,27.39,26.78,26.30,26.27,26.64,27.30,27.91,28.61,28.90,28.89,28.92,28.38
e,e,e,e,e,e,e,e,e,e,e,e,e,e,e,e,e,e,e,e,e,e,e,e,e,e,e,e,e,e,e,e,e,e,e,e,e,e,e,e,e,e,e,e,e,e,e,e,e,e,e,e,e,e,e,e,e,e,e,e,e,e,e,e,e,e,e,e,e,e,e,e,e,e,e,e,e,e,e,e,e,e,e,e,e,e,e,e,e,e,e,e,e,e,e,e,e,e,e,e,e,e,e,e,0.03,0.09,0.11,0.15,0.20,0.22,0.30,0.36,0.41,0.43,0.49,0.56,0.61,0.63,0.69,0.77,0.81,0.84,0.90,1.04,1.15,1.26,1.40,1.55,1.71,1.86,2.00,2.10,2.23,2.38,2.54,2.69,2.84,2.94,3.05,3.21,3.36,3.52,3.67,3.80,3.88,4.04,4.19,4.34,4.49,4.58,4.72,4.86,5.02,5.17,5.33,5.43,5.53,5.69,5.84,6.00,6.15,6.29,6.37,6.52,6.67,6.83,6.98,7.13,7.23,7.34,7.50,7.65,7.81,7.93,8.03,8.17,8.32,8.48,8.61,8.71,8.85,9.00,9.15,9.31,9.46,9.56,9.65,9.89,10.53,14.75,18.23,20.24,20.54,20.58,20.43,20.31,20.27,20.27,20.68,21.43,22.49,23.86,25.21,26.60,28.00,29.44,31.10,32.79,34.24,35.34,36.06,36.37,36.73,37.35,38.37,39.64,41.02,42.81,44.82,46.36,47.61,49.00,50.95,53.78,57.02,59.74,61.79,63.22,64.61,65.80,66.92,67.61,67.25,65.18,63.00,60.55,57.69,54.40,51.03,46.81,40.93,31.90,29.60,28.48,27.67,26.77,25.89,25.65,25.89,26.46,27.02,27.50,27.63,27.50,27.33,27.02
e,e,e,e,e,e,e,e,e,e,e,e,e,e,e,e,e,e,e,e,e,e,e,e,e,e,e,e,e,e,e,e,e,e,e,e,e,e,e,e,e,e,e,e,e,e,e,e,e,e,e,e,e,e,e,e,e,e,e,e,e,e,e,e,e,e,e,e,e,e,e,e,e,e,e,e,e,e,e,e,e,e,e,e,e,e,e,e,e,e,e,e,e,e,e,e,e,e,e,e,e,e,e,e,0.01,0.05,0.09,0.12,0.17,0.20,0.24,0.31,0.37,0.40,0.45,0.52,0.57,0.61,0.65,0.73,0.78,0.83,0.95,1.10,1.20,1.31,1.46,1.62,1.77,1.93,2.06,2.14,2.29,2.45,2.60,2.75,2.91,3.00,3.12,3.27,3.43,3.58,3.72,3.83,3.94,4.10,4.25,4.41,4.55,4.63,4.77,4.93,5.08,5.24,5.39,5.49,5.60,5.75,5.91,6.06,6.22,6.36,6.43,6.58,6.73,6.89,7.04,7.16,7.28,7.41,7.56,7.72,7.84,7.96,8.07,8.19,8.31,8.41,8.50,8.58,8.70,8.82,8.94,9.07,9.19,9.27,9.33,9.64,10.61,14.21,17.15,18.81,19.02,19.19,19.11,18.99,18.91,18.94,19.54,20.38,21.51,22.90,24.22,25.59,26.96,28.33,29.78,31.15,32.26,33.06,33.55,33.78,34.24,34.98,36.03,37.30,38.68,40.39,42.29,43.87,45.21,46.67,48.71,51.71,54.92,57.76,59.84,61.16,62.48,63.71,65.04,66.22,66.83,65.05,62.88,60.36,57.53,54.54,51.48,46.93,40.61,33.08,30.20,28.76,27.89,26.89,25.85,25.18,25.06,25.45,25.92,26.27,26.32,26.13,25.87,25.64
e,e,e,e,e,e,e,e,e,e,e,e,e,e,e,e,e,e,e,e,e,e,e,e,e,e,e,e,e,e,e,e,e,e,e,e,e,e,e,e,e,e,e,e,e,e,e,e,e,e,e,e,e,e,e,e,e,e,e,e,e,e,e,e,e,e,e,e,e,e,e,e,e,e,e,e,e,e,e,e,e,e,e,e,e,e,e,e,e,e,e,e,e,e,e,e,e,e,e,e,e,e,e,e,e,e,0.06,0.10,0.12,0.19,0.20,0.25,0.33,0.39,0.40,0.46,0.53,0.59,0.60,0.67,0.75,0.86,1.01,1.16,1.26,1.37,1.53,1.68,1.84,1.99,2.13,2.20,2.35,2.51,2.66,2.82,2.97,3.06,3.18,3.34,3.49,3.65,3.75,3.85,4.01,4.16,4.32,4.47,4.62,4.69,4.84,4.99,5.14,5.30,5.45,5.55,5.66,5.82,5.97,6.13,6.28,6.42,6.50,6.64,6.79,6.94,7.09,7.16,7.29,7.44,7.59,7.74,7.82,7.94,8.07,8.15,8.22,8.25,8.28,8.36,8.44,8.51,8.59,8.67,8.75,8.82,8.86,9.24,10.45,13.30,15.60,16.95,17.27,17.66,17.74,17.67,17.58,17.70,18.50,19.40,20.46,21.75,23.05,24.43,25.78,27.08,28.38,29.41,30.19,30.71,31.00,31.24,31.85,32.77,33.95,35.28,36.78,38.33,39.89,41.49,43.01,44.54,46.65,49.84,53.03,55.77,57.75,59.00,60.33,61.68,63.19,64.81,66.38,64.99,62.79,60.11,57.24,54.38,51.43,46.46,39.86,34.24,30.76,28.99,28.09,27.08,26.00,24.87,24.26,24.37,24.73,24.96,24.97,24.77,24.47,24.24
e,e,e,e,e,e,e,e,e,e,e,e,e,e,e,e,e,e,e,e,e,e,e,e,e,e,e,e,e,e,e,e,e,e,e,e,e,e,e,e,e,e,e,e,e,e,e,e,e,e,e,e,e,e,e,e,e,e,e,e,e,e,e,e,e,e,e,e,e,e,e,e,e,e,e,e,e,e,e,e,e,e,e,e,e,e,e,e,e,e,e,e,e,e,e,e,e,e,e,e,e,e,e,e,e,e,0.02,0.06,0.11,0.13,0.18,0.25,0.31,0.33,0.39,0.42,0.47,0.54,0.59,0.67,0.78,0.92,1.07,1.23,1.33,1.44,1.59,1.75,1.90,2.05,2.19,2.27,2.42,2.57,2.73,2.88,2.98,3.10,3.25,3.40,3.55,3.71,3.82,3.92,4.07,4.23,4.38,4.54,4.68,4.76,4.90,5.05,5.21,5.36,5.47,5.59,5.73,5.88,6.04,6.19,6.32,6.42,6.56,6.66,6.76,6.86,6.96,6.98,7.06,7.16,7.26,7.36,7.44,7.53,7.63,7.70,7.73,7.77,7.84,7.91,7.99,8.07,8.14,8.22,8.30,8.33,8.50,8.97,9.94,12.00,13.93,15.18,15.55,15.99,16.16,16.19,16.26,16.72,17.59,18.51,19.48,20.53,21.79,23.15,24.48,25.72,26.87,27.80,28.50,28.94,29.09,29.37,29.96,30.86,32.05,33.53,35.06,36.63,38.19,39.59,40.77,42.18,44.37,47.81,51.25,53.79,55.60,56.92,58.40,60.06,61.81,63.60,65.42,64.37,62.28,59.54,56.54,53.68,50.41,45.65,39.87,35.19,31.23,29.21,28.29,27.34,26.26,25.16,24.16,23.43,23.55,23.62,23.57,23.38,23.13,22.90
e,e,e,e,e,e,e,e,e,e,e,e,e,e,e,e,e,e,e,e,e,e,e,e,e,e,e,e,e,e,e,e,e,e,e,e,e,e,e,e,e,e,e,e,e,e,e,e,e,e,e,e,e,e,e,e,e,e,e,e,e,e,e,e,e,e,e,e,e,e,e,e,e,e,e,e,e,e,e,e,e,e,e,e,e,e,e,e,e,e,e,e,e,e,e,e,e,e,e,e,e,e,e,e,e,e,e,0.03,0.07,0.10,0.15,0.22,0.28,0.30,0.36,0.39,0.44,0.52,0.59,0.69,0.83,0.98,1.14,1.29,1.39,1.50,1.66,1.81,1.96,2.10,2.23,2.33,2.48,2.64,2.79,2.94,3.02,3.15,3.31,3.46,3.62,3.77,3.88,3.98,4.14,4.29,4.45,4.59,4.71,4.82,4.96,5.10,5.23,5.36,5.44,5.53,5.64,5.77,5.90,6.03,6.13,6.22,6.35,6.43,6.49,6.55,6.63,6.65,6.72,6.79,6.87,6.95,7.02,7.10,7.17,7.22,7.25,7.31,7.39,7.47,7.54,7.62,7.70,7.77,7.82,7.85,8.17,8.75,9.49,10.77,12.25,13.40,13.93,14.34,14.54,14.75,15.11,15.81,16.72,17.63,18.54,19.48,20.61,21.88,23.13,24.28,25.29,26.11,26.80,27.28,27.38,27.79,28.46,29.36,30.50,31.89,33.42,34.99,36.52,37.88,38.91,40.16,42.23,45.64,49.38,51.98,53.82,55.23,56.75,58.67,60.64,62.61,64.59,63.63,61.65,58.95,55.83,52.92,49.32,44.88,40.04,36.08,32.22,29.91,28.66,27.73,26.70,25.56,24.31,23.12,22.60,22.36,22.19,22.02,21.79,21.56
e,e,e,e,e,e,e,e,e,e,e,e,e,e,e,e,e,e,e,e,e,e,e,e,e,e,e,e,e,e,e,e,e,e,e,e,e,e,e,e,e,e,e,e,e,e,e,e,e,e,e,e,e,e,e,e,e,e,e,e,e,e,e,e,e,e,e,e,e,e,e,e,e,e,e,e,e,e,e,e,e,e,e,e,e,e,e,e,e,e,e,e,e,e,e,e,e,e,e,e,e,e,e,e,e,e,e,0.00,0.02,0.10,0.10,0.15,0.23,0.30,0.30,0.36,0.44,0.52,0.59,0.74,0.89,1.05,1.20,1.36,1.45,1.56,1.72,1.87,2.03,2.14,2.24,2.39,2.55,2.70,2.86,3.00,3.08,3.22,3.37,3.53,3.68,3.84,3.94,4.05,4.20,4.35,4.51,4.63,4.72,4.87,5.03,5.14,5.22,5.30,5.38,5.40,5.43,5.51,5.59,5.67,5.75,5.83,5.91,5.98,6.01,6.04,6.12,6.19,6.27,6.35,6.42,6.50,6.58,6.66,6.71,6.72,6.79,6.86,6.94,7.02,7.10,7.17,7.25,7.31,7.32,7.38,7.86,8.56,9.11,9.60,10.57,11.60,12.38,12.70,12.88,13.35,14.13,14.97,15.89,16.77,17.65,18.58,19.51,20.62,21.75,22.79,23.65,24.36,25.10,25.69,25.85,26.45,27.28,28.24,29.26,30.35,31.87,33.41,34.88,36.34,37.38,38.44,40.22,43.36,47.44,50.31,52.35,53.88,55.35,57.48,59.67,61.81,63.89,62.79,60.93,58.34,55.12,52.11,48.17,44.15,40.35,36.94,33.66,31.01,29.17,28.25,27.32,26.05,24.70,23.35,21.84,21.17,20.85,20.68,20.45,20.22
e,e,e,e,e,e,e,e,e,e,e,e,e,e,e,e,e,e,e,e,e,e,e,e,e,e,e,e,e,e,e,e,e,e,e,e,e,e,e,e,e,e,e,e,e,e,e,e,e,e,e,e,e,e,e,e,e,e,e,e,e,e,e,e,e,e,e,e,e,e,e,e,e,e,e,e,e,e,e,e,e,e,e,e,e,e,e,e,e,e,e,e,e,e,e,e,e,e,e,e,e,e,e,e,e,e,e,e,0.01,0.04,0.08,0.12,0.17,0.24,0.29,0.36,0.44,0.52,0.65,0.80,0.96,1.11,1.26,1.37,1.49,1.63,1.78,1.94,2.09,2.20,2.30,2.46,2.61,2.76,2.92,3.07,3.14,3.28,3.44,3.58,3.69,3.80,3.88,3.97,4.08,4.14,4.23,4.32,4.40,4.51,4.62,4.71,4.79,4.86,4.90,4.94,5.00,5.07,5.15,5.23,5.30,5.38,5.46,5.49,5.53,5.59,5.67,5.74,5.82,5.90,5.98,6.05,6.09,6.15,6.22,6.26,6.34,6.42,6.49,6.57,6.65,6.73,6.78,6.81,6.86,7.02,7.52,8.17,8.67,9.08,9.72,10.36,10.86,11.27,11.62,12.32,13.30,14.20,15.08,15.97,16.91,17.93,18.76,19.58,20.37,21.13,21.93,22.68,23.47,24.17,24.56,25.41,26.38,27.38,28.34,29.33,30.56,31.94,33.40,34.82,36.20,37.67,39.59,42.36,46.41,49.48,51.62,53.03,54.45,56.54,58.88,61.17,63.07,62.38,60.73,58.21,55.03,51.92,48.53,45.16,41.97,39.15,35.98,33.00,30.56,28.94,27.92,26.76,25.41,23.77,21.70,20.78,20.05,19.27,18.32,17.32
e,e,e,e,e,e,e,e,e,e,e,e,e,e,e,e,e,e,e,e,e,e,e,e,e,e,e,e,e,e,e,e,e,e,e,e,e,e,e,e,e,e,e,e,e,e,e,e,e,e,e,e,e,e,e,e,e,e,e,e,e,e,e,e,e,e,e,e,e,e,e,e,e,e,e,e,e,e,e,e,e,e,e,e,e,e,e,e,e,e,e,e,e,e,e,e,e,e,e,e,e,e,e,e,e,e,e,e,e,e,0.06,0.09,0.12,0.18,0.28,0.38,0.46,0.56,0.71,0.87,1.02,1.17,1.33,1.40,1.54,1.69,1.85,2.00,2.14,2.24,2.33,2.47,2.60,2.72,2.85,2.98,3.05,3.18,3.31,3.43,3.51,3.59,3.67,3.74,3.79,3.81,3.88,3.95,4.03,4.11,4.18,4.26,4.33,4.39,4.41,4.47,4.55,4.63,4.70,4.78,4.86,4.93,4.99,5.01,5.07,5.14,5.22,5.30,5.38,5.45,5.53,5.58,5.61,5.66,5.74,5.82,5.89,5.97,6.05,6.12,6.18,6.25,6.30,6.33,6.41,6.68,7.17,7.75,8.19,8.60,9.02,9.40,9.72,10.14,10.57,11.38,12.48,13.41,14.36,15.30,16.26,17.23,18.03,18.73,19.35,19.90,20.54,21.19,21.95,22.76,23.43,24.48,25.52,26.52,27.47,28.44,29.50,30.76,32.20,33.67,35.37,37.16,39.21,41.73,45.71,48.93,51.15,52.47,53.82,55.72,58.14,60.59,62.27,61.95,60.53,58.15,55.06,52.19,49.37,46.51,43.71,41.26,38.33,35.26,32.43,30.22,28.80,27.48,25.93,23.97,21.56,20.34,19.26,18.08,16.75,15.36
e,e,e,e,e,e,e,e,e,e,e,e,e,e,e,e,e,e,e,e,e,e,e,e,e,e,e,e,e,e,e,e,e,e,e,e,e,e,e,e,e,e,e,e,e,e,e,e,e,e,e,e,e,e,e,e,e,e,e,e,e,e,e,e,e,e,e,e,e,e,e,e,e,e,e,e,e,e,e,e,e,e,e,e,e,e,e,e,e,e,e,e,e,e,e,e,e,e,e,e,e,e,e,e,e,e,e,e,e,e,0.01,0.06,0.10,0.12,0.27,0.42,0.53,0.62,0.77,0.93,1.08,1.24,1.39,1.47,1.60,1.76,1.91,2.07,2.16,2.24,2.32,2.41,2.49,2.53,2.57,2.66,2.74,2.82,2.90,2.99,3.07,3.14,3.22,3.28,3.28,3.35,3.43,3.51,3.58,3.66,3.74,3.82,3.88,3.88,3.95,4.02,4.10,4.18,4.26,4.33,4.41,4.47,4.48,4.55,4.62,4.70,4.77,4.85,4.93,5.01,5.07,5.08,5.14,5.21,5.29,5.37,5.45,5.52,5.60,5.67,5.68,5.74,5.82,5.89,5.96,6.36,6.83,7.29,7.68,8.14,8.50,8.82,9.13,9.46,9.78,10.55,11.65,12.58,13.76,14.82,15.73,16.47,17.31,18.14,18.83,19.33,19.62,19.97,20.61,21.51,22.54,23.68,24.68,25.65,26.65,27.72,28.79,30.00,31.41,33.08,35.02,37.00,39.13,41.60,45.48,48.75,51.02,52.32,53.58,55.08,57.48,60.07,61.50,61.48,60.32,58.14,55.26,53.13,50.85,48.29,45.57,43.17,40.70,37.88,34.98,32.36,30.10,28.20,26.18,23.84,21.37,19.76,18.43,17.23,16.04,14.85
e,e,e,e,e,e,e,e,e,e,e,e,e,e,e,e,e,e,e,e,e,e,e,e,e,e,e,e,e,e,e,e,e,e,e,e,e,e,e,e,e,e,e,e,e,e,e,e,e,e,e,e,e,e,e,e,e,e,e,e,e,e,e,e,e,e,e,e,e,e,e,e,e,e,e,e,e,e,e,e,e,e,e,e,e,e,e,e,e,e,e,e,e,e,e,e,e,e,e,e,e,e,e,e,e,e,e,e,e,e,e,0.02,0.08,0.17,0.32,0.48,0.59,0.68,0.79,0.90,1.02,1.13,1.24,1.28,1.37,1.48,1.60,1.71,1.79,1.87,1.95,2.02,2.06,2.10,2.15,2.23,2.31,2.39,2.46,2.54,2.62,2.66,2.72,2.79,2.83,2.90,2.98,3.06,3.14,3.21,3.26,3.31,3.38,3.42,3.50,3.58,3.65,3.73,3.81,3.89,3.94,3.98,4.02,4.10,4.17,4.25,4.33,4.40,4.48,4.54,4.58,4.62,4.69,4.77,4.84,4.92,5.00,5.08,5.14,5.18,5.22,5.29,5.36,5.44,5.52,5.94,6.37,6.79,7.17,7.64,8.02,8.39,8.78,9.17,9.56,10.25,11.22,12.27,13.27,14.24,15.15,15.97,16.82,17.67,18.38,18.87,19.10,19.40,19.92,20.71,21.75,22.87,23.88,24.88,25.93,27.06,28.21,29.43,30.83,32.65,34.65,36.66,38.85,41.47,45.29,48.56,50.80,52.03,53.22,54.51,56.65,59.11,60.79,60.93,60.05,58.15,55.47,53.54,51.63,49.63,47.47,45.04,42.64,40.01,37.25,34.51,31.96,29.49,26.91,24.09,20.96,19.26,17.95,16.75,15.55,14.39
e,e,e,e,e,e,e,e,e,e,e,e,e,e,e,e,e,e,e,e,e,e,e,e,e,e,e,e,e,e,e,e,e,e,e,e,e,e,e,e,e,e,e,e,e,e,e,e,e,e,e,e,e,e,e,e,e,e,e,e,e,e,e,e,e,e,e,e,e,e,e,e,e,e,e,e,e,e,e,e,e,e,e,e,e,e,e,e,e,e,e,e,e,e,e,e,e,e,e,e,e,e,e,e,e,e,e,e,e,e,e,e,0.05,0.19,0.32,0.46,0.57,0.65,0.72,0.80,0.88,0.96,1.03,1.04,1.09,1.16,1.24,1.32,1.40,1.47,1.55,1.63,1.64,1.70,1.78,1.85,1.92,1.99,2.07,2.15,2.22,2.24,2.29,2.37,2.45,2.53,2.59,2.66,2.74,2.82,2.84,2.89,2.97,3.04,3.12,3.20,3.28,3.35,3.42,3.49,3.54,3.56,3.64,3.72,3.79,3.87,3.95,4.03,4.09,4.14,4.16,4.24,4.31,4.39,4.47,4.54,4.62,4.70,4.75,4.77,4.85,4.92,5.00,5.08,5.17,5.59,6.02,6.41,6.80,7.25,7.66,8.08,8.54,9.00,9.45,10.05,10.87,11.99,12.81,13.68,14.60,15.51,16.36,17.21,17.92,18.42,18.65,18.96,19.41,20.07,21.00,22.08,23.13,24.19,25.31,26.48,27.70,28.94,30.34,32.26,34.30,36.36,38.64,41.39,45.09,48.31,50.52,51.72,52.86,54.00,55.79,57.97,59.89,60.15,59.59,58.05,55.62,53.85,52.26,50.78,49.17,46.86,44.46,41.93,39.26,36.47,33.73,30.83,27.73,24.36,20.58,18.86,17.59,16.39,15.14,13.96
e,e,e,e,e,e,e,e,e,e,e,e,e,e,e,e,e,e,e,e,e,e,e,e,e,e,e,e,e,e,e,e,e,e,e,e,e,e,e,e,e,e,e,e,e,e,e,e,e,e,e,e,e,e,e,e,e,e,e,e,e,e,e,e,e,e,e,e,e,e,e,e,e,e,e,e,e,e,e,e,e,e,e,e,e,e,e,e,e,e,e,e,e,e,e,e,e,e,e,e,e,e,e,e,e,e,e,e,e,e,e,e,0.03,0.12,0.15,0.23,0.31,0.39,0.47,0.55,0.62,0.70,0.78,0.84,0.87,0.91,0.99,1.06,1.14,1.22,1.30,1.37,1.44,1.51,1.59,1.66,1.67,1.74,1.81,1.89,1.97,2.03,2.10,2.18,2.26,2.34,2.37,2.41,2.49,2.56,2.63,2.70,2.78,2.85,2.93,3.01,3.08,3.16,3.17,3.24,3.31,3.37,3.45,3.53,3.60,3.68,3.76,3.83,3.87,3.90,3.97,4.04,4.12,4.20,4.28,4.35,4.43,4.51,4.58,4.64,4.72,4.80,4.87,4.96,5.10,5.53,5.98,6.41,6.80,7.20,7.63,8.06,8.47,8.94,9.35,9.85,10.52,11.49,12.39,13.27,14.13,15.00,15.85,16.70,17.43,17.97,18.20,18.56,19.03,19.61,20.30,21.38,22.50,23.66,24.86,26.09,27.32,28.59,30.01,31.88,34.06,36.29,38.70,41.44,44.85,47.88,50.10,51.45,52.55,53.59,54.95,56.62,58.49,58.75,58.63,57.66,55.65,54.17,52.88,51.65,50.32,48.60,46.20,43.53,40.72,37.87,34.98,32.01,28.55,24.51,20.43,18.71,17.41,16.12,14.82,13.54
e,e,e,e,e,e,e,e,e,e,e,e,e,e,e,e,e,e,e,e,e,e,e,e,e,e,e,e,e,e,e,e,e,e,e,e,e,e,e,e,e,e,e,e,e,e,e,e,e,e,e,e,e,e,e,e,e,e,e,e,e,e,e,e,e,e,e,e,e,e,e,e,e,e,e,e,e,e,e,e,e,e,e,e,e,e,e,e,e,e,e,e,e,e,e,e,e,e,e,e,e,e,e,e,e,e,e,e,e,e,e,e,e,0.06,0.09,0.13,0.19,0.27,0.35,0.42,0.50,0.58,0.66,0.73,0.78,0.83,0.91,0.95,1.02,1.10,1.17,1.25,1.33,1.41,1.48,1.56,1.59,1.63,1.69,1.77,1.85,1.92,2.00,2.08,2.16,2.23,2.28,2.33,2.41,2.45,2.52,2.60,2.67,2.75,2.83,2.91,2.98,3.06,3.09,3.13,3.19,3.27,3.35,3.42,3.50,3.58,3.66,3.73,3.78,3.83,3.91,3.99,4.06,4.14,4.22,4.30,4.37,4.45,4.53,4.60,4.68,4.76,4.84,4.94,5.16,5.60,6.02,6.41,6.80,7.19,7.60,8.03,8.45,8.88,9.27,9.68,10.22,11.08,11.97,12.83,13.68,14.53,15.38,16.23,16.96,17.49,17.75,18.15,18.64,19.21,19.83,20.83,21.97,23.20,24.47,25.78,27.08,28.39,29.84,31.76,34.02,36.32,38.74,41.40,44.51,47.46,49.75,51.24,52.32,53.25,54.25,55.40,56.73,57.08,57.28,56.85,55.58,54.29,53.19,52.14,51.04,49.77,47.62,44.97,42.01,38.91,35.91,32.82,29.29,25.24,21.13,19.07,17.54,16.16,14.78,13.39
e,e,e,e,e,e,e,e,e,e,e,e,e,e,e,e,e,e,e,e,e,e,e,e,e,e,e,e,e,e,e,e,e,e,e,e,e,e,e,e,e,e,e,e,e,e,e,e,e,e,e,e,e,e,e,e,e,e,e,e,e,e,e,e,e,e,e,e,e,e,e,e,e,e,e,e,e,e,e,e,e,e,e,e,e,e,e,e,e,e,e,e,e,e,e,e,e,e,e,e,e,e,e,e,e,e,e,e,e,e,e,e,e,e,e,0.10,0.13,0.21,0.28,0.36,0.44,0.52,0.59,0.67,0.75,0.82,0.89,0.90,0.96,1.03,1.11,1.19,1.27,1.34,1.42,1.50,1.57,1.60,1.63,1.71,1.78,1.86,1.94,2.02,2.09,2.17,2.25,2.32,2.39,2.40,2.46,2.53,2.61,2.69,2.76,2.84,2.92,3.00,3.07,3.10,3.13,3.21,3.28,3.36,3.44,3.52,3.60,3.68,3.75,3.83,3.91,3.99,4.06,4.14,4.22,4.30,4.37,4.45,4.53,4.60,4.68,4.76,4.84,4.96,5.27,5.71,6.08,6.41,6.80,7.18,7.56,7.98,8.44,8.82,9.20,9.55,9.96,10.71,11.53,12.38,13.23,14.08,14.93,15.77,16.48,16.99,17.31,17.76,18.27,18.84,19.47,20.39,21.54,22.83,24.16,25.56,26.95,28.31,29.79,31.81,34.11,36.42,38.82,41.38,44.24,47.14,49.50,51.06,52.13,52.94,53.66,54.34,55.02,55.45,55.83,55.88,55.38,54.27,53.33,52.42,51.50,50.59,48.85,46.30,43.17,39.77,36.65,33.42,29.92,26.09,22.08,19.57,17.74,16.25,14.77,13.30
e,e,e,e,e,e,e,e,e,e,e,e,e,e,e,e,e,e,e,e,e,e,e,e,e,e,e,e,e,e,e,e,e,e,e,e,e,e,e,e,e,e,e,e,e,e,e,e,e,e,e,e,e,e,e,e,e,e,e,e,e,e,e,e,e,e,e,e,e,e,e,e,e,e,e,e,e,e,e,e,e,e,e,e,e,e,e,e,e,e,e,e,e,e,e,e,e,e,e,e,e,e,e,e,e,e,e,e,e,e,e,e,e,e,e,0.07,0.11,0.14,0.22,0.30,0.37,0.45,0.53,0.61,0.68,0.76,0.84,0.89,0.92,0.97,1.05,1.12,1.20,1.28,1.36,1.43,1.51,1.57,1.61,1.64,1.72,1.80,1.87,1.95,2.03,2.11,2.18,2.26,2.33,2.39,2.42,2.47,2.55,2.62,2.70,2.78,2.86,2.93,3.01,3.07,3.11,3.14,3.22,3.30,3.37,3.47,3.60,3.68,3.75,3.83,3.91,3.99,4.06,4.14,4.22,4.30,4.37,4.45,4.53,4.60,4.68,4.76,4.84,4.96,5.33,5.73,6.08,6.41,6.80,7.13,7.50,7.92,8.37,8.76,9.10,9.42,9.79,10.40,11.08,11.87,12.72,13.56,14.41,15.26,16.00,16.55,16.92,17.42,17.98,18.60,19.28,20.15,21.39,22.80,24.23,25.68,27.12,28.53,30.07,32.19,34.49,36.81,39.20,41.76,44.57,47.43,49.64,50.98,51.95,52.70,53.38,53.98,54.51,54.70,54.87,54.87,54.59,53.87,53.13,52.34,51.52,50.71,49.79,47.33,43.92,40.47,37.10,33.69,30.09,26.22,22.20,19.57,17.57,15.91,14.33,12.86
e,e,e,e,e,e,e,e,e,e,e,e,e,e,e,e,e,e,e,e,e,e,e,e,e,e,e,e,e,e,e,e,e,e,e,e,e,e,e,e,e,e,e,e,e,e,e,e,e,e,e,e,e,e,e,e,e,e,e,e,e,e,e,e,e,e,e,e,e,e,e,e,e,e,e,e,e,e,e,e,e,e,e,e,e,e,e,e,e,e,e,e,e,e,e,e,e,e,e,e,e,e,e,e,e,e,e,e,e,e,e,e,e,e,e,e,0.08,0.12,0.19,0.24,0.31,0.39,0.47,0.54,0.62,0.70,0.77,0.85,0.89,0.93,0.98,1.06,1.14,1.21,1.29,1.37,1.45,1.52,1.58,1.61,1.69,1.74,1.81,1.89,1.96,2.04,2.12,2.20,2.27,2.35,2.39,2.43,2.48,2.56,2.64,2.71,2.79,2.87,2.95,3.02,3.09,3.15,3.23,3.31,3.38,3.47,3.60,3.68,3.75,3.83,3.91,3.99,4.06,4.14,4.22,4.30,4.37,4.45,4.53,4.60,4.68,4.76,4.84,4.97,5.35,5.72,6.06,6.40,6.76,7.10,7.47,7.88,8.30,8.66,8.98,9.30,9.67,10.13,10.84,11.59,12.36,13.12,13.92,14.75,15.51,16.12,16.53,17.10,17.73,18.40,19.12,19.97,21.31,22.86,24.41,25.90,27.40,28.90,30.55,32.71,34.99,37.28,39.68,42.29,45.10,47.91,49.90,50.89,51.68,52.36,53.02,53.61,54.07,54.07,54.11,54.11,54.01,53.64,53.09,52.49,51.82,51.05,50.39,48.11,44.66,40.83,37.19,33.65,30.09,26.47,22.76,19.90,17.70,15.93,14.25,12.64
e,e,e,e,e,e,e,e,e,e,e,e,e,e,e,e,e,e,e,e,e,e,e,e,e,e,e,e,e,e,e,e,e,e,e,e,e,e,e,e,e,e,e,e,e,e,e,e,e,e,e,e,e,e,e,e,e,e,e,e,e,e,e,e,e,e,e,e,e,e,e,e,e,e,e,e,e,e,e,e,e,e,e,e,e,e,e,e,e,e,e,e,e,e,e,e,e,e,e,e,e,e,e,e,e,e,e,e,e,e,e,e,e,e,e,e,e,0.12,0.19,0.20,0.25,0.32,0.40,0.48,0.56,0.63,0.71,0.79,0.86,0.90,0.92,1.00,1.07,1.15,1.23,1.31,1.38,1.46,1.54,1.61,1.69,1.70,1.75,1.82,1.90,1.98,2.06,2.13,2.21,2.29,2.36,2.40,2.42,2.50,2.57,2.65,2.73,2.81,2.88,2.96,3.07,3.21,3.29,3.37,3.45,3.52,3.60,3.68,3.75,3.83,3.91,3.99,4.06,4.14,4.22,4.30,4.37,4.45,4.53,4.60,4.68,4.76,4.84,4.97,5.35,5.67,6.03,6.39,6.70,7.09,7.47,7.86,8.24,8.54,8.85,9.20,9.57,9.88,10.77,11.50,12.11,12.73,13.43,14.24,15.02,15.68,16.14,16.81,17.50,18.22,18.99,19.84,21.29,22.99,24.67,26.21,27.76,29.38,31.19,33.35,35.59,37.83,40.22,42.94,45.79,48.53,50.25,50.79,51.33,51.94,52.60,53.23,53.69,53.55,53.50,53.53,53.59,53.52,53.19,52.80,52.33,51.56,50.72,48.70,45.41,40.95,37.01,33.35,29.97,26.81,23.64,20.48,18.05,16.22,14.44,12.59
e,e,e,e,e,e,e,e,e,e,e,e,e,e,e,e,e,e,e,e,e,e,e,e,e,e,e,e,e,e,e,e,e,e,e,e,e,e,e,e,e,e,e,e,e,e,e,e,e,e,e,e,e,e,e,e,e,e,e,e,e,e,e,e,e,e,e,e,e,e,e,e,e,e,e,e,e,e,e,e,e,e,e,e,e,e,e,e,e,e,e,e,e,e,e,e,e,e,e,e,e,e,e,e,e,e,e,e,e,e,e,e,e,e,e,e,e,0.05,0.13,0.18,0.22,0.26,0.34,0.41,0.49,0.57,0.65,0.72,0.80,0.86,0.91,0.93,1.01,1.09,1.16,1.24,1.32,1.40,1.47,1.55,1.63,1.68,1.72,1.76,1.84,1.91,1.99,2.07,2.15,2.22,2.30,2.36,2.42,2.50,2.57,2.68,2.79,2.87,2.95,3.02,3.11,3.21,3.29,3.37,3.45,3.52,3.60,3.68,3.75,3.83,3.91,3.99,4.06,4.14,4.22,4.30,4.37,4.45,4.53,4.60,4.68,4.76,4.84,4.97,5.35,5.67,6.03,6.39,6.70,7.04,7.41,7.77,8.11,8.47,8.79,9.11,9.45,9.81,10.75,11.12,11.38,12.10,12.90,13.73,14.58,15.39,16.05,16.83,17.60,18.36,19.19,20.33,22.00,23.78,25.38,26.97,28.53,30.23,32.16,34.37,36.56,38.75,41.12,43.83,46.74,49.05,50.46,51.05,51.64,52.17,52.73,53.29,53.76,53.90,54.02,54.15,54.30,54.27,53.96,53.42,52.72,51.94,51.05,49.02,45.63,40.88,36.89,33.12,29.68,26.57,23.56,21.01,18.86,16.96,15.08,13.08
e,e,e,e,e,e,e,e,e,e,e,e,e,e,e,e,e,e,e,e,e,e,e,e,e,e,e,e,e,e,e,e,e,e,e,e,e,e,e,e,e,e,e,e,e,e,e,e,e,e,e,e,e,e,e,e,e,e,e,e,e,e,e,e,e,e,e,e,e,e,e,e,e,e,e,e,e,e,e,e,e,e,e,e,e,e,e,e,e,e,e,e,e,e,e,e,e,e,e,e,e,e,e,e,e,e,e,e,e,e,e,e,e,e,e,e,e,e,e,0.14,0.19,0.22,0.27,0.35,0.43,0.51,0.58,0.66,0.74,0.81,0.88,0.90,0.97,1.04,1.10,1.18,1.26,1.33,1.41,1.49,1.56,1.64,1.69,1.72,1.80,1.88,1.96,2.03,2.11,2.19,2.28,2.37,2.45,2.52,2.60,2.72,2.83,2.91,2.98,3.06,3.14,3.21,3.29,3.37,3.45,3.52,3.60,3.68,3.75,3.83,3.91,3.99,4.06,4.14,4.22,4.30,4.37,4.45,4.53,4.60,4.68,4.76,4.84,4.96,5.33,5.64,5.99,6.33,6.64,6.95,7.30,7.65,7.99,8.35,8.69,9.02,9.36,9.72,10.58,10.93,11.12,11.64,12.62,13.50,14.38,15.27,16.08,16.93,17.76,18.58,19.43,20.85,22.68,24.55,26.22,27.82,29.45,31.23,33.22,35.42,37.59,39.75,42.08,44.75,47.67,49.55,50.67,51.29,51.93,52.45,52.97,53.47,53.93,54.26,54.49,54.68,54.87,54.87,54.59,54.02,53.22,52.36,51.34,49.24,45.76,40.79,36.84,33.03,29.60,26.65,23.98,21.81,19.75,17.71,15.70,13.57
e,e,e,e,e,e,e,e,e,e,e,e,e,e,e,e,e,e,e,e,e,e,e,e,e,e,e,e,e,e,e,e,e,e,e,e,e,e,e,e,e,e,e,e,e,e,e,e,e,e,e,e,e,e,e,e,e,e,e,e,e,e,e,e,e,e,e,e,e,e,e,e,e,e,e,e,e,e,e,e,e,e,e,e,e,e,e,e,e,e,e,e,e,e,e,e,e,e,e,e,e,e,e,e,e,e,e,e,e,e,e,e,e,e,e,e,e,e,e,0.08,0.15,0.20,0.21,0.29,0.36,0.44,0.52,0.60,0.67,0.75,0.83,0.90,0.97,1.00,1.04,1.11,1.19,1.27,1.35,1.42,1.50,1.58,1.65,1.72,1.80,1.88,1.96,2.03,2.11,2.19,2.32,2.43,2.51,2.59,2.67,2.75,2.83,2.91,2.98,3.06,3.14,3.21,3.29,3.37,3.45,3.52,3.60,3.68,3.75,3.83,3.91,3.99,4.06,4.14,4.22,4.30,4.37,4.45,4.53,4.60,4.68,4.76,4.84,4.96,5.27,5.58,5.89,6.21,6.52,6.83,7.14,7.48,7.85,8.17,8.54,8.92,9.28,9.60,10.23,10.99,11.47,11.40,12.68,13.63,14.48,15.35,16.26,17.12,18.01,18.90,19.75,21.41,23.32,25.31,27.24,28.79,30.56,32.45,34.41,36.51,38.67,40.83,43.13,45.71,48.57,50.03,50.86,51.49,52.18,52.79,53.32,53.79,54.25,54.63,54.91,55.11,55.25,55.25,55.05,54.61,53.88,52.82,51.56,49.34,45.77,40.67,36.86,33.13,29.82,27.13,25.04,22.96,20.76,18.49,16.28,14.05
e,e,e,e,e,e,e,e,e,e,e,e,e,e,e,e,e,e,e,e,e,e,e,e,e,e,e,e,e,e,e,e,e,e,e,e,e,e,e,e,e,e,e,e,e,e,e,e,e,e,e,e,e,e,e,e,e,e,e,e,e,e,e,e,e,e,e,e,e,e,e,e,e,e,e,e,e,e,e,e,e,e,e,e,e,e,e,e,e,e,e,e,e,e,e,e,e,e,e,e,e,e,e,e,e,e,e,e,e,e,e,e,e,e,e,e,e,e,e,e,0.09,0.16,0.20,0.23,0.30,0.38,0.45,0.53,0.61,0.69,0.76,0.84,0.92,0.97,1.03,1.11,1.18,1.26,1.34,1.41,1.49,1.57,1.65,1.72,1.80,1.88,1.96,2.03,2.11,2.19,2.29,2.39,2.46,2.54,2.66,2.75,2.83,2.91,2.98,3.06,3.14,3.21,3.29,3.37,3.45,3.52,3.60,3.68,3.75,3.83,3.91,3.99,4.06,4.14,4.22,4.30,4.37,4.45,4.53,4.60,4.68,4.76,4.84,4.94,5.16,5.46,5.75,6.02,6.33,6.68,7.01,7.35,7.72,8.03,8.41,8.77,9.11,9.47,9.91,10.52,11.13,11.57,12.54,13.52,14.52,15.55,16.60,17.51,18.43,19.41,20.51,22.25,24.09,26.02,28.01,29.86,31.74,33.68,35.66,37.66,39.77,41.92,44.17,46.60,49.15,50.36,51.07,51.73,52.38,53.00,53.58,54.12,54.63,54.97,55.21,55.38,55.52,55.48,55.28,54.96,54.38,53.17,51.75,49.44,45.92,41.04,37.21,33.82,30.72,27.90,25.85,23.70,21.32,18.87,16.63,14.64
e,e,e,e,e,e,e,e,e,e,e,e,e,e,e,e,e,e,e,e,e,e,e,e,e,e,e,e,e,e,e,e,e,e,e,e,e,e,e,e,e,e,e,e,e,e,e,e,e,e,e,e,e,e,e,e,e,e,e,e,e,e,e,e,e,e,e,e,e,e,e,e,e,e,e,e,e,e,e,e,e,e,e,e,e,e,e,e,e,e,e,e,e,e,e,e,e,e,e,e,e,e,e,e,e,e,e,e,e,e,e,e,e,e,e,e,e,e,e,e,e,0.10,0.18,0.20,0.26,0.33,0.41,0.49,0.57,0.64,0.72,0.80,0.87,0.95,1.03,1.11,1.18,1.26,1.34,1.41,1.49,1.57,1.65,1.72,1.80,1.88,1.96,2.03,2.11,2.19,2.26,2.34,2.42,2.50,2.63,2.73,2.81,2.89,2.96,3.04,3.12,3.20,3.29,3.37,3.45,3.52,3.60,3.68,3.75,3.83,3.91,3.99,4.06,4.14,4.22,4.30,4.37,4.45,4.53,4.60,4.68,4.76,4.84,4.92,5.05,5.32,5.59,5.85,6.16,6.55,6.88,7.21,7.58,7.90,8.27,8.61,8.95,9.32,9.62,10.06,10.73,11.66,12.45,13.48,14.62,15.77,16.93,17.92,18.86,19.94,21.34,23.11,24.89,26.74,28.72,30.79,32.78,34.78,36.77,38.70,40.81,42.97,45.20,47.49,49.63,50.63,51.29,51.96,52.58,53.18,53.79,54.39,54.93,55.23,55.45,55.63,55.79,55.68,55.47,55.23,54.77,53.51,51.88,49.42,46.00,41.63,37.93,34.81,31.76,28.73,26.63,24.33,21.79,19.23,17.06,15.29
e,e,e,e,e,e,e,e,e,e,e,e,e,e,e,e,e,e,e,e,e,e,e,e,e,e,e,e,e,e,e,e,e,e,e,e,e,e,e,e,e,e,e,e,e,e,e,e,e,e,e,e,e,e,e,e,e,e,e,e,e,e,e,e,e,e,e,e,e,e,e,e,e,e,e,e,e,e,e,e,e,e,e,e,e,e,e,e,e,e,e,e,e,e,e,e,e,e,e,e,e,e,e,e,e,e,e,e,e,e,e,e,e,e,e,e,e,e,e,e,e,0.04,0.12,0.18,0.26,0.33,0.41,0.49,0.57,0.64,0.72,0.80,0.87,0.95,1.03,1.11,1.18,1.26,1.34,1.41,1.49,1.57,1.65,1.72,1.80,1.88,1.96,2.03,2.11,2.19,2.26,2.34,2.42,2.50,2.59,2.67,2.74,2.82,2.90,2.98,3.05,3.14,3.28,3.37,3.45,3.52,3.60,3.68,3.75,3.83,3.91,3.99,4.06,4.14,4.22,4.30,4.37,4.45,4.53,4.60,4.68,4.76,4.84,4.90,4.93,5.15,5.42,5.72,6.03,6.42,6.75,7.07,7.39,7.77,8.10,8.45,8.81,9.13,9.38,9.77,10.43,11.42,12.51,13.68,14.87,16.03,17.19,18.26,19.28,20.47,22.17,23.94,25.72,27.51,29.35,31.37,33.48,35.54,37.53,39.46,41.72,43.96,46.20,48.42,49.97,50.86,51.52,52.15,52.77,53.33,53.92,54.52,55.06,55.31,55.58,55.86,56.10,55.89,55.66,55.40,54.94,53.88,51.90,49.14,45.90,42.54,39.39,36.26,32.93,29.55,27.40,24.84,22.17,19.68,17.76,16.04
e,e,e,e,e,e,e,e,e,e,e,e,e,e,e,e,e,e,e,e,e,e,e,e,e,e,e,e,e,e,e,e,e,e,e,e,e,e,e,e,e,e,e,e,e,e,e,e,e,e,e,e,e,e,e,e,e,e,e,e,e,e,e,e,e,e,e,e,e,e,e,e,e,e,e,e,e,e,e,e,e,e,e,e,e,e,e,e,e,e,e,e,e,e,e,e,e,e,e,e,e,e,e,e,e,e,e,e,e,e,e,e,e,e,e,e,e,e,e,e,e,e,0.05,0.13,0.21,0.29,0.37,0.48,0.57,0.64,0.72,0.80,0.87,0.95,1.03,1.11,1.18,1.26,1.34,1.41,1.49,1.57,1.65,1.72,1.80,1.88,1.96,2.03,2.11,2.19,2.26,2.34,2.42,2.50,2.57,2.65,2.73,2.81,2.88,2.96,3.04,3.12,3.24,3.32,3.40,3.48,3.55,3.63,3.73,3.83,3.91,3.99,4.06,4.14,4.22,4.30,4.37,4.45,4.53,4.60,4.68,4.73,4.79,4.86,4.90,5.07,5.33,5.64,5.95,6.27,6.60,6.93,7.25,7.60,7.91,8.24,8.58,8.89,9.13,9.58,10.33,11.41,12.61,13.83,15.05,16.24,17.40,18.55,19.68,20.94,22.57,24.31,26.03,27.75,29.53,31.65,33.92,36.13,38.22,40.22,42.49,44.74,46.97,49.12,50.18,50.94,51.58,52.20,52.82,53.40,54.02,54.63,55.14,55.45,55.75,56.06,56.32,56.13,55.87,55.58,55.19,54.47,52.42,49.76,46.80,43.82,40.88,37.72,34.27,30.73,28.09,25.46,22.75,20.19,18.23,16.52
e,e,e,e,e,e,e,e,e,e,e,e,e,e,e,e,e,e,e,e,e,e,e,e,e,e,e,e,e,e,e,e,e,e,e,e,e,e,e,e,e,e,e,e,e,e,e,e,e,e,e,e,e,e,e,e,e,e,e,e,e,e,e,e,e,e,e,e,e,e,e,e,e,e,e,e,e,e,e,e,e,e,e,e,e,e,e,e,e,e,e,e,e,e,e,e,e,e,e,e,e,e,e,e,e,e,e,e,e,e,e,e,e,e,e,e,e,e,e,e,e,e,e,e,0.15,0.22,0.31,0.46,0.55,0.63,0.71,0.79,0.86,0.94,1.02,1.09,1.17,1.25,1.33,1.41,1.49,1.57,1.65,1.72,1.80,1.88,1.96,2.03,2.11,2.19,2.26,2.34,2.42,2.50,2.57,2.65,2.73,2.81,2.88,2.96,3.04,3.11,3.19,3.27,3.35,3.42,3.50,3.58,3.70,3.82,3.90,3.98,4.05,4.13,4.21,4.28,4.37,4.45,4.53,4.60,4.67,4.70,4.74,4.81,4.89,5.04,5.29,5.60,5.91,6.16,6.50,6.85,7.17,7.49,7.80,8.11,8.42,8.72,8.97,9.49,10.32,11.45,12.68,13.92,15.15,16.38,17.54,18.77,20.03,21.36,22.83,24.52,26.15,27.79,29.54,31.78,34.21,36.58,38.83,40.94,43.16,45.39,47.60,49.68,50.35,50.97,51.58,52.20,52.82,53.44,54.10,54.73,55.20,55.59,55.93,56.25,56.52,56.38,56.10,55.78,55.45,55.05,53.11,50.70,48.00,45.15,42.28,39.09,35.64,32.04,28.81,26.16,23.41,20.74,18.60,16.90
e,e,e,e,e,e,e,e,e,e,e,e,e,e,e,e,e,e,e,e,e,e,e,e,e,e,e,e,e,e,e,e,e,e,e,e,e,e,e,e,e,e,e,e,e,e,e,e,e,e,e,e,e,e,e,e,e,e,e,e,e,e,e,e,e,e,e,e,e,e,e,e,e,e,e,e,e,e,e,e,e,e,e,e,e,e,e,e,e,e,e,e,e,e,e,e,e,e,e,e,e,e,e,e,e,e,e,e,e,e,e,e,e,e,e,e,e,e,e,e,e,e,e,e,0.08,0.16,0.24,0.34,0.46,0.57,0.64,0.72,0.80,0.88,0.95,1.03,1.11,1.19,1.29,1.41,1.49,1.57,1.65,1.72,1.80,1.88,1.96,2.03,2.11,2.19,2.26,2.34,2.42,2.50,2.57,2.65,2.73,2.81,2.88,2.96,3.04,3.11,3.19,3.27,3.35,3.42,3.50,3.58,3.67,3.76,3.83,3.91,3.99,4.07,4.14,4.22,4.35,4.45,4.53,4.60,4.62,4.67,4.74,4.81,4.89,5.09,5.36,5.67,5.97,6.32,6.66,7.00,7.37,7.73,8.05,8.36,8.67,8.98,9.27,9.75,10.45,11.39,12.57,13.79,15.02,16.26,17.47,18.71,20.08,21.56,23.09,24.73,26.27,27.84,29.54,31.78,34.21,36.71,39.18,41.44,43.63,45.81,47.95,49.93,50.51,51.03,51.58,52.20,52.82,53.49,54.14,54.75,55.27,55.65,56.03,56.39,56.72,56.68,56.38,56.01,55.63,55.18,53.74,51.56,48.91,46.11,43.13,40.07,36.83,33.39,29.82,27.03,24.19,21.36,18.93,17.27
e,e,e,e,e,e,e,e,e,e,e,e,e,e,e,e,e,e,e,e,e,e,e,e,e,e,e,e,e,e,e,e,e,e,e,e,e,e,e,e,e,e,e,e,e,e,e,e,e,e,e,e,e,e,e,e,e,e,e,e,e,e,e,e,e,e,e,e,e,e,e,e,e,e,e,e,e,e,e,e,e,e,e,e,e,e,e,e,e,e,e,e,e,e,e,e,e,e,e,e,e,e,e,e,e,e,e,e,e,e,e,e,e,e,e,e,e,e,e,e,e,e,e,e,e,0.09,0.17,0.25,0.37,0.48,0.58,0.66,0.74,0.81,0.89,0.97,1.04,1.12,1.22,1.34,1.45,1.53,1.61,1.69,1.76,1.84,1.92,1.99,2.07,2.15,2.25,2.34,2.42,2.50,2.57,2.65,2.73,2.81,2.88,2.96,3.04,3.11,3.19,3.27,3.35,3.42,3.50,3.58,3.65,3.73,3.81,3.89,3.96,4.04,4.12,4.20,4.32,4.41,4.49,4.56,4.59,4.68,4.78,4.85,4.93,5.20,5.52,5.85,6.15,6.51,6.85,7.20,7.56,7.95,8.29,8.63,8.96,9.27,9.61,10.10,10.73,11.51,12.55,13.69,14.90,16.14,17.40,18.59,19.89,21.34,22.92,24.54,26.09,27.72,29.55,31.88,34.37,36.94,39.47,41.79,43.99,46.19,48.28,50.10,50.71,51.27,51.81,52.34,52.83,53.50,54.15,54.74,55.25,55.67,56.07,56.48,56.88,56.91,56.58,56.16,55.74,55.27,54.08,52.01,49.37,46.52,43.48,40.46,37.39,34.20,30.76,27.85,24.90,21.95,19.25,17.52
e,e,e,e,e,e,e,e,e,e,e,e,e,e,e,e,e,e,e,e,e,e,e,e,e,e,e,e,e,e,e,e,e,e,e,e,e,e,e,e,e,e,e,e,e,e,e,e,e,e,e,e,e,e,e,e,e,e,e,e,e,e,e,e,e,e,e,e,e,e,e,e,e,e,e,e,e,e,e,e,e,e,e,e,e,e,e,e,e,e,e,e,e,e,e,e,e,e,e,e,e,e,e,e,e,e,e,e,e,e,e,e,e,e,e,e,e,e,e,e,e,e,e,e,e,e,0.11,0.19,0.26,0.38,0.52,0.59,0.67,0.75,0.83,0.90,0.98,1.06,1.14,1.23,1.38,1.47,1.54,1.62,1.70,1.78,1.85,1.93,2.01,2.08,2.23,2.34,2.42,2.49,2.57,2.65,2.73,2.80,2.88,2.96,3.04,3.11,3.19,3.27,3.35,3.42,3.50,3.58,3.65,3.73,3.81,3.89,3.96,4.04,4.12,4.20,4.27,4.35,4.43,4.51,4.58,4.72,4.84,4.92,5.00,5.35,5.73,6.10,6.41,6.72,7.08,7.44,7.75,8.14,8.53,8.91,9.28,9.60,9.98,10.52,11.14,11.77,12.61,13.63,14.77,16.01,17.32,18.43,19.55,20.84,22.46,24.09,25.72,27.51,29.58,32.05,34.65,37.23,39.73,42.05,44.29,46.53,48.59,50.25,50.95,51.65,52.20,52.57,52.87,53.51,54.15,54.73,55.19,55.66,56.07,56.52,57.02,57.09,56.73,56.27,55.80,55.34,54.22,52.19,49.51,46.56,43.47,40.44,37.50,34.62,31.62,28.62,25.56,22.51,19.57,17.69
e,e,e,e,e,e,e,e,e,e,e,e,e,e,e,e,e,e,e,e,e,e,e,e,e,e,e,e,e,e,e,e,e,e,e,e,e,e,e,e,e,e,e,e,e,e,e,e,e,e,e,e,e,e,e,e,e,e,e,e,e,e,e,e,e,e,e,e,e,e,e,e,e,e,e,e,e,e,e,e,e,e,e,e,e,e,e,e,e,e,e,e,e,e,e,e,e,e,e,e,e,e,e,e,e,e,e,e,e,e,e,e,e,e,e,e,e,e,e,e,e,e,e,e,e,e,0.04,0.12,0.20,0.29,0.40,0.53,0.61,0.68,0.76,0.84,0.92,0.99,1.07,1.15,1.26,1.38,1.48,1.56,1.63,1.71,1.79,1.87,1.94,2.02,2.16,2.28,2.35,2.43,2.51,2.58,2.66,2.74,2.82,2.89,3.00,3.11,3.19,3.27,3.35,3.42,3.50,3.58,3.65,3.73,3.81,3.89,3.96,4.04,4.12,4.20,4.27,4.35,4.45,4.57,4.65,4.78,4.90,5.01,5.24,5.56,5.93,6.30,6.66,6.97,7.34,7.69,8.01,8.40,8.78,9.17,9.56,9.97,10.50,11.09,11.71,12.34,13.08,13.85,14.74,15.80,16.96,18.00,19.08,20.30,21.82,23.60,25.55,27.64,29.84,32.36,34.93,37.49,39.99,42.30,44.55,46.82,48.95,50.70,51.50,52.26,52.82,53.11,53.22,53.61,54.12,54.68,55.19,55.76,56.27,56.78,57.27,57.35,56.95,56.44,55.92,55.41,54.06,51.90,49.14,46.05,42.85,39.87,37.08,34.42,31.77,28.98,25.93,22.74,19.70,17.72
e,e,e,e,e,e,e,e,e,e,e,e,e,e,e,e,e,e,e,e,e,e,e,e,e,e,e,e,e,e,e,e,e,e,e,e,e,e,e,e,e,e,e,e,e,e,e,e,e,e,e,e,e,e,e,e,e,e,e,e,e,e,e,e,e,e,e,e,e,e,e,e,e,e,e,e,e,e,e,e,e,e,e,e,e,e,e,e,e,e,e,e,e,e,e,e,e,e,e,e,e,e,e,e,e,e,e,e,e,e,e,e,e,e,e,e,e,e,e,e,e,e,e,e,e,e,e,e,0.13,0.21,0.30,0.43,0.54,0.62,0.70,0.78,0.85,0.93,1.01,1.08,1.16,1.29,1.40,1.49,1.57,1.65,1.73,1.80,1.88,1.96,2.08,2.19,2.29,2.37,2.44,2.52,2.60,2.68,2.75,2.83,2.93,3.06,3.16,3.24,3.32,3.39,3.47,3.55,3.62,3.70,3.78,3.86,3.95,4.04,4.12,4.20,4.27,4.37,4.48,4.61,4.71,4.85,5.01,5.21,5.51,5.82,6.16,6.53,6.89,7.22,7.58,7.93,8.26,8.63,9.01,9.39,9.81,10.35,10.96,11.58,12.20,12.85,13.52,14.15,14.88,15.76,16.75,17.67,18.66,19.85,21.34,23.30,25.49,27.78,30.11,32.75,35.33,37.89,40.38,42.62,44.89,47.18,49.32,51.07,52.06,52.86,53.41,53.67,53.67,53.88,54.20,54.63,55.19,55.81,56.39,56.96,57.50,57.58,57.14,56.57,56.01,55.44,53.80,51.48,48.65,45.50,42.28,39.40,36.76,34.30,31.89,29.21,26.16,22.91,19.80,17.79
e,e,e,e,e,e,e,e,e,e,e,e,e,e,e,e,e,e,e,e,e,e,e,e,e,e,e,e,e,e,e,e,e,e,e,e,e,e,e,e,e,e,e,e,e,e,e,e,e,e,e,e,e,e,e,e,e,e,e,e,e,e,e,e,e,e,e,e,e,e,e,e,e,e,e,e,e,e,e,e,e,e,e,e,e,e,e,e,e,e,e,e,e,e,e,e,e,e,e,e,e,e,e,e,e,e,e,e,e,e,e,e,e,e,e,e,e,e,e,e,e,e,e,e,e,e,e,e,0.07,0.15,0.23,0.31,0.46,0.56,0.63,0.71,0.79,0.87,0.94,1.02,1.10,1.18,1.30,1.43,1.51,1.58,1.66,1.74,1.82,1.89,1.97,2.09,2.22,2.30,2.38,2.46,2.53,2.61,2.69,2.77,2.85,2.94,3.09,3.17,3.25,3.33,3.41,3.48,3.56,3.64,3.72,3.79,3.93,4.04,4.12,4.20,4.27,4.40,4.52,4.61,4.76,4.91,5.17,5.52,5.83,6.14,6.45,6.77,7.08,7.46,7.80,8.14,8.51,8.83,9.20,9.59,10.04,10.72,11.34,11.96,12.60,13.29,13.91,14.53,15.19,15.92,16.71,17.43,18.32,19.48,21.02,23.23,25.56,27.95,30.38,33.22,35.88,38.47,40.92,43.02,45.31,47.63,49.72,51.34,52.62,53.47,53.99,54.25,54.25,54.33,54.38,54.58,55.19,55.81,56.42,57.07,57.69,57.77,57.29,56.67,56.06,55.45,53.44,50.91,48.03,44.93,41.76,39.04,36.58,34.26,32.00,29.30,26.25,23.03,19.87,17.90
e,e,e,e,e,e,e,e,e,e,e,e,e,e,e,e,e,e,e,e,e,e,e,e,e,e,e,e,e,e,e,e,e,e,e,e,e,e,e,e,e,e,e,e,e,e,e,e,e,e,e,e,e,e,e,e,e,e,e,e,e,e,e,e,e,e,e,e,e,e,e,e,e,e,e,e,e,e,e,e,e,e,e,e,e,e,e,e,e,e,e,e,e,e,e,e,e,e,e,e,e,e,e,e,e,e,e,e,e,e,e,e,e,e,e,e,e,e,e,e,e,e,e,e,e,e,e,e,e,0.08,0.16,0.24,0.35,0.47,0.57,0.65,0.73,0.80,0.88,0.96,1.03,1.11,1.24,1.37,1.44,1.52,1.60,1.67,1.75,1.83,1.91,2.00,2.11,2.24,2.32,2.39,2.47,2.55,2.62,2.70,2.78,2.86,2.97,3.09,3.19,3.27,3.34,3.42,3.50,3.59,3.71,3.84,3.95,4.06,4.18,4.25,4.33,4.46,4.60,4.72,4.83,5.08,5.39,5.74,6.09,6.40,6.71,7.02,7.33,7.67,8.02,8.37,8.71,9.07,9.45,9.88,10.41,11.10,11.73,12.37,13.03,13.68,14.30,14.95,15.63,16.33,17.06,17.76,18.55,19.58,20.99,23.31,25.65,28.00,30.41,33.32,36.14,38.83,41.34,43.56,45.83,48.08,50.07,51.60,53.00,54.00,54.60,54.83,54.87,54.87,54.86,54.99,55.42,56.04,56.69,57.36,57.98,57.88,57.25,56.57,55.94,55.28,52.57,49.98,47.48,44.83,41.88,39.43,37.06,34.53,31.84,29.04,26.13,23.10,19.93,17.97
e,e,e,e,e,e,e,e,e,e,e,e,e,e,e,e,e,e,e,e,e,e,e,e,e,e,e,e,e,e,e,e,e,e,e,e,e,e,e,e,e,e,e,e,e,e,e,e,e,e,e,e,e,e,e,e,e,e,e,e,e,e,e,e,e,e,e,e,e,e,e,e,e,e,e,e,e,e,e,e,e,e,e,e,e,e,e,e,e,e,e,e,e,e,e,e,e,e,e,e,e,e,e,e,e,e,e,e,e,e,e,e,e,e,e,e,e,e,e,e,e,e,e,e,e,e,e,e,e,e,0.10,0.18,0.25,0.38,0.51,0.58,0.66,0.74,0.82,0.89,0.97,1.05,1.16,1.29,1.38,1.46,1.53,1.61,1.69,1.77,1.84,1.92,2.01,2.15,2.25,2.33,2.41,2.48,2.56,2.64,2.72,2.81,2.89,3.04,3.16,3.24,3.32,3.42,3.50,3.61,3.76,3.90,4.00,4.13,4.26,4.34,4.40,4.52,4.67,4.81,4.92,5.25,5.62,5.95,6.32,6.65,6.97,7.28,7.59,7.90,8.26,8.61,8.93,9.30,9.71,10.20,10.79,11.49,12.12,12.79,13.44,14.06,14.70,15.38,16.07,16.77,17.46,18.16,18.89,19.81,21.14,23.44,25.71,27.96,30.28,33.17,36.09,38.88,41.46,43.76,46.06,48.34,50.35,51.83,53.32,54.48,55.19,55.45,55.53,55.49,55.46,55.54,55.81,56.39,57.01,57.66,58.26,58.03,57.29,56.52,55.83,55.07,51.99,49.39,47.15,44.84,42.16,39.88,37.45,34.61,31.51,28.67,25.89,23.05,19.95,18.07
e,e,e,e,e,e,e,e,e,e,e,e,e,e,e,e,e,e,e,e,e,e,e,e,e,e,e,e,e,e,e,e,e,e,e,e,e,e,e,e,e,e,e,e,e,e,e,e,e,e,e,e,e,e,e,e,e,e,e,e,e,e,e,e,e,e,e,e,e,e,e,e,e,e,e,e,e,e,e,e,e,e,e,e,e,e,e,e,e,e,e,e,e,e,e,e,e,e,e,e,e,e,e,e,e,e,e,e,e,e,e,e,e,e,e,e,e,e,e,e,e,e,e,e,e,e,e,e,e,e,0.03,0.11,0.19,0.32,0.44,0.52,0.60,0.67,0.75,0.83,0.91,0.98,1.07,1.17,1.32,1.39,1.47,1.55,1.62,1.70,1.78,1.86,1.94,2.02,2.17,2.27,2.34,2.42,2.50,2.57,2.68,2.81,2.89,3.04,3.19,3.31,3.39,3.53,3.63,3.74,3.88,3.97,4.10,4.25,4.39,4.47,4.48,4.59,4.72,4.81,5.02,5.42,5.83,6.20,6.52,6.89,7.22,7.53,7.84,8.15,8.51,8.87,9.18,9.50,9.98,10.55,11.17,11.87,12.55,13.20,13.83,14.45,15.13,15.83,16.52,17.22,17.91,18.61,19.31,20.21,21.59,23.65,25.70,27.76,29.88,32.62,35.52,38.36,41.01,43.26,45.68,48.24,50.49,52.03,53.56,54.85,55.73,56.15,56.23,56.23,56.23,56.28,56.45,56.93,57.38,57.92,58.52,58.29,57.50,56.64,55.79,54.83,52.05,49.52,47.23,44.98,42.59,40.28,37.55,34.25,30.91,28.16,25.50,22.78,19.88,18.25
e,e,e,e,e,e,e,e,e,e,e,e,e,e,e,e,e,e,e,e,e,e,e,e,e,e,e,e,e,e,e,e,e,e,e,e,e,e,e,e,e,e,e,e,e,e,e,e,e,e,e,e,e,e,e,e,e,e,e,e,e,e,e,e,e,e,e,e,e,e,e,e,e,e,e,e,e,e,e,e,e,e,e,e,e,e,e,e,e,e,e,e,e,e,e,e,e,e,e,e,e,e,e,e,e,e,e,e,e,e,e,e,e,e,e,e,e,e,e,e,e,e,e,e,e,e,e,e,e,e,e,e,0.12,0.23,0.34,0.46,0.53,0.61,0.69,0.77,0.84,0.92,1.00,1.09,1.20,1.32,1.41,1.48,1.56,1.64,1.72,1.81,1.92,2.00,2.15,2.25,2.34,2.45,2.53,2.64,2.77,2.91,2.99,3.14,3.27,3.38,3.50,3.65,3.75,3.86,4.01,4.09,4.23,4.36,4.47,4.55,4.55,4.62,4.74,4.87,5.14,5.55,5.98,6.37,6.75,7.14,7.48,7.79,8.10,8.41,8.77,9.12,9.44,9.78,10.32,10.92,11.56,12.25,12.95,13.59,14.22,14.88,15.58,16.24,16.92,17.61,18.31,19.00,19.83,20.88,22.23,23.89,25.59,27.32,29.17,31.65,34.50,37.35,40.06,42.49,45.03,47.70,50.14,51.97,53.56,54.91,55.97,56.69,56.96,57.03,57.04,57.06,57.14,57.56,57.96,58.41,58.87,58.64,57.97,57.22,56.35,55.00,52.65,50.28,47.92,45.44,42.86,40.39,37.56,34.25,31.00,28.25,25.48,22.59,19.62,18.30
e,e,e,e,e,e,e,e,e,e,e,e,e,e,e,e,e,e,e,e,e,e,e,e,e,e,e,e,e,e,e,e,e,e,e,e,e,e,e,e,e,e,e,e,e,e,e,e,e,e,e,e,e,e,e,e,e,e,e,e,e,e,e,e,e,e,e,e,e,e,e,e,e,e,e,e,e,e,e,e,e,e,e,e,e,e,e,e,e,e,e,e,e,e,e,e,e,e,e,e,e,e,e,e,e,e,e,e,e,e,e,e,e,e,e,e,e,e,e,e,e,e,e,e,e,e,e,e,e,e,e,e,e,0.14,0.24,0.38,0.47,0.55,0.62,0.70,0.78,0.86,0.93,1.01,1.10,1.25,1.35,1.44,1.52,1.60,1.69,1.80,1.93,2.02,2.17,2.28,2.38,2.53,2.61,2.75,2.90,3.03,3.12,3.26,3.37,3.47,3.63,3.77,3.88,3.99,4.14,4.21,4.35,4.47,4.54,4.61,4.61,4.66,4.77,4.93,5.25,5.68,6.11,6.51,6.97,7.38,7.73,8.04,8.35,8.66,9.02,9.37,9.71,10.17,10.78,11.39,12.00,12.66,13.34,13.98,14.62,15.32,16.01,16.66,17.32,18.01,18.71,19.40,20.35,21.54,22.85,24.17,25.54,26.98,28.55,30.62,33.31,36.12,38.84,41.46,44.12,46.93,49.61,51.82,53.49,54.89,56.11,57.13,57.69,57.83,57.87,57.86,57.85,58.22,58.59,58.96,59.25,59.04,58.55,57.93,57.04,55.30,53.34,51.15,48.70,45.98,43.08,40.38,37.52,34.39,31.31,28.53,25.47,22.26,19.31,18.27
e,e,e,e,e,e,e,e,e,e,e,e,e,e,e,e,e,e,e,e,e,e,e,e,e,e,e,e,e,e,e,e,e,e,e,e,e,e,e,e,e,e,e,e,e,e,e,e,e,e,e,e,e,e,e,e,e,e,e,e,e,e,e,e,e,e,e,e,e,e,e,e,e,e,e,e,e,e,e,e,e,e,e,e,e,e,e,e,e,e,e,e,e,e,e,e,e,e,e,e,e,e,e,e,e,e,e,e,e,e,e,e,e,e,e,e,e,e,e,e,e,e,e,e,e,e,e,e,e,e,e,e,e,0.07,0.16,0.26,0.39,0.48,0.56,0.64,0.71,0.79,0.87,0.97,1.10,1.20,1.32,1.46,1.59,1.66,1.79,1.91,2.01,2.15,2.30,2.40,2.51,2.66,2.74,2.87,3.00,3.10,3.24,3.39,3.50,3.60,3.75,3.85,3.97,4.12,4.26,4.34,4.48,4.60,4.66,4.68,4.68,4.73,4.83,5.00,5.37,5.81,6.24,6.64,7.10,7.55,7.95,8.30,8.61,8.92,9.24,9.58,10.01,10.87,11.63,12.21,12.67,13.18,13.76,14.36,15.00,15.70,16.39,17.08,17.76,18.46,19.15,19.85,20.74,21.86,23.17,24.49,25.85,27.24,28.59,29.82,32.00,34.53,37.17,39.74,42.58,45.81,48.97,51.58,53.44,54.89,56.18,57.39,58.39,58.64,58.67,58.61,58.55,58.87,59.20,59.45,59.58,59.53,59.26,58.66,57.57,55.64,53.80,51.66,49.19,46.42,43.32,40.28,37.42,34.71,31.68,28.78,25.07,21.30,19.04,18.01
e,e,e,e,e,e,e,e,e,e,e,e,e,e,e,e,e,e,e,e,e,e,e,e,e,e,e,e,e,e,e,e,e,e,e,e,e,e,e,e,e,e,e,e,e,e,e,e,e,e,e,e,e,e,e,e,e,e,e,e,e,e,e,e,e,e,e,e,e,e,e,e,e,e,e,e,e,e,e,e,e,e,e,e,e,e,e,e,e,e,e,e,e,e,e,e,e,e,e,e,e,e,e,e,e,e,e,e,e,e,e,e,e,e,e,e,e,e,e,e,e,e,e,e,e,e,e,e,e,e,e,e,e,e,0.10,0.21,0.33,0.44,0.54,0.62,0.73,0.81,0.91,1.03,1.18,1.26,1.39,1.53,1.65,1.76,1.91,2.02,2.12,2.27,2.40,2.51,2.64,2.79,2.86,3.00,3.12,3.21,3.36,3.49,3.61,3.73,3.88,3.96,4.09,4.23,4.35,4.46,4.58,4.68,4.74,4.74,4.74,4.79,4.92,5.15,5.57,5.99,6.40,6.80,7.23,7.69,8.11,8.49,8.86,9.17,9.48,9.93,10.61,11.61,12.50,13.13,13.55,13.99,14.49,14.99,15.52,16.12,16.79,17.47,18.17,18.87,19.60,20.29,21.11,22.10,23.29,24.60,25.97,27.25,28.35,29.25,30.77,33.01,35.74,38.42,41.39,44.91,48.42,51.28,53.22,54.85,56.33,57.70,58.92,59.49,59.63,59.53,59.46,59.79,60.26,60.89,61.56,61.34,60.90,59.93,58.38,56.41,54.27,51.89,49.22,46.20,42.94,39.80,36.92,34.30,31.54,28.27,24.21,20.40,18.77,17.76
e,e,e,e,e,e,e,e,e,e,e,e,e,e,e,e,e,e,e,e,e,e,e,e,e,e,e,e,e,e,e,e,e,e,e,e,e,e,e,e,e,e,e,e,e,e,e,e,e,e,e,e,e,e,e,e,e,e,e,e,e,e,e,e,e,e,e,e,e,e,e,e,e,e,e,e,e,e,e,e,e,e,e,e,e,e,e,e,e,e,e,e,e,e,e,e,e,e,e,e,e,e,e,e,e,e,e,e,e,e,e,e,e,e,e,e,e,e,e,e,e,e,e,e,e,e,e,e,e,e,e,e,e,e,0.06,0.21,0.29,0.43,0.54,0.64,0.79,0.88,1.00,1.16,1.31,1.39,1.52,1.64,1.73,1.88,2.04,2.15,2.25,2.40,2.48,2.61,2.76,2.91,2.99,3.13,3.25,3.34,3.49,3.58,3.70,3.85,4.01,4.09,4.22,4.34,4.43,4.58,4.67,4.74,4.80,4.80,4.80,4.86,5.03,5.35,5.81,6.22,6.61,6.99,7.38,7.83,8.25,8.65,9.11,9.43,9.76,10.37,11.37,12.38,13.38,14.11,14.56,14.95,15.41,15.76,16.12,16.58,17.20,17.86,18.55,19.26,20.03,20.74,21.49,22.33,23.32,24.61,25.95,27.12,27.97,28.82,29.67,31.59,34.49,37.33,40.39,44.10,47.86,50.94,52.85,54.72,56.44,57.98,59.35,60.37,60.77,60.75,60.75,61.19,61.90,63.07,64.54,64.02,63.15,61.54,59.35,57.37,54.70,51.92,48.95,45.62,42.22,39.11,36.21,33.48,31.07,27.32,23.10,19.59,18.51,17.50
e,e,e,e,e,e,e,e,e,e,e,e,e,e,e,e,e,e,e,e,e,e,e,e,e,e,e,e,e,e,e,e,e,e,e,e,e,e,e,e,e,e,e,e,e,e,e,e,e,e,e,e,e,e,e,e,e,e,e,e,e,e,e,e,e,e,e,e,e,e,e,e,e,e,e,e,e,e,e,e,e,e,e,e,e,e,e,e,e,e,e,e,e,e,e,e,e,e,e,e,e,e,e,e,e,e,e,e,e,e,e,e,e,e,e,e,e,e,e,e,e,e,e,e,e,e,e,e,e,e,e,e,e,e,0.06,0.21,0.40,0.52,0.63,0.77,0.92,1.01,1.13,1.27,1.37,1.50,1.65,1.77,1.86,2.01,2.12,2.24,2.38,2.53,2.61,2.74,2.87,2.98,3.11,3.26,3.37,3.47,3.62,3.71,3.83,3.97,4.07,4.20,4.35,4.47,4.56,4.71,4.76,4.78,4.81,4.87,4.87,4.99,5.23,5.60,6.07,6.51,6.92,7.31,7.70,8.10,8.50,8.89,9.31,9.67,10.29,11.13,12.14,13.14,14.15,14.95,15.53,15.97,16.38,16.66,16.92,17.28,17.79,18.36,18.95,19.58,20.41,21.21,22.03,22.84,23.64,24.68,25.75,26.75,27.65,28.56,29.42,31.16,33.75,36.45,39.22,42.73,46.59,50.22,51.89,53.66,55.53,57.53,59.63,61.27,62.88,64.37,65.46,66.79,67.50,68.00,68.52,68.25,66.36,63.54,60.34,57.62,54.57,51.51,48.34,44.91,41.51,38.48,35.63,32.86,30.15,26.11,22.26,19.40,18.32,17.31
e,e,e,e,e,e,e,e,e,e,e,e,e,e,e,e,e,e,e,e,e,e,e,e,e,e,e,e,e,e,e,e,e,e,e,e,e,e,e,e,e,e,e,e,e,e,e,e,e,e,e,e,e,e,e,e,e,e,e,e,e,e,e,e,e,e,e,e,e,e,e,e,e,e,e,e,e,e,e,e,e,e,e,e,e,e,e,e,e,e,e,e,e,e,e,e,e,e,e,e,e,e,e,e,e,e,e,e,e,e,e,e,e,e,e,e,e,e,e,e,e,e,e,e,e,e,e,e,e,e,e,e,e,e,e,0.18,0.42,0.55,0.68,0.83,1.01,1.12,1.24,1.36,1.43,1.59,1.74,1.88,1.98,2.11,2.22,2.35,2.50,2.63,2.73,2.87,2.99,3.08,3.23,3.36,3.48,3.59,3.75,3.83,3.96,4.09,4.17,4.32,4.46,4.58,4.68,4.81,4.83,4.83,4.86,4.96,5.04,5.23,5.53,5.92,6.36,6.80,7.22,7.63,8.02,8.40,8.79,9.18,9.56,10.15,11.03,12.00,12.93,13.91,14.91,15.79,16.49,16.96,17.32,17.55,17.75,18.04,18.48,18.98,19.52,20.12,20.92,21.75,22.57,23.37,24.09,24.94,25.79,26.65,27.53,28.46,29.34,30.99,33.41,35.99,38.56,41.81,45.43,48.91,50.78,52.60,54.55,56.69,59.02,61.02,63.36,65.80,67.80,69.61,70.38,70.59,70.64,70.41,67.94,64.39,60.55,57.54,54.43,51.29,48.02,44.50,41.03,37.82,34.80,31.91,29.28,25.38,21.91,19.46,18.48,17.55
e,e,e,e,e,e,e,e,e,e,e,e,e,e,e,e,e,e,e,e,e,e,e,e,e,e,e,e,e,e,e,e,e,e,e,e,e,e,e,e,e,e,e,e,e,e,e,e,e,e,e,e,e,e,e,e,e,e,e,e,e,e,e,e,e,e,e,e,e,e,e,e,e,e,e,e,e,e,e,e,e,e,e,e,e,e,e,e,e,e,e,e,e,e,e,e,e,e,e,e,e,e,e,e,e,e,e,e,e,e,e,e,e,e,e,e,e,e,e,e,e,e,e,e,e,e,e,e,e,e,e,e,e,e,e,0.12,0.35,0.52,0.68,0.84,1.07,1.23,1.34,1.42,1.50,1.65,1.81,1.96,2.10,2.18,2.32,2.48,2.61,2.69,2.84,2.99,3.12,3.20,3.36,3.45,3.57,3.72,3.88,3.96,4.08,4.22,4.29,4.45,4.55,4.66,4.80,4.88,4.90,4.90,4.93,5.08,5.30,5.58,5.91,6.30,6.69,7.08,7.50,7.95,8.34,8.72,9.11,9.49,9.88,10.86,11.96,12.96,13.76,14.69,15.68,16.64,17.45,17.91,18.24,18.45,18.63,18.87,19.26,19.71,20.24,20.87,21.57,22.34,23.12,23.89,24.66,25.36,26.07,26.80,27.60,28.52,29.45,31.10,33.45,35.93,38.41,41.34,44.36,47.03,49.54,51.56,53.48,55.50,57.52,59.66,62.25,65.12,67.85,69.72,70.61,70.91,70.94,70.57,67.95,64.12,60.01,57.14,54.27,51.26,47.99,44.37,40.74,37.14,33.70,30.64,28.45,25.12,22.02,19.77,18.99,18.21
e,e,e,e,e,e,e,e,e,e,e,e,e,e,e,e,e,e,e,e,e,e,e,e,e,e,e,e,e,e,e,e,e,e,e,e,e,e,e,e,e,e,e,e,e,e,e,e,e,e,e,e,e,e,e,e,e,e,e,e,e,e,e,e,e,e,e,e,e,e,e,e,e,e,e,e,e,e,e,e,e,e,e,e,e,e,e,e,e,e,e,e,e,e,e,e,e,e,e,e,e,e,e,e,e,e,e,e,e,e,e,e,e,e,e,e,e,e,e,e,e,e,e,e,e,e,e,e,e,e,e,e,e,e,e,0.06,0.29,0.46,0.61,0.78,1.02,1.18,1.34,1.50,1.62,1.78,1.93,2.07,2.17,2.25,2.39,2.52,2.63,2.75,2.91,3.06,3.19,3.27,3.43,3.56,3.69,3.84,3.95,4.07,4.21,4.34,4.42,4.58,4.68,4.82,5.06,5.18,5.24,5.29,5.37,5.57,5.80,6.05,6.34,6.68,7.07,7.42,7.82,8.27,8.65,9.04,9.43,9.94,10.74,11.79,12.92,13.99,14.94,15.82,16.65,17.53,18.35,18.81,19.13,19.40,19.71,20.14,20.80,21.42,22.01,22.55,22.92,23.35,23.91,24.58,25.35,26.10,26.74,27.39,28.13,28.91,30.23,32.17,34.63,37.24,39.59,42.04,44.41,46.47,48.51,50.41,52.57,55.10,57.72,60.18,62.77,65.37,67.68,69.59,70.47,70.75,70.75,70.09,66.25,62.06,58.54,55.96,53.38,50.62,47.66,44.48,40.90,36.52,32.54,29.57,27.59,24.73,22.40,20.86,20.04,19.09
e,e,e,e,e,e,e,e,e,e,e,e,e,e,e,e,e,e,e,e,e,e,e,e,e,e,e,e,e,e,e,e,e,e,e,e,e,e,e,e,e,e,e,e,e,e,e,e,e,e,e,e,e,e,e,e,e,e,e,e,e,e,e,e,e,e,e,e,e,e,e,e,e,e,e,e,e,e,e,e,e,e,e,e,e,e,e,e,e,e,e,e,e,e,e,e,e,e,e,e,e,e,e,e,e,e,e,e,e,e,e,e,e,e,e,e,e,e,e,e,e,e,e,e,e,e,e,e,e,e,e,e,e,e,e,e,e,0.40,0.56,0.74,0.95,1.11,1.32,1.52,1.68,1.85,2.01,2.14,2.24,2.35,2.49,2.59,2.69,2.84,2.98,3.11,3.23,3.33,3.49,3.63,3.77,3.92,4.01,4.16,4.32,4.45,4.52,4.68,4.81,5.00,5.30,5.51,5.64,5.73,5.84,6.06,6.29,6.52,6.78,7.09,7.46,7.78,8.15,8.59,8.97,9.36,9.84,10.55,11.63,12.73,13.87,15.00,16.06,16.97,17.73,18.57,19.42,20.03,20.46,20.88,21.34,21.90,22.71,23.32,23.87,24.34,24.50,24.66,24.93,25.38,26.06,26.83,27.47,28.07,28.73,29.57,31.37,33.67,36.21,38.68,40.66,42.53,44.27,45.84,47.52,49.29,51.57,54.50,57.92,61.00,63.82,66.29,68.24,69.72,70.35,70.46,70.18,68.39,63.93,59.87,56.93,54.54,52.16,49.68,47.10,44.38,41.01,36.08,31.67,28.73,26.91,24.68,23.07,22.00,20.96,19.68
e,e,e,e,e,e,e,e,e,e,e,e,e,e,e,e,e,e,e,e,e,e,e,e,e,e,e,e,e,e,e,e,e,e,e,e,e,e,e,e,e,e,e,e,e,e,e,e,e,e,e,e,e,e,e,e,e,e,e,e,e,e,e,e,e,e,e,e,e,e,e,e,e,e,e,e,e,e,e,e,e,e,e,e,e,e,e,e,e,e,e,e,e,e,e,e,e,e,e,e,e,e,e,e,e,e,e,e,e,e,e,e,e,e,e,e,e,e,e,e,e,e,e,e,e,e,e,e,e,e,e,e,e,e,e,e,e,0.33,0.52,0.73,0.90,1.05,1.25,1.46,1.62,1.84,2.01,2.16,2.32,2.53,2.64,2.72,2.81,2.97,3.06,3.14,3.25,3.40,3.55,3.65,3.77,3.93,4.07,4.23,4.38,4.51,4.59,4.74,4.94,5.19,5.51,5.86,6.10,6.24,6.34,6.51,6.73,6.96,7.22,7.53,7.85,8.16,8.51,8.91,9.29,9.68,10.42,11.45,12.53,13.68,14.83,15.96,17.04,18.09,18.96,19.84,20.79,21.79,22.53,23.24,23.90,24.45,25.16,25.45,25.78,26.26,26.41,26.40,26.30,26.33,26.76,27.53,28.24,28.84,29.41,30.65,33.04,35.78,38.37,40.19,41.39,42.54,43.70,44.95,46.58,48.22,50.40,53.46,57.97,62.14,65.59,68.22,70.03,70.29,70.30,70.01,69.04,64.73,60.78,57.64,55.21,52.82,50.48,48.30,46.16,43.89,41.01,35.95,31.28,28.23,26.51,25.23,24.20,23.14,21.61,19.79
e,e,e,e,e,e,e,e,e,e,e,e,e,e,e,e,e,e,e,e,e,e,e,e,e,e,e,e,e,e,e,e,e,e,e,e,e,e,e,e,e,e,e,e,e,e,e,e,e,e,e,e,e,e,e,e,e,e,e,e,e,e,e,e,e,e,e,e,e,e,e,e,e,e,e,e,e,e,e,e,e,e,e,e,e,e,e,e,e,e,e,e,e,e,e,e,e,e,e,e,e,e,e,e,e,e,e,e,e,e,e,e,e,e,e,e,e,e,e,e,e,e,e,e,e,e,e,e,e,e,e,e,e,e,e,e,e,0.30,0.49,0.68,0.83,0.99,1.19,1.40,1.55,1.78,1.96,2.11,2.28,2.51,2.65,2.78,2.94,3.10,3.21,3.31,3.40,3.51,3.67,3.76,3.86,3.97,4.09,4.24,4.39,4.54,4.65,4.85,5.10,5.40,5.75,6.10,6.41,6.66,6.85,7.00,7.23,7.46,7.71,7.98,8.29,8.60,8.92,9.28,9.66,10.33,11.28,12.39,13.47,14.63,15.79,16.92,18.00,19.12,20.28,21.41,22.49,23.53,24.58,25.50,26.32,27.05,27.62,27.73,27.83,28.02,27.90,27.71,27.54,27.50,27.72,28.33,29.09,30.19,31.74,33.38,35.84,38.11,39.85,41.03,42.01,43.03,44.10,45.23,46.57,47.91,49.51,51.98,57.33,62.86,67.01,69.53,70.59,70.45,70.13,68.84,66.03,61.76,58.42,55.60,53.10,50.82,48.69,46.70,44.76,42.78,40.43,35.97,31.64,28.65,27.27,26.21,24.73,22.88,21.02,19.13
e,e,e,e,e,e,e,e,e,e,e,e,e,e,e,e,e,e,e,e,e,e,e,e,e,e,e,e,e,e,e,e,e,e,e,e,e,e,e,e,e,e,e,e,e,e,e,e,e,e,e,e,e,e,e,e,e,e,e,e,e,e,e,e,e,e,e,e,e,e,e,e,e,e,e,e,e,e,e,e,e,e,e,e,e,e,e,e,e,e,e,e,e,e,e,e,e,e,e,e,e,e,e,e,e,e,e,e,e,e,e,e,e,e,e,e,e,e,e,e,e,e,e,e,e,e,e,e,e,e,e,e,e,e,e,e,e,0.27,0.48,0.63,0.78,0.94,1.14,1.35,1.50,1.72,1.90,2.06,2.23,2.45,2.61,2.81,3.02,3.18,3.33,3.45,3.55,3.64,3.80,3.89,3.97,4.06,4.14,4.27,4.42,4.58,4.75,4.98,5.27,5.62,5.99,6.31,6.67,7.02,7.30,7.48,7.72,7.96,8.19,8.44,8.74,9.04,9.36,9.72,10.21,11.15,12.23,13.35,14.41,15.57,16.73,17.87,18.99,20.19,21.62,22.99,24.21,25.27,26.55,27.68,28.72,29.74,30.26,30.30,30.17,29.98,29.51,29.14,28.97,28.98,29.13,29.77,30.64,32.22,34.66,36.42,38.55,40.12,41.03,41.75,42.65,43.63,44.66,45.68,46.70,47.76,48.83,50.68,56.44,63.09,67.90,70.42,70.81,70.50,69.71,67.30,62.83,59.19,56.36,53.66,51.02,48.84,46.89,45.01,43.19,41.43,39.57,36.05,32.40,29.57,28.29,27.08,24.92,22.24,20.13,18.27
e,e,e,e,e,e,e,e,e,e,e,e,e,e,e,e,e,e,e,e,e,e,e,e,e,e,e,e,e,e,e,e,e,e,e,e,e,e,e,e,e,e,e,e,e,e,e,e,e,e,e,e,e,e,e,e,e,e,e,e,e,e,e,e,e,e,e,e,e,e,e,e,e,e,e,e,e,e,e,e,e,e,e,e,e,e,e,e,e,e,e,e,e,e,e,e,e,e,e,e,e,e,e,e,e,e,e,e,e,e,e,e,e,e,e,e,e,e,e,e,e,e,e,e,e,e,e,e,e,e,e,e,e,e,e,e,e,0.25,0.48,0.63,0.78,0.94,1.14,1.35,1.50,1.67,1.83,2.01,2.22,2.39,2.55,2.75,2.96,3.11,3.27,3.45,3.63,3.77,3.92,4.02,4.12,4.25,4.33,4.42,4.55,4.72,4.94,5.17,5.50,5.85,6.18,6.55,6.89,7.24,7.58,7.86,8.15,8.41,8.66,8.95,9.20,9.44,9.81,10.37,11.24,12.23,13.26,14.29,15.31,16.47,17.63,18.80,20.03,21.43,22.94,24.41,25.79,27.04,28.29,29.69,31.19,32.69,33.46,33.67,33.37,32.67,31.86,31.27,31.10,31.30,31.75,33.12,34.31,35.93,38.16,39.23,40.11,40.94,41.76,42.57,43.44,44.24,45.02,45.79,46.57,47.53,48.58,50.30,55.33,62.09,67.43,70.49,70.87,70.51,68.62,65.12,60.40,57.35,54.59,51.92,49.34,47.06,45.10,43.25,41.49,39.78,38.21,36.25,33.90,31.36,29.30,27.25,24.48,21.45,19.24,17.38
e,e,e,e,e,e,e,e,e,e,e,e,e,e,e,e,e,e,e,e,e,e,e,e,e,e,e,e,e,e,e,e,e,e,e,e,e,e,e,e,e,e,e,e,e,e,e,e,e,e,e,e,e,e,e,e,e,e,e,e,e,e,e,e,e,e,e,e,e,e,e,e,e,e,e,e,e,e,e,e,e,e,e,e,e,e,e,e,e,e,e,e,e,e,e,e,e,e,e,e,e,e,e,e,e,e,e,e,e,e,e,e,e,e,e,e,e,e,e,e,e,e,e,e,e,e,e,e,e,e,e,e,e,e,e,e,e,e,0.45,0.63,0.78,0.97,1.16,1.35,1.50,1.66,1.83,2.03,2.22,2.37,2.53,2.73,2.94,3.09,3.25,3.43,3.62,3.81,3.96,4.09,4.23,4.41,4.52,4.60,4.72,4.91,5.17,5.41,5.72,6.07,6.42,6.77,7.11,7.46,7.81,8.15,8.46,8.74,9.03,9.33,9.56,10.00,10.55,11.20,12.07,13.03,14.06,15.13,16.20,17.36,18.50,19.72,21.11,22.61,24.17,25.73,27.22,28.60,30.19,32.00,33.88,35.64,36.65,36.98,36.82,36.33,35.84,35.47,35.37,35.53,35.87,36.83,37.57,38.51,39.80,40.55,41.06,41.59,42.20,42.85,43.60,44.35,45.12,45.88,46.64,47.53,48.49,49.96,53.91,60.52,66.31,70.05,70.80,70.43,67.88,63.83,59.18,56.29,53.47,50.70,48.02,45.50,43.40,41.56,39.91,38.38,36.98,35.58,33.91,31.91,29.92,26.88,23.40,20.15,18.04,16.15
e,e,e,e,e,e,e,e,e,e,e,e,e,e,e,e,e,e,e,e,e,e,e,e,e,e,e,e,e,e,e,e,e,e,e,e,e,e,e,e,e,e,e,e,e,e,e,e,e,e,e,e,e,e,e,e,e,e,e,e,e,e,e,e,e,e,e,e,e,e,e,e,e,e,e,e,e,e,e,e,e,e,e,e,e,e,e,e,e,e,e,e,e,e,e,e,e,e,e,e,e,e,e,e,e,e,e,e,e,e,e,e,e,e,e,e,e,e,e,e,e,e,e,e,e,e,e,e,e,e,e,e,e,e,e,e,e,e,0.40,0.63,0.78,1.01,1.19,1.35,1.50,1.66,1.87,2.07,2.22,2.37,2.53,2.73,2.94,3.09,3.25,3.40,3.58,3.80,3.96,4.11,4.30,4.52,4.68,4.78,4.91,5.12,5.43,5.66,5.95,6.29,6.66,6.97,7.34,7.69,8.02,8.40,8.72,9.03,9.35,9.66,9.93,10.64,11.41,12.11,12.82,13.71,14.76,15.90,17.06,18.22,19.34,20.63,22.18,23.73,25.35,26.97,28.56,30.05,32.13,34.40,36.57,38.40,39.56,39.95,40.04,40.06,40.13,40.14,40.14,40.17,40.24,40.32,40.35,40.38,40.51,41.09,41.64,42.12,42.52,42.93,43.54,44.28,45.10,45.92,46.77,47.62,48.47,49.62,52.35,58.71,64.86,69.28,70.64,70.31,67.38,63.07,58.59,55.65,52.70,49.79,46.91,44.09,41.80,39.96,38.45,37.14,35.82,34.51,33.17,31.74,30.07,26.05,21.97,18.65,16.70,14.76
e,e,e,e,e,e,e,e,e,e,e,e,e,e,e,e,e,e,e,e,e,e,e,e,e,e,e,e,e,e,e,e,e,e,e,e,e,e,e,e,e,e,e,e,e,e,e,e,e,e,e,e,e,e,e,e,e,e,e,e,e,e,e,e,e,e,e,e,e,e,e,e,e,e,e,e,e,e,e,e,e,e,e,e,e,e,e,e,e,e,e,e,e,e,e,e,e,e,e,e,e,e,e,e,e,e,e,e,e,e,e,e,e,e,e,e,e,e,e,e,e,e,e,e,e,e,e,e,e,e,e,e,e,e,e,e,e,e,0.28,0.63,0.78,1.01,1.19,1.35,1.50,1.66,1.87,2.07,2.22,2.37,2.53,2.73,2.94,3.09,3.25,3.40,3.56,3.74,3.89,4.05,4.21,4.40,4.61,4.84,5.10,5.38,5.68,5.92,6.20,6.52,6.86,7.22,7.56,7.91,8.26,8.59,8.96,9.32,9.68,10.06,10.68,11.43,12.20,12.95,13.70,14.51,15.43,16.48,17.64,18.79,20.05,21.48,23.08,24.74,26.41,28.06,29.68,31.31,33.78,36.31,38.41,39.64,40.11,40.30,40.40,40.50,40.52,40.52,40.56,40.60,40.62,40.70,40.76,40.83,40.92,41.16,41.68,42.26,42.82,43.42,44.09,44.67,45.19,45.73,46.58,47.43,48.28,49.24,50.78,57.24,63.30,67.74,70.24,70.22,67.41,63.07,58.46,55.47,52.43,49.32,46.12,42.90,40.59,38.84,37.43,36.12,34.80,33.49,32.17,30.61,27.86,23.69,20.14,17.47,15.43,13.34
e,e,e,e,e,e,e,e,e,e,e,e,e,e,e,e,e,e,e,e,e,e,e,e,e,e,e,e,e,e,e,e,e,e,e,e,e,e,e,e,e,e,e,e,e,e,e,e,e,e,e,e,e,e,e,e,e,e,e,e,e,e,e,e,e,e,e,e,e,e,e,e,e,e,e,e,e,e,e,e,e,e,e,e,e,e,e,e,e,e,e,e,e,e,e,e,e,e,e,e,e,e,e,e,e,e,e,e,e,e,e,e,e,e,e,e,e,e,e,e,e,e,e,e,e,e,e,e,e,e,e,e,e,e,e,e,e,e,e,0.57,0.75,0.95,1.12,1.28,1.43,1.59,1.78,1.96,2.12,2.27,2.43,2.61,2.80,2.95,3.11,3.26,3.42,3.57,3.75,3.96,4.16,4.38,4.64,4.97,5.29,5.60,5.91,6.16,6.46,6.77,7.09,7.47,7.79,8.14,8.51,8.82,9.20,9.59,10.02,10.56,11.33,12.10,12.91,13.76,14.56,15.33,16.16,17.10,18.18,19.39,20.78,22.31,23.95,25.65,27.32,29.00,30.69,32.44,35.01,37.60,39.55,40.28,40.49,40.62,40.76,40.91,40.94,40.94,40.97,41.02,41.04,41.12,41.20,41.27,41.35,41.43,41.81,42.33,42.92,43.62,44.29,44.83,45.30,45.81,46.61,47.36,48.13,48.95,49.90,55.91,61.72,66.29,69.46,69.46,66.81,62.73,58.37,55.47,52.52,49.43,46.14,42.55,39.89,37.95,36.48,35.16,33.85,32.52,30.96,28.86,25.27,21.58,18.69,16.48,14.36,12.18
e,e,e,e,e,e,e,e,e,e,e,e,e,e,e,e,e,e,e,e,e,e,e,e,e,e,e,e,e,e,e,e,e,e,e,e,e,e,e,e,e,e,e,e,e,e,e,e,e,e,e,e,e,e,e,e,e,e,e,e,e,e,e,e,e,e,e,e,e,e,e,e,e,e,e,e,e,e,e,e,e,e,e,e,e,e,e,e,e,e,e,e,e,e,e,e,e,e,e,e,e,e,e,e,e,e,e,e,e,e,e,e,e,e,e,e,e,e,e,e,e,e,e,e,e,e,e,e,e,e,e,e,e,e,e,e,e,e,e,0.45,0.68,0.84,1.00,1.15,1.31,1.46,1.61,1.77,1.92,2.08,2.23,2.39,2.54,2.70,2.85,3.01,3.16,3.32,3.55,3.84,4.15,4.46,4.76,5.14,5.48,5.79,6.10,6.41,6.71,7.02,7.34,7.73,8.05,8.40,8.77,9.08,9.46,9.84,10.37,11.13,11.91,12.68,13.56,14.53,15.38,16.16,16.94,17.76,18.69,20.00,21.52,23.14,24.78,26.48,28.11,29.82,31.61,33.46,35.90,38.37,40.09,40.41,40.72,40.91,41.10,41.30,41.38,41.39,41.39,41.41,41.49,41.57,41.64,41.72,41.80,41.88,42.02,42.34,42.86,43.55,44.18,44.79,45.43,46.12,46.82,47.41,48.02,48.74,49.60,54.69,60.15,64.90,68.37,68.13,65.68,62.09,58.33,55.62,52.91,50.04,46.83,42.90,39.61,37.25,35.58,34.27,32.96,31.59,29.58,26.59,22.36,19.68,17.58,15.63,13.47,11.23
e,e,e,e,e,e,e,e,e,e,e,e,e,e,e,e,e,e,e,e,e,e,e,e,e,e,e,e,e,e,e,e,e,e,e,e,e,e,e,e,e,e,e,e,e,e,e,e,e,e,e,e,e,e,e,e,e,e,e,e,e,e,e,e,e,e,e,e,e,e,e,e,e,e,e,e,e,e,e,e,e,e,e,e,e,e,e,e,e,e,e,e,e,e,e,e,e,e,e,e,e,e,e,e,e,e,e,e,e,e,e,e,e,e,e,e,e,e,e,e,e,e,e,e,e,e,e,e,e,e,e,e,e,e,e,e,e,e,e,0.25,0.43,0.59,0.74,0.90,1.05,1.21,1.40,1.58,1.73,1.89,2.04,2.20,2.35,2.51,2.71,2.94,3.19,3.44,3.72,4.03,4.33,4.64,4.95,5.29,5.61,5.92,6.23,6.58,6.91,7.24,7.58,7.87,8.18,8.53,8.91,9.27,9.61,10.10,10.77,11.58,12.36,13.13,13.96,14.85,15.65,16.43,17.29,18.21,19.14,20.45,21.94,23.52,25.10,26.70,28.28,29.91,31.61,33.36,35.93,38.30,39.98,40.59,40.71,40.85,41.07,41.34,41.56,41.71,41.80,41.86,41.94,42.01,42.09,42.17,42.24,42.32,42.42,42.61,42.95,43.50,44.11,44.73,45.36,46.01,46.70,47.35,48.02,48.72,49.48,53.41,58.41,63.23,66.42,65.59,63.67,61.10,58.28,55.77,53.30,50.56,47.20,42.58,39.41,37.05,35.17,33.43,32.03,30.24,27.47,23.74,20.36,18.25,16.47,14.78,13.00,10.82
e,e,e,e,e,e,e,e,e,e,e,e,e,e,e,e,e,e,e,e,e,e,e,e,e,e,e,e,e,e,e,e,e,e,e,e,e,e,e,e,e,e,e,e,e,e,e,e,e,e,e,e,e,e,e,e,e,e,e,e,e,e,e,e,e,e,e,e,e,e,e,e,e,e,e,e,e,e,e,e,e,e,e,e,e,e,e,e,e,e,e,e,e,e,e,e,e,e,e,e,e,e,e,e,e,e,e,e,e,e,e,e,e,e,e,e,e,e,e,e,e,e,e,e,e,e,e,e,e,e,e,e,e,e,e,e,e,e,e,e,e,e,0.51,0.67,0.82,0.98,1.17,1.36,1.52,1.67,1.84,2.03,2.22,2.42,2.67,2.96,3.26,3.57,3.88,4.19,4.50,4.81,5.12,5.45,5.76,6.08,6.41,6.77,7.11,7.46,7.81,8.06,8.36,8.69,9.04,9.41,9.74,10.33,11.11,11.95,12.72,13.51,14.32,15.14,15.94,16.73,17.61,18.54,19.45,20.70,22.13,23.64,25.14,26.65,28.13,29.60,31.04,32.47,34.89,37.39,39.48,40.72,40.62,40.74,41.00,41.33,41.66,41.90,42.06,42.16,42.28,42.40,42.51,42.61,42.69,42.77,42.85,42.95,43.14,43.53,44.09,44.69,45.31,45.93,46.61,47.28,47.97,48.66,49.36,52.20,56.83,61.72,64.45,63.51,62.05,60.14,57.87,55.54,53.27,50.54,46.94,41.82,38.90,36.60,34.58,32.65,31.00,28.52,25.12,21.21,18.63,16.91,15.39,13.89,12.37,10.50
e,e,e,e,e,e,e,e,e,e,e,e,e,e,e,e,e,e,e,e,e,e,e,e,e,e,e,e,e,e,e,e,e,e,e,e,e,e,e,e,e,e,e,e,e,e,e,e,e,e,e,e,e,e,e,e,e,e,e,e,e,e,e,e,e,e,e,e,e,e,e,e,e,e,e,e,e,e,e,e,e,e,e,e,e,e,e,e,e,e,e,e,e,e,e,e,e,e,e,e,e,e,e,e,e,e,e,e,e,e,e,e,e,e,e,e,e,e,e,e,e,e,e,e,e,e,e,e,e,e,e,e,e,e,e,e,e,e,e,e,e,e,0.32,0.48,0.63,0.79,0.95,1.11,1.26,1.41,1.63,1.89,2.18,2.48,2.78,3.08,3.39,3.70,4.01,4.32,4.63,4.94,5.25,5.62,5.95,6.28,6.66,6.98,7.34,7.69,8.01,8.31,8.62,8.89,9.16,9.47,9.85,10.52,11.36,12.21,12.98,13.80,14.62,15.41,16.25,17.09,17.91,18.72,19.58,20.68,22.00,23.41,24.81,26.22,27.57,28.72,29.67,30.47,32.34,35.31,38.47,40.77,40.42,40.56,40.90,41.27,41.65,41.90,42.09,42.25,42.47,42.68,42.90,43.06,43.14,43.22,43.29,43.37,43.48,43.67,44.13,44.69,45.31,45.93,46.55,47.18,47.84,48.53,49.23,51.08,55.46,60.44,62.48,62.11,61.00,59.23,56.93,54.74,52.62,49.76,45.80,40.44,37.95,35.77,33.74,31.93,29.83,26.29,22.45,19.15,17.26,15.72,14.32,12.95,11.47,10.28
e,e,e,e,e,e,e,e,e,e,e,e,e,e,e,e,e,e,e,e,e,e,e,e,e,e,e,e,e,e,e,e,e,e,e,e,e,e,e,e,e,e,e,e,e,e,e,e,e,e,e,e,e,e,e,e,e,e,e,e,e,e,e,e,e,e,e,e,e,e,e,e,e,e,e,e,e,e,e,e,e,e,e,e,e,e,e,e,e,e,e,e,e,e,e,e,e,e,e,e,e,e,e,e,e,e,e,e,e,e,e,e,e,e,e,e,e,e,e,e,e,e,e,e,e,e,e,e,e,e,e,e,e,e,e,e,e,e,e,e,e,e,e,0.24,0.44,0.59,0.78,0.99,1.23,1.47,1.74,2.03,2.33,2.59,2.90,3.21,3.52,3.83,4.14,4.45,4.78,5.13,5.48,5.82,6.17,6.52,6.86,7.21,7.56,7.91,8.25,8.56,8.84,9.11,9.39,9.70,10.12,10.79,11.60,12.41,13.22,14.07,14.88,15.67,16.52,17.37,18.14,18.86,19.55,20.42,21.57,22.88,24.28,25.67,26.86,27.89,28.75,29.40,30.56,32.97,35.92,38.55,39.87,40.49,40.86,41.20,41.50,41.74,41.95,42.16,42.39,42.62,42.85,43.06,43.22,43.38,43.54,43.70,43.86,44.01,44.30,44.64,45.11,45.77,46.47,47.14,47.80,48.45,49.11,50.22,53.65,57.88,59.85,59.66,58.69,57.08,55.03,53.16,50.98,47.49,42.97,38.98,36.67,34.59,32.58,30.59,27.39,23.62,20.27,17.80,16.02,14.37,12.94,11.71,10.57,10.02
e,e,e,e,e,e,e,e,e,e,e,e,e,e,e,e,e,e,e,e,e,e,e,e,e,e,e,e,e,e,e,e,e,e,e,e,e,e,e,e,e,e,e,e,e,e,e,e,e,e,e,e,e,e,e,e,e,e,e,e,e,e,e,e,e,e,e,e,e,e,e,e,e,e,e,e,e,e,e,e,e,e,e,e,e,e,e,e,e,e,e,e,e,e,e,e,e,e,e,e,e,e,e,e,e,e,e,e,e,e,e,e,e,e,e,e,e,e,e,e,e,e,e,e,e,e,e,e,e,e,e,e,e,e,e,e,e,e,e,e,e,e,e,e,0.28,0.47,0.68,0.95,1.26,1.57,1.88,2.18,2.48,2.72,3.03,3.34,3.65,3.96,4.27,4.57,4.93,5.32,5.71,6.04,6.39,6.75,7.07,7.46,7.79,8.13,8.51,8.82,9.06,9.34,9.65,9.97,10.44,11.09,11.84,12.62,13.47,14.32,15.13,15.92,16.77,17.58,18.31,18.94,19.48,20.18,21.16,22.36,23.70,25.05,26.10,27.06,27.92,28.55,29.21,30.88,33.41,36.44,39.39,40.44,40.82,41.10,41.34,41.57,41.80,42.03,42.26,42.49,42.73,42.96,43.19,43.44,43.68,43.93,44.16,44.32,44.43,44.50,44.73,45.30,46.07,46.79,47.46,48.10,48.73,49.38,51.82,55.03,56.78,56.66,55.82,54.47,52.82,51.34,48.89,44.92,40.26,37.52,35.33,33.30,31.21,28.78,24.77,21.17,18.43,16.59,14.80,13.02,11.61,10.59,9.88,9.80
e,e,e,e,e,e,e,e,e,e,e,e,e,e,e,e,e,e,e,e,e,e,e,e,e,e,e,e,e,e,e,e,e,e,e,e,e,e,e,e,e,e,e,e,e,e,e,e,e,e,e,e,e,e,e,e,e,e,e,e,e,e,e,e,e,e,e,e,e,e,e,e,e,e,e,e,e,e,e,e,e,e,e,e,e,e,e,e,e,e,e,e,e,e,e,e,e,e,e,e,e,e,e,e,e,e,e,e,e,e,e,e,e,e,e,e,e,e,e,e,e,e,e,e,e,e,e,e,e,e,e,e,e,e,e,e,e,e,e,e,e,e,e,e,0.22,0.50,0.75,1.01,1.32,1.63,1.94,2.25,2.55,2.85,3.16,3.47,3.77,4.08,4.39,4.70,5.08,5.52,5.90,6.28,6.62,6.96,7.33,7.71,8.05,8.39,8.76,9.07,9.32,9.59,9.91,10.29,10.80,11.41,12.10,12.88,13.73,14.58,15.39,16.18,17.03,17.71,18.32,18.88,19.42,20.11,20.96,21.96,23.10,24.31,25.29,26.23,27.10,27.78,28.58,29.61,31.76,35.71,39.25,40.40,40.73,40.98,41.21,41.44,41.67,41.90,42.13,42.37,42.60,42.83,43.07,43.36,43.66,43.95,44.23,44.45,44.37,44.15,43.99,44.09,44.86,45.57,46.29,47.02,47.71,48.44,50.10,52.02,52.83,52.75,52.13,51.23,50.26,49.26,46.08,42.28,38.70,36.11,33.97,31.90,29.41,26.05,22.33,19.47,17.22,15.36,13.53,11.74,10.55,9.96,9.74,9.72
e,e,e,e,e,e,e,e,e,e,e,e,e,e,e,e,e,e,e,e,e,e,e,e,e,e,e,e,e,e,e,e,e,e,e,e,e,e,e,e,e,e,e,e,e,e,e,e,e,e,e,e,e,e,e,e,e,e,e,e,e,e,e,e,e,e,e,e,e,e,e,e,e,e,e,e,e,e,e,e,e,e,e,e,e,e,e,e,e,e,e,e,e,e,e,e,e,e,e,e,e,e,e,e,e,e,e,e,e,e,e,e,e,e,e,e,e,e,e,e,e,e,e,e,e,e,e,e,e,e,e,e,e,e,e,e,e,e,e,e,e,e,e,e,0.34,0.61,0.88,1.15,1.43,1.74,2.05,2.36,2.67,2.98,3.28,3.59,3.89,4.17,4.48,4.81,5.21,5.67,6.09,6.48,6.86,7.23,7.58,7.93,8.28,8.63,8.97,9.28,9.56,9.88,10.27,10.69,11.23,11.80,12.42,13.13,13.98,14.81,15.62,16.40,17.08,17.70,18.29,18.88,19.49,20.22,21.03,21.99,23.10,24.16,25.02,25.86,26.67,27.33,28.20,29.29,31.61,35.98,39.30,40.37,40.68,40.94,41.17,41.43,41.70,41.96,42.19,42.46,42.72,42.99,43.26,43.53,43.83,44.14,44.38,44.36,44.16,43.87,43.59,43.40,43.75,44.36,45.09,45.85,46.55,47.37,48.51,49.57,49.84,49.76,49.42,48.87,48.16,47.42,44.60,41.35,38.19,35.15,32.66,30.16,27.31,23.87,20.62,18.17,16.11,14.19,12.30,10.81,10.00,9.73,9.66,9.62
e,e,e,e,e,e,e,e,e,e,e,e,e,e,e,e,e,e,e,e,e,e,e,e,e,e,e,e,e,e,e,e,e,e,e,e,e,e,e,e,e,e,e,e,e,e,e,e,e,e,e,e,e,e,e,e,e,e,e,e,e,e,e,e,e,e,e,e,e,e,e,e,e,e,e,e,e,e,e,e,e,e,e,e,e,e,e,e,e,e,e,e,e,e,e,e,e,e,e,e,e,e,e,e,e,e,e,e,e,e,e,e,e,e,e,e,e,e,e,e,e,e,e,e,e,e,e,e,e,e,e,e,e,e,e,e,e,e,e,e,e,e,e,0.22,0.52,0.76,1.04,1.32,1.57,1.87,2.18,2.48,2.79,3.09,3.40,3.71,4.00,4.24,4.55,4.92,5.34,5.81,6.28,6.67,7.10,7.52,7.84,8.15,8.51,8.87,9.17,9.48,9.80,10.21,10.68,11.14,11.68,12.21,12.77,13.40,14.24,15.02,15.81,16.58,17.06,17.67,18.30,18.94,19.63,20.43,21.30,22.29,23.43,24.38,25.12,25.86,26.59,27.20,28.07,29.48,32.17,36.68,39.44,40.35,40.66,40.96,41.20,41.50,41.82,42.10,42.33,42.64,42.95,43.26,43.56,43.79,44.08,44.36,44.49,44.18,43.88,43.61,43.33,42.96,42.79,43.20,43.88,44.64,45.33,46.25,46.99,47.39,47.31,47.25,47.19,46.91,46.29,45.68,43.69,41.16,38.17,34.31,31.27,28.22,25.09,21.91,19.21,17.02,15.01,13.02,11.15,10.09,9.68,9.66,9.58,9.51
e,e,e,e,e,e,e,e,e,e,e,e,e,e,e,e,e,e,e,e,e,e,e,e,e,e,e,e,e,e,e,e,e,e,e,e,e,e,e,e,e,e,e,e,e,e,e,e,e,e,e,e,e,e,e,e,e,e,e,e,e,e,e,e,e,e,e,e,e,e,e,e,e,e,e,e,e,e,e,e,e,e,e,e,e,e,e,e,e,e,e,e,e,e,e,e,e,e,e,e,e,e,e,e,e,e,e,e,e,e,e,e,e,e,e,e,e,e,e,e,e,e,e,e,e,e,e,e,e,e,e,e,e,e,e,e,e,e,e,e,e,e,e,0.40,0.65,0.94,1.20,1.47,1.75,2.00,2.30,2.58,2.85,3.16,3.47,3.78,4.08,4.37,4.68,5.04,5.49,6.00,6.47,6.86,7.29,7.73,8.09,8.40,8.77,9.12,9.43,9.74,10.14,10.62,11.12,11.59,12.12,12.63,13.14,13.71,14.51,15.20,15.87,16.54,17.17,17.84,18.52,19.18,19.82,20.87,21.98,23.12,24.28,25.37,26.19,26.92,27.60,28.16,28.80,30.40,33.30,37.54,39.66,40.45,40.79,41.10,41.38,41.74,42.07,42.36,42.59,42.90,43.21,43.52,43.82,44.05,44.30,44.35,44.18,43.93,43.62,43.32,43.04,42.77,42.44,42.33,42.66,43.42,44.12,45.16,45.54,45.40,45.26,45.35,45.41,45.18,44.57,44.01,42.91,41.28,38.54,33.16,29.27,25.89,22.83,19.95,17.85,15.77,13.74,11.81,10.33,9.74,9.55,9.53,9.46,9.43
e,e,e,e,e,e,e,e,e,e,e,e,e,e,e,e,e,e,e,e,e,e,e,e,e,e,e,e,e,e,e,e,e,e,e,e,e,e,e,e,e,e,e,e,e,e,e,e,e,e,e,e,e,e,e,e,e,e,e,e,e,e,e,e,e,e,e,e,e,e,e,e,e,e,e,e,e,e,e,e,e,e,e,e,e,e,e,e,e,e,e,e,e,e,e,e,e,e,e,e,e,e,e,e,e,e,e,e,e,e,e,e,e,e,e,e,e,e,e,e,e,e,e,e,e,e,e,e,e,e,e,e,e,e,e,e,e,e,e,0.29,0.52,0.39,0.39,0.55,0.78,1.06,1.32,1.60,1.91,2.17,2.44,2.71,2.98,3.26,3.57,3.88,4.19,4.49,4.80,5.19,5.66,6.16,6.66,7.05,7.47,7.90,8.31,8.65,9.02,9.38,9.70,10.09,10.57,11.07,11.58,12.07,12.58,13.08,13.58,14.10,14.76,15.41,16.05,16.71,17.40,18.07,18.76,19.48,20.27,21.54,22.77,23.97,25.15,26.34,27.21,27.96,28.64,29.26,30.13,31.91,34.81,38.68,40.02,40.60,40.90,41.19,41.53,41.89,42.22,42.52,42.81,43.12,43.43,43.75,44.07,44.24,44.30,44.17,43.89,43.63,43.33,43.04,42.76,42.50,42.17,41.84,41.81,42.21,42.91,43.66,43.73,43.38,43.22,43.43,43.57,43.41,42.85,42.37,41.65,39.88,36.56,31.11,27.44,24.12,21.12,18.53,16.59,14.57,12.56,10.76,9.82,9.54,9.45,9.41,9.36,9.36
e,e,e,e,e,e,e,e,e,e,e,e,e,e,e,e,e,e,e,e,e,e,e,e,e,e,e,e,e,e,e,e,e,e,e,e,e,e,e,e,e,e,e,e,e,e,e,e,e,e,e,e,e,e,e,e,e,e,e,e,e,e,e,e,e,e,e,e,e,e,e,e,e,e,e,e,e,e,e,e,e,e,e,e,e,e,e,e,e,e,e,e,e,e,e,e,e,e,e,e,e,e,e,e,e,e,e,e,e,e,e,e,e,e,e,e,e,e,e,e,e,e,e,e,e,e,e,e,e,e,e,e,e,e,e,e,e,e,0.25,0.54,0.78,0.73,0.66,0.67,0.90,1.14,1.42,1.73,2.04,2.35,2.59,2.87,3.16,3.39,3.69,4.00,4.31,4.62,4.93,5.36,5.82,6.30,6.84,7.25,7.63,8.04,8.50,8.89,9.28,9.63,9.97,10.51,11.05,11.55,12.04,12.58,13.04,13.56,14.07,14.53,15.00,15.64,16.33,17.03,17.72,18.35,19.01,19.82,20.91,22.37,23.63,24.82,26.05,27.29,28.21,28.98,29.70,30.48,31.91,33.87,36.59,40.03,40.49,40.78,41.01,41.27,41.65,41.97,42.28,42.61,43.00,43.31,43.62,43.96,44.31,44.39,44.15,43.88,43.63,43.32,43.01,42.75,42.49,42.19,41.95,41.61,41.22,41.01,41.70,41.85,41.66,41.33,41.18,41.48,41.68,41.59,41.14,40.75,40.04,37.38,32.90,28.43,25.73,22.75,19.82,17.51,15.42,13.39,11.46,9.85,9.54,9.43,9.36,9.30,9.30,9.30
