42.29,41.48,40.97,41.11,41.70,42.67,43.75,44.71,45.21,44.61,43.87,43.10,42.32,41.52,40.61,39.67,38.73,37.81,36.88,35.93,35.35,35.75,36.64,37.51,38.30,38.98,39.48,39.90,40.20,40.36,40.35,40.01,39.34,38.44,37.44,36.47,35.51,34.53,33.53,32.57,32.63,32.84,33.08,33.31,33.57,33.81,34.05,34.31,34.54,34.81,35.05,35.27,35.55,35.86,36.17,36.48,36.78,36.96,37.36,37.79,38.17,38.56,39.01,39.51,40.13,40.99,41.94,42.91,43.90,44.89,45.82,46.81,47.84,48.90,50.01,51.27,52.72,54.35,56.14,58.00,59.81,61.81,64.06,66.33,68.61,70.92,73.26,75.58,77.97,81.05,84.54,88.21,92.57,97.37,101.96,106.22,110.37,114.19,118.18,123.55,131.56,139.19,145.10,150.49,156.05,161.65,165.90,169.67,172.86,174.98,176.53,177.63,178.49,179.29,180.29,181.07,181.50,181.87,183.21,185.97,189.42,193.43,197.96,202.78,207.74,212.19,215.81,219.14,224.65,231.59,238.39,242.30,242.19,237.56,230.50,223.11,216.76,211.23,206.33,201.63,195.92,190.47,185.56,180.69,175.13,168.76,162.87,157.56,152.69,147.36,141.62,136.59,132.35,128.57,125.07,121.54,118.05,114.65,111.00,105.49,100.48,97.08,95.67,97.73,101.60,106.59,111.97,114.70,116.34,116.75,115.73,112.58,108.43,104.14,99.94,95.77,91.67,87.94,84.45,81.10,78.35,75.09,71.96,69.21,66.72,64.28,61.79,59.18,56.43,53.34,50.21,47.02,43.76,40.65,37.79,34.82,31.71,28.67,26.03,23.50,21.27,19.56,18.21,16.96,15.84,14.84,13.90,13.32,12.83,12.41,12.10,11.69,11.14,10.56,10.05,9.82,9.71,9.62,9.51,9.39,9.31,9.21,9.09,8.93,8.78,8.62,8.53,8.50,8.53,8.54,8.54,8.55,8.60,8.60,8.60,8.60,8.60,8.60,8.60,8.62,8.64,8.64,8.64,8.67,8.70,8.70,8.70,8.70,8.71,8.74,8.74,8.74,8.77,8.80,8.80,8.80
42.86,42.16,42.13,43.16,43.70,44.62,45.61,46.32,46.14,45.41,44.63,43.85,43.06,42.20,41.17,40.08,39.03,38.10,37.19,36.27,35.78,36.31,37.16,38.01,38.86,39.68,40.22,40.57,40.88,41.09,40.92,40.48,39.87,39.07,38.07,37.14,36.16,35.15,34.15,33.15,33.16,33.36,33.60,33.83,34.13,34.39,34.65,34.95,35.19,35.42,35.61,35.78,36.00,36.31,36.62,36.92,37.23,37.46,37.87,38.29,38.68,39.06,39.51,40.07,40.80,41.80,42.81,43.76,44.72,45.72,46.65,47.64,48.65,49.74,51.14,52.60,54.12,55.72,57.42,59.27,61.01,62.91,65.09,67.41,69.73,72.09,74.46,76.78,79.18,82.36,85.92,89.55,94.11,98.78,103.18,107.25,111.26,115.07,119.53,125.38,133.27,140.74,147.00,152.91,158.89,164.53,169.35,173.97,178.08,180.89,183.39,184.96,186.00,186.95,188.17,188.73,189.03,189.24,189.39,190.57,192.84,196.33,201.14,207.30,212.31,216.32,219.69,223.64,228.26,234.49,240.92,244.33,244.03,239.70,232.86,225.15,218.64,212.83,207.61,202.75,197.65,192.16,187.26,182.62,177.59,171.02,164.68,158.97,153.96,148.64,143.18,138.44,134.36,130.36,126.71,123.13,119.60,116.11,112.55,107.24,102.16,98.78,99.43,102.41,106.64,111.63,116.83,119.22,120.73,121.23,120.50,117.29,112.75,108.14,103.71,99.31,95.41,92.24,89.16,85.58,82.42,79.31,76.22,73.14,70.12,67.56,65.02,62.42,59.72,56.64,53.55,50.37,47.03,43.63,40.47,37.33,34.18,31.09,28.34,25.59,23.08,21.10,19.54,18.27,17.11,16.00,15.16,14.51,13.98,13.56,13.25,12.79,12.16,11.37,10.49,10.01,9.85,9.72,9.59,9.51,9.43,9.30,9.15,9.00,8.84,8.69,8.57,8.51,8.59,8.60,8.60,8.60,8.60,8.60,8.60,8.60,8.60,8.60,8.60,8.64,8.70,8.70,8.70,8.70,8.70,8.70,8.70,8.70,8.74,8.80,8.80,8.80,8.80,8.80,8.80,8.80
43.40,43.47,44.15,45.28,45.98,46.76,47.34,47.50,46.93,46.17,45.30,44.32,43.24,42.13,41.00,39.85,38.71,37.78,37.17,36.63,36.33,36.57,37.46,38.33,39.20,40.06,40.60,41.04,41.39,41.55,41.19,40.78,40.22,39.46,38.45,37.47,36.48,35.47,34.48,33.52,33.71,34.03,34.30,34.53,34.79,35.06,35.34,35.60,35.88,36.08,36.22,36.34,36.52,36.82,37.10,37.37,37.68,37.96,38.34,38.72,39.04,39.33,39.72,40.40,41.31,42.31,43.32,44.34,45.38,46.43,47.41,48.40,49.51,50.78,52.28,53.84,55.43,57.04,58.69,60.44,62.12,63.97,66.12,68.43,70.79,73.15,75.50,77.87,80.41,83.64,87.14,90.64,95.20,99.71,103.96,107.93,111.79,115.53,120.12,126.35,134.85,141.78,148.18,154.44,160.68,166.37,172.08,177.24,181.65,185.21,188.21,190.37,191.79,192.67,193.60,193.90,194.00,194.08,194.19,194.78,196.29,199.70,206.04,211.76,216.94,221.52,225.58,229.62,233.43,238.78,244.68,248.28,246.24,241.00,233.85,226.01,219.06,213.49,208.41,203.38,198.23,193.27,188.63,184.13,179.45,172.78,166.40,160.53,155.18,149.90,144.50,139.65,135.45,131.75,128.16,124.57,120.95,117.32,113.61,109.10,105.05,102.64,104.13,107.55,112.26,117.38,121.74,124.19,125.46,125.75,125.05,122.53,117.66,112.40,107.41,103.01,98.97,95.69,92.71,89.55,86.48,83.40,80.31,77.18,73.85,70.74,67.81,65.05,62.40,59.57,56.52,53.28,49.89,46.34,42.91,39.58,36.35,33.26,30.15,27.38,25.02,23.06,21.10,19.52,18.19,17.10,16.30,15.61,15.12,14.76,14.40,13.89,13.18,12.33,11.42,10.64,10.10,9.81,9.72,9.64,9.51,9.37,9.21,9.06,8.96,8.82,8.67,8.57,8.60,8.60,8.60,8.60,8.60,8.60,8.60,8.62,8.67,8.67,8.67,8.68,8.70,8.70,8.70,8.70,8.70,8.70,8.75,8.77,8.78,8.80,8.80,8.80,8.80,8.81,8.87,8.87
44.37,45.03,46.16,47.36,48.09,48.63,48.79,48.47,47.65,46.77,45.71,44.52,43.24,41.95,40.77,39.64,38.63,38.03,37.64,37.29,37.03,36.91,37.62,38.48,39.40,40.27,40.88,41.43,41.86,42.01,41.54,41.09,40.51,39.76,38.80,37.80,36.80,35.79,34.81,33.98,34.28,34.68,35.00,35.23,35.46,35.75,36.03,36.26,36.55,36.71,36.81,36.90,37.03,37.31,37.57,37.84,38.13,38.41,38.72,39.02,39.30,39.53,40.02,40.82,41.82,42.82,43.83,44.87,45.93,46.98,48.01,49.06,50.31,51.80,53.39,55.01,56.63,58.26,59.91,61.61,63.25,65.07,67.17,69.48,71.85,74.19,76.52,78.89,81.51,84.75,88.19,91.57,95.83,100.24,104.45,108.39,112.13,115.77,120.41,126.90,135.93,142.64,148.98,155.32,161.74,167.46,173.79,179.40,184.13,188.31,191.93,194.75,196.61,197.49,198.19,198.54,198.68,198.72,198.82,199.16,200.53,203.98,210.53,215.99,221.52,226.66,231.21,235.44,239.48,244.20,248.87,251.63,248.62,242.50,234.78,226.86,219.73,214.19,209.10,204.00,198.89,194.29,189.84,185.40,180.84,174.36,168.00,161.94,156.28,151.08,145.90,141.05,136.71,133.09,129.42,125.73,121.97,118.13,114.39,110.57,107.54,106.28,108.94,113.22,118.21,123.07,126.81,129.38,130.74,131.00,130.20,127.99,123.53,117.77,111.65,106.68,102.65,99.17,96.04,93.08,90.07,87.01,83.94,80.80,77.47,74.04,70.71,67.61,64.84,62.11,59.14,55.90,52.39,48.73,45.20,41.78,38.47,35.31,31.98,29.12,26.74,24.72,22.56,20.79,19.34,18.18,17.36,16.71,16.26,15.91,15.52,14.94,14.16,13.28,12.36,11.43,10.65,10.12,9.84,9.74,9.59,9.45,9.31,9.16,9.06,8.91,8.76,8.63,8.60,8.60,8.60,8.61,8.63,8.63,8.63,8.65,8.70,8.70,8.70,8.70,8.70,8.70,8.70,8.71,8.73,8.73,8.79,8.80,8.80,8.80,8.80,8.82,8.83,8.85,8.90,8.90
45.81,46.87,48.16,49.39,50.02,50.22,49.93,49.22,48.30,47.18,45.84,44.42,43.04,41.66,40.45,39.46,38.81,38.90,38.64,38.29,37.87,37.36,37.63,38.46,39.44,40.28,41.04,41.74,42.27,42.46,41.99,41.40,40.74,39.99,39.12,38.12,37.11,36.11,35.17,34.53,34.85,35.31,35.70,35.93,36.17,36.45,36.73,36.96,37.20,37.31,37.39,37.47,37.55,37.77,38.05,38.33,38.57,38.81,38.99,39.19,39.43,39.66,40.40,41.33,42.33,43.33,44.34,45.35,46.35,47.37,48.45,49.58,51.04,52.77,54.47,56.09,57.72,59.36,61.06,62.76,64.40,66.19,68.25,70.57,72.89,75.21,77.53,79.85,82.47,85.68,89.07,92.35,95.96,100.31,104.63,108.62,112.26,115.77,120.34,126.98,136.44,143.30,149.36,155.50,162.00,167.71,174.39,180.33,185.41,190.08,194.43,197.99,200.35,201.31,201.86,202.61,203.05,203.14,203.29,203.71,205.63,209.26,214.55,219.96,226.05,231.75,236.55,241.08,246.49,250.84,253.54,254.33,251.19,244.20,235.66,227.70,220.66,214.92,209.67,204.60,199.64,195.24,190.86,186.39,181.74,175.75,169.46,163.20,157.25,152.15,147.40,142.67,138.14,134.37,130.46,126.59,122.63,118.52,114.88,111.62,109.59,109.69,113.88,119.47,124.51,128.70,132.05,134.81,136.62,137.08,136.00,133.69,130.44,124.35,116.48,110.33,106.46,102.68,99.15,96.15,93.13,90.12,87.07,83.99,80.95,77.46,73.72,70.08,67.01,64.23,61.39,58.18,54.49,50.78,47.32,43.92,40.55,37.24,33.85,30.81,28.22,26.07,23.90,22.09,20.55,19.25,18.33,17.80,17.38,16.99,16.61,15.92,15.12,14.24,13.32,12.39,11.53,10.67,9.96,9.80,9.65,9.54,9.44,9.28,9.13,8.98,8.82,8.68,8.61,8.60,8.60,8.62,8.69,8.69,8.69,8.70,8.70,8.70,8.70,8.70,8.70,8.70,8.70,8.75,8.79,8.79,8.80,8.80,8.80,8.80,8.80,8.86,8.89,8.90,8.90,8.90
47.30,48.39,49.47,50.39,51.06,51.05,50.52,49.59,48.48,47.20,45.82,44.41,43.02,41.58,40.43,39.77,39.76,40.59,40.14,39.39,38.66,38.16,37.98,38.56,39.44,40.29,41.06,41.77,42.44,42.84,42.38,41.73,40.99,40.20,39.39,38.43,37.43,36.43,35.51,35.03,35.37,35.86,36.31,36.64,36.87,37.12,37.39,37.66,37.85,37.94,38.02,38.08,38.07,38.28,38.53,38.80,39.08,39.31,39.48,39.65,39.85,40.13,40.78,41.64,42.61,43.61,44.62,45.62,46.64,47.69,48.73,49.97,51.60,53.51,55.26,56.93,58.62,60.35,62.09,63.84,65.52,67.30,69.28,71.60,73.92,76.21,78.52,80.92,83.59,86.71,89.98,93.14,96.38,100.46,104.71,108.82,112.45,115.86,120.06,126.33,135.78,142.48,148.26,154.39,161.19,166.82,173.28,179.33,184.79,189.82,194.46,198.49,201.46,203.14,204.85,206.16,207.01,207.44,207.64,209.34,212.18,215.75,219.56,224.70,230.53,236.31,241.64,246.78,251.84,255.81,257.73,256.23,252.26,245.02,236.52,228.71,222.49,216.20,210.42,205.22,200.19,195.83,191.53,187.09,182.35,176.76,170.58,164.26,158.23,153.22,148.48,143.74,139.17,135.25,131.22,126.98,122.74,118.74,115.24,113.80,113.67,115.08,119.86,125.25,129.86,133.69,137.05,139.61,141.23,141.46,140.06,137.20,133.96,128.85,122.01,114.72,109.88,105.78,102.27,99.21,96.20,93.22,90.05,86.70,83.59,80.37,76.83,73.02,69.13,66.21,63.21,59.95,56.35,52.50,48.88,45.44,42.14,38.86,35.51,32.45,29.72,27.35,25.28,23.52,21.93,20.49,19.47,18.94,18.52,18.12,17.69,16.91,16.08,15.20,14.28,13.40,12.50,11.57,10.68,10.08,9.81,9.67,9.56,9.41,9.25,9.07,8.89,8.74,8.62,8.64,8.66,8.67,8.70,8.70,8.70,8.70,8.70,8.70,8.70,8.72,8.76,8.76,8.76,8.78,8.80,8.80,8.80,8.83,8.86,8.86,8.86,8.89,8.90,8.90,8.90,8.94
48.78,49.83,50.73,51.43,52.04,51.76,50.96,49.83,48.58,47.19,45.79,44.39,43.00,41.58,40.82,40.71,41.30,42.72,42.27,41.07,39.74,38.90,38.44,38.77,39.50,40.33,41.14,41.88,42.68,43.22,42.72,41.99,41.18,40.35,39.55,38.63,37.66,36.68,35.84,35.54,35.90,36.40,36.89,37.32,37.57,37.80,38.06,38.33,38.47,38.56,38.63,38.66,38.58,38.79,39.02,39.28,39.59,39.82,39.99,40.16,40.37,40.68,41.21,41.97,42.90,43.89,44.89,45.89,46.90,47.96,48.97,50.32,52.08,54.10,55.95,57.72,59.49,61.27,63.05,64.82,66.56,68.35,70.30,72.60,74.92,77.19,79.50,82.03,84.71,87.74,90.89,93.95,96.93,100.74,104.85,108.92,112.51,115.87,119.81,125.68,134.75,141.32,146.99,153.13,160.05,165.59,171.61,177.65,183.43,188.62,193.42,197.77,201.22,203.61,206.38,208.53,210.21,211.46,212.27,215.07,218.56,222.13,225.26,230.06,235.36,240.87,246.42,252.00,257.00,260.54,261.51,258.21,253.19,245.65,237.24,229.63,224.04,217.54,211.34,205.83,200.75,196.32,192.00,187.58,182.86,177.57,171.56,165.29,159.21,154.21,149.45,144.70,140.09,136.02,131.89,127.35,122.85,118.90,116.02,116.05,117.68,120.59,125.67,130.53,134.84,138.58,141.86,144.27,145.59,145.49,143.81,140.55,137.09,132.73,127.05,119.48,113.67,109.05,105.35,102.28,99.28,96.28,92.96,89.35,86.08,83.04,79.77,76.06,71.72,68.28,65.01,61.70,58.19,54.25,50.51,47.05,43.78,40.48,37.18,34.11,31.28,28.68,26.69,24.96,23.36,21.88,20.89,20.31,19.84,19.36,18.78,17.92,17.06,16.18,15.26,14.39,13.46,12.50,11.52,10.58,10.08,9.82,9.67,9.51,9.36,9.16,8.97,8.80,8.64,8.67,8.70,8.70,8.70,8.70,8.70,8.71,8.72,8.72,8.72,8.75,8.80,8.80,8.80,8.80,8.81,8.82,8.82,8.87,8.90,8.90,8.90,8.90,8.91,8.92,8.92,8.98
50.21,51.16,52.03,52.75,53.11,52.37,51.21,49.88,48.58,47.19,45.76,44.33,42.94,41.67,41.92,42.75,43.85,45.56,45.49,43.83,41.41,39.48,39.01,39.14,39.68,40.47,41.38,42.22,43.06,43.58,42.98,42.11,41.24,40.40,39.55,38.63,37.69,36.82,36.13,36.08,36.48,36.95,37.43,37.95,38.25,38.51,38.74,38.97,39.06,39.14,39.18,39.17,39.09,39.30,39.53,39.79,40.10,40.33,40.50,40.72,41.01,41.32,41.72,42.39,43.27,44.21,45.21,46.17,47.14,48.15,49.16,50.63,52.44,54.46,56.51,58.48,60.32,62.10,63.88,65.65,67.42,69.29,71.31,73.57,75.87,78.15,80.50,83.17,85.81,88.73,91.76,94.77,97.65,101.29,105.10,108.83,112.33,115.73,119.65,125.15,133.22,139.78,145.68,151.83,158.44,163.94,169.20,175.03,181.02,186.01,190.80,195.21,198.94,201.87,205.29,208.73,212.01,214.99,217.48,220.84,224.38,228.10,232.08,236.49,240.86,245.51,250.64,256.27,262.11,265.15,264.62,260.48,254.15,246.06,237.67,230.34,224.90,218.90,212.60,206.41,201.38,196.69,192.17,187.72,183.25,178.05,172.31,166.26,160.21,155.07,150.28,145.53,140.88,136.66,132.44,127.76,123.08,119.00,117.60,118.23,121.15,125.94,130.97,134.95,139.27,143.40,146.33,148.79,149.70,149.18,147.32,144.01,140.09,135.85,131.01,124.77,118.25,112.69,108.36,105.35,102.40,99.26,95.76,91.98,88.41,85.33,82.39,79.18,75.23,70.56,66.85,63.51,60.04,56.10,52.40,48.94,45.59,42.15,38.88,35.83,32.92,30.09,28.14,26.39,24.83,23.52,22.77,22.10,21.48,20.80,19.87,18.95,18.08,17.20,16.28,15.36,14.38,13.42,12.47,11.47,10.56,10.01,9.73,9.58,9.42,9.26,9.07,8.86,8.71,8.70,8.70,8.70,8.70,8.70,8.70,8.73,8.79,8.79,8.79,8.79,8.80,8.80,8.80,8.80,8.82,8.89,8.89,8.89,8.90,8.90,8.90,8.90,8.94,8.99,8.99,9.00
51.68,52.52,53.38,54.03,53.45,52.33,51.06,49.73,48.38,47.07,45.68,44.30,43.09,43.01,43.93,45.13,46.37,47.99,48.22,47.09,44.68,41.21,39.78,39.51,39.99,40.86,41.82,42.75,43.60,44.01,43.16,42.20,41.26,40.36,39.51,38.62,37.73,37.00,36.59,36.82,37.25,37.67,38.08,38.54,38.89,39.18,39.44,39.66,39.73,39.81,39.81,39.73,39.65,39.83,40.07,40.34,40.61,40.88,41.06,41.31,41.65,41.96,42.30,42.84,43.61,44.58,45.54,46.51,47.48,48.45,49.45,51.13,53.07,55.09,57.18,59.19,61.08,62.89,64.71,66.48,68.26,70.18,72.28,74.52,76.83,79.17,81.61,84.27,86.94,89.73,92.61,95.51,98.40,101.76,105.20,108.61,112.04,115.48,119.47,124.56,131.27,137.38,143.31,149.47,155.86,161.46,166.34,171.68,177.35,182.68,187.26,191.54,195.39,198.83,202.65,206.44,210.47,214.70,218.71,223.25,227.63,231.92,236.33,240.92,245.16,249.65,254.79,260.70,266.48,268.62,266.61,261.13,254.27,246.13,237.83,230.50,225.09,219.23,212.98,206.76,201.86,197.02,192.29,187.71,183.34,178.35,172.79,166.94,161.10,155.73,150.82,146.70,142.72,137.36,132.95,128.38,124.19,121.05,120.51,122.00,125.49,130.35,134.53,138.83,143.91,148.69,151.54,153.32,153.78,152.85,150.59,147.30,143.03,138.61,134.08,129.02,122.72,116.95,112.15,108.55,105.42,102.20,98.74,94.99,91.05,87.73,84.78,81.84,78.44,73.62,69.39,65.56,61.89,57.99,54.35,50.94,47.58,43.88,40.17,36.99,34.17,31.54,29.53,27.81,26.42,25.38,24.72,24.03,23.34,22.51,21.35,20.20,19.15,18.17,17.24,16.28,15.25,14.23,13.21,12.17,11.13,10.31,9.80,9.64,9.49,9.33,9.16,8.97,8.82,8.73,8.70,8.71,8.75,8.75,8.75,8.77,8.80,8.80,8.80,8.80,8.80,8.80,8.84,8.85,8.86,8.90,8.90,8.90,8.90,8.91,8.94,8.95,8.97,9.00,9.00,9.00
53.26,53.97,54.70,55.04,53.54,52.09,50.76,49.48,48.11,46.87,45.58,44.39,43.58,44.68,46.03,47.37,48.62,50.00,50.43,49.96,47.93,43.48,40.84,40.10,40.49,41.40,42.37,43.35,44.15,44.39,43.28,42.23,41.22,40.27,39.43,38.60,37.80,37.26,37.15,37.62,38.08,38.47,38.81,39.17,39.54,39.84,40.12,40.39,40.49,40.57,40.52,40.39,40.31,40.41,40.63,40.90,41.14,41.44,41.65,41.91,42.27,42.59,42.90,43.33,43.97,44.95,45.88,46.85,47.81,48.74,49.75,51.63,53.69,55.73,57.84,59.87,61.80,63.66,65.51,67.30,69.10,71.08,73.27,75.52,77.83,80.26,82.80,85.43,88.11,90.81,93.53,96.31,99.24,102.40,105.54,108.68,112.00,115.39,119.36,124.00,129.34,134.86,140.62,146.67,152.89,158.52,163.13,167.96,173.26,178.92,183.31,187.41,191.33,195.18,199.30,203.24,207.73,212.86,218.16,224.02,229.49,234.57,239.40,244.50,248.98,253.61,258.88,265.00,270.34,271.49,268.15,261.38,254.21,246.13,237.93,230.47,225.07,219.17,212.99,206.96,202.21,197.26,192.35,187.64,183.31,178.53,173.09,167.48,161.97,156.39,151.29,147.60,144.14,137.97,133.49,129.24,125.86,123.98,124.10,126.34,130.06,134.50,137.98,142.89,148.71,154.00,156.92,157.91,157.83,156.44,153.74,150.43,145.90,141.28,136.86,132.68,127.04,121.35,116.16,111.89,108.53,105.22,101.80,98.15,93.98,90.37,87.25,84.39,81.41,76.89,72.25,67.84,63.85,59.93,56.29,52.91,49.55,45.63,41.41,38.06,35.36,33.02,30.94,29.29,28.10,27.32,26.70,26.00,25.23,24.26,22.92,21.53,20.25,19.11,18.13,17.11,16.03,14.95,13.88,12.80,11.72,10.67,9.92,9.71,9.55,9.40,9.24,9.09,8.95,8.79,8.72,8.73,8.80,8.80,8.80,8.80,8.80,8.80,8.80,8.81,8.81,8.81,8.88,8.90,8.90,8.90,8.91,8.91,8.91,8.92,8.99,9.00,9.00,9.00,9.01,9.01
55.23,55.72,55.85,55.08,53.44,51.80,50.35,49.06,47.79,46.55,45.45,44.83,45.05,46.25,47.52,48.75,49.89,50.82,51.20,50.84,49.41,46.54,42.83,41.45,41.52,42.28,43.10,43.97,44.57,44.55,43.29,42.10,41.03,40.10,39.31,38.58,37.98,37.77,37.98,38.45,38.91,39.35,39.74,40.00,40.27,40.44,40.73,41.23,41.42,41.52,41.48,41.35,41.27,41.18,41.27,41.48,41.71,42.02,42.26,42.52,42.86,43.22,43.54,43.88,44.39,45.27,46.20,47.13,48.05,48.93,50.00,51.93,54.04,56.13,58.34,60.47,62.47,64.36,66.22,68.05,69.98,72.08,74.36,76.66,78.98,81.52,84.21,86.83,89.42,92.08,94.77,97.46,100.39,103.70,106.95,110.00,112.92,115.97,119.56,123.59,127.85,132.83,137.83,143.37,149.45,154.68,159.02,163.72,168.92,174.33,178.76,182.77,186.68,190.72,194.93,199.33,204.07,209.27,215.17,222.24,228.94,235.11,240.83,247.01,252.29,257.40,262.80,268.62,273.08,273.33,269.21,261.85,254.33,246.23,238.03,230.35,225.00,218.76,212.54,206.86,202.25,197.24,192.26,187.51,183.18,178.45,173.10,167.82,162.85,157.17,151.85,147.20,142.91,138.22,134.18,130.82,128.66,128.10,128.76,131.17,134.61,138.66,142.88,148.18,153.84,158.90,162.16,162.70,161.83,159.75,156.70,153.10,148.56,143.93,139.47,135.24,130.89,125.63,120.24,115.58,112.08,108.50,104.95,101.41,97.64,93.81,90.25,86.95,83.77,80.14,75.59,70.77,66.18,61.96,58.19,54.69,51.23,47.41,42.93,39.43,36.76,34.55,32.53,31.00,29.96,29.30,28.68,27.94,27.00,25.83,24.39,23.00,21.44,19.97,18.76,17.70,16.57,15.49,14.45,13.37,12.29,11.18,10.27,9.77,9.62,9.46,9.31,9.16,9.07,8.92,8.82,8.78,8.80,8.80,8.80,8.80,8.80,8.80,8.80,8.83,8.88,8.88,8.89,8.90,8.90,8.90,8.96,8.98,8.98,8.98,9.00,9.00,9.00,9.02,9.08,9.08
57.21,57.19,56.69,55.30,53.57,51.84,50.31,49.03,47.95,46.94,46.04,45.60,45.94,47.14,48.32,49.49,50.60,51.47,51.76,51.34,50.12,48.03,44.04,42.62,42.70,43.37,44.14,44.87,45.07,44.60,43.44,42.15,40.98,40.00,39.27,38.64,38.40,38.49,38.85,39.28,39.66,40.04,40.40,40.63,40.86,41.07,41.43,41.99,42.32,42.44,42.42,42.30,42.23,42.08,42.04,42.11,42.28,42.56,42.85,43.15,43.47,43.82,44.17,44.49,44.89,45.51,46.40,47.32,48.23,49.14,50.31,52.26,54.36,56.47,58.65,60.72,62.74,64.72,66.67,68.62,70.78,73.08,75.46,77.84,80.31,82.95,85.70,88.36,90.98,93.50,96.03,98.68,101.48,104.67,107.99,111.27,114.34,117.17,120.35,123.81,127.40,131.61,135.91,140.67,145.94,150.91,155.22,159.82,164.80,169.87,174.33,178.41,182.54,187.08,192.28,197.42,202.42,207.54,213.54,221.32,228.61,235.23,241.35,248.75,254.92,260.49,265.89,271.38,275.69,275.77,271.46,263.96,255.43,246.75,238.24,230.28,224.59,218.04,211.82,206.46,202.12,197.31,192.35,187.51,183.06,178.34,173.09,168.00,163.32,157.89,152.44,147.26,142.52,138.34,135.14,133.06,132.19,132.53,133.92,136.29,139.17,142.53,146.85,152.99,159.21,164.61,168.34,167.44,165.65,163.10,159.90,155.84,151.21,146.65,142.29,138.04,134.19,129.58,124.60,119.76,115.96,112.20,108.46,104.74,101.04,97.16,93.42,89.88,86.51,83.03,78.82,74.08,69.08,64.46,60.38,56.63,53.03,49.28,44.88,41.05,38.06,35.97,34.19,32.88,31.98,31.34,30.59,29.71,28.62,27.29,25.70,24.15,22.44,20.77,19.31,18.23,17.14,16.09,15.06,13.95,12.84,11.69,10.64,9.84,9.71,9.57,9.43,9.31,9.20,9.08,8.96,8.87,8.84,8.81,8.80,8.81,8.84,8.84,8.84,8.86,8.90,8.90,8.90,8.92,8.94,8.94,8.99,9.00,9.00,9.00,9.00,9.03,9.04,9.05,9.10,9.10
59.10,58.47,57.36,55.65,53.88,52.11,50.54,49.27,48.41,47.71,47.01,46.53,46.49,47.63,48.73,49.84,50.98,52.00,52.22,51.66,50.41,48.60,44.83,43.70,43.95,44.58,45.34,45.86,45.56,44.57,43.64,42.30,41.03,39.98,39.29,38.77,38.94,39.32,39.71,40.09,40.35,40.62,40.91,41.14,41.37,41.72,42.17,42.71,43.18,43.34,43.34,43.26,43.18,43.04,42.88,42.80,42.88,43.10,43.44,43.79,44.10,44.41,44.79,45.13,45.44,45.75,46.56,47.46,48.38,49.34,50.66,52.59,54.65,56.72,58.79,60.74,62.76,64.85,66.95,69.06,71.51,74.03,76.51,79.00,81.71,84.48,87.25,89.97,92.68,95.02,97.36,99.98,102.57,105.48,108.83,112.48,116.00,118.73,121.51,124.46,127.62,131.00,134.65,138.53,142.67,147.39,151.77,156.32,161.05,165.71,170.15,174.37,178.85,184.06,190.66,196.63,201.93,206.95,212.89,221.02,228.52,235.24,241.53,250.06,257.10,263.07,268.35,273.56,278.04,278.35,274.19,266.75,257.00,247.50,238.52,230.28,224.11,217.27,211.04,205.93,201.92,197.42,192.55,187.60,182.95,178.22,173.07,168.11,163.56,158.56,153.05,147.65,142.72,138.58,136.43,135.81,136.21,137.17,139.23,141.41,143.65,146.27,150.46,157.53,164.57,170.60,174.83,172.30,169.65,166.70,163.24,158.60,153.84,149.40,145.25,141.02,137.22,133.35,129.07,124.22,120.04,116.15,112.21,108.14,104.32,100.46,96.67,92.99,89.45,85.77,81.99,77.56,72.28,67.22,62.76,58.71,54.92,51.20,47.05,42.85,39.38,37.36,35.92,34.87,34.07,33.38,32.44,31.36,30.11,28.64,26.86,25.09,23.31,21.54,19.85,18.76,17.74,16.73,15.68,14.52,13.37,12.22,11.05,9.92,9.83,9.69,9.57,9.48,9.33,9.24,9.12,8.98,8.91,8.83,8.81,8.83,8.90,8.90,8.90,8.90,8.90,8.90,8.91,8.95,9.00,9.00,9.00,9.00,9.00,9.01,9.01,9.07,9.10,9.10,9.10,9.10
59.90,59.24,58.13,56.43,54.70,53.02,51.47,50.14,49.19,48.48,47.78,47.19,46.86,47.76,48.75,49.84,51.02,52.29,52.79,52.22,50.68,48.47,45.68,44.96,45.24,45.72,46.38,46.12,45.37,44.37,43.39,42.28,41.22,40.27,39.50,39.28,39.51,39.87,40.22,40.60,40.90,41.17,41.42,41.65,41.93,42.36,42.90,43.48,44.00,44.25,44.30,44.22,44.14,43.99,43.84,43.73,43.70,43.77,44.04,44.39,44.74,45.05,45.42,45.77,46.08,46.38,46.96,47.71,48.55,49.48,50.95,52.75,54.62,56.49,58.36,60.29,62.32,64.44,66.64,69.15,71.77,74.39,77.00,79.74,82.81,85.86,88.84,91.75,94.57,96.90,99.19,101.73,103.93,106.56,109.71,113.34,117.30,120.38,123.30,126.18,129.14,132.28,135.53,138.93,142.49,146.37,150.49,155.20,160.06,164.13,167.93,172.17,177.15,183.07,190.06,196.24,202.08,208.01,214.79,222.42,229.58,236.45,243.50,251.43,258.24,263.96,268.91,274.46,278.50,278.84,275.00,267.21,257.92,248.16,238.83,230.74,224.77,217.93,211.44,205.94,201.98,197.48,192.73,187.87,183.07,178.15,173.05,168.17,163.66,158.96,153.70,148.79,144.48,140.73,139.91,140.22,141.17,142.32,143.15,144.82,147.05,150.14,155.56,161.97,168.54,174.53,179.12,178.72,176.71,172.72,166.89,161.26,156.33,152.18,148.49,144.46,140.86,137.12,133.12,128.81,124.48,120.48,116.35,111.96,107.69,103.74,99.75,95.90,92.45,89.06,85.09,80.53,75.42,69.92,65.38,61.20,57.17,53.19,49.03,44.98,41.52,39.10,37.90,36.95,36.04,35.08,33.99,32.63,31.03,29.27,27.44,25.66,23.88,22.19,20.66,19.42,18.37,17.31,16.18,14.97,13.91,12.85,11.64,10.17,9.93,9.75,9.63,9.54,9.39,9.30,9.18,9.05,8.97,8.89,8.87,8.88,8.90,8.90,8.90,8.90,8.91,8.96,8.97,8.98,9.00,9.00,9.00,9.00,9.02,9.07,9.07,9.09,9.10,9.10,9.10,9.15
60.72,60.00,58.91,57.33,55.68,54.10,52.58,51.19,50.03,49.19,48.45,47.85,47.50,48.17,48.96,49.99,51.30,52.87,53.36,52.57,50.77,48.48,46.62,46.24,46.52,46.81,46.94,46.23,45.29,44.31,43.33,42.38,41.44,40.57,39.84,39.96,40.27,40.58,40.84,41.13,41.41,41.68,41.94,42.19,42.58,43.07,43.63,44.22,44.76,45.11,45.23,45.18,45.13,44.98,44.83,44.68,44.52,44.42,44.65,45.00,45.38,45.69,46.06,46.41,46.71,47.02,47.43,48.04,48.79,49.68,51.20,52.86,54.56,56.26,57.96,59.83,61.92,64.19,66.59,69.30,72.00,74.68,77.37,80.25,83.64,87.05,90.36,93.47,96.43,99.03,101.53,104.12,106.05,108.29,111.00,114.30,118.37,121.89,125.00,127.86,130.67,133.55,136.59,139.74,142.98,146.38,150.41,155.22,160.09,163.67,167.05,171.19,176.22,182.25,189.71,196.02,202.16,208.68,216.17,223.39,230.32,237.26,244.55,252.12,258.93,264.62,269.36,274.95,278.74,279.00,275.33,267.81,258.69,248.91,239.48,231.33,225.51,219.02,212.40,206.32,202.25,197.74,193.09,188.34,183.50,178.50,173.21,168.20,163.71,159.15,154.21,149.89,146.59,144.56,144.92,145.72,146.65,147.48,147.63,148.67,150.42,153.28,158.87,164.85,171.18,177.13,181.70,183.08,181.38,176.87,170.26,164.11,158.92,154.80,151.41,147.88,144.49,140.92,137.22,133.47,129.07,124.90,120.66,116.22,111.61,107.15,102.73,98.54,94.86,91.61,87.72,83.25,78.27,72.60,67.80,63.32,59.01,54.92,50.82,46.99,43.65,41.06,39.95,38.89,37.79,36.61,35.38,33.70,31.77,29.77,27.95,26.24,24.56,22.97,21.52,20.18,19.05,17.95,16.83,15.64,14.63,13.54,12.18,10.44,10.01,9.80,9.70,9.61,9.45,9.34,9.23,9.10,9.00,8.95,8.93,8.92,8.90,8.90,8.92,8.93,8.94,9.00,9.00,9.00,9.00,9.00,9.03,9.03,9.06,9.10,9.10,9.10,9.11,9.13,9.13,9.18
61.56,60.76,59.72,58.37,56.82,55.33,53.86,52.40,50.94,49.85,49.02,48.51,48.38,48.85,49.33,50.27,51.81,53.72,53.90,52.72,50.70,48.61,47.63,47.55,47.80,47.85,47.05,46.21,45.32,44.39,43.46,42.60,41.70,40.87,40.30,40.82,41.19,41.43,41.58,41.66,41.88,42.15,42.46,42.77,43.30,43.84,44.38,44.92,45.46,45.93,46.15,46.15,46.15,46.01,45.85,45.65,45.35,45.05,45.26,45.64,46.02,46.33,46.70,47.04,47.35,47.66,47.98,48.45,49.09,49.93,51.40,52.93,54.49,56.04,57.59,59.35,61.56,64.09,66.78,69.49,72.19,74.89,77.63,80.56,84.21,88.06,91.81,95.13,98.29,101.38,104.35,107.11,108.89,110.63,112.67,115.34,119.21,123.26,126.63,129.49,132.19,134.83,137.80,140.93,144.11,147.36,151.46,156.30,161.07,164.26,167.44,171.34,176.02,181.59,189.60,195.99,202.20,208.99,217.07,223.95,230.77,237.69,244.74,252.16,259.18,265.04,269.71,275.05,278.76,278.87,275.23,268.54,259.31,249.75,240.46,232.04,226.32,220.51,213.89,207.04,202.72,198.19,193.63,188.99,184.20,179.25,173.55,168.20,163.71,159.15,154.58,150.94,149.04,149.97,151.37,152.23,152.60,152.64,152.65,152.92,153.76,155.74,160.50,166.25,172.58,178.48,182.67,185.53,183.80,179.27,173.38,167.13,161.59,157.26,154.02,151.28,148.13,144.75,141.39,138.20,133.79,129.40,125.14,120.90,116.05,110.68,105.60,100.93,96.71,93.47,89.88,85.71,80.83,75.26,70.04,65.09,60.48,56.38,52.43,48.87,45.78,43.23,42.07,40.70,39.31,37.99,36.61,34.56,32.33,30.17,28.39,26.84,25.34,23.86,22.41,21.02,19.76,18.64,17.62,16.53,15.52,14.28,12.69,10.75,10.07,9.84,9.76,9.67,9.52,9.36,9.25,9.15,9.00,9.00,9.00,8.97,8.90,8.90,8.96,9.00,9.00,9.00,9.00,9.00,9.00,9.00,9.08,9.10,9.10,9.10,9.10,9.10,9.14,9.20,9.20,9.20
62.36,61.59,60.67,59.47,58.06,56.60,55.14,53.67,52.20,50.92,49.90,49.29,49.22,49.83,50.64,51.76,53.22,55.10,54.49,52.99,51.08,49.04,48.48,48.39,48.42,48.21,47.41,46.57,45.68,44.75,43.83,42.97,42.07,41.41,41.30,41.98,42.46,42.72,42.83,42.90,43.07,43.25,43.36,43.35,43.97,44.54,45.10,45.68,46.22,46.74,47.04,47.11,47.11,46.97,46.75,46.45,46.05,45.65,45.83,46.24,46.66,46.96,47.34,47.68,47.99,48.30,48.61,49.01,49.61,50.47,51.80,53.19,54.67,56.21,57.76,59.38,61.69,64.42,67.22,69.92,72.59,75.23,77.89,80.87,84.46,88.32,92.43,96.88,100.49,104.15,107.42,109.91,111.45,113.15,115.16,117.64,120.94,124.84,128.22,131.12,133.73,136.35,139.25,142.32,145.48,148.58,152.58,157.00,161.33,164.83,168.00,171.99,176.29,180.78,188.96,195.63,202.11,209.06,217.12,223.89,230.75,237.77,244.80,251.84,258.59,264.40,269.16,274.35,278.39,278.71,275.37,269.81,260.48,251.26,242.27,233.68,227.54,221.67,215.03,208.12,203.89,199.41,194.59,189.66,184.97,180.26,174.30,168.55,163.78,159.27,155.66,154.07,154.38,155.69,156.84,157.50,157.73,157.69,157.64,157.69,157.97,158.91,161.70,166.86,173.07,179.54,185.38,187.99,186.46,182.39,176.97,170.52,164.86,160.33,156.88,154.18,151.26,148.19,145.09,142.06,138.45,133.84,129.07,124.47,119.93,114.48,108.82,103.24,97.96,94.85,91.59,87.60,82.58,76.88,71.49,66.43,61.69,57.27,53.78,50.57,47.71,45.33,43.98,42.44,40.88,39.33,37.51,35.44,33.29,31.22,29.45,27.95,26.50,25.08,23.66,22.22,20.87,19.64,18.52,17.48,16.43,14.93,13.08,11.12,10.14,9.84,9.76,9.68,9.57,9.43,9.32,9.22,9.06,9.06,9.06,9.03,8.96,8.96,8.99,9.00,9.00,9.00,9.04,9.06,9.06,9.06,9.09,9.10,9.10,9.11,9.15,9.16,9.18,9.20,9.20,9.25
63.24,62.47,61.56,60.44,59.17,57.73,56.27,54.81,53.38,52.11,51.14,50.61,50.64,51.24,52.24,53.43,54.73,56.15,54.98,53.37,51.63,49.75,49.25,49.04,48.88,48.54,47.79,46.95,46.06,45.14,44.23,43.36,42.53,42.10,42.43,43.20,43.77,44.06,44.11,44.20,44.33,44.37,44.26,43.95,44.58,45.19,45.80,46.43,46.99,47.53,47.90,48.07,48.07,47.89,47.61,47.23,46.75,46.27,46.42,46.83,47.27,47.60,47.98,48.32,48.63,48.94,49.25,49.69,50.32,51.21,52.38,53.66,55.03,56.48,57.95,59.47,61.94,64.97,67.99,70.77,73.39,75.92,78.50,81.53,84.98,88.79,93.13,98.33,102.35,106.42,109.89,112.31,113.92,115.68,117.89,120.60,123.69,127.28,130.49,133.31,135.86,139.02,141.94,144.80,147.65,150.24,153.74,157.53,161.38,165.15,168.53,172.45,176.33,180.10,188.03,194.93,201.61,208.56,216.36,223.08,230.10,237.36,244.56,251.21,257.74,263.56,268.48,273.41,277.28,277.83,275.13,270.47,261.61,252.73,243.97,235.41,228.74,222.53,215.89,209.24,205.03,200.63,195.62,190.44,185.71,181.11,174.98,168.98,164.07,159.82,157.36,157.42,159.23,160.79,161.93,162.62,162.92,162.93,162.87,162.81,162.69,162.74,163.87,167.72,173.74,180.95,188.05,190.67,189.42,185.85,181.02,174.57,168.50,163.68,160.09,157.14,154.32,151.37,148.33,145.25,142.14,137.66,132.66,127.68,123.27,117.70,111.57,105.19,98.90,95.89,92.83,88.99,83.95,78.12,72.63,67.46,62.61,58.10,55.01,52.09,49.45,47.28,45.76,44.11,42.44,40.70,38.54,36.47,34.44,32.48,30.70,29.16,27.72,26.32,24.91,23.46,22.04,20.70,19.48,18.42,17.20,15.47,13.46,11.49,10.22,9.84,9.76,9.69,9.61,9.48,9.38,9.28,9.13,9.12,9.11,9.08,9.02,9.00,9.00,9.01,9.02,9.02,9.08,9.10,9.10,9.10,9.10,9.11,9.12,9.13,9.19,9.20,9.20,9.21,9.22,9.28
64.27,63.42,62.37,61.22,60.05,58.63,57.16,55.73,54.39,53.46,52.92,52.78,52.99,53.34,54.21,55.30,56.32,56.61,55.35,53.89,52.43,50.90,49.90,49.42,49.16,48.86,48.16,47.34,46.45,45.54,44.68,43.76,43.10,43.00,43.70,44.48,45.12,45.42,45.39,45.54,45.63,45.48,45.09,44.59,45.07,45.73,46.46,47.13,47.74,48.30,48.75,49.03,49.03,48.76,48.41,47.98,47.45,46.92,47.02,47.40,47.85,48.23,48.62,48.96,49.27,49.58,49.89,50.53,51.35,52.21,53.24,54.45,55.67,56.89,58.16,59.62,62.34,65.81,69.27,72.25,74.81,77.20,79.66,82.74,85.94,89.64,94.04,99.28,103.65,107.82,111.39,114.08,116.29,118.21,120.94,124.52,128.00,131.08,133.86,136.43,138.96,143.50,146.62,149.01,151.07,152.58,154.95,157.82,161.16,165.08,168.99,172.56,175.95,179.65,186.68,193.66,200.45,207.16,214.38,221.13,228.45,236.17,243.85,250.11,256.53,262.49,267.65,272.14,275.03,275.81,274.25,270.13,262.61,254.10,245.41,237.21,229.84,222.91,216.32,210.37,206.06,201.78,196.75,191.38,186.41,181.72,175.52,169.51,164.72,161.06,160.02,160.96,163.06,164.87,166.49,167.60,168.24,168.49,168.48,168.47,168.14,167.59,167.63,169.08,174.76,182.94,190.48,193.69,192.82,189.80,185.79,179.63,172.67,167.42,163.83,160.24,157.29,154.18,150.88,147.41,144.26,140.49,135.77,130.39,125.79,119.97,113.51,106.59,99.42,96.40,93.38,89.65,84.77,78.84,73.34,68.03,63.07,58.91,56.07,53.34,50.89,49.00,47.32,45.68,43.99,42.13,39.77,37.77,35.86,34.01,32.24,30.49,29.00,27.58,26.13,24.73,23.28,21.87,20.53,19.32,17.72,15.85,13.85,11.86,10.29,9.84,9.76,9.69,9.61,9.53,9.44,9.35,9.19,9.19,9.14,9.10,9.08,9.01,9.00,9.03,9.09,9.09,9.10,9.10,9.10,9.10,9.10,9.15,9.19,9.19,9.20,9.20,9.20,9.22,9.29,9.30
65.18,64.21,63.10,61.94,60.78,59.47,58.18,56.97,55.82,55.33,55.13,55.19,55.49,55.60,56.27,57.11,57.72,57.28,55.93,54.51,53.13,51.79,50.70,49.97,49.52,49.24,48.54,47.72,46.83,45.93,45.12,44.13,43.85,44.22,45.03,45.72,46.42,46.74,46.67,46.82,46.70,46.36,45.86,45.28,45.53,46.15,46.92,47.69,48.34,48.97,49.66,50.24,50.24,49.66,49.13,48.64,48.10,47.60,47.64,47.98,48.43,48.82,49.20,49.57,49.91,50.22,50.56,51.37,52.36,53.33,54.25,55.33,56.49,57.69,58.88,60.88,63.90,67.46,70.91,73.93,76.48,79.09,82.00,85.05,88.48,92.62,97.06,100.90,104.90,108.80,112.35,115.38,118.10,121.19,124.70,128.44,131.88,134.89,138.03,141.29,144.62,148.24,150.78,152.72,154.33,155.48,157.28,159.85,163.01,166.39,170.15,173.81,177.28,180.79,187.39,193.05,198.56,204.54,212.09,218.38,225.71,233.98,242.58,249.13,255.54,261.50,266.75,270.99,273.40,273.93,272.53,269.20,262.65,254.80,246.43,238.26,231.38,224.06,217.33,211.59,206.86,202.49,197.49,192.15,187.01,182.09,176.12,170.52,166.33,164.23,164.06,165.20,167.16,169.25,171.74,174.00,175.55,176.02,175.86,175.23,174.26,173.28,173.17,174.80,179.83,186.93,193.79,196.95,196.11,193.20,189.47,184.22,178.04,172.20,167.24,163.57,160.14,156.60,152.90,149.05,145.64,141.88,137.35,132.10,126.98,120.74,114.00,106.87,99.41,96.51,93.62,90.06,85.36,79.21,73.77,68.55,63.59,59.33,57.02,54.97,52.96,50.91,48.93,47.22,45.51,43.61,41.29,39.28,37.40,35.59,33.77,32.03,30.40,28.85,27.39,26.00,24.55,23.12,21.71,20.23,18.40,16.34,14.23,12.23,10.41,9.86,9.76,9.69,9.61,9.53,9.46,9.38,9.31,9.26,9.23,9.19,9.15,9.11,9.07,9.07,9.10,9.10,9.10,9.10,9.11,9.15,9.15,9.18,9.20,9.20,9.20,9.23,9.25,9.26,9.30,9.30
66.04,64.98,63.85,62.73,61.62,60.54,59.46,58.42,57.52,57.40,57.48,57.72,58.12,57.99,58.37,58.79,58.89,57.96,56.61,55.25,53.96,52.74,51.67,50.74,50.07,49.67,48.95,48.14,47.25,46.32,45.49,44.60,44.74,45.52,46.37,47.02,47.74,48.07,47.95,48.03,47.67,47.17,46.61,46.00,46.00,46.53,47.33,48.15,48.86,49.64,50.63,51.57,51.72,50.92,50.23,49.56,48.74,48.27,48.26,48.54,48.98,49.37,49.76,50.16,50.53,50.85,51.28,52.20,53.33,54.40,55.29,56.27,57.37,58.60,59.97,62.55,65.78,69.28,72.64,75.65,78.31,81.25,84.67,87.84,91.76,96.17,100.28,102.76,106.30,109.83,113.26,116.59,119.92,124.18,128.37,132.15,135.50,138.83,142.52,146.42,150.25,152.75,154.70,156.33,157.76,158.90,160.50,162.92,165.88,168.73,172.24,175.98,179.66,183.29,189.14,193.35,197.47,202.57,210.19,215.96,223.12,231.62,240.82,248.03,254.66,260.66,265.94,270.08,272.25,272.53,271.11,268.37,262.53,255.34,247.28,238.95,232.65,225.39,218.69,212.99,207.72,203.17,198.21,192.93,187.71,182.63,177.14,172.33,169.02,168.26,168.65,169.83,171.69,174.17,177.46,180.75,183.11,183.77,183.38,182.17,180.65,179.28,179.04,181.24,185.72,191.54,197.33,200.02,199.06,196.17,192.56,188.17,182.93,176.81,170.71,166.73,162.68,158.57,154.42,150.25,146.50,142.58,138.13,133.02,127.42,120.86,114.04,106.93,99.36,96.57,93.79,90.40,85.88,79.51,74.06,69.00,64.27,60.09,58.28,56.84,55.18,52.93,50.67,48.81,47.02,45.10,42.89,40.87,38.98,37.16,35.32,33.60,31.86,30.19,28.68,27.27,25.80,24.34,22.85,21.17,19.21,17.01,14.77,12.71,10.64,9.95,9.78,9.70,9.61,9.54,9.47,9.42,9.42,9.35,9.32,9.29,9.23,9.22,9.15,9.11,9.10,9.10,9.10,9.11,9.14,9.20,9.20,9.20,9.21,9.22,9.22,9.27,9.30,9.30,9.32,9.32
66.82,65.75,64.74,63.77,62.86,62.34,61.41,60.24,59.73,59.68,59.97,60.46,60.98,60.65,60.50,60.14,59.46,58.53,57.40,56.29,55.20,54.09,53.07,52.08,51.13,50.23,49.41,48.67,47.77,46.71,45.63,45.42,45.92,46.81,47.72,48.52,49.16,49.41,49.24,49.03,48.50,47.91,47.32,46.77,46.47,46.91,47.69,48.48,49.23,50.34,51.70,53.04,53.78,53.21,52.50,51.34,49.38,48.85,48.83,49.07,49.43,49.88,50.27,50.69,51.12,51.49,52.06,53.03,54.16,55.24,56.34,57.31,58.31,59.61,61.82,64.69,67.83,71.10,74.36,77.37,80.43,83.79,87.51,91.33,96.23,100.01,102.64,104.88,108.17,111.28,114.41,117.82,122.15,126.88,131.29,135.18,138.68,143.15,147.43,151.17,154.14,156.44,158.27,160.00,161.80,163.48,165.62,167.93,170.40,173.20,176.67,180.09,184.01,188.76,192.68,195.94,199.24,203.33,209.62,215.04,221.68,229.48,237.97,246.52,253.94,260.23,265.45,269.79,272.08,272.46,271.07,268.18,262.52,255.83,247.94,239.02,232.87,226.72,220.71,214.84,208.88,204.03,199.06,193.92,188.79,183.82,179.42,176.15,174.26,173.55,173.95,175.21,177.34,180.46,184.11,187.59,190.07,190.90,190.16,188.95,187.34,185.61,184.73,186.94,191.38,196.65,200.96,202.37,201.11,198.24,194.58,190.54,185.60,180.19,174.60,169.24,164.36,159.50,154.84,150.54,146.29,142.19,137.56,132.22,126.48,120.04,113.71,107.12,99.55,96.76,93.98,90.67,86.31,79.79,74.07,69.31,65.44,62.15,60.58,59.13,57.40,55.10,52.79,50.59,48.53,46.59,44.54,42.57,40.62,38.71,36.91,35.15,33.42,31.71,30.02,28.50,26.97,25.39,23.77,22.19,20.33,18.13,15.79,13.53,11.22,10.20,9.84,9.76,9.62,9.59,9.54,9.48,9.48,9.46,9.42,9.37,9.35,9.29,9.22,9.15,9.10,9.10,9.10,9.14,9.19,9.20,9.20,9.20,9.23,9.28,9.28,9.29,9.30,9.32,9.38,9.38
68.00,67.00,66.07,65.16,64.41,64.29,63.75,63.00,63.19,63.23,63.55,63.95,64.14,63.41,62.95,62.22,61.09,59.92,58.71,57.62,56.60,55.56,54.52,53.50,52.46,51.34,50.18,49.10,48.01,46.93,46.01,46.37,47.12,48.05,48.99,50.14,50.96,51.27,51.00,50.15,49.30,48.60,48.03,47.49,47.07,47.33,47.97,48.71,49.45,50.70,52.28,54.01,55.65,55.51,55.18,54.16,51.90,50.38,49.76,49.74,50.09,50.52,50.89,51.28,51.71,52.13,52.84,53.84,54.96,56.08,57.24,58.27,59.49,61.12,63.46,66.29,69.37,72.61,75.92,79.20,82.71,86.47,90.56,95.18,99.23,102.24,104.50,106.76,109.72,112.61,115.59,118.90,123.91,128.87,133.33,137.38,141.72,146.85,151.42,155.13,157.87,160.51,162.68,164.78,167.00,169.13,171.25,173.36,175.63,178.41,181.61,184.93,188.68,192.95,196.07,199.17,202.42,206.18,211.30,216.27,222.44,229.74,237.81,246.23,253.93,260.45,265.67,270.21,272.75,273.14,271.51,268.27,262.75,256.34,248.74,240.01,233.87,228.22,222.63,216.82,210.40,205.20,200.30,195.66,191.38,187.35,184.28,182.09,180.68,179.95,179.89,180.86,183.06,186.76,190.99,194.59,196.92,197.45,196.12,194.42,192.50,190.69,189.71,191.87,196.02,200.79,204.47,204.69,202.77,199.66,196.05,192.07,187.23,181.96,176.44,170.85,165.02,159.57,154.57,149.99,145.08,140.74,136.19,131.07,125.38,119.34,113.50,107.19,99.35,96.59,93.85,90.52,86.11,79.64,74.05,69.83,66.95,64.92,63.42,61.79,59.82,57.44,55.09,52.76,50.44,48.15,46.15,44.20,42.23,40.29,38.51,36.77,35.03,33.29,31.55,29.84,28.18,26.54,24.91,23.30,21.24,18.98,16.62,14.27,11.88,10.48,9.86,9.78,9.66,9.64,9.62,9.59,9.59,9.59,9.53,9.49,9.48,9.37,9.28,9.20,9.14,9.10,9.13,9.17,9.20,9.20,9.24,9.24,9.26,9.30,9.30,9.33,9.34,9.36,9.40,9.40
69.41,68.50,67.61,66.73,66.15,66.31,66.26,66.22,67.18,67.32,67.58,67.71,67.40,66.24,65.56,64.64,63.24,61.76,60.34,59.14,58.10,57.08,56.00,54.97,53.90,52.68,51.09,49.51,48.15,47.12,46.57,47.38,48.31,49.28,50.31,51.86,52.95,53.39,53.00,51.44,50.20,49.36,48.79,48.22,47.76,47.81,48.22,48.87,49.57,50.97,52.75,54.86,57.39,57.80,57.98,57.40,55.35,52.54,51.05,50.62,50.95,51.33,51.65,52.00,52.40,52.84,53.61,54.61,55.73,56.90,58.05,59.19,60.76,62.80,64.95,67.58,70.62,73.93,77.34,80.98,84.89,89.02,93.48,98.82,101.39,103.65,106.03,108.40,111.03,113.81,116.71,119.89,125.40,130.46,134.93,139.19,144.56,150.16,154.91,158.69,161.53,164.74,167.52,170.17,172.83,175.31,177.24,179.19,181.44,184.24,187.00,190.16,193.47,196.66,199.61,202.87,206.31,209.98,214.14,218.72,224.57,231.52,239.19,246.78,254.40,261.04,266.29,271.02,273.96,274.36,272.35,268.65,263.23,256.96,249.69,241.51,235.33,229.87,224.53,218.85,212.18,206.65,201.94,198.06,195.04,192.21,190.39,188.94,187.52,186.68,186.04,186.63,188.89,193.23,198.12,201.75,203.71,203.76,201.77,199.32,196.94,195.00,194.20,196.45,200.35,204.68,207.93,207.04,204.31,200.79,197.16,193.11,188.24,182.84,177.19,171.77,165.04,159.17,153.97,149.05,143.44,138.88,134.49,129.76,124.24,118.70,113.26,107.08,98.96,96.23,93.54,90.18,85.63,79.35,74.19,70.69,68.79,67.99,66.48,64.58,62.35,59.89,57.49,55.13,52.55,49.82,47.74,45.79,43.83,41.92,40.14,38.43,36.67,34.92,33.20,31.25,29.43,27.75,26.16,24.41,22.07,19.72,17.37,14.98,12.61,10.83,9.92,9.80,9.72,9.72,9.72,9.71,9.71,9.71,9.66,9.61,9.59,9.44,9.35,9.28,9.20,9.12,9.18,9.20,9.20,9.20,9.28,9.30,9.30,9.30,9.31,9.37,9.40,9.40,9.40,9.41
71.21,70.15,69.18,68.43,68.20,68.41,68.84,69.54,70.80,71.05,71.15,71.01,70.47,69.25,68.19,67.02,65.65,64.07,62.51,61.05,59.72,58.55,57.47,56.40,55.28,53.98,52.00,50.10,48.57,47.64,47.68,48.35,49.33,50.63,52.23,53.88,55.07,55.56,55.15,53.44,51.97,50.83,49.94,49.18,48.77,48.59,48.62,48.88,49.63,51.63,54.02,56.50,58.93,59.92,60.34,60.16,59.24,56.18,53.89,52.67,52.54,52.87,53.18,53.50,53.81,54.05,54.24,55.16,56.39,57.60,58.76,60.21,61.98,63.98,65.98,68.37,71.41,74.84,78.30,81.99,85.83,90.11,94.87,99.67,102.29,104.52,106.75,108.98,111.65,114.45,117.40,120.74,126.44,131.59,136.22,140.79,146.51,152.59,157.78,161.96,165.24,168.80,172.61,176.20,179.29,181.88,184.20,186.54,189.08,192.02,194.03,195.84,198.04,201.07,204.75,207.78,210.63,213.72,217.79,222.94,229.34,236.28,242.81,249.26,256.04,262.26,267.52,272.40,276.28,277.00,274.63,270.34,264.74,258.40,251.35,243.81,237.57,232.10,226.64,220.85,214.57,209.12,205.17,202.71,201.49,198.96,197.02,195.26,193.52,192.14,191.53,192.40,195.30,201.02,206.35,209.44,210.63,210.37,207.83,204.61,201.08,198.01,197.61,201.04,205.79,209.99,211.57,209.69,206.22,201.98,197.57,193.22,188.22,182.75,176.87,170.66,163.90,158.18,153.10,148.07,142.12,137.47,133.10,128.47,123.24,117.92,112.32,106.05,98.58,95.65,93.04,89.80,85.30,79.46,75.64,73.25,71.86,70.81,69.25,67.26,64.97,62.50,60.05,57.53,54.82,51.95,49.28,47.30,45.51,43.78,42.06,40.20,38.39,36.65,34.91,32.87,30.86,29.04,27.29,25.20,22.83,20.45,18.07,15.69,13.57,11.63,10.35,9.87,9.85,9.84,9.84,9.83,9.77,9.77,9.76,9.72,9.66,9.56,9.48,9.40,9.33,9.25,9.26,9.24,9.20,9.20,9.28,9.30,9.30,9.31,9.36,9.39,9.40,9.40,9.40,9.45
73.05,72.06,71.19,70.54,70.76,71.25,72.06,73.16,74.44,74.66,74.61,74.27,73.56,72.27,70.96,69.57,68.06,66.38,64.75,63.17,61.68,60.30,59.03,57.84,56.58,55.09,52.87,50.73,49.13,48.31,48.50,49.30,50.56,52.20,54.08,55.86,57.15,57.70,57.32,55.82,54.66,53.67,52.72,51.60,50.74,49.87,49.27,49.20,49.97,52.20,54.89,57.68,60.34,61.92,62.67,62.79,62.39,59.42,56.73,54.96,54.31,54.37,54.65,54.94,55.16,55.20,54.91,55.62,56.84,58.09,59.31,60.91,62.75,64.72,66.65,68.81,71.79,75.23,78.69,82.32,85.99,90.03,94.53,99.34,102.01,104.24,106.47,108.88,111.71,114.69,117.87,121.46,127.11,132.29,137.12,141.97,147.71,154.39,159.95,164.38,168.02,172.63,177.07,181.05,184.47,187.53,190.33,193.24,196.13,198.63,200.02,201.28,203.20,206.28,209.43,212.03,214.51,217.38,221.78,227.58,234.06,240.44,245.86,251.34,257.49,263.56,269.11,274.14,278.51,279.71,277.51,272.76,266.98,260.67,253.89,246.81,240.47,234.76,228.99,222.97,217.03,212.40,209.73,208.62,208.26,205.98,203.59,201.27,199.15,197.42,196.85,198.39,202.33,208.80,213.87,216.27,216.80,216.21,213.40,209.78,206.12,203.31,203.25,207.69,212.24,215.08,214.63,211.36,207.11,202.36,197.49,192.63,187.49,181.88,175.75,169.04,162.61,157.14,152.06,146.76,140.82,136.19,131.81,127.19,122.28,117.09,111.30,104.96,98.27,95.22,92.46,89.30,85.30,80.61,77.80,76.01,74.74,73.36,71.68,69.68,67.42,64.98,62.51,59.90,57.10,54.15,51.30,49.15,47.32,45.65,43.98,42.05,40.18,38.38,36.59,34.51,32.40,30.42,28.45,26.13,23.71,21.24,18.78,16.43,14.34,12.47,11.12,10.39,10.14,10.09,10.09,10.09,10.01,9.96,9.88,9.80,9.73,9.65,9.57,9.51,9.45,9.38,9.32,9.27,9.24,9.24,9.29,9.32,9.34,9.34,9.39,9.40,9.40,9.41,9.43,9.48
74.92,74.19,73.55,72.96,73.73,74.69,75.81,77.01,78.09,78.16,77.96,77.49,76.69,75.30,73.85,72.24,70.47,68.69,67.05,65.47,63.91,62.29,60.67,59.26,57.80,56.03,53.72,51.40,49.81,49.09,49.09,50.24,51.96,53.94,55.87,57.80,59.21,59.80,59.51,58.50,58.09,57.64,56.79,55.18,53.49,51.54,50.11,49.77,50.55,52.69,55.44,58.49,61.65,63.81,64.96,65.29,64.96,62.33,59.59,57.44,56.22,55.84,56.05,56.32,56.44,56.29,55.61,56.03,57.11,58.42,59.73,61.36,63.17,65.11,67.04,68.97,71.82,75.22,78.62,82.10,85.52,88.99,92.81,98.06,100.80,103.03,105.38,108.23,111.31,114.61,118.15,122.07,127.48,132.65,137.70,142.82,148.30,155.68,161.58,166.12,170.05,176.28,181.01,184.94,188.61,192.46,195.79,199.41,202.72,204.28,205.16,206.53,208.84,212.16,213.72,215.76,218.04,220.97,226.06,232.54,238.72,244.12,248.46,253.11,258.81,264.95,270.98,276.16,280.68,282.46,280.87,275.78,269.79,263.61,257.15,250.37,243.89,237.76,231.52,225.20,219.55,216.32,215.37,215.55,215.29,213.20,210.12,207.02,204.49,202.56,202.04,204.56,209.86,216.58,220.81,222.43,222.35,221.44,218.59,214.83,211.88,210.46,210.69,215.99,219.52,220.01,217.24,212.24,207.17,202.11,197.03,191.47,186.17,180.38,173.96,167.01,161.22,156.05,150.89,145.18,139.54,135.02,130.59,125.91,121.35,116.24,110.21,103.82,98.01,94.92,91.83,88.71,85.56,82.60,80.55,78.93,77.46,75.68,73.84,71.88,69.74,67.34,64.87,62.22,59.37,56.41,53.71,51.28,49.25,47.51,45.89,43.96,42.03,40.13,38.26,36.17,34.02,31.86,29.63,27.16,24.69,22.07,19.50,17.19,14.95,13.34,12.16,11.28,10.59,10.43,10.44,10.47,10.40,10.24,10.04,9.87,9.79,9.71,9.64,9.60,9.58,9.50,9.36,9.30,9.30,9.30,9.30,9.36,9.40,9.40,9.40,9.40,9.40,9.42,9.50,9.50
77.22,76.62,76.12,75.86,76.88,78.28,79.61,80.75,81.74,81.84,81.63,81.09,80.18,78.49,77.01,75.38,73.48,71.46,69.45,67.71,66.14,64.52,62.75,61.06,59.25,57.19,54.92,52.65,50.75,49.56,49.66,51.27,53.15,55.17,57.29,59.47,61.30,62.12,61.86,61.53,61.39,61.12,60.43,59.00,56.88,54.57,52.55,51.25,51.58,53.53,56.01,58.74,61.86,65.55,67.63,68.19,67.59,65.21,62.56,60.04,58.02,57.34,57.43,57.66,57.73,57.38,56.64,56.64,57.37,58.68,60.05,61.72,63.48,65.27,67.05,68.93,71.66,74.92,78.17,81.45,84.39,87.18,90.13,94.01,97.98,101.15,103.81,106.77,109.85,113.22,116.96,121.18,126.34,131.57,136.73,141.95,147.78,155.06,161.12,166.24,171.21,177.66,182.52,186.70,190.77,194.82,198.69,202.82,206.74,209.36,210.88,212.85,215.13,217.48,219.17,221.11,223.61,226.85,231.17,236.97,242.11,246.59,250.83,255.36,260.89,266.94,273.06,278.48,282.92,285.01,284.00,279.15,273.08,266.74,260.25,253.72,247.52,241.04,234.40,228.06,223.39,222.12,222.26,222.76,222.50,220.32,216.96,213.44,210.49,208.66,208.73,211.94,217.48,222.98,225.56,226.41,226.14,225.23,222.37,218.73,216.19,215.62,217.36,220.80,222.05,220.74,217.27,211.51,206.40,201.27,195.70,189.65,184.34,178.16,171.32,165.30,159.89,154.90,149.69,143.73,138.48,134.02,129.68,125.22,120.76,115.62,109.97,104.10,98.45,95.60,93.03,90.54,88.08,86.17,84.30,82.13,79.74,77.63,75.76,73.77,71.68,69.52,67.14,64.48,61.68,58.91,56.59,54.51,52.16,49.76,47.75,45.86,43.98,42.01,39.90,37.72,35.56,33.37,31.11,28.68,25.76,22.81,20.05,17.66,15.81,14.45,13.40,12.53,11.74,11.40,11.33,11.36,11.28,11.08,10.66,10.20,9.86,9.78,9.70,9.64,9.58,9.51,9.40,9.36,9.36,9.36,9.36,9.38,9.40,9.40,9.40,9.40,9.43,9.47,9.50,9.50
79.26,78.85,78.65,78.87,80.13,81.85,83.34,84.47,85.33,85.53,85.38,84.86,83.92,82.11,80.54,78.80,76.76,74.60,72.37,70.38,68.56,66.75,64.98,63.14,61.00,58.49,56.19,53.94,51.87,50.41,50.48,52.36,54.33,56.35,58.53,61.05,63.36,64.47,64.28,64.30,64.50,64.45,63.88,62.49,60.00,57.37,54.86,52.83,52.60,54.35,56.63,59.24,62.72,67.28,69.94,70.76,70.16,68.07,65.55,62.78,60.17,59.13,59.10,59.20,59.07,58.44,57.72,57.34,57.67,58.86,60.25,61.95,63.71,65.45,67.17,68.99,71.51,74.52,77.66,80.62,83.20,85.63,88.12,91.13,95.58,99.34,102.38,105.43,108.54,111.95,115.73,119.93,124.76,130.01,135.29,140.67,146.66,153.74,160.02,165.72,171.44,177.91,182.90,187.32,191.70,196.06,200.46,205.09,209.68,213.59,216.15,218.85,221.31,223.25,225.13,227.03,229.57,232.84,236.49,241.53,245.89,249.83,254.02,258.40,263.67,269.58,275.76,281.07,285.36,287.47,286.63,281.88,275.98,269.87,263.60,257.21,251.12,244.26,237.34,231.23,227.69,227.98,228.91,229.51,229.04,226.82,223.54,219.90,216.58,214.76,215.81,219.59,224.91,229.30,230.89,231.26,230.74,229.53,226.59,223.29,221.32,221.39,223.43,224.37,223.42,220.67,216.51,210.48,205.40,200.08,193.90,187.77,182.33,175.85,168.83,163.39,158.43,153.63,148.44,142.47,137.58,133.18,128.87,124.48,120.00,115.02,109.84,104.65,99.65,97.21,95.29,93.42,91.38,89.86,87.90,85.32,82.39,79.86,77.77,75.71,73.66,71.64,69.41,66.84,64.16,61.59,59.55,57.67,55.22,52.47,50.06,47.89,45.93,43.89,41.61,39.33,37.12,34.92,32.65,30.22,27.03,23.82,20.82,18.25,16.71,15.58,14.65,13.80,12.95,12.41,12.24,12.25,12.15,11.80,11.21,10.56,10.02,9.86,9.76,9.69,9.61,9.53,9.46,9.43,9.43,9.43,9.43,9.43,9.43,9.43,9.43,9.41,9.44,9.50,9.50,9.52
80.93,80.82,81.13,82.03,83.54,85.38,86.97,88.14,88.85,89.23,89.24,88.86,88.02,86.30,84.57,82.61,80.40,78.24,76.01,73.64,71.25,68.99,67.41,65.60,63.15,60.01,57.56,55.28,53.24,51.77,51.64,53.51,55.51,57.50,59.51,62.53,65.37,66.86,66.81,66.68,67.33,67.60,67.08,65.49,62.76,59.81,56.95,54.54,53.57,55.14,57.35,60.08,64.50,69.00,71.76,72.87,72.67,70.92,68.56,65.71,62.78,61.30,61.17,61.02,60.50,59.47,58.83,58.15,58.05,58.92,60.32,62.02,63.82,65.65,67.42,69.20,71.37,73.99,77.07,79.53,81.95,84.44,87.07,89.88,93.80,97.63,101.13,104.28,107.44,110.87,114.47,118.23,122.62,127.81,133.27,138.87,144.75,151.51,158.08,164.36,170.42,176.63,181.77,186.43,191.00,195.80,200.72,205.85,211.17,216.66,220.81,224.38,227.34,229.66,231.78,233.70,236.04,238.94,242.10,246.29,250.23,254.12,258.36,262.49,267.37,273.09,279.32,284.04,288.06,289.82,288.59,283.74,278.35,273.01,267.30,260.90,254.67,247.38,240.39,234.80,232.60,233.91,235.20,235.61,234.66,232.49,229.75,226.40,222.76,220.84,223.40,227.59,232.08,235.54,237.04,237.32,236.48,234.56,231.42,228.76,227.62,228.03,228.69,226.27,223.25,219.57,214.72,209.04,204.09,198.41,191.47,185.84,180.07,173.43,166.56,161.21,156.82,152.20,147.09,141.47,136.87,132.54,128.19,123.68,119.00,114.43,109.86,105.55,101.88,100.09,98.98,97.69,95.73,93.72,91.26,88.50,85.53,82.51,79.93,77.72,75.71,73.70,71.66,69.33,66.90,64.55,62.60,60.74,58.45,55.80,53.00,50.10,47.87,45.77,43.39,41.01,38.74,36.54,34.29,31.76,28.56,25.19,21.92,19.03,17.69,16.75,15.93,15.08,14.23,13.48,13.17,13.13,12.98,12.34,11.66,10.97,10.32,9.96,9.83,9.75,9.67,9.60,9.52,9.49,9.49,9.49,9.49,9.49,9.49,9.49,9.49,9.43,9.44,9.50,9.50,9.57
82.87,83.23,83.78,84.73,86.83,88.41,89.52,90.25,90.74,91.17,91.28,91.06,90.56,89.58,88.31,86.60,84.46,82.17,79.81,77.34,74.83,72.43,70.63,68.56,65.81,62.25,58.81,56.48,54.57,53.09,52.60,54.32,56.20,58.16,60.38,64.90,67.95,69.25,69.13,69.23,69.98,70.35,69.93,68.43,65.30,61.57,58.13,55.65,54.44,55.93,58.20,61.14,65.99,69.96,72.89,74.70,75.33,73.76,71.36,68.49,65.68,64.51,64.38,64.06,63.22,61.76,60.46,59.38,58.84,59.12,60.72,62.56,64.48,66.41,68.27,70.01,71.90,74.02,76.43,78.70,81.12,83.72,86.49,89.31,92.98,96.75,100.41,103.83,107.13,110.57,114.05,117.50,121.23,125.92,130.94,136.13,141.66,147.96,154.31,160.69,167.21,173.60,179.22,184.26,188.97,194.09,199.12,204.43,210.32,217.17,222.61,227.22,230.98,233.89,236.43,238.43,240.39,242.79,246.56,250.08,253.73,257.52,261.38,265.14,269.84,275.26,280.95,285.38,288.90,290.47,289.60,285.87,280.89,275.87,270.66,265.04,258.74,251.68,244.97,239.90,239.29,240.85,241.84,241.64,239.95,237.19,234.58,232.08,229.92,229.51,232.22,235.68,239.08,241.98,243.53,243.77,242.75,240.57,237.86,235.76,234.51,233.77,231.99,227.64,223.17,218.56,213.32,207.98,202.99,197.08,189.90,184.17,177.69,171.00,164.62,159.41,155.07,150.51,145.63,140.47,136.25,132.07,127.66,123.00,118.50,114.58,110.90,107.56,104.72,103.02,101.94,100.73,98.91,96.66,94.13,91.45,88.64,85.68,83.03,80.77,78.74,76.72,74.58,72.25,69.92,67.71,65.82,63.78,61.58,59.25,56.81,53.68,50.64,47.79,45.17,42.78,40.44,38.18,35.89,33.29,30.25,26.90,23.43,20.18,18.82,17.94,17.15,16.30,15.45,14.67,14.22,13.95,13.54,12.81,12.07,11.34,10.61,10.02,9.84,9.76,9.69,9.66,9.58,9.55,9.54,9.50,9.50,9.53,9.54,9.50,9.50,9.47,9.47,9.50,9.50,9.58
84.62,85.43,86.25,87.23,89.59,90.90,91.61,91.98,92.29,92.74,92.95,92.93,92.72,92.39,91.58,90.18,88.23,86.01,83.58,81.07,78.54,76.07,73.92,71.56,68.65,64.94,60.25,57.72,55.87,54.35,53.48,55.04,56.77,58.76,61.39,67.19,70.44,71.74,71.79,72.11,72.78,72.99,72.44,70.95,67.57,63.23,59.25,56.60,55.28,56.70,59.08,62.28,67.32,71.03,74.20,76.66,78.08,76.72,74.33,71.52,68.96,68.02,67.89,67.29,66.02,64.19,62.36,60.93,59.91,59.47,61.22,63.19,65.20,67.20,69.16,71.00,72.76,74.49,76.27,78.29,80.67,83.32,86.15,88.99,92.46,96.14,99.86,103.49,106.92,110.35,113.70,116.90,120.10,124.27,128.74,133.39,138.51,144.28,150.27,156.56,163.29,170.05,176.22,181.72,186.69,192.08,197.10,202.43,208.55,216.13,222.77,228.34,232.82,236.34,239.49,241.67,243.46,245.59,249.63,252.62,255.99,259.64,263.22,266.65,271.22,276.41,281.68,285.83,289.04,290.73,290.52,287.98,283.50,278.77,273.97,269.13,263.17,256.49,250.31,246.06,246.78,248.35,248.91,248.05,245.59,242.30,239.78,238.12,237.45,238.34,240.76,243.42,246.04,248.61,250.07,250.20,249.04,246.77,244.38,242.40,240.56,238.32,234.23,228.56,223.09,217.80,212.33,207.25,202.17,196.10,188.80,182.70,175.63,168.93,163.01,157.92,153.52,149.00,144.34,139.62,135.77,131.75,127.39,122.82,118.72,115.43,112.63,110.17,107.90,105.98,104.68,103.39,101.65,99.35,96.83,94.24,91.59,88.79,86.24,83.99,81.92,79.89,77.69,75.38,73.12,71.01,69.07,66.78,64.58,62.49,60.45,57.39,53.80,50.30,47.30,44.76,42.28,39.89,37.49,34.87,31.98,28.74,25.25,21.72,19.87,18.89,18.14,17.31,16.49,15.74,15.17,14.66,14.00,13.23,12.47,11.71,10.93,10.16,9.89,9.78,9.72,9.70,9.64,9.62,9.59,9.52,9.52,9.57,9.57,9.52,9.52,9.51,9.50,9.50,9.52,9.58
85.82,86.96,88.18,89.39,91.11,92.30,93.02,93.39,93.69,94.15,94.52,94.69,94.58,94.45,93.80,92.67,91.14,89.51,87.20,84.71,82.18,79.71,77.07,74.42,71.67,68.41,62.19,59.10,57.08,55.49,54.27,55.67,57.25,59.41,62.81,68.91,72.49,74.46,75.38,75.75,76.04,75.54,74.26,72.42,69.28,64.91,60.61,57.43,56.05,57.42,60.01,63.51,68.36,72.69,76.28,79.07,80.97,80.01,77.78,75.26,73.06,71.83,71.66,70.50,68.46,66.42,64.69,63.09,61.51,60.17,61.81,63.80,65.84,67.86,69.92,72.17,74.13,75.80,77.27,78.80,80.94,83.46,86.20,89.00,92.29,95.83,99.48,103.11,106.64,110.00,113.19,116.25,119.30,123.04,126.95,131.00,135.68,140.83,146.36,152.25,158.52,165.92,172.70,178.81,184.35,189.94,194.83,199.87,205.54,212.32,220.13,226.33,231.24,235.34,239.47,242.06,244.29,246.74,249.79,252.51,255.59,259.03,262.71,265.99,270.44,275.64,281.00,284.80,288.25,290.74,291.62,289.93,286.24,281.87,277.31,272.93,268.25,262.05,256.86,254.16,255.53,256.81,256.89,255.42,252.22,248.79,246.48,245.39,245.52,246.56,248.13,250.32,252.96,255.63,256.63,256.43,255.18,253.08,250.44,247.57,244.31,240.32,234.66,228.59,222.96,217.62,212.21,207.17,201.97,195.82,188.51,181.62,174.37,167.79,162.06,157.03,152.48,148.01,143.55,139.13,135.57,131.70,127.70,123.79,120.48,117.72,115.62,113.79,111.66,109.01,107.21,105.62,103.79,101.85,99.30,96.72,94.19,91.59,89.32,87.18,85.10,83.03,80.98,78.81,76.66,74.53,72.30,69.67,67.30,65.22,63.32,60.85,57.58,53.92,50.25,47.21,44.44,41.78,39.15,36.53,33.73,30.81,27.63,24.07,20.65,19.27,18.56,17.84,17.12,16.46,15.82,15.13,14.32,13.55,12.82,12.09,11.32,10.54,10.08,9.84,9.77,9.70,9.69,9.68,9.66,9.58,9.58,9.59,9.59,9.58,9.58,9.53,9.50,9.52,9.58,9.60
86.86,87.93,89.26,90.74,92.47,93.72,94.47,94.84,95.15,95.60,96.08,96.40,96.40,96.50,96.02,95.12,93.85,92.13,90.01,87.65,85.15,82.61,79.69,76.80,73.84,70.44,64.30,60.33,57.84,56.36,55.26,56.63,58.10,60.54,64.94,70.69,74.55,77.29,79.16,79.65,78.98,77.64,75.73,73.29,70.21,66.04,61.76,58.31,56.95,58.20,61.02,64.94,69.62,74.08,78.02,81.28,83.71,84.08,82.71,80.67,78.55,76.70,75.89,74.13,71.41,68.36,66.49,64.68,62.81,61.19,62.77,64.67,66.61,68.58,70.81,73.36,75.48,77.15,78.48,80.05,82.09,84.41,86.90,89.61,92.78,96.17,99.62,102.96,106.54,109.90,113.03,115.97,118.87,122.36,126.02,129.84,134.26,138.67,143.62,149.09,154.97,161.86,168.97,175.57,181.41,187.12,192.19,197.15,202.45,208.69,216.13,222.50,227.77,232.11,236.58,240.14,242.93,245.24,247.77,250.33,253.06,256.16,259.79,263.29,267.91,273.35,279.07,283.28,286.93,290.05,292.14,292.25,289.15,285.27,281.00,276.62,272.40,267.64,264.16,262.73,263.56,264.21,264.03,262.50,259.10,255.77,253.63,252.61,252.66,253.85,255.41,257.02,258.71,260.70,261.02,260.27,258.54,255.99,252.82,249.10,244.90,239.99,233.31,227.78,222.57,217.41,212.08,207.02,201.74,195.57,188.21,180.42,173.25,166.80,161.15,156.31,151.80,147.32,142.93,138.73,135.58,132.56,129.23,125.71,123.08,121.00,119.39,117.97,116.31,113.38,110.65,108.21,106.09,104.20,101.62,99.00,96.52,94.11,92.10,90.14,88.19,86.20,84.16,82.08,80.01,77.93,75.72,72.98,70.38,68.08,66.15,63.98,61.02,57.56,53.88,50.32,47.16,44.27,41.52,38.75,35.77,32.82,29.76,26.43,22.50,20.24,19.01,18.32,17.66,17.03,16.35,15.60,14.78,13.97,13.22,12.46,11.65,10.88,10.27,9.93,9.83,9.75,9.75,9.75,9.72,9.65,9.65,9.65,9.63,9.60,9.60,9.56,9.55,9.56,9.60,9.63
87.84,88.67,90.02,91.80,93.77,95.14,95.93,96.30,96.59,97.06,97.62,98.06,98.19,98.50,98.20,97.52,96.44,94.47,92.52,90.30,87.84,85.23,82.14,78.97,75.62,71.83,66.35,61.49,58.45,57.12,56.33,57.68,59.24,62.09,67.34,72.50,76.62,80.15,82.97,83.68,81.98,79.67,77.02,73.97,70.82,66.90,62.81,59.23,57.87,59.05,62.16,66.56,71.07,75.46,79.64,83.33,86.30,88.30,88.09,86.64,84.52,82.01,80.29,77.88,74.53,70.31,68.07,66.00,63.98,62.31,63.86,65.65,67.47,69.40,71.81,74.54,76.80,78.54,79.86,81.65,83.65,85.77,88.01,90.67,93.75,96.96,100.14,103.10,106.61,109.91,112.96,115.78,118.51,121.76,125.28,129.06,133.28,137.03,141.41,146.46,152.05,158.16,165.38,172.26,178.19,183.99,189.32,194.29,199.32,205.14,211.58,217.86,223.40,227.90,232.42,236.91,240.24,242.43,244.80,247.23,249.64,252.42,256.02,259.96,264.86,270.56,276.66,281.61,285.53,289.19,292.42,294.52,292.18,289.04,285.22,280.78,276.81,273.66,271.90,271.46,271.46,271.46,271.08,269.59,266.17,263.06,261.01,259.83,259.50,260.71,262.41,263.38,263.76,264.42,263.90,262.48,260.14,256.91,253.16,248.71,243.86,238.40,231.29,226.60,221.99,217.09,211.85,206.72,201.35,195.11,187.66,179.29,172.29,165.98,160.35,155.78,151.39,146.96,142.70,138.88,136.28,134.27,131.65,128.39,126.25,124.70,123.40,122.22,121.04,118.16,114.68,111.39,108.80,106.63,104.00,101.40,98.92,96.55,94.75,92.98,91.18,89.33,87.28,85.27,83.26,81.23,79.14,76.44,73.67,71.10,69.03,67.00,64.29,61.15,57.73,53.76,50.20,47.05,44.18,41.25,38.04,34.94,31.90,28.80,24.80,21.59,19.60,18.78,18.16,17.54,16.84,16.06,15.28,14.44,13.64,12.84,12.00,11.23,10.51,10.06,9.88,9.82,9.81,9.81,9.78,9.71,9.71,9.70,9.67,9.61,9.60,9.60,9.60,9.60,9.60,9.68
88.81,89.33,90.75,92.92,95.14,96.54,97.36,97.75,97.94,98.44,99.03,99.55,99.91,100.22,100.15,99.72,98.85,97.18,95.14,92.83,90.36,87.85,84.70,81.08,77.07,72.72,67.78,62.58,59.21,57.84,57.39,58.58,61.17,64.98,69.74,74.36,78.68,82.86,86.52,87.88,85.96,82.31,78.10,74.80,71.26,67.53,63.77,60.29,58.63,60.15,63.88,68.79,73.00,77.29,81.24,84.89,88.34,91.77,92.88,92.22,90.23,87.53,84.63,81.34,77.51,73.00,69.60,67.08,65.00,63.34,64.94,66.70,68.54,70.58,73.14,75.70,78.00,80.01,81.71,83.60,85.59,87.68,89.96,92.87,95.90,98.85,101.65,104.26,107.08,109.96,112.76,115.37,117.75,120.46,123.81,127.75,131.77,135.50,139.61,144.39,150.07,156.23,162.95,169.23,174.75,180.60,185.94,191.02,196.11,201.64,206.98,212.54,218.01,223.03,227.30,231.39,234.91,237.93,241.08,243.41,245.75,248.61,252.53,257.40,262.63,268.24,274.18,280.17,284.71,288.83,292.62,295.75,295.44,294.12,291.53,287.60,284.42,281.95,280.50,280.01,280.01,280.01,279.31,277.40,273.84,271.07,268.73,267.18,266.63,267.20,268.05,268.27,267.39,264.89,263.10,260.91,257.99,254.15,250.16,245.53,240.43,234.96,229.28,225.23,220.96,216.22,211.08,205.75,200.05,193.43,185.84,178.75,172.02,165.67,160.06,155.88,151.65,147.69,144.29,141.69,140.23,138.59,136.22,133.18,130.70,128.62,127.04,125.75,124.42,122.38,120.05,117.07,113.35,109.65,107.07,104.78,102.31,99.16,97.35,95.63,93.88,92.09,90.29,88.37,86.37,84.29,82.14,79.88,77.34,74.70,72.29,70.11,67.39,64.40,61.27,57.60,53.78,50.18,46.94,44.06,40.94,37.82,34.61,31.23,27.33,23.74,20.98,19.29,18.67,18.06,17.35,16.56,15.73,14.94,14.12,13.30,12.51,11.74,10.94,10.29,9.90,9.88,9.87,9.84,9.79,9.77,9.77,9.73,9.69,9.67,9.61,9.60,9.60,9.60,9.60,9.68
90.26,90.58,92.03,94.31,96.54,98.00,98.84,99.21,99.36,99.82,100.34,100.85,101.34,101.68,101.70,101.35,100.64,99.62,97.68,95.37,92.87,90.28,87.20,83.37,79.04,74.43,69.57,64.41,60.62,58.64,58.38,59.96,63.10,67.23,71.70,76.22,80.77,85.16,88.89,90.17,88.75,85.15,80.46,76.33,72.61,68.98,65.26,61.57,59.65,61.63,65.68,70.58,74.74,78.98,82.89,86.69,90.66,95.12,96.90,96.56,94.57,91.59,88.23,84.32,79.90,75.12,70.95,68.08,66.00,64.54,66.04,67.72,69.67,71.93,74.55,77.12,79.59,81.82,83.68,85.58,87.62,89.98,92.75,95.94,98.75,101.37,103.86,106.25,108.54,110.78,112.97,115.10,117.08,119.37,122.48,126.32,130.17,134.00,137.88,142.26,147.68,154.04,160.46,166.25,171.30,176.94,182.28,187.40,192.50,197.91,202.54,207.34,212.06,216.45,220.44,224.24,228.36,232.80,237.03,239.55,242.44,246.11,250.74,256.73,262.10,267.34,272.80,278.98,284.27,289.24,293.83,297.68,299.41,299.71,298.41,295.53,292.71,290.24,288.72,288.11,287.67,286.97,285.95,284.08,280.75,278.12,275.54,273.47,272.14,271.22,270.60,269.50,267.40,263.65,260.97,258.12,254.75,250.71,246.47,241.76,236.71,231.58,227.21,223.58,219.35,214.54,209.44,204.01,197.86,191.22,184.40,178.30,171.75,165.33,159.70,155.95,152.93,150.02,147.52,145.76,144.81,143.37,141.26,138.59,136.02,133.67,131.66,129.86,128.03,126.22,124.30,121.69,118.10,114.27,111.28,108.63,105.96,102.77,100.60,98.53,96.57,94.80,93.04,91.17,89.20,87.13,84.99,82.90,80.59,78.13,75.66,73.28,70.55,67.64,64.61,61.12,57.39,53.65,50.06,46.85,43.78,40.67,37.38,33.77,29.91,26.12,22.79,20.27,19.24,18.57,17.84,17.04,16.22,15.41,14.60,13.80,13.02,12.22,11.40,10.66,10.09,9.91,9.90,9.87,9.83,9.80,9.80,9.76,9.72,9.69,9.64,9.61,9.60,9.61,9.64,9.68
92.06,92.24,93.66,95.88,97.97,99.48,100.34,100.67,100.83,101.20,101.59,102.03,102.56,102.94,102.98,102.62,102.03,101.87,100.16,97.92,95.36,92.58,89.63,85.78,81.38,76.68,71.59,66.75,62.49,59.53,59.34,61.64,65.00,69.02,73.37,78.07,82.84,87.16,90.42,91.13,90.68,88.09,83.68,78.35,74.61,70.99,67.13,63.03,60.85,63.37,67.52,72.06,76.31,80.56,84.57,88.66,93.19,98.33,100.33,100.00,97.92,94.60,91.26,86.92,81.84,76.81,72.18,69.03,66.98,65.86,67.17,68.74,70.83,73.40,76.03,78.73,81.44,83.87,85.72,87.60,89.76,92.60,96.13,99.58,102.06,104.34,106.57,108.80,110.66,112.14,113.51,114.98,116.52,118.50,121.32,124.89,128.59,132.55,136.21,140.12,144.99,151.62,157.88,163.29,167.88,173.12,178.42,183.53,188.60,194.01,198.22,202.23,205.79,208.79,212.49,216.09,221.06,227.28,232.76,235.71,239.61,244.56,250.16,257.35,262.74,267.42,272.22,278.02,284.16,290.22,295.76,300.10,303.87,305.66,305.65,304.15,301.36,298.45,296.60,295.81,294.64,292.77,291.41,289.86,287.00,284.35,281.53,278.83,276.34,273.40,270.91,268.14,264.89,261.18,257.92,254.47,250.77,246.79,242.30,237.59,232.78,228.25,225.09,221.70,217.33,212.29,207.19,201.70,195.09,188.69,183.24,177.91,171.50,165.00,159.37,156.10,154.98,153.48,151.90,150.68,149.82,148.43,146.60,144.40,141.94,139.47,136.96,134.41,131.85,129.83,127.81,125.58,122.97,119.96,116.26,112.81,109.80,107.08,104.30,101.62,99.28,97.48,95.62,93.76,91.83,89.81,87.72,85.63,83.55,81.39,79.08,76.47,73.74,70.86,67.81,64.41,61.02,57.35,53.45,49.66,46.58,43.51,40.18,36.40,32.54,28.66,24.90,21.58,19.86,19.08,18.33,17.50,16.72,15.88,15.08,14.31,13.53,12.68,11.89,11.12,10.41,9.94,9.90,9.90,9.87,9.80,9.80,9.80,9.77,9.70,9.70,9.63,9.60,9.62,9.70,9.70
93.95,93.74,94.91,97.23,99.36,100.85,101.71,102.09,102.30,102.67,103.06,103.46,103.90,104.28,104.43,104.34,104.06,103.86,102.18,100.10,97.71,94.88,91.59,87.77,83.38,78.48,73.49,68.99,64.97,61.83,60.57,62.88,66.21,70.23,74.76,79.27,83.84,87.82,90.73,91.73,91.27,89.83,86.88,81.55,77.17,73.01,68.95,65.03,62.41,64.80,68.77,73.09,77.39,81.74,85.97,90.62,96.14,99.95,101.68,101.43,99.41,96.24,92.32,87.57,82.31,77.13,72.83,69.76,67.82,67.01,68.38,70.23,72.42,74.88,77.55,80.39,83.31,85.94,87.92,90.53,93.69,96.93,99.97,102.69,105.02,107.25,109.34,111.18,112.83,114.15,115.39,116.75,118.04,120.13,122.79,125.89,129.20,132.09,135.04,138.20,141.72,147.86,154.57,160.52,165.22,169.66,174.60,179.52,184.52,189.98,194.20,197.98,201.37,204.49,208.00,211.98,217.20,223.36,228.69,233.45,238.95,244.91,250.80,258.09,263.43,268.21,273.35,279.44,286.42,292.77,298.27,303.21,308.18,311.10,311.69,309.95,307.01,303.88,301.81,300.75,299.04,296.58,294.07,291.41,288.40,284.76,280.88,276.95,273.19,270.10,267.55,264.67,261.29,257.48,254.26,250.66,246.75,242.63,238.05,233.54,229.43,225.84,222.72,218.95,214.34,209.25,204.25,198.56,192.88,187.65,182.98,177.60,171.38,165.82,161.79,160.34,159.93,158.66,156.98,155.51,154.31,152.88,151.24,149.42,147.55,145.33,142.87,140.21,137.41,134.94,132.55,130.11,127.51,124.50,121.20,117.80,114.43,111.32,108.38,105.55,102.89,100.46,98.20,96.21,94.21,92.09,89.90,87.76,85.65,83.56,81.44,79.17,76.55,73.69,70.69,67.40,64.06,60.69,57.20,53.31,49.53,46.19,42.92,39.27,35.46,31.12,27.10,23.83,21.37,19.85,18.80,17.99,17.17,16.37,15.59,14.80,13.98,13.18,12.40,11.63,10.88,10.21,9.98,9.90,9.89,9.87,9.87,9.83,9.79,9.76,9.71,9.68,9.67,9.67,9.70,9.70
95.60,95.06,95.98,98.30,100.37,101.89,102.92,103.51,103.79,104.17,104.54,104.91,105.30,105.64,105.89,106.05,106.10,105.84,104.48,102.61,100.18,97.00,93.48,89.73,85.42,80.44,75.61,71.24,67.27,63.98,62.08,64.23,67.42,71.37,75.92,80.21,84.42,88.10,90.87,92.10,91.89,91.11,89.04,84.35,79.46,74.94,70.73,66.82,63.78,65.91,69.72,74.00,78.47,82.89,87.40,92.49,98.49,101.39,103.06,102.88,100.76,97.45,92.92,87.88,82.63,77.42,73.51,70.46,68.59,68.18,69.73,71.90,74.22,76.61,79.29,82.27,85.33,88.23,90.79,94.03,97.55,100.77,103.43,105.75,108.06,110.18,112.02,113.46,114.98,116.20,117.39,118.76,120.21,122.47,125.05,127.75,130.50,132.74,135.14,137.69,140.35,145.59,151.77,157.61,162.47,166.60,171.18,175.91,180.75,185.74,190.00,193.79,197.33,200.89,204.75,209.03,214.62,221.12,226.38,232.28,238.78,245.37,251.46,258.46,264.15,269.44,275.05,281.78,289.04,295.40,300.85,306.06,312.49,315.94,316.44,314.41,311.10,307.76,305.27,303.53,301.21,298.22,294.88,291.30,287.61,283.35,278.68,274.10,270.00,266.93,264.18,261.07,257.49,253.61,250.04,246.22,242.22,238.15,233.90,229.94,226.42,223.26,219.96,216.00,211.43,206.56,201.81,196.25,191.19,186.64,182.41,177.34,172.04,167.88,165.41,165.06,165.21,164.39,162.96,161.41,159.54,157.62,155.88,154.39,152.98,151.04,148.73,146.15,143.46,140.74,137.86,135.00,132.23,129.33,126.20,122.79,119.17,115.62,112.54,109.52,106.54,103.62,101.01,98.71,96.54,94.38,92.14,89.93,87.76,85.66,83.63,81.57,79.16,76.47,73.55,70.33,67.06,63.87,60.63,56.94,52.82,49.11,45.63,42.06,38.30,33.71,29.41,25.91,23.03,20.85,19.42,18.50,17.65,16.87,16.10,15.30,14.46,13.69,12.93,12.17,11.41,10.68,10.32,10.18,10.10,9.90,9.90,9.86,9.82,9.79,9.74,9.71,9.70,9.71,9.73,9.73
96.96,96.16,96.83,99.04,100.91,102.56,103.95,104.94,105.32,105.70,106.04,106.38,106.76,107.00,107.34,107.77,108.13,107.83,107.11,105.49,102.79,98.92,95.30,91.66,87.48,82.57,77.99,73.51,69.37,65.94,63.94,65.72,68.64,72.40,76.80,80.85,84.51,87.91,90.83,92.21,92.53,91.86,90.01,86.69,81.43,76.76,72.46,68.38,64.94,66.64,70.30,74.77,79.53,84.03,88.86,94.24,100.13,102.64,104.46,104.37,101.96,98.15,92.96,87.80,82.79,77.68,74.20,71.12,69.30,69.36,71.26,73.77,76.26,78.64,81.28,84.38,87.50,90.78,94.45,98.18,101.32,104.02,106.43,108.75,111.19,113.16,114.60,115.64,117.10,118.31,119.54,121.05,123.15,125.65,128.20,130.60,132.61,134.69,136.72,138.83,141.21,145.06,149.57,154.53,159.63,164.01,168.25,172.79,177.34,181.24,185.61,189.68,193.74,198.10,202.94,207.43,213.54,220.87,226.12,232.38,239.19,245.98,252.15,258.41,264.90,271.21,277.43,285.20,292.07,298.12,303.51,308.62,316.79,320.08,319.70,317.30,313.35,309.83,306.69,303.78,300.77,297.31,293.52,289.25,284.29,279.83,274.68,270.11,266.77,263.89,260.81,257.31,253.46,249.52,245.15,241.01,237.07,233.29,229.88,226.87,223.82,220.49,216.76,212.83,208.62,204.27,199.97,194.89,190.12,185.66,181.48,177.15,173.61,171.39,170.45,170.35,170.89,170.78,169.99,168.57,165.66,162.70,160.53,159.29,158.18,156.59,154.53,152.25,150.10,147.33,143.85,140.31,137.18,134.53,131.28,127.77,124.04,120.00,116.79,113.54,110.25,106.99,104.08,101.26,98.79,96.68,94.44,92.14,89.88,87.69,85.61,83.60,81.55,79.19,76.36,73.19,70.01,66.84,63.69,60.54,56.51,52.32,48.31,44.75,41.03,36.45,31.86,27.82,24.89,22.15,20.22,19.01,18.16,17.39,16.61,15.81,14.97,14.20,13.48,12.74,12.00,11.37,10.97,10.79,10.52,9.90,9.90,9.90,9.86,9.80,9.79,9.73,9.70,9.72,9.79,9.79
97.84,97.36,98.08,99.81,101.76,103.62,105.23,106.40,106.79,107.18,107.51,107.82,108.11,108.34,108.73,109.15,109.49,109.54,109.36,108.38,106.05,101.75,97.64,93.74,89.59,84.95,80.21,75.76,71.55,67.92,65.69,66.59,69.17,72.97,77.52,81.45,85.00,88.21,90.92,92.53,93.10,92.34,90.30,87.23,82.58,78.03,73.53,69.17,66.27,67.85,71.53,76.20,80.91,85.32,90.38,95.77,100.93,103.40,105.77,105.82,102.96,99.19,93.17,87.74,83.04,78.38,74.91,71.88,70.35,71.06,73.35,75.93,78.57,81.26,84.15,87.54,90.98,94.52,98.24,101.54,104.45,107.19,109.89,112.56,114.87,116.65,117.94,118.90,120.14,121.64,123.31,125.11,127.14,129.08,131.06,133.07,135.00,136.91,139.32,142.26,145.62,148.58,151.90,155.62,159.64,163.43,167.39,171.71,176.15,180.24,184.38,188.45,192.96,198.27,203.25,208.37,214.36,220.98,226.63,233.24,240.23,247.20,253.76,259.77,266.64,273.72,280.78,288.79,295.28,300.89,306.27,312.39,318.76,321.28,320.79,318.33,314.14,310.08,306.27,302.65,298.85,294.76,289.85,284.69,280.17,275.56,270.98,267.04,263.93,260.77,256.97,253.08,249.16,245.04,241.25,237.23,233.41,230.19,227.44,224.87,222.28,219.50,216.25,212.81,209.02,205.11,201.43,196.32,191.48,187.28,183.87,180.86,178.82,177.61,176.95,176.25,175.80,175.02,173.95,172.62,170.40,168.20,166.13,164.35,163.09,161.32,159.38,157.37,155.37,152.81,149.99,147.04,143.99,140.39,136.70,132.96,129.11,124.98,121.37,117.80,114.16,110.47,107.18,104.22,101.53,99.08,96.75,94.43,92.11,89.81,87.59,85.54,83.45,81.26,78.85,75.86,72.58,69.26,66.01,62.92,59.51,55.51,51.28,47.25,43.46,39.16,34.49,29.86,26.61,23.81,21.42,19.61,18.67,17.90,17.12,16.34,15.54,14.81,14.11,13.40,12.69,12.08,11.79,11.54,11.14,10.45,10.01,9.90,9.87,9.80,9.80,9.77,9.76,9.77,9.80,9.80
98.73,98.48,99.30,100.81,102.88,104.90,106.63,107.86,108.26,108.63,108.95,109.22,109.45,109.69,110.02,110.37,110.69,111.00,111.14,110.62,108.78,104.86,100.15,95.89,91.71,87.31,82.54,78.08,73.80,69.99,67.40,67.38,69.63,73.50,78.19,81.99,85.46,88.55,91.16,93.09,93.57,92.54,90.25,87.19,83.19,78.82,74.21,69.73,67.70,69.68,73.54,78.19,82.49,86.77,91.99,97.38,101.92,104.65,107.28,107.36,104.18,99.90,93.36,87.84,83.42,79.14,75.65,72.87,71.77,72.94,75.49,78.05,80.75,83.68,86.93,90.59,94.30,98.03,101.73,104.78,107.68,110.65,113.74,116.62,118.86,120.56,121.81,122.75,123.84,125.59,127.58,129.43,130.99,132.37,133.88,135.61,137.57,139.78,142.71,146.24,150.08,152.49,155.05,157.85,160.92,164.23,168.06,172.29,176.62,180.58,184.47,188.67,193.58,199.31,204.21,209.54,215.21,221.12,227.18,234.20,241.33,248.44,255.43,261.82,269.07,276.70,284.41,292.07,298.08,303.30,308.73,316.05,320.55,322.16,321.40,318.85,314.50,309.94,305.44,301.06,296.60,291.66,285.89,280.30,276.25,271.67,267.61,264.10,260.96,257.35,253.18,249.10,245.18,241.18,238.05,234.62,231.40,228.94,226.91,224.88,222.75,220.37,217.43,214.34,210.96,207.55,204.46,199.72,195.01,191.12,188.44,186.42,185.23,184.38,183.57,182.43,181.01,179.46,177.89,176.40,174.75,173.18,171.37,169.38,167.89,165.81,163.86,162.01,160.06,157.70,155.34,152.84,149.98,145.96,142.03,138.08,134.04,129.86,125.93,122.06,118.16,114.19,110.52,107.27,104.31,101.58,99.09,96.68,94.28,91.90,89.53,87.36,85.20,83.08,80.94,78.20,74.83,71.36,67.99,64.90,61.95,58.27,54.05,49.65,45.68,41.58,36.94,31.96,28.29,25.47,22.77,20.47,19.21,18.43,17.67,16.91,16.16,15.45,14.75,14.05,13.39,12.84,12.64,12.30,11.77,11.04,10.25,9.96,9.87,9.82,9.80,9.80,9.80,9.80,9.80,9.80
99.72,99.41,100.40,102.23,104.50,106.56,108.18,109.27,109.72,110.05,110.32,110.56,110.80,111.03,111.14,111.35,111.71,112.02,112.08,111.54,110.30,108.29,102.92,98.17,93.81,89.58,85.10,80.54,76.16,72.22,69.04,68.15,70.10,74.04,78.82,82.42,85.77,88.87,91.68,94.05,93.86,92.25,89.63,86.42,82.91,78.77,74.25,70.00,69.30,72.64,77.00,81.16,84.42,88.48,93.78,99.20,103.48,107.00,109.25,109.05,105.88,99.88,93.44,88.23,84.03,79.90,76.41,74.31,73.83,75.05,77.59,80.00,82.58,85.57,89.32,93.20,97.02,100.79,104.55,107.94,111.26,114.75,118.31,120.99,123.32,125.17,126.54,127.54,128.68,130.54,132.47,133.86,134.29,135.32,136.70,138.37,140.43,143.91,147.46,150.81,153.79,156.25,158.78,161.38,164.11,167.37,171.36,175.78,179.97,182.79,186.50,191.18,196.34,201.45,205.95,210.58,215.63,221.26,227.66,235.15,242.42,249.59,257.00,264.97,272.65,280.47,288.37,294.65,300.03,304.91,310.54,319.18,322.56,323.07,321.56,318.78,314.33,309.44,304.22,298.87,294.02,287.85,281.94,276.83,272.93,268.75,264.84,261.18,257.62,253.37,249.59,245.73,241.92,238.65,236.03,234.03,232.44,231.04,229.90,228.76,227.07,224.60,221.41,218.25,215.27,212.49,209.89,206.49,202.38,198.86,196.64,194.82,193.26,191.65,190.10,189.00,187.03,184.82,182.55,180.36,178.60,177.01,175.62,174.30,172.52,170.02,167.83,165.89,163.89,161.63,159.06,156.44,153.85,150.77,147.09,142.98,138.63,134.39,130.32,126.27,122.28,118.39,114.37,110.44,107.06,104.28,101.49,98.83,96.33,93.90,91.38,88.97,86.73,84.55,82.32,79.92,76.54,72.94,69.46,66.37,63.42,60.15,56.33,51.87,47.55,43.44,38.99,34.16,29.90,27.05,24.37,21.85,19.80,19.00,18.28,17.57,16.86,16.10,15.39,14.69,14.07,13.72,13.49,13.04,12.37,11.55,10.71,10.15,9.89,9.87,9.81,9.80,9.80,9.80,9.80,9.80
101.98,101.07,101.70,103.74,106.02,108.10,109.68,110.68,111.14,111.43,111.70,111.95,112.18,112.38,112.42,112.52,112.73,113.00,112.93,112.32,111.27,109.98,105.79,100.79,95.99,92.03,88.23,83.69,79.10,74.80,71.11,69.54,71.12,74.96,79.81,83.63,86.96,90.09,93.03,95.24,93.77,91.45,88.73,85.56,82.16,78.33,74.62,71.95,74.31,77.72,81.26,84.54,87.33,91.46,96.57,101.86,106.46,109.60,111.11,110.10,106.21,99.65,93.51,88.48,84.36,80.56,77.30,75.61,75.59,77.14,79.58,81.86,84.28,87.20,91.32,95.38,99.34,103.27,107.27,110.98,114.59,118.35,122.17,125.10,127.70,129.97,131.93,133.58,134.67,136.08,137.32,137.98,138.14,139.18,140.72,142.65,145.03,148.22,151.40,154.44,157.25,159.76,162.22,164.73,167.51,171.17,175.32,179.20,182.52,185.07,188.84,193.27,198.00,202.70,207.26,211.66,216.27,221.54,228.55,236.45,244.17,251.71,259.22,267.75,275.78,283.47,290.70,296.12,301.21,305.98,311.65,320.61,324.15,324.17,321.94,318.62,314.10,309.04,303.56,297.92,292.71,285.98,280.13,275.32,271.26,266.64,262.54,258.64,254.72,250.58,247.75,245.02,242.14,239.17,237.53,236.35,235.42,234.57,233.87,232.94,231.50,229.44,226.69,223.33,220.09,217.13,214.55,211.83,208.78,206.06,204.02,202.09,200.26,198.41,196.60,195.07,192.98,190.67,188.35,186.14,183.99,182.04,180.52,179.28,177.46,174.90,172.38,169.97,167.58,165.26,162.54,159.74,157.07,154.24,150.97,147.18,142.96,138.59,134.31,130.27,126.37,122.50,118.33,114.10,110.20,106.82,103.96,101.10,98.36,95.69,92.99,90.37,88.01,85.73,83.37,80.98,77.73,74.17,70.61,67.41,64.45,61.30,57.64,53.28,48.91,44.83,40.66,36.22,31.67,28.59,25.84,23.32,21.15,19.88,18.98,18.25,17.51,16.78,16.08,15.38,14.79,14.55,14.25,13.68,12.93,12.16,11.34,10.59,10.09,9.89,9.85,9.85,9.83,9.80,9.80,9.84
104.40,102.83,102.98,105.14,107.36,109.44,111.03,112.04,112.53,112.79,113.07,113.35,113.57,113.73,113.76,113.76,113.80,114.00,113.78,113.08,112.08,111.07,108.49,103.53,98.40,94.57,91.46,87.17,82.53,77.92,73.71,71.58,72.66,76.16,80.93,85.03,88.43,91.64,94.63,96.16,93.44,90.50,87.74,84.64,81.26,77.83,75.31,74.83,79.82,82.93,85.57,88.19,90.85,95.05,99.85,104.87,109.69,112.19,112.78,110.80,106.10,99.36,93.55,88.67,84.62,81.20,78.22,76.85,77.23,79.24,81.53,83.71,85.96,88.76,93.20,97.43,101.51,105.57,109.78,113.72,117.62,121.67,125.76,129.05,131.97,134.72,137.32,139.75,140.99,141.95,142.52,142.61,142.80,143.83,145.39,147.38,149.89,152.39,155.03,157.81,160.71,163.25,165.70,168.25,171.17,175.24,179.40,182.53,184.89,187.37,191.13,195.07,199.24,203.70,208.47,212.83,217.14,222.12,229.63,237.91,246.11,254.01,261.50,270.04,278.30,285.82,292.25,297.06,301.99,306.88,312.76,321.68,325.64,325.38,322.46,318.43,313.87,308.73,303.21,297.47,291.90,284.86,279.09,274.43,270.12,264.95,260.70,256.82,253.02,249.54,247.73,246.22,244.41,241.76,240.96,240.19,239.46,238.86,238.24,237.21,235.91,234.29,232.10,228.65,225.10,221.81,219.07,216.69,214.61,212.70,210.85,208.81,206.82,204.90,203.00,201.05,198.94,196.65,194.38,192.29,189.77,187.44,185.58,184.10,182.29,179.81,177.05,174.18,171.33,168.82,165.93,162.95,160.10,157.30,154.35,150.92,146.96,142.51,138.05,134.05,130.27,126.40,122.15,117.74,113.37,109.33,106.38,103.36,100.36,97.42,94.55,91.76,89.23,86.79,84.32,81.82,78.72,75.25,71.64,68.30,65.28,62.11,58.52,54.28,49.96,46.00,42.13,38.11,33.48,30.15,27.29,24.81,22.76,20.99,19.82,18.96,18.18,17.46,16.75,16.07,15.54,15.38,15.03,14.39,13.60,12.90,12.13,11.22,10.41,9.90,9.90,9.90,9.86,9.81,9.81,9.88
105.94,104.08,103.97,106.02,108.14,110.09,111.84,113.23,113.87,114.18,114.44,114.69,114.91,115.07,115.11,115.11,115.11,115.17,114.71,113.94,112.96,111.90,110.30,106.37,101.58,97.22,94.41,91.14,87.22,82.71,77.97,75.51,75.64,78.02,82.08,86.23,89.94,93.44,96.21,95.72,92.56,89.54,86.77,83.62,80.34,77.55,76.92,79.36,83.02,86.03,89.12,92.40,95.59,99.47,103.81,108.21,112.17,114.37,113.82,110.90,105.89,99.05,93.49,88.85,85.01,81.83,79.10,78.01,78.81,81.33,83.53,85.61,87.71,90.40,95.04,99.46,103.55,107.49,111.50,115.50,119.78,124.42,129.18,132.66,135.99,139.02,141.88,144.91,147.12,148.44,149.20,149.71,150.05,150.56,151.21,152.10,153.62,155.76,158.37,161.34,164.48,166.97,169.76,172.63,175.62,179.60,183.07,185.61,187.54,189.68,192.76,196.17,200.14,204.81,209.88,214.30,218.68,223.72,230.93,239.63,248.00,255.82,263.14,270.75,278.89,286.44,292.66,297.23,302.12,307.82,314.75,323.48,327.24,326.71,323.24,318.30,313.69,308.70,303.32,297.58,291.56,284.34,278.42,273.59,269.03,263.92,260.10,257.42,255.63,254.13,252.89,251.76,250.55,248.99,247.82,246.50,245.31,244.43,242.96,241.52,240.01,238.36,236.41,233.48,230.23,226.99,224.05,221.38,219.34,217.78,216.43,214.64,212.82,210.91,209.01,207.36,205.08,202.49,199.91,197.60,195.23,192.82,190.46,188.22,186.27,183.98,181.50,178.74,175.55,172.45,169.24,166.13,163.22,160.38,157.17,153.73,150.00,145.69,141.34,137.24,133.37,129.60,125.35,120.71,116.14,111.94,108.55,105.38,102.23,99.13,96.21,93.37,90.48,87.75,85.26,82.61,79.53,76.13,72.58,69.14,65.84,62.50,58.85,54.66,50.40,46.82,43.31,39.52,35.28,31.83,28.80,26.27,24.42,22.70,21.10,19.82,18.94,18.12,17.31,16.74,16.42,16.21,16.00,15.50,14.80,14.05,13.33,12.29,11.04,9.90,9.90,9.90,9.89,9.88,9.88,9.89
107.23,105.41,104.98,106.49,108.42,110.29,112.23,114.06,115.25,115.56,115.80,116.04,116.29,116.38,116.41,116.38,116.31,116.22,115.63,114.88,113.97,112.89,111.56,108.85,105.06,100.74,97.70,94.74,91.34,87.39,83.04,79.82,78.72,80.12,84.10,88.80,92.99,95.86,96.77,94.67,91.39,88.51,85.91,82.96,80.02,78.56,79.39,82.69,85.98,89.34,92.90,96.55,99.85,103.37,107.26,111.23,114.89,116.63,114.85,110.98,105.76,99.04,93.59,89.16,85.56,82.47,79.80,79.15,80.47,83.39,85.93,88.24,90.49,93.07,96.88,101.02,104.94,108.75,112.66,116.71,121.46,126.57,131.61,135.44,139.10,142.40,145.55,148.98,151.65,153.27,154.26,154.97,155.48,155.80,156.08,156.50,157.47,159.40,162.01,165.12,168.54,171.64,174.96,178.08,180.97,184.63,187.57,189.73,191.37,193.00,195.43,198.33,201.93,206.39,211.53,216.24,220.96,226.21,233.13,241.59,249.79,257.37,264.23,271.33,279.17,286.53,292.67,297.31,302.46,308.90,316.71,325.74,328.76,327.56,323.54,318.17,313.47,308.52,303.31,297.75,291.60,284.37,278.40,273.51,268.98,265.62,262.84,260.93,259.96,259.31,258.28,257.33,256.51,255.63,254.25,252.70,251.20,249.84,247.66,245.80,244.09,242.40,240.54,238.24,235.23,232.09,229.64,227.45,225.76,224.47,223.40,221.98,220.09,217.67,215.06,213.02,210.64,208.03,205.25,202.43,200.24,197.85,195.33,192.76,190.51,188.13,185.59,182.75,179.40,175.83,172.26,168.89,165.82,162.89,159.79,156.37,152.58,148.40,144.14,140.01,136.07,132.32,128.25,123.42,118.62,114.29,110.65,107.39,104.15,100.93,97.87,94.89,91.72,88.70,86.00,83.20,80.16,76.82,73.29,69.85,66.41,62.87,59.04,54.80,50.56,47.14,43.88,40.43,36.81,33.40,30.31,27.72,25.91,24.12,22.34,20.78,19.57,18.66,17.95,17.51,17.27,17.04,16.91,16.57,16.01,15.24,14.54,13.33,11.85,10.43,9.96,9.90,9.90,9.90,9.90,9.90
108.30,106.73,106.02,106.76,108.43,110.28,112.45,114.76,116.69,116.96,117.16,117.40,117.69,117.68,117.67,117.59,117.42,117.19,116.55,115.88,115.14,114.12,112.68,111.21,108.72,104.79,101.25,98.20,95.18,92.02,88.56,84.41,82.02,82.55,86.74,92.24,96.86,98.54,96.76,93.32,90.10,87.46,85.13,82.58,80.25,80.44,82.39,85.36,88.88,92.81,96.80,100.59,103.75,106.94,110.41,114.09,117.75,118.95,115.96,111.17,105.71,99.22,93.82,89.58,86.20,83.11,80.43,80.32,82.23,85.46,88.52,91.22,93.76,96.24,98.73,102.31,105.95,109.64,113.48,117.54,122.79,128.27,133.39,137.65,141.58,145.16,148.62,152.39,155.23,157.16,158.40,159.20,159.90,160.22,160.43,160.75,161.44,163.25,165.83,169.07,172.80,176.85,180.76,184.10,186.84,190.09,192.62,194.53,195.95,197.03,198.85,201.24,204.36,208.36,213.46,218.57,223.76,229.28,235.91,243.74,251.56,258.81,265.05,271.91,279.31,286.37,292.49,297.40,303.00,310.11,318.69,328.20,330.20,328.16,323.64,318.13,313.31,308.31,303.24,297.95,291.87,284.74,278.83,274.03,269.84,269.09,267.62,266.21,265.32,264.82,263.74,262.85,262.27,261.83,260.38,258.80,257.09,255.20,252.49,250.28,248.38,246.61,244.72,243.05,240.28,237.33,235.73,234.44,233.26,232.21,231.27,230.21,228.08,224.90,221.25,218.41,215.92,213.40,210.52,207.10,204.98,202.63,200.12,197.50,194.88,192.24,189.46,186.43,183.03,179.05,175.09,171.40,168.10,165.08,162.25,158.87,154.92,150.82,146.64,142.50,138.50,134.71,130.92,125.92,120.91,116.45,112.67,109.36,106.07,102.77,99.51,96.32,92.94,89.64,86.63,83.68,80.68,77.39,73.88,70.48,67.01,63.22,59.12,54.80,50.55,47.18,44.10,41.06,38.14,34.88,31.79,29.15,27.28,25.36,23.54,21.81,20.20,19.17,18.65,18.34,18.10,17.88,17.78,17.61,17.21,16.45,15.74,14.35,12.77,11.28,10.13,9.92,9.90,9.90,9.90,9.90
108.17,107.27,107.09,107.60,108.88,111.11,113.80,116.46,118.29,118.64,118.78,118.89,119.02,118.86,118.70,118.52,118.31,118.08,117.44,117.27,117.40,117.37,116.33,114.88,112.52,109.10,105.86,102.70,99.69,96.74,93.52,90.03,87.52,87.42,90.97,96.72,99.65,99.68,97.10,93.02,89.46,86.63,84.59,83.33,83.16,83.98,85.72,88.36,92.58,96.80,100.43,103.53,106.69,110.10,113.73,117.37,120.72,121.38,118.22,112.82,106.29,99.80,94.74,90.50,86.90,83.81,81.61,82.26,84.74,87.97,90.53,92.98,95.45,98.01,100.69,103.88,107.26,110.69,114.04,117.66,123.01,128.74,134.07,138.63,142.78,146.63,150.61,155.37,158.61,161.17,163.10,164.44,165.14,165.30,165.32,165.47,166.11,167.64,170.08,173.35,177.29,181.83,185.83,189.38,192.60,195.95,198.54,200.31,201.53,202.71,204.29,206.17,208.68,212.13,217.17,222.51,227.87,233.39,239.77,246.50,253.85,260.99,266.84,273.45,280.32,286.92,292.96,298.46,304.31,312.14,321.28,329.65,331.22,329.39,325.12,319.43,314.12,308.74,303.47,298.20,292.41,285.58,280.32,276.92,275.21,274.80,273.75,272.43,271.12,270.02,268.39,267.23,266.68,266.48,265.75,264.32,262.63,261.08,259.51,257.83,255.87,253.59,251.11,249.06,247.07,245.29,244.04,243.09,242.26,241.41,240.36,238.47,235.74,232.57,229.09,225.42,221.76,218.86,216.31,213.57,209.73,206.71,204.06,201.53,198.96,196.20,193.18,189.93,186.48,181.86,177.68,173.87,170.38,167.21,164.23,161.07,157.51,153.25,148.83,144.51,140.35,136.36,132.53,127.86,122.78,117.81,114.19,110.89,107.57,104.19,100.79,97.31,93.83,90.50,87.38,84.23,81.19,77.96,74.52,71.12,67.65,63.51,59.06,54.74,50.54,47.26,44.37,41.60,38.88,35.86,32.90,30.23,28.12,26.34,24.60,23.03,21.70,20.38,19.60,19.17,18.95,18.77,18.63,18.50,18.23,17.66,16.70,15.28,13.73,12.25,11.14,10.26,9.90,9.90,9.90,9.90
108.43,108.01,108.15,108.57,109.68,112.26,115.36,118.26,119.96,120.33,120.44,120.48,120.51,120.21,119.92,119.63,119.33,119.07,118.69,118.90,119.50,120.02,119.40,118.23,116.19,113.21,110.17,107.16,104.38,101.68,98.59,95.64,93.61,93.43,95.86,100.48,101.77,100.50,97.30,93.04,89.31,86.73,85.42,85.30,86.43,87.89,89.83,92.45,96.69,100.52,103.69,106.46,109.78,113.47,117.52,121.43,124.57,124.10,120.24,114.26,107.21,100.92,96.00,91.64,87.81,84.64,83.27,84.54,87.23,90.20,92.42,94.66,97.08,99.73,102.56,105.56,108.70,111.84,114.79,118.02,123.33,129.15,134.53,139.22,143.51,147.67,152.15,157.65,161.46,164.66,167.21,169.09,170.06,170.57,170.76,170.90,171.60,172.81,174.73,177.59,181.61,186.47,190.58,194.33,197.99,201.71,204.35,206.05,207.15,208.24,209.32,210.68,212.74,215.89,220.86,226.35,231.86,237.37,243.41,249.89,256.90,263.76,269.61,276.23,282.77,288.96,294.72,300.49,306.64,314.98,324.22,330.99,332.22,330.61,326.71,321.14,315.57,310.13,304.91,299.84,294.44,288.17,283.77,281.54,281.25,281.14,280.58,279.27,277.23,275.55,273.70,272.45,271.90,271.80,271.43,269.95,268.04,266.45,265.81,264.76,263.41,261.82,259.95,258.10,256.53,255.13,253.68,252.39,251.03,249.78,248.56,246.29,243.34,240.01,236.35,232.28,228.01,224.57,221.74,219.10,215.20,211.62,208.28,205.21,202.66,199.84,196.69,193.26,189.64,184.57,179.95,175.86,172.28,168.97,165.90,162.87,159.57,155.42,150.82,146.37,142.07,137.89,133.98,129.57,124.56,119.33,115.60,112.19,108.78,105.31,101.78,98.18,94.69,91.38,88.23,84.96,81.84,78.59,75.18,71.76,68.06,63.63,58.99,54.74,50.65,47.53,44.85,42.30,39.78,36.98,34.16,31.49,29.21,27.47,25.87,24.53,23.48,22.11,21.42,21.00,20.67,20.37,20.11,19.85,19.47,18.87,17.86,16.62,15.28,13.95,12.72,11.38,10.72,10.57,10.35,10.03
109.10,108.95,109.19,109.66,110.82,113.74,117.12,120.14,121.69,122.01,122.14,122.19,122.16,121.71,121.31,120.90,120.47,120.17,120.30,120.78,121.45,122.06,121.88,121.26,119.73,117.12,114.17,111.59,109.25,106.85,103.76,101.22,100.30,100.56,101.42,103.52,103.23,101.00,97.35,93.39,89.65,87.76,87.61,88.48,90.06,92.17,94.71,97.62,101.22,103.97,106.56,109.40,113.01,117.05,121.78,126.27,129.29,127.09,122.02,115.47,108.49,102.59,97.59,93.00,88.91,85.60,85.38,87.13,89.70,92.16,94.18,96.27,98.67,101.41,104.34,107.35,110.28,113.08,115.74,118.62,123.77,129.49,134.78,139.42,143.79,148.26,153.24,159.23,163.78,167.61,170.74,173.17,174.68,176.04,176.78,177.06,177.90,178.78,179.78,181.79,185.76,190.77,194.99,198.95,203.00,207.36,210.05,211.76,212.82,213.62,213.92,214.75,216.55,219.65,224.52,230.11,235.74,241.25,246.84,253.90,260.70,267.14,273.39,280.25,286.68,292.50,297.78,303.50,309.97,318.62,327.53,332.23,333.18,331.83,328.40,323.24,317.68,312.47,307.57,302.87,297.97,292.49,289.17,287.90,287.96,288.09,288.10,286.73,283.67,281.39,279.65,278.52,277.96,277.81,277.43,275.69,273.34,271.29,271.39,271.08,271.02,271.28,271.24,270.17,268.68,266.85,264.66,262.33,259.59,257.32,255.85,253.68,250.87,247.21,243.00,238.98,234.67,230.54,226.81,223.67,221.39,217.37,212.78,208.53,205.98,203.16,199.98,196.43,192.51,187.20,181.92,177.35,173.80,170.33,167.24,164.26,161.12,157.31,152.59,148.06,143.66,139.29,135.28,131.08,126.24,120.99,116.92,113.25,109.68,106.11,102.48,98.93,95.53,92.30,89.18,85.86,82.61,79.29,75.87,72.40,68.24,63.56,58.91,54.81,50.86,48.01,45.56,43.17,40.84,38.24,35.56,32.94,30.55,28.77,27.35,26.31,25.55,24.37,24.12,23.83,23.29,22.69,22.23,21.64,20.92,20.09,19.23,18.35,17.44,16.40,14.87,13.28,12.37,11.92,11.26,10.30
110.55,110.59,110.79,111.13,112.52,115.35,118.38,121.13,123.32,123.80,124.04,124.10,123.95,123.53,123.13,122.76,122.39,122.09,122.25,122.73,123.38,124.04,123.94,123.59,122.48,120.35,117.92,115.35,113.11,111.03,108.26,105.42,104.21,104.23,104.87,106.29,104.14,100.59,96.82,93.30,90.13,89.32,90.65,93.14,95.73,98.12,100.35,102.48,104.70,107.08,109.66,112.61,116.38,121.73,126.17,129.27,130.73,128.32,122.74,116.14,109.76,104.21,99.17,94.50,90.30,86.74,86.82,88.48,91.04,93.85,95.95,98.08,100.76,103.97,107.18,110.12,112.98,115.74,118.42,121.33,125.67,130.31,134.68,138.95,143.35,148.07,153.35,159.51,164.51,169.06,172.92,175.94,178.13,180.31,182.27,183.99,185.54,186.19,186.84,188.00,190.25,194.44,199.02,203.61,207.95,211.71,214.46,216.36,217.47,217.92,218.11,218.78,220.34,223.18,228.04,233.53,239.28,245.21,251.41,258.12,264.48,270.84,277.68,283.77,289.58,295.10,300.50,306.77,314.24,322.26,329.38,333.06,334.18,332.89,329.85,325.68,320.58,315.77,311.29,307.00,302.41,298.71,296.54,295.64,295.49,295.32,295.04,293.89,291.63,289.50,287.53,285.73,284.28,283.48,281.90,279.44,276.89,275.08,275.47,274.40,272.90,271.54,270.88,271.29,271.41,270.94,269.80,268.10,266.41,264.37,261.78,258.84,255.86,252.48,248.96,246.10,241.98,237.11,231.98,227.22,224.55,221.11,217.04,212.68,209.12,205.73,202.46,199.10,195.39,189.32,183.48,178.60,174.99,171.65,168.47,165.38,162.26,158.85,154.14,149.51,145.08,140.86,136.62,131.95,126.87,121.69,117.50,113.84,110.27,106.74,103.24,99.69,96.40,93.20,89.97,86.79,83.63,80.37,76.95,73.29,69.08,64.66,60.46,56.91,53.11,49.75,46.94,44.59,42.28,39.81,37.28,34.79,32.48,30.74,29.51,28.70,28.20,27.78,27.73,27.67,27.40,26.78,26.18,25.55,24.82,23.91,22.83,21.72,20.52,19.18,17.58,15.73,14.63,14.00,12.93,11.61
112.53,112.66,112.76,112.88,114.05,116.49,119.07,121.69,124.92,125.65,125.99,126.03,125.76,125.39,125.04,124.71,124.40,124.11,124.25,124.68,125.30,126.00,126.00,125.84,125.04,123.38,121.29,118.85,116.80,114.97,112.45,109.49,107.87,107.50,108.01,108.68,105.20,100.69,96.71,93.50,91.44,91.90,94.45,97.92,101.11,103.78,105.84,107.30,108.43,110.47,112.93,115.93,120.19,126.01,129.85,131.57,131.44,128.73,122.96,116.57,110.81,105.57,100.53,95.89,91.70,87.99,88.11,89.77,92.42,95.49,97.79,100.28,103.31,106.79,110.04,112.90,115.70,118.48,121.28,124.20,127.72,131.32,134.83,138.65,143.05,147.89,153.27,159.40,164.96,170.10,174.62,178.35,181.34,184.21,187.11,189.88,191.94,192.49,192.95,193.58,194.60,198.27,203.14,208.10,212.46,215.80,218.56,220.48,221.52,221.70,221.83,222.63,224.26,226.89,231.34,236.76,242.68,248.88,255.21,261.62,267.86,274.30,281.33,286.83,292.09,297.41,303.09,309.86,317.76,325.04,330.72,333.74,335.34,334.26,331.57,328.27,323.70,319.34,315.21,311.24,307.10,304.67,303.21,302.45,302.13,301.74,301.26,300.31,298.73,296.64,294.39,291.92,289.51,287.77,284.97,281.66,278.61,276.59,276.35,274.59,272.22,269.98,269.13,270.50,271.85,272.61,272.49,271.69,270.88,269.26,266.43,263.04,260.02,256.94,253.95,251.68,248.07,243.14,237.27,231.05,227.38,224.13,220.45,216.15,211.90,208.09,204.72,201.51,198.05,191.36,184.98,179.75,176.03,172.81,169.60,166.44,163.30,160.04,155.40,150.77,146.38,142.26,137.78,132.71,127.43,122.30,118.00,114.34,110.79,107.31,103.96,100.52,97.26,93.99,90.63,87.56,84.55,81.46,78.16,74.43,70.35,66.29,62.57,59.44,55.86,52.14,48.89,46.30,43.96,41.57,39.15,36.79,34.60,33.04,32.03,31.46,31.22,31.30,31.45,31.63,31.68,31.26,30.57,29.91,29.12,28.02,26.73,25.34,23.86,22.25,20.43,18.24,16.79,15.79,14.41,12.90
115.32,115.36,115.27,115.06,115.19,116.80,118.85,121.62,126.48,127.59,128.00,127.98,127.61,127.30,127.03,126.75,126.45,126.21,126.27,126.63,127.22,127.92,128.11,128.01,127.40,126.12,124.04,122.00,120.28,118.63,116.22,113.49,111.46,110.53,110.89,110.42,106.59,101.78,97.36,94.25,94.14,96.20,99.49,102.71,105.75,108.75,111.01,112.10,112.74,114.36,116.45,119.43,124.78,129.48,132.29,132.91,131.29,127.94,122.44,116.67,111.48,106.49,101.53,97.08,93.10,89.40,89.23,91.10,93.99,97.06,99.76,103.11,106.61,109.96,112.82,115.56,118.31,121.18,124.22,127.08,129.86,132.61,135.45,138.73,143.09,147.84,152.98,158.77,165.09,170.65,175.66,180.29,184.26,187.66,190.88,193.87,196.08,196.69,197.19,197.81,198.69,202.46,207.46,212.30,216.24,219.63,222.26,223.93,224.67,224.70,224.79,226.20,228.41,230.95,234.26,239.72,245.89,252.03,257.53,263.85,270.55,277.32,283.81,289.17,294.07,299.35,305.50,312.62,319.87,326.33,331.37,334.19,336.78,336.18,333.81,331.06,327.08,323.23,319.36,315.53,312.14,309.95,308.42,307.48,307.11,306.72,306.27,305.48,304.13,301.85,299.27,296.19,292.81,289.69,285.83,281.49,277.41,274.27,271.91,269.75,267.83,266.43,266.42,267.75,269.50,271.04,271.67,272.05,271.52,270.47,269.01,265.87,263.06,260.22,257.34,254.58,251.97,248.19,242.73,235.47,230.03,226.14,222.42,218.32,214.07,210.18,206.74,203.56,200.35,193.32,186.42,180.76,176.87,173.69,170.57,167.44,164.20,160.69,156.18,151.73,147.46,143.34,138.66,133.35,127.99,122.92,118.47,114.74,111.20,107.80,104.60,101.45,98.11,94.62,91.09,88.06,85.26,82.49,79.53,75.95,72.25,68.71,65.43,62.46,59.22,55.48,51.74,48.39,46.01,43.62,41.25,39.00,36.96,35.79,35.08,34.77,34.80,34.88,35.22,35.67,36.08,36.20,35.51,34.79,33.83,32.30,30.86,29.21,27.54,25.81,23.45,20.80,18.68,17.02,15.43,14.02
117.87,117.68,117.38,117.02,116.91,117.83,119.78,123.11,128.56,129.76,130.17,130.15,129.87,129.48,129.16,128.83,128.50,128.27,128.31,128.68,129.31,130.09,130.32,130.23,129.75,128.81,127.08,124.99,123.19,121.57,119.45,116.97,114.58,113.10,113.18,111.93,108.58,103.75,98.56,96.34,97.72,100.42,103.67,106.83,110.39,113.90,116.50,117.67,118.25,119.35,121.34,124.51,129.32,132.66,133.67,132.71,130.31,126.16,121.38,116.46,111.62,106.68,101.90,97.62,93.85,90.54,91.09,93.33,96.36,99.46,102.72,106.11,109.47,112.64,115.42,118.20,121.06,124.02,127.11,130.21,132.78,135.08,137.34,140.00,143.67,147.82,152.39,157.43,163.38,169.35,175.17,180.66,185.22,189.68,193.87,197.58,200.34,201.80,202.62,203.19,204.00,207.47,211.86,216.30,220.28,223.75,226.08,227.31,227.71,227.71,228.51,230.52,233.03,235.39,237.93,243.37,249.18,254.54,259.83,266.24,272.69,279.12,285.58,290.72,295.29,300.43,306.72,313.66,320.68,327.21,332.54,335.55,338.04,338.09,336.50,334.11,330.84,327.51,324.14,320.96,318.67,316.95,315.45,314.22,313.36,312.42,311.26,309.50,306.87,302.86,299.77,296.11,291.78,287.35,282.87,277.92,273.38,270.04,267.50,265.58,264.30,263.67,263.79,265.25,267.17,269.19,270.94,271.52,271.31,270.66,269.63,267.02,264.43,261.78,259.07,256.33,253.80,250.73,245.82,238.24,232.32,227.82,223.70,219.54,215.41,211.37,207.83,204.64,201.47,194.72,187.36,181.15,177.11,174.18,171.32,168.17,164.73,161.13,156.75,152.46,148.29,144.17,139.53,133.96,128.28,123.00,118.60,114.98,111.49,108.10,104.93,101.96,98.66,95.21,91.81,88.95,86.22,83.62,81.01,78.05,74.50,71.26,68.28,65.41,62.32,58.95,55.30,51.55,48.36,45.90,43.54,41.34,39.53,38.71,38.30,38.21,38.34,38.53,38.94,39.41,39.78,39.86,39.40,38.78,37.94,36.77,35.06,33.22,31.25,29.12,26.61,23.46,20.46,18.05,16.71,15.20
120.42,120.00,119.50,119.04,118.92,119.79,121.99,125.64,130.73,131.93,132.38,132.45,132.31,131.88,131.47,131.08,130.70,130.43,130.48,130.88,131.56,132.41,132.60,132.49,132.08,131.36,129.94,127.78,125.82,124.15,122.29,119.96,117.32,115.46,115.31,113.55,110.70,105.97,100.33,99.04,101.45,104.47,107.60,110.91,115.01,118.92,121.80,123.16,123.93,124.90,126.97,130.15,133.67,135.17,134.33,131.97,129.06,124.46,120.34,116.15,111.61,106.77,102.19,98.11,94.61,91.72,93.18,95.73,98.78,101.96,105.59,108.85,111.97,115.01,117.83,120.78,123.81,126.92,130.11,133.45,135.93,137.93,139.78,141.93,144.89,148.27,152.03,156.24,161.44,167.57,174.07,180.36,185.41,190.88,196.14,200.81,204.45,206.82,207.99,208.60,209.50,212.49,216.23,220.37,224.56,228.03,230.11,231.01,231.13,231.14,232.58,235.00,237.64,239.86,241.89,247.15,252.44,257.06,262.43,268.69,274.63,280.52,286.89,291.81,296.13,301.13,307.41,314.16,321.30,328.09,333.78,337.22,339.48,340.22,339.51,337.56,334.91,332.02,329.12,326.57,325.16,323.94,322.45,320.79,319.17,317.22,314.94,311.76,307.37,301.88,298.27,294.04,288.79,283.03,278.01,272.90,268.33,264.91,262.55,260.97,260.26,260.27,260.44,262.05,264.13,266.61,269.55,270.65,270.88,270.51,269.62,267.50,265.12,262.65,260.12,257.52,254.88,252.25,247.82,240.25,234.22,229.23,224.71,220.44,216.40,212.27,208.62,205.34,202.13,195.77,188.04,181.36,177.22,174.54,171.91,168.77,165.14,161.48,157.21,153.05,148.96,144.82,140.27,134.45,128.43,122.89,118.58,115.11,111.71,108.36,105.23,102.37,99.15,95.83,92.65,89.95,87.29,84.82,82.50,80.13,76.79,73.80,71.06,68.31,65.34,62.29,58.84,54.94,50.98,48.23,45.77,43.63,42.13,41.63,41.50,41.59,41.78,42.05,42.45,42.84,43.09,42.97,42.72,42.18,41.45,40.68,38.84,36.93,34.73,32.21,29.60,26.13,22.48,19.41,18.02,16.41
123.18,122.64,121.99,121.42,121.45,124.21,127.41,130.32,132.74,133.87,134.61,134.99,135.00,134.72,134.31,133.86,133.42,133.01,133.08,133.50,134.18,135.03,135.02,134.82,134.34,133.52,132.00,130.07,128.07,126.13,124.27,121.76,119.20,117.52,117.42,115.70,112.76,108.36,103.53,102.69,104.93,107.99,111.47,115.37,119.53,123.35,126.22,127.83,129.24,131.40,133.95,136.32,137.36,135.76,133.48,130.74,127.63,123.81,119.86,115.77,111.55,107.15,102.72,98.99,95.94,93.25,95.39,97.88,100.77,104.10,107.38,110.57,113.70,116.77,119.80,123.12,126.48,129.93,133.50,136.88,139.19,141.09,142.96,145.06,147.77,150.21,152.70,156.07,160.19,165.70,172.22,179.19,184.68,190.56,196.65,202.69,208.00,210.84,212.23,213.15,214.65,216.91,220.41,224.78,229.43,232.55,234.79,235.80,235.93,236.00,237.20,239.37,241.85,244.08,246.21,250.79,255.53,260.09,265.95,271.20,276.31,281.58,287.27,292.09,296.39,301.28,307.36,314.27,322.34,329.35,334.89,339.17,341.65,343.08,343.25,342.04,339.65,336.96,334.24,331.79,330.34,329.51,327.87,325.44,322.53,318.50,314.44,309.23,302.73,297.82,293.82,288.99,282.94,275.70,270.14,265.93,262.23,258.38,255.88,254.38,253.86,254.15,254.71,256.41,258.80,261.94,265.92,269.39,270.41,270.09,269.13,267.22,264.99,262.69,260.34,257.83,255.16,252.47,248.21,241.14,235.12,229.97,225.35,221.06,216.92,212.91,209.15,205.61,202.26,196.10,188.28,181.49,177.36,174.78,172.21,169.12,165.49,161.68,157.50,153.40,149.31,145.08,140.58,134.62,128.36,122.58,118.32,115.02,111.82,108.66,105.68,102.82,99.67,96.55,93.67,90.97,88.51,86.19,83.93,81.65,78.87,76.19,73.61,71.07,68.30,65.07,61.71,58.24,54.18,50.52,47.65,45.69,44.67,44.42,44.48,44.70,44.96,45.08,45.34,45.58,45.67,45.34,44.99,44.35,43.51,42.61,41.17,39.58,37.48,34.79,31.94,28.77,25.34,21.99,19.26,17.67
