25.71,26.06,26.39,26.65,26.82,27.14,27.56,28.04,28.52,29.01,29.39,29.73,30.08,30.38,30.73,31.12,31.52,31.90,32.29,32.68,33.08,33.46,33.85,34.25,34.67,35.13,35.58,36.05,36.51,36.96,37.36,37.82,38.24,38.65,39.11,39.57,40.40,41.42,42.51,43.61,44.76,45.90,47.04,48.17,49.18,50.46,51.93,53.47,54.99,56.45,57.83,59.08,60.14,60.88,61.54,62.15,62.76,63.39,64.03,64.70,65.40,66.16,66.87,67.57,68.29,69.05,69.94,71.24,72.74,74.15,74.67,74.80,74.86,74.97,75.22,75.93,76.79,77.56,78.05,78.51,80.02,82.34,85.20,87.94,91.09,94.79,98.35,100.48,101.12,101.21,101.00,100.69,100.01,99.27,98.81,99.02,100.56,102.18,103.88,105.66,107.50,109.46,111.60,113.69,115.58,117.15,118.58,119.56,120.25,121.06,121.60,121.97,122.27,122.60,123.39,124.11,125.72,128.20,130.45,132.92,135.40,137.89,140.48,144.36,149.09,154.23,159.22,162.54,165.54,168.37,171.01,173.37,175.68,177.62,179.32,180.85,181.44,181.90,182.17,182.28,182.38,181.69,179.82,177.05,173.88,170.48,167.22,164.18,161.40,158.88,156.14,153.15,149.96,146.68,143.22,140.21,137.42,134.78,134.31,135.17,136.23,137.10,137.97,138.82,139.86,141.00,142.03,142.71,143.48,144.07,144.28,143.92,143.08,141.68,139.54,136.32,133.89,131.78,129.78,127.66,125.02,122.41,120.21,118.56,117.39,117.08,117.36,117.87,118.14,118.66,118.95,118.89,118.44,117.63,116.78,115.88,115.11,114.85,114.38,113.90,113.44,112.96,112.18,111.57,110.84,109.87,108.63,107.42,106.20,105.08,104.23,105.89,107.52,109.05,110.35,110.90,111.07,110.72,109.96,109.16,108.27,107.77,107.46,107.16,107.99,109.45,111.95,115.54,119.48,122.67,126.29,130.04,133.09,135.81,137.90,138.68,137.86,136.54,134.91,133.12,131.38,130.06,129.62,129.48,129.90,131.27,134.26,137.28,139.83,141.61,142.53,141.89,140.53,138.94,137.69,138.66
26.09,26.41,26.77,27.17,27.39,27.59,27.84,28.11,28.34,28.91,29.36,29.69,29.95,30.20,30.51,30.89,31.33,31.71,32.10,32.52,32.95,33.34,33.72,34.15,34.61,35.06,35.47,35.92,36.38,36.84,37.29,37.75,38.21,38.64,39.04,39.51,40.19,41.12,42.27,43.41,44.57,45.65,46.69,47.72,48.73,49.88,51.23,52.76,54.18,55.54,56.87,58.17,59.42,60.27,60.97,61.56,62.12,62.80,63.53,64.25,64.95,65.66,66.36,67.09,67.83,68.54,69.28,70.40,71.84,73.35,73.47,73.40,73.39,73.51,73.81,74.48,75.29,76.06,76.69,78.33,80.22,82.62,85.58,88.77,92.15,95.41,98.17,99.85,100.15,99.89,99.41,98.97,98.34,97.64,97.69,98.70,100.54,102.18,103.82,105.52,107.31,109.07,110.83,112.56,114.21,115.58,116.52,117.32,118.04,118.70,119.19,119.51,119.76,120.10,121.52,123.59,126.09,128.84,131.44,134.03,136.52,139.08,142.00,145.70,149.58,154.10,159.09,162.41,165.41,168.16,170.66,172.86,173.98,174.85,175.80,177.03,177.82,178.44,178.83,179.04,179.24,179.36,177.54,174.43,171.25,167.26,163.94,161.30,159.26,157.48,155.31,152.92,150.25,147.12,143.72,140.72,137.91,135.09,132.49,132.68,133.64,134.51,135.19,135.70,136.48,137.51,138.64,139.57,140.52,141.28,141.71,141.74,141.17,139.83,137.64,134.52,131.59,129.23,127.16,125.06,122.66,120.64,118.99,117.66,116.44,115.73,115.62,115.84,115.96,116.44,116.78,117.00,117.09,116.72,115.91,114.99,114.12,113.47,112.88,112.37,111.91,111.44,110.90,110.31,109.45,108.27,106.97,105.63,104.35,103.31,102.75,104.37,105.96,107.45,108.75,109.36,109.29,108.70,107.70,106.51,105.40,105.49,106.30,107.24,108.62,110.77,113.61,117.02,120.67,123.78,126.52,128.92,130.93,133.40,135.07,135.55,134.73,133.41,131.98,130.46,129.01,127.93,127.33,127.46,128.42,130.31,133.19,136.05,138.51,140.23,140.51,139.40,137.45,136.24,138.26,140.50
26.48,26.78,27.11,27.47,27.81,28.11,28.35,28.55,28.77,29.34,29.73,29.99,30.22,30.42,30.68,30.97,31.30,31.62,31.96,32.38,32.82,33.21,33.60,34.04,34.50,34.96,35.38,35.81,36.25,36.72,37.18,37.64,38.11,38.56,38.98,39.44,40.05,40.93,42.05,43.14,44.23,45.27,46.28,47.32,48.36,49.41,50.61,52.01,53.40,54.73,56.06,57.39,58.63,59.54,60.30,60.96,61.57,62.27,63.02,63.76,64.46,65.15,65.85,66.57,67.30,68.03,68.63,69.54,70.83,72.30,72.26,72.11,72.00,72.05,72.40,73.09,74.09,75.29,76.58,78.62,80.64,83.00,85.83,88.85,91.82,94.51,96.60,97.63,97.78,97.54,97.14,96.77,96.22,96.20,97.01,98.60,100.53,102.18,103.78,105.41,107.11,108.57,109.84,111.12,112.42,113.50,114.25,114.97,115.67,116.25,116.72,117.51,118.47,119.52,121.32,123.69,126.37,129.20,132.08,134.85,137.49,140.14,142.95,146.14,149.42,153.64,158.74,162.06,164.86,167.36,169.51,171.09,171.37,171.59,171.95,172.58,173.36,174.20,175.05,175.89,176.71,177.20,175.37,171.87,168.05,163.92,161.08,159.04,157.40,155.86,154.03,152.08,149.95,147.44,144.25,141.43,138.69,135.70,132.21,131.03,131.09,131.74,132.22,132.62,133.18,133.99,135.08,136.08,137.09,137.96,138.57,138.72,138.27,137.09,135.12,132.23,129.41,126.92,124.63,122.41,120.37,118.67,117.29,116.15,114.94,114.24,113.93,113.86,113.84,114.23,114.57,114.89,115.22,115.43,114.93,114.10,113.14,112.30,111.73,111.13,110.52,109.96,109.49,108.91,108.12,107.03,105.47,103.97,102.55,101.51,101.28,102.85,104.37,105.82,107.18,107.97,107.67,106.94,105.98,104.84,103.97,104.54,105.97,107.50,109.18,111.75,114.80,118.03,121.13,123.71,125.82,127.57,129.17,130.94,132.13,132.35,131.48,130.30,129.01,127.80,126.72,125.64,125.08,125.61,127.22,129.78,132.40,134.96,137.22,138.71,137.96,136.48,135.63,136.33,139.58,142.12
26.85,27.16,27.44,27.70,28.15,28.61,28.92,29.14,29.47,29.97,30.26,30.44,30.66,30.82,31.03,31.22,31.40,31.63,31.92,32.30,32.72,33.09,33.47,33.91,34.37,34.83,35.30,35.70,36.13,36.59,37.05,37.52,37.98,38.44,38.91,39.37,39.95,40.78,41.85,42.85,43.86,44.87,45.89,46.95,48.02,48.99,50.03,51.26,52.65,53.98,55.33,56.65,57.79,58.74,59.58,60.35,61.06,61.76,62.51,63.24,63.94,64.64,65.33,66.03,66.74,67.49,67.96,68.68,69.79,71.13,71.07,70.86,70.68,70.66,71.11,71.92,73.22,74.96,77.05,79.12,81.15,83.41,85.97,88.50,90.78,92.84,94.34,94.70,94.79,94.73,94.57,94.36,94.06,94.97,96.59,98.58,100.50,102.15,103.72,105.26,106.77,107.85,108.66,109.49,110.46,111.22,111.91,112.62,113.33,113.99,114.59,116.04,117.94,119.89,121.89,124.12,126.62,129.39,132.48,135.46,138.32,141.04,143.56,146.17,148.98,153.00,158.20,161.54,164.06,166.24,167.96,168.76,168.37,168.10,167.96,167.93,168.59,169.75,171.26,172.96,174.50,175.20,173.37,169.55,164.86,160.82,158.58,157.11,155.68,154.13,152.51,150.85,149.14,147.38,144.61,142.12,139.53,136.39,132.67,130.03,128.90,129.08,129.27,129.63,130.02,130.58,131.54,132.52,133.49,134.40,135.14,135.30,134.90,133.94,132.31,129.76,127.30,124.73,122.19,119.85,118.14,116.62,115.37,114.35,113.21,112.70,112.30,111.98,111.80,112.06,112.35,112.70,113.15,113.93,113.89,113.22,112.15,111.20,110.70,109.97,109.16,108.49,108.02,107.46,106.81,105.91,104.11,102.45,100.87,99.79,99.85,101.37,102.81,104.23,105.64,106.64,106.12,105.30,104.49,103.57,103.13,104.14,105.96,107.78,109.64,112.46,115.59,118.61,121.11,123.03,124.64,126.06,127.45,128.40,129.04,128.99,128.07,127.13,126.00,125.11,124.39,123.30,122.91,123.92,126.22,129.47,131.80,134.05,135.97,137.01,135.21,133.50,134.44,137.55,141.10,143.52
27.19,27.48,27.78,28.07,28.43,28.87,29.26,29.63,30.16,30.49,30.70,30.87,31.04,31.25,31.44,31.63,31.84,32.08,32.28,32.53,32.81,33.03,33.36,33.78,34.24,34.71,35.17,35.62,36.04,36.46,36.92,37.39,37.85,38.31,38.78,39.24,39.82,40.65,41.72,42.73,43.78,44.81,45.79,46.70,47.67,48.57,49.52,50.62,52.01,53.34,54.64,55.85,56.84,57.83,58.78,59.70,60.55,61.25,61.96,62.67,63.37,64.12,64.82,65.52,66.17,66.72,67.19,67.92,68.86,69.86,69.90,69.67,69.54,69.75,70.69,72.04,73.66,75.53,77.62,79.59,81.63,83.72,85.79,87.52,89.19,90.60,91.54,91.71,91.79,91.86,91.92,92.05,93.03,94.60,96.46,98.44,100.32,101.91,103.46,104.75,105.47,106.02,106.72,107.58,108.52,109.13,109.76,110.59,111.71,113.25,114.88,116.81,118.86,120.84,122.79,124.86,126.96,129.26,132.29,135.49,138.54,141.29,143.62,146.08,148.60,152.21,157.01,160.50,162.83,164.68,166.01,166.42,165.58,164.64,163.98,163.89,164.25,166.23,168.73,171.10,172.65,173.79,172.34,168.57,163.39,159.75,157.30,155.51,153.95,152.41,150.71,148.70,146.62,145.01,143.66,142.10,139.89,136.75,133.57,131.02,129.06,127.69,126.94,127.20,127.59,128.06,128.73,129.46,130.22,130.89,131.37,131.58,131.40,130.72,129.44,127.49,125.20,122.69,120.18,117.93,116.18,114.60,113.35,112.40,111.46,111.19,110.92,110.59,110.27,110.13,110.27,110.67,111.30,112.13,112.71,112.34,111.14,109.93,109.42,108.57,107.65,107.02,106.55,106.14,105.50,104.51,103.16,101.42,99.84,98.79,98.70,100.12,101.57,102.98,104.29,105.30,104.66,103.74,102.90,102.03,102.06,103.47,105.61,107.72,109.63,112.31,115.16,117.79,119.95,121.65,123.06,124.16,124.90,125.36,125.27,124.75,123.97,123.52,122.84,122.20,121.63,121.02,121.08,122.79,125.74,129.28,131.71,133.87,134.96,134.56,132.61,131.44,133.71,138.19,141.74,144.16
27.54,27.83,28.14,28.45,28.76,29.15,29.56,30.02,30.61,30.91,31.13,31.31,31.46,31.70,31.87,32.06,32.29,32.49,32.68,32.87,33.07,33.25,33.50,33.85,34.21,34.58,35.01,35.47,35.91,36.33,36.80,37.23,37.69,38.15,38.61,39.08,39.70,40.55,41.59,42.57,43.56,44.55,45.50,46.37,47.27,48.16,49.06,50.05,51.35,52.67,53.88,54.98,55.96,56.96,57.98,58.99,59.94,60.72,61.43,62.13,62.83,63.57,64.28,64.94,65.53,65.99,66.46,67.17,67.98,68.69,68.71,68.54,68.62,69.19,70.46,72.08,73.82,75.70,77.72,79.65,81.53,83.21,84.60,85.80,87.02,87.96,88.62,89.06,89.17,89.38,89.85,90.73,92.41,94.27,96.21,98.16,99.99,101.58,102.91,103.76,103.90,104.07,104.68,105.56,106.54,107.19,108.19,109.45,111.02,113.04,115.12,117.24,119.31,121.25,123.13,125.00,126.86,128.92,131.82,135.18,138.42,141.26,143.50,145.79,148.15,151.35,155.50,158.97,161.31,162.98,163.97,164.06,163.11,161.78,160.57,159.96,160.22,162.68,165.68,168.46,170.56,172.03,171.12,167.91,162.93,159.46,157.09,155.08,152.99,150.91,148.72,146.36,144.10,142.50,141.92,140.99,139.40,137.01,134.54,132.20,129.95,127.85,126.13,125.32,125.25,125.66,126.17,126.79,127.25,127.62,127.96,128.13,128.08,127.59,126.60,125.15,123.03,120.70,118.33,116.11,114.23,112.60,111.40,110.61,109.92,109.78,109.55,109.19,108.77,108.46,108.50,108.90,109.63,110.45,111.23,111.22,110.37,109.02,108.12,107.11,106.19,105.58,105.09,104.78,104.22,103.26,102.13,100.51,99.00,97.87,97.41,98.79,100.29,101.73,102.99,104.02,103.34,102.33,101.44,100.67,100.96,102.45,104.67,107.02,109.17,111.62,113.98,116.09,118.07,119.60,120.79,121.56,121.75,121.65,121.12,120.62,120.48,120.55,120.29,119.89,119.49,119.33,119.88,122.09,125.43,129.09,131.47,133.27,133.64,132.34,130.14,130.34,133.88,139.01,142.31,144.84
27.91,28.22,28.53,28.84,29.14,29.45,29.84,30.33,30.87,31.26,31.55,31.75,31.91,32.14,32.32,32.51,32.73,32.88,33.10,33.29,33.47,33.70,33.85,34.06,34.26,34.44,34.83,35.28,35.74,36.21,36.67,37.06,37.50,37.96,38.42,38.89,39.58,40.46,41.45,42.38,43.24,44.13,45.06,45.99,46.84,47.74,48.64,49.52,50.68,51.96,53.08,54.04,55.12,56.13,57.18,58.24,59.24,60.17,60.92,61.62,62.31,63.01,63.70,64.31,64.83,65.29,65.76,66.43,67.11,67.59,67.52,67.44,67.87,68.91,70.38,72.06,73.76,75.54,77.47,79.40,80.99,82.04,82.63,83.48,84.40,85.02,85.60,86.68,86.86,87.22,88.24,90.17,92.10,93.97,95.87,97.77,99.54,101.18,102.13,102.40,102.10,102.02,102.57,103.48,104.53,105.38,107.08,109.01,111.06,113.22,115.31,117.40,119.40,121.25,123.02,124.68,126.41,128.44,131.14,134.61,138.02,141.01,143.24,145.33,147.64,150.43,153.76,157.08,159.55,161.15,161.87,161.71,160.89,159.37,157.61,156.13,156.44,159.10,162.23,165.20,168.29,169.99,169.77,167.49,163.25,159.78,157.69,155.55,152.61,149.60,146.59,143.87,141.59,139.89,139.58,139.05,138.24,137.19,135.57,133.53,131.40,129.20,126.50,123.87,122.99,123.34,123.81,124.43,124.50,124.54,124.82,124.89,124.91,124.54,123.77,122.76,120.81,118.75,116.61,114.38,112.29,110.62,109.51,108.94,108.55,108.43,108.18,107.77,107.30,106.99,106.96,107.32,108.09,108.86,109.51,109.92,109.78,108.39,106.78,105.61,104.79,104.17,103.63,103.39,102.94,102.12,101.04,99.68,98.29,97.01,96.01,97.38,98.99,100.50,101.72,102.80,102.12,101.04,100.06,99.45,99.83,101.18,103.27,105.82,108.37,110.51,112.24,113.72,115.65,117.05,118.00,118.42,118.11,117.42,116.68,116.58,117.47,118.09,118.20,118.05,117.85,118.08,119.17,121.74,125.24,128.89,131.13,132.33,132.07,130.31,127.76,129.99,134.75,139.97,142.83,145.54
28.10,28.41,28.72,29.02,29.28,29.58,29.97,30.45,30.99,31.44,31.87,32.20,32.36,32.59,32.76,32.93,33.12,33.32,33.51,33.70,33.90,34.08,34.29,34.54,34.79,34.99,35.18,35.40,35.66,36.01,36.48,36.91,37.34,37.77,38.24,38.85,39.58,40.37,41.20,42.13,42.98,43.85,44.73,45.61,46.50,47.39,48.26,49.12,50.08,51.21,52.27,53.26,54.29,55.35,56.39,57.43,58.48,59.45,60.29,61.04,61.74,62.49,63.11,63.64,64.11,64.53,64.99,65.66,66.21,66.41,66.68,67.11,67.76,68.63,69.65,71.11,72.77,74.56,76.43,77.87,79.33,80.34,80.77,81.13,81.51,81.84,82.38,83.61,84.75,86.10,87.77,89.78,91.61,93.38,95.08,96.74,98.52,99.98,100.83,101.00,100.50,100.33,100.95,102.14,103.66,105.15,107.11,109.14,111.13,113.04,114.84,116.69,118.49,120.15,121.78,123.52,125.35,127.35,129.71,132.92,136.24,139.33,141.91,144.19,146.59,149.11,151.75,154.44,156.64,158.13,158.80,158.65,157.59,155.99,154.17,152.55,152.81,155.50,159.13,162.84,165.63,167.40,168.19,167.15,163.27,160.58,158.50,156.21,153.31,150.30,146.88,143.50,140.60,138.80,138.12,137.48,136.72,135.76,134.68,133.30,131.67,129.67,126.72,123.31,121.68,121.39,121.31,121.44,121.40,121.41,121.56,121.64,121.69,121.42,120.78,119.82,118.52,116.80,114.77,112.59,110.61,109.22,108.27,107.66,107.27,107.11,106.86,106.46,105.90,105.49,105.39,105.74,106.51,106.84,107.20,107.60,107.78,107.13,105.71,104.43,103.43,102.77,102.18,101.95,101.61,100.94,100.05,98.90,97.59,96.24,94.99,95.92,97.39,99.00,100.42,101.25,100.93,100.03,98.93,98.12,98.95,100.57,102.74,105.22,107.23,108.86,110.10,111.00,111.95,112.79,113.28,113.43,113.32,113.31,113.53,114.18,115.31,116.08,116.46,116.57,116.82,118.19,119.50,121.78,124.79,128.06,130.40,131.12,130.21,128.14,126.88,130.22,135.26,140.38,143.78,146.55
28.24,28.55,28.85,29.15,29.39,29.68,30.07,30.55,31.09,31.58,32.09,32.52,32.78,33.01,33.20,33.37,33.53,33.77,33.93,34.12,34.32,34.49,34.75,35.02,35.29,35.51,35.63,35.71,35.86,36.10,36.46,36.82,37.19,37.60,38.08,38.84,39.61,40.33,41.02,41.93,42.78,43.63,44.48,45.33,46.24,47.12,47.98,48.83,49.66,50.62,51.61,52.59,53.58,54.63,55.64,56.65,57.68,58.71,59.64,60.46,61.19,61.92,62.45,62.93,63.38,63.79,64.25,64.88,65.39,65.61,66.14,66.85,67.60,68.35,69.10,70.26,71.73,73.36,74.98,76.12,77.38,78.26,78.58,78.63,79.05,79.57,80.35,81.75,83.50,85.38,87.30,89.19,90.88,92.51,94.10,95.67,97.34,98.67,99.42,99.56,99.10,99.13,99.93,101.31,103.08,104.94,107.04,109.01,110.81,112.50,114.14,115.83,117.48,118.98,120.32,122.14,124.12,126.15,128.34,131.18,134.31,137.45,140.26,142.70,144.96,147.02,148.96,151.28,153.37,154.71,155.25,155.16,154.08,152.45,150.65,149.11,149.39,151.85,155.68,160.02,163.14,165.06,166.56,166.55,163.60,161.45,159.40,157.01,154.09,151.06,147.47,143.84,140.63,138.56,137.35,136.27,135.28,134.37,133.60,132.67,131.37,129.42,126.12,122.48,120.51,119.81,119.32,119.06,118.81,118.66,118.66,118.74,118.71,118.38,117.73,116.85,116.03,114.69,112.91,110.87,109.05,107.90,107.05,106.38,105.97,105.80,105.55,105.14,104.52,104.01,103.83,104.10,104.74,104.76,104.90,105.24,105.60,105.52,104.51,103.29,102.15,101.35,100.65,100.42,100.15,99.63,99.03,98.10,96.89,95.50,94.14,94.31,95.50,97.13,98.68,99.63,99.58,98.81,97.71,97.02,98.24,100.00,102.11,104.38,106.01,107.20,108.04,108.61,109.02,109.52,109.74,109.76,109.83,110.33,111.07,112.06,113.23,114.10,114.78,115.42,116.34,118.33,120.00,122.24,124.91,127.70,129.19,129.33,128.00,125.84,125.66,130.08,135.50,140.61,144.32,147.39
28.30,28.61,28.92,29.22,29.45,29.75,30.14,30.62,31.16,31.69,32.19,32.67,33.16,33.39,33.62,33.81,33.98,34.21,34.38,34.53,34.71,34.94,35.24,35.50,35.73,35.96,36.18,36.29,36.41,36.56,36.67,36.78,37.06,37.48,37.96,38.87,39.67,40.35,40.95,41.81,42.66,43.51,44.36,45.21,46.06,46.96,47.86,48.70,49.48,50.27,51.14,52.07,53.01,54.01,54.97,55.91,56.85,57.93,58.94,59.86,60.67,61.30,61.73,62.17,62.63,63.08,63.55,64.08,64.67,65.31,65.98,66.68,67.38,68.08,68.78,69.53,70.62,71.86,73.00,74.09,75.04,75.68,75.95,75.96,77.17,78.52,79.89,81.49,83.39,85.18,86.83,88.34,89.84,91.27,92.85,94.54,95.96,97.22,97.89,98.07,97.97,98.59,99.69,101.16,102.89,104.75,106.80,108.53,109.99,111.48,113.17,114.78,116.31,117.73,118.57,120.48,122.66,124.82,127.05,129.37,132.21,135.31,138.22,140.76,142.58,143.91,145.13,147.44,149.62,150.79,151.07,151.13,150.29,148.71,147.02,145.86,146.23,148.14,151.76,156.60,160.85,163.07,164.85,165.62,164.37,162.42,160.42,157.99,154.98,151.90,148.47,145.08,141.98,139.41,137.47,135.53,133.94,133.03,132.25,131.52,130.33,128.25,124.45,121.28,119.53,118.71,117.98,117.47,116.86,116.40,116.23,116.31,116.04,115.44,114.63,113.84,113.26,112.36,111.02,109.23,107.65,106.67,105.86,105.09,104.63,104.50,104.25,103.80,103.18,102.57,102.30,102.39,102.75,102.61,102.60,102.82,103.19,103.45,103.16,102.20,100.98,99.94,99.04,98.76,98.54,98.17,97.96,97.30,96.19,94.82,93.50,92.49,93.23,94.77,96.38,97.92,98.02,97.30,96.36,96.21,97.75,99.50,101.33,103.22,104.71,105.53,106.10,106.64,107.09,107.56,107.76,107.82,108.03,108.84,109.53,110.30,111.26,112.18,113.18,114.67,116.59,118.52,120.74,123.26,125.80,127.94,127.36,126.78,125.34,123.35,124.01,129.44,135.40,140.61,144.32,148.02
28.42,28.70,28.98,29.28,29.51,29.81,30.22,30.73,31.23,31.76,32.25,32.74,33.28,33.64,34.00,34.26,34.43,34.66,34.82,35.00,35.20,35.39,35.61,35.90,36.18,36.41,36.65,36.82,36.98,37.12,37.19,37.27,37.44,37.69,38.05,38.94,39.71,40.35,40.92,41.64,42.51,43.38,44.23,45.08,45.93,46.80,47.67,48.51,49.24,49.97,50.80,51.73,52.65,53.61,54.55,55.48,56.41,57.45,58.43,59.32,60.09,60.67,61.15,61.62,62.10,62.60,63.11,63.61,64.18,64.88,65.57,66.27,66.96,67.66,68.36,68.85,69.54,70.31,71.01,71.84,72.74,73.63,74.43,75.11,76.54,78.07,79.58,81.07,82.62,84.15,85.65,87.13,88.64,90.15,91.67,93.17,94.56,95.65,96.30,96.77,97.39,98.51,99.77,101.16,102.70,104.55,106.24,107.68,109.00,110.46,112.20,113.86,115.19,115.95,115.95,117.41,119.71,122.34,124.41,126.75,129.39,132.09,134.51,136.72,138.36,139.57,140.66,142.81,145.00,146.29,146.59,146.24,144.67,143.47,142.72,142.48,143.42,145.58,148.88,153.23,158.36,161.27,163.35,164.44,164.14,162.38,160.60,158.25,155.14,151.92,148.02,144.60,141.88,139.73,138.28,136.54,134.38,131.90,131.09,129.94,128.26,125.87,122.26,120.09,118.89,118.18,117.41,116.91,116.27,115.59,114.94,114.33,113.48,112.63,111.85,111.17,110.78,110.11,109.14,107.90,106.35,105.30,104.49,103.81,103.35,103.22,102.96,102.50,101.84,101.18,100.81,100.72,100.83,100.71,100.66,100.75,100.99,101.30,101.38,100.86,99.95,98.92,97.99,97.32,96.86,96.58,96.38,95.98,95.28,94.26,92.86,91.57,91.46,92.40,94.13,95.71,96.23,95.84,95.10,95.36,96.92,98.57,100.23,101.89,103.06,103.72,104.24,104.81,105.53,105.92,106.06,106.22,106.79,107.77,108.52,109.36,110.44,111.37,112.83,114.74,116.93,119.04,121.18,123.70,125.63,125.86,125.01,123.95,122.58,121.39,122.72,128.94,135.32,140.71,144.81,148.93
28.53,28.79,29.06,29.35,29.59,29.91,30.34,30.85,31.33,31.85,32.34,32.83,33.36,33.83,34.29,34.65,34.87,35.11,35.27,35.47,35.68,35.85,36.01,36.29,36.60,36.84,37.11,37.34,37.54,37.69,37.77,37.85,37.90,37.99,38.20,39.02,39.74,40.37,40.92,41.52,42.37,43.24,44.10,44.95,45.80,46.65,47.49,48.29,48.99,49.69,50.49,51.41,52.33,53.26,54.19,55.12,56.04,57.00,57.92,58.76,59.50,60.07,60.63,61.14,61.63,62.17,62.71,63.21,63.76,64.43,65.11,65.80,66.50,67.18,67.80,68.15,68.62,69.14,69.56,70.21,71.08,72.14,73.35,74.59,76.08,77.62,79.10,80.44,81.67,83.08,84.58,86.13,87.73,89.37,90.82,92.08,93.44,94.45,95.20,95.99,97.15,98.56,99.89,101.18,102.56,104.47,105.89,107.12,108.34,109.75,111.47,112.92,113.78,113.83,113.12,114.00,116.15,119.03,121.32,123.69,126.00,128.13,129.94,131.63,133.20,134.55,135.79,137.75,140.13,141.79,142.35,141.52,139.51,138.61,138.54,138.96,140.59,143.27,146.50,150.38,155.81,159.54,162.00,163.32,163.65,162.04,160.15,157.58,154.18,150.55,146.28,142.83,140.40,138.69,137.96,137.18,135.29,131.68,130.25,128.64,126.68,124.27,121.20,119.80,118.89,118.18,117.50,117.13,116.57,115.82,114.87,113.71,112.29,111.08,110.13,109.31,108.80,108.09,107.27,106.47,105.03,103.93,103.10,102.50,102.07,101.93,101.68,101.21,100.52,99.82,99.39,99.16,99.07,98.99,98.90,98.87,98.95,99.26,99.53,99.36,98.80,97.92,97.03,96.05,95.33,94.96,94.71,94.49,94.20,93.59,92.33,90.90,90.08,90.47,92.24,93.75,94.55,94.39,93.82,94.36,95.89,97.45,98.99,100.51,101.35,101.91,102.44,103.10,103.98,104.29,104.40,104.68,105.62,106.76,107.61,108.54,109.76,110.85,112.80,115.06,117.38,119.64,121.65,123.79,124.87,123.64,122.73,121.37,120.15,119.75,121.88,128.63,135.26,140.84,145.41,150.06
28.61,28.89,29.17,29.42,29.71,30.07,30.50,30.99,31.52,32.00,32.47,32.96,33.49,33.96,34.42,34.89,35.32,35.55,35.72,35.92,36.15,36.36,36.52,36.70,36.94,37.24,37.60,37.85,38.08,38.27,38.34,38.42,38.42,38.37,38.38,39.11,39.81,40.43,40.97,41.53,42.24,43.08,43.97,44.82,45.67,46.52,47.32,48.04,48.73,49.43,50.21,51.09,52.01,52.94,53.87,54.80,55.72,56.53,57.33,58.12,58.87,59.54,60.16,60.72,61.25,61.79,62.33,62.86,63.41,63.98,64.61,65.29,65.99,66.61,66.99,67.36,68.07,68.85,69.38,70.12,70.87,71.78,72.90,74.14,75.59,76.97,78.22,79.36,80.59,82.19,83.97,85.76,87.56,89.32,90.70,91.74,93.01,94.14,95.25,96.37,97.53,98.74,99.98,101.20,102.52,104.63,106.12,107.38,108.55,109.76,111.33,111.87,111.69,111.12,110.12,110.31,111.70,114.22,117.69,119.91,121.54,122.82,123.98,124.89,126.56,128.44,130.21,132.03,134.96,137.53,138.79,137.51,136.05,135.19,134.89,135.19,137.61,141.15,144.89,148.66,153.16,157.90,160.94,162.41,162.88,161.32,158.57,155.01,150.92,146.25,142.06,138.69,136.24,134.72,134.80,136.35,136.65,133.47,130.11,128.14,126.57,124.92,122.93,121.57,120.27,119.23,118.85,118.77,118.43,117.92,117.24,116.08,114.21,112.37,110.74,109.22,107.88,106.55,105.44,104.70,103.61,102.58,101.73,101.11,100.78,100.61,100.36,99.93,99.24,98.54,98.07,97.80,97.66,97.58,97.45,97.29,97.23,97.53,97.66,97.57,97.29,96.84,96.05,95.09,94.12,93.29,92.99,92.81,92.77,92.64,92.07,90.50,89.43,89.56,91.14,92.56,93.18,92.97,92.47,93.02,94.50,96.01,97.54,99.10,99.64,100.12,100.77,101.61,102.34,102.58,102.73,103.17,104.40,105.74,106.72,107.71,108.98,110.62,113.07,115.62,118.03,120.34,122.31,123.29,123.14,121.91,120.80,119.47,118.50,118.65,121.97,128.67,135.22,140.99,146.10,151.59
28.61,28.94,29.26,29.53,29.84,30.24,30.69,31.16,31.66,32.16,32.64,33.12,33.62,34.08,34.57,35.08,35.55,35.89,36.13,36.36,36.60,36.83,36.98,37.16,37.37,37.61,37.89,38.22,38.52,38.76,38.91,38.93,38.83,38.71,38.66,39.21,39.87,40.48,40.99,41.53,42.14,42.92,43.81,44.69,45.54,46.37,47.12,47.78,48.48,49.17,49.91,50.72,51.65,52.61,53.50,54.36,55.21,55.94,56.73,57.53,58.30,59.07,59.74,60.35,60.91,61.45,61.99,62.51,63.03,63.57,64.16,64.80,65.49,66.22,66.93,67.68,68.58,69.46,70.08,70.85,71.57,72.34,73.22,74.20,75.29,76.34,77.40,78.55,80.03,81.77,83.64,85.54,87.54,89.39,90.83,91.93,93.13,94.32,95.48,96.57,97.58,98.63,99.74,101.04,102.69,105.11,106.96,108.42,109.99,112.49,113.16,112.27,110.64,109.04,107.85,107.61,108.07,109.55,113.30,115.51,117.13,118.35,119.31,120.04,121.44,123.29,125.51,128.41,131.64,134.43,135.87,134.48,133.10,132.03,131.51,131.87,134.90,139.24,143.43,147.20,151.56,156.09,159.41,161.33,161.87,159.93,156.25,151.84,147.23,141.89,137.11,133.77,131.80,130.51,130.61,132.38,134.08,134.08,132.94,130.65,128.55,127.13,126.05,125.34,124.53,123.82,123.62,123.51,122.90,121.89,120.53,118.50,116.48,114.57,112.72,110.76,108.95,107.46,106.21,105.08,104.04,102.72,101.38,100.24,99.71,99.51,99.29,98.85,98.01,97.24,96.74,96.45,96.30,96.23,96.03,95.76,95.58,95.81,95.80,95.69,95.49,95.21,94.73,94.04,93.12,92.08,91.41,91.22,91.28,91.38,91.25,89.93,88.62,88.45,89.90,91.26,91.59,91.39,91.12,91.58,92.99,94.50,96.07,97.65,98.25,98.81,99.46,100.20,100.71,100.91,101.21,101.88,103.23,104.62,105.84,107.08,108.50,110.27,112.98,115.82,118.44,120.54,122.01,122.29,121.62,120.40,118.85,117.57,117.36,118.85,123.17,129.49,135.53,141.17,146.93,152.86
28.56,28.94,29.30,29.63,29.96,30.40,30.87,31.33,31.80,32.33,32.82,33.28,33.75,34.21,34.73,35.24,35.70,36.17,36.51,36.79,37.03,37.28,37.44,37.64,37.84,38.00,38.15,38.53,38.90,39.20,39.47,39.40,39.22,39.03,38.96,39.35,39.94,40.52,41.00,41.54,42.08,42.79,43.64,44.56,45.41,46.20,46.91,47.54,48.22,48.92,49.61,50.36,51.27,52.24,53.09,53.87,54.64,55.35,56.16,56.98,57.77,58.61,59.32,59.98,60.58,61.12,61.66,62.16,62.66,63.20,63.75,64.38,65.11,65.99,67.14,68.29,69.34,70.26,71.01,71.85,72.58,73.24,73.87,74.56,75.25,75.99,76.86,78.02,79.72,81.54,83.44,85.41,87.58,89.51,91.05,92.25,93.38,94.56,95.62,96.57,97.43,98.36,99.37,100.84,102.97,105.73,108.19,110.24,112.47,116.07,115.70,113.29,110.15,107.48,106.03,105.29,104.76,105.02,108.32,110.46,112.43,114.13,115.29,116.15,117.37,119.17,121.78,125.84,129.21,131.90,133.21,131.84,130.41,129.10,128.43,128.97,132.28,137.27,141.93,145.88,150.38,154.39,157.81,160.09,160.51,157.98,153.53,148.48,143.49,137.53,132.24,128.98,127.45,126.31,126.20,127.52,130.05,133.31,135.29,133.24,130.97,129.91,129.64,129.72,129.55,129.25,129.10,128.82,127.85,126.32,124.26,121.38,119.24,117.25,115.21,112.98,110.94,109.41,108.02,106.43,105.40,103.80,101.99,100.28,99.21,98.75,98.37,97.83,96.87,96.03,95.48,95.15,94.97,94.89,94.61,94.26,93.99,94.10,93.94,93.77,93.59,93.36,93.22,92.88,92.16,91.09,90.00,89.71,89.77,89.97,90.10,89.15,87.73,87.32,88.69,89.92,89.99,89.83,89.82,90.20,91.50,93.04,94.67,96.26,96.99,97.63,98.24,98.79,99.08,99.37,99.94,100.91,102.39,103.84,105.33,106.83,108.38,110.20,112.98,116.01,118.77,120.48,121.30,120.83,119.66,118.51,116.77,115.93,116.75,119.66,124.90,130.61,135.97,141.35,147.69,153.95
28.40,28.75,29.15,29.58,30.06,30.53,30.99,31.47,31.99,32.48,32.95,33.41,33.88,34.34,34.86,35.37,35.83,36.29,36.72,37.10,37.43,37.72,37.93,38.12,38.31,38.51,38.61,38.81,39.12,39.50,39.97,39.82,39.60,39.38,39.22,39.60,40.05,40.54,41.06,41.60,42.15,42.76,43.49,44.36,45.21,45.97,46.67,47.34,47.98,48.66,49.36,50.08,50.89,51.72,52.55,53.36,54.14,54.95,55.74,56.55,57.38,58.17,58.88,59.56,60.20,60.74,61.28,61.81,62.34,62.88,63.48,64.28,65.21,66.23,67.33,68.44,69.44,70.42,71.47,72.76,73.57,74.20,74.83,75.52,76.17,76.88,77.64,78.35,79.65,81.41,83.43,85.54,87.71,89.71,91.26,92.34,93.27,94.16,95.05,95.94,96.85,97.84,98.96,100.78,103.46,106.51,110.28,114.41,117.90,119.03,118.34,114.82,110.56,107.42,105.18,103.14,101.57,100.84,101.78,103.28,106.22,109.66,112.24,113.59,115.80,118.43,121.24,124.66,127.94,130.08,130.68,129.41,128.17,126.90,126.38,127.30,129.62,134.62,139.99,144.88,149.48,153.54,156.69,158.33,157.81,154.49,150.04,145.22,140.23,133.28,129.07,126.14,124.04,122.56,122.52,123.75,125.74,127.96,130.18,131.05,131.80,132.72,133.14,133.52,133.24,132.58,132.04,131.46,130.69,129.73,128.51,126.42,123.76,120.75,117.79,115.66,113.90,112.09,110.32,108.75,108.01,106.82,105.48,103.87,101.07,99.23,97.85,96.82,96.10,95.31,94.60,94.04,93.69,93.55,93.23,92.85,92.52,92.39,92.07,91.86,91.67,91.45,91.35,91.29,90.98,90.32,89.24,88.43,88.24,88.40,88.38,87.67,86.67,86.54,87.81,88.54,88.68,88.72,88.85,89.18,90.39,91.92,93.60,95.23,95.71,96.29,96.86,97.30,97.44,98.39,99.58,101.05,103.02,104.87,106.58,108.11,109.56,111.62,114.09,116.78,119.16,120.03,120.25,118.00,115.25,114.36,114.20,115.45,117.74,121.19,127.27,131.91,136.45,141.55,147.88,154.63
28.28,28.60,29.09,29.71,30.23,30.70,31.15,31.60,32.14,32.61,33.08,33.54,34.00,34.47,34.99,35.49,35.96,36.42,36.88,37.34,37.75,38.09,38.35,38.56,38.78,39.02,39.10,39.28,39.57,39.96,40.48,40.43,40.16,39.86,39.74,40.01,40.32,40.71,41.20,41.68,42.18,42.74,43.39,44.21,45.00,45.73,46.41,47.07,47.72,48.38,49.05,49.74,50.51,51.28,52.08,52.90,53.70,54.52,55.31,56.11,56.95,57.72,58.43,59.12,59.79,60.39,60.94,61.50,62.08,62.68,63.30,64.14,65.13,66.21,67.26,68.15,68.98,69.91,71.11,72.67,73.89,74.89,75.75,76.44,77.10,77.80,78.50,79.10,80.25,81.74,83.45,85.29,87.54,89.53,90.96,91.87,92.72,93.72,94.74,95.77,96.78,97.85,99.08,101.23,104.51,107.98,112.69,117.11,120.11,120.23,119.36,115.44,110.74,107.24,104.31,101.58,99.51,98.35,98.38,99.43,101.74,104.93,108.39,111.55,114.84,118.08,121.14,123.95,126.87,128.21,127.88,126.56,125.42,124.35,124.22,125.69,127.77,131.80,137.35,143.61,148.51,152.41,155.28,156.40,154.89,150.93,146.40,141.40,135.99,130.03,126.54,123.70,121.17,119.13,118.79,119.61,121.15,122.99,125.34,127.32,129.22,130.97,131.90,132.63,132.84,132.72,132.62,132.34,132.06,131.62,130.85,129.43,127.47,124.97,122.08,119.13,117.09,115.35,114.08,113.44,113.21,112.32,110.77,108.51,105.34,102.43,99.70,97.61,96.81,95.89,95.07,94.29,93.51,92.85,92.14,91.58,91.20,90.91,90.50,90.27,90.10,89.84,89.74,89.77,89.66,89.23,88.30,87.35,86.90,86.78,86.58,86.02,85.52,85.68,86.72,87.26,87.45,87.66,88.03,88.64,89.75,91.19,92.71,94.00,94.39,94.93,95.46,96.01,97.02,98.38,100.10,102.08,104.16,106.17,108.00,109.65,111.17,113.28,115.37,116.94,117.65,117.12,116.23,114.07,112.26,112.67,113.82,116.02,119.16,123.30,129.14,133.04,137.12,142.03,148.15,154.68
28.21,28.48,29.09,29.96,30.43,30.89,31.31,31.73,32.27,32.74,33.20,33.67,34.13,34.59,35.12,35.62,36.09,36.55,37.01,37.52,38.02,38.41,38.72,38.98,39.24,39.53,39.62,39.89,40.19,40.53,40.99,41.17,40.84,40.43,40.44,40.51,40.70,41.00,41.38,41.77,42.22,42.72,43.33,44.09,44.78,45.47,46.13,46.76,47.45,48.08,48.70,49.36,50.13,50.90,51.67,52.47,53.31,54.09,54.86,55.67,56.50,57.27,57.98,58.68,59.37,60.07,60.62,61.22,61.87,62.55,63.17,63.98,64.94,66.00,67.00,67.59,68.19,69.02,70.26,71.96,73.78,75.40,76.63,77.33,78.03,78.73,79.45,80.18,81.33,82.44,83.57,84.89,87.25,89.12,90.37,91.12,91.96,93.29,94.63,95.90,97.06,98.21,99.55,102.03,105.90,109.83,115.18,118.74,120.17,120.22,119.21,115.36,110.68,106.92,103.37,100.39,98.19,96.96,97.04,97.75,98.49,100.20,104.15,109.90,114.29,117.99,121.30,123.53,125.92,126.29,124.93,123.44,122.34,121.59,121.99,124.11,126.44,128.94,134.33,142.12,147.48,151.09,153.68,154.34,151.84,147.32,142.65,137.22,131.20,127.44,124.43,121.52,118.64,115.93,115.03,115.25,116.39,118.26,120.65,122.58,124.45,126.29,127.61,128.72,129.77,130.74,131.60,132.02,132.42,132.44,131.88,131.06,130.54,129.51,127.35,123.13,120.49,119.04,118.78,119.57,119.93,119.24,117.09,113.80,111.10,107.38,103.15,99.65,98.50,97.31,96.41,95.42,94.09,92.63,91.33,90.47,89.99,89.60,89.13,88.91,88.75,88.44,88.28,88.30,88.23,87.92,87.23,86.40,85.69,85.13,84.75,84.29,84.31,84.77,85.51,86.05,86.29,86.66,87.33,88.41,89.42,90.71,91.93,92.66,93.05,93.57,94.12,94.95,97.41,99.04,101.24,103.75,105.69,107.67,109.56,111.35,113.07,115.01,116.64,116.60,114.91,112.68,110.48,109.60,110.31,112.63,114.88,117.31,120.87,125.76,130.66,134.07,137.93,142.67,148.40,154.17
28.43,28.67,29.28,30.15,30.62,31.04,31.46,31.91,32.40,32.87,33.33,33.80,34.26,34.72,35.24,35.75,36.21,36.68,37.14,37.65,38.16,38.60,39.01,39.33,39.69,40.13,40.41,40.72,41.00,41.27,41.58,41.89,41.64,41.26,41.27,41.29,41.32,41.49,41.83,42.22,42.62,43.05,43.53,44.09,44.53,45.11,45.77,46.43,47.08,47.70,48.35,49.03,49.75,50.52,51.29,52.07,52.87,53.64,54.45,55.26,56.05,56.77,57.51,58.23,58.94,59.69,60.33,61.03,61.74,62.43,63.10,63.83,64.64,65.55,66.55,67.46,68.35,69.27,70.32,71.92,73.86,75.70,77.18,78.13,78.82,79.78,81.10,82.72,83.94,85.02,85.98,86.84,88.16,89.43,90.80,92.12,92.86,93.92,95.17,96.49,97.70,98.80,100.42,103.08,106.81,110.39,115.07,118.05,118.94,118.20,116.16,112.54,108.38,104.63,101.23,98.82,96.90,95.58,95.81,96.53,97.57,99.35,102.44,109.24,114.02,117.84,121.21,123.25,124.44,124.05,122.39,120.46,119.24,119.05,120.10,122.47,125.09,127.82,132.78,139.80,145.70,149.77,151.94,151.91,149.40,143.95,138.51,133.27,128.52,125.25,122.28,119.24,116.18,113.38,111.77,111.31,111.86,113.27,115.51,117.82,120.26,122.60,124.02,125.28,126.53,127.79,129.05,130.26,131.06,131.47,131.52,131.39,131.02,130.36,129.30,127.65,125.20,123.83,123.29,123.11,122.93,122.00,120.36,118.11,115.61,112.00,107.73,103.64,100.86,99.04,97.81,96.78,95.63,94.22,92.40,90.79,89.61,88.91,88.34,87.92,87.58,87.22,86.91,86.86,86.74,86.41,85.87,85.06,84.35,83.78,83.34,82.93,83.11,83.64,84.30,84.89,85.50,86.22,87.05,88.03,89.03,90.14,91.01,91.32,91.71,92.75,94.23,96.07,98.39,100.77,103.55,106.37,108.56,110.01,111.60,113.23,114.69,114.95,114.86,114.01,112.42,110.49,109.27,109.61,111.27,113.79,116.24,119.01,122.92,127.92,131.94,135.22,138.71,142.55,146.64,150.12
28.59,28.94,29.62,30.35,30.81,31.21,31.64,32.09,32.53,33.00,33.46,33.92,34.39,34.85,35.37,35.88,36.34,36.80,37.27,37.78,38.29,38.76,39.22,39.64,40.18,40.87,41.23,41.53,41.77,41.99,42.22,42.62,42.45,42.12,42.09,42.09,42.04,42.09,42.33,42.64,43.02,43.40,43.81,44.28,44.66,45.15,45.71,46.28,46.81,47.35,47.98,48.68,49.39,50.14,50.90,51.68,52.45,53.22,54.04,54.84,55.60,56.29,57.05,57.80,58.53,59.30,60.02,60.78,61.52,62.23,63.04,63.87,64.63,65.38,66.41,67.48,68.55,69.60,70.66,72.23,74.11,75.97,77.57,78.77,79.91,81.35,83.15,85.26,86.52,87.60,88.49,89.22,90.11,91.14,92.54,94.04,94.71,95.46,96.41,97.46,98.49,99.74,101.52,104.10,107.44,110.81,114.61,116.70,116.79,115.18,112.16,108.65,105.07,101.80,98.99,96.96,95.29,94.16,94.58,95.53,96.92,98.96,101.97,109.10,113.78,117.49,120.86,122.58,122.88,121.80,119.69,117.17,116.24,116.90,118.71,121.18,123.96,126.80,131.22,137.35,143.74,147.92,149.97,149.64,146.73,140.92,135.11,130.05,126.16,123.08,120.04,116.89,113.78,111.06,109.31,108.43,108.48,109.49,111.23,113.04,115.07,117.22,118.89,120.96,122.92,124.68,126.22,127.87,129.09,130.02,130.74,131.14,131.00,130.66,130.11,129.14,126.51,125.03,124.31,123.76,123.37,122.65,121.69,120.45,118.67,115.31,111.35,107.33,103.87,101.51,99.76,98.39,97.20,95.78,93.77,91.82,90.18,89.00,88.30,87.69,87.15,86.66,86.14,85.76,85.37,84.92,84.46,83.74,83.08,82.51,82.03,81.78,82.10,82.68,83.31,83.97,84.79,85.68,86.60,87.53,88.44,89.34,89.97,90.15,90.96,92.77,95.10,97.62,99.93,102.69,105.74,108.60,110.62,111.72,112.75,113.70,114.41,113.80,112.79,111.57,110.17,108.51,108.61,110.05,112.38,115.07,117.71,120.74,124.78,129.63,133.00,136.11,138.96,141.47,143.57,145.11
28.67,29.29,30.11,30.54,31.00,31.40,31.83,32.27,32.66,33.12,33.59,34.05,34.51,34.98,35.50,36.00,36.47,36.93,37.40,37.90,38.42,38.89,39.35,39.91,40.72,41.75,42.07,42.32,42.51,42.69,42.92,43.36,43.28,42.99,42.93,42.93,42.87,42.83,42.88,43.04,43.40,43.79,44.20,44.66,45.19,45.62,46.00,46.33,46.65,47.04,47.59,48.30,49.07,49.78,50.52,51.29,52.07,52.84,53.61,54.39,55.15,55.85,56.61,57.38,58.15,58.92,59.69,60.46,61.20,61.93,62.99,64.11,64.91,65.52,66.59,67.68,68.80,70.00,71.30,72.92,74.56,76.20,77.80,79.25,81.35,83.52,85.65,87.81,89.07,90.15,91.12,92.05,93.19,94.39,95.71,96.96,97.59,98.02,98.41,98.85,99.46,101.05,102.89,105.09,107.75,111.08,113.77,114.64,113.60,111.06,107.10,103.58,100.65,98.38,96.66,94.78,93.32,92.67,93.34,94.77,96.56,99.08,102.85,109.54,113.60,116.92,120.23,121.50,121.23,119.56,116.82,113.56,113.36,115.20,117.86,120.29,123.07,125.91,129.65,134.75,141.58,145.50,147.74,147.53,143.79,138.28,132.52,127.64,124.16,120.93,117.70,114.47,111.42,109.00,107.74,106.70,106.34,107.07,107.92,108.23,108.77,109.95,112.07,115.68,118.91,121.41,123.09,124.79,126.45,128.05,129.51,130.25,130.42,130.35,129.65,127.30,124.08,122.25,121.47,121.21,120.97,120.97,120.90,120.62,120.12,117.17,113.91,110.69,107.57,104.83,102.33,100.30,98.79,97.32,95.46,93.60,91.81,89.94,89.10,88.30,87.52,86.84,86.02,85.04,84.15,83.45,82.99,82.44,81.89,81.35,80.81,80.86,81.30,81.92,82.55,83.31,84.15,85.04,85.97,86.89,87.62,88.29,88.81,89.17,90.87,93.71,96.79,99.62,102.08,104.82,107.79,110.40,111.78,112.72,112.92,112.62,112.05,111.43,110.38,109.29,108.18,106.76,108.57,110.97,113.64,116.48,119.32,122.51,126.44,130.85,133.82,136.71,138.60,139.34,139.02,139.07
29.64,30.04,30.58,31.00,31.28,31.58,31.96,32.42,32.85,33.31,33.77,34.22,34.64,35.15,35.65,36.13,36.60,37.06,37.52,38.03,38.55,39.01,39.48,40.17,41.10,42.16,42.78,43.05,43.24,43.45,43.68,44.00,43.99,43.84,43.81,43.77,43.70,43.66,43.66,43.68,43.90,44.23,44.62,45.04,45.63,46.14,46.56,46.91,47.22,47.56,47.92,48.35,48.94,49.59,50.34,51.13,51.86,52.63,53.40,54.20,54.99,55.69,56.41,57.11,57.82,58.59,59.41,60.35,61.37,62.44,63.61,64.73,65.49,65.95,66.54,67.58,68.62,69.64,70.66,72.23,73.91,75.68,77.52,79.30,82.43,85.54,88.24,90.31,91.74,93.12,94.37,95.45,96.70,98.19,99.70,101.02,101.73,102.39,102.95,103.38,103.71,104.52,105.89,107.44,109.10,111.53,113.23,113.06,110.87,106.90,102.81,99.65,97.12,94.93,93.35,92.13,91.46,91.46,92.29,94.37,96.66,99.88,105.06,110.40,113.92,116.73,119.19,119.61,118.67,116.34,113.29,110.82,111.28,113.48,116.44,119.28,122.15,124.98,128.36,132.96,140.24,143.86,146.10,146.20,142.84,137.85,132.32,127.31,123.34,119.60,116.16,112.85,109.82,107.42,106.12,104.88,104.30,104.82,104.83,104.63,104.83,105.74,107.55,110.73,114.13,117.16,119.27,121.37,123.22,124.91,126.46,127.50,128.16,127.96,126.47,123.01,120.06,118.01,116.79,116.22,116.08,116.44,116.83,117.14,117.69,116.72,114.95,112.69,110.23,108.12,105.76,103.44,101.38,99.46,97.61,95.78,93.93,92.00,90.65,89.52,88.60,87.90,86.96,85.84,84.81,83.98,83.29,82.38,81.62,80.95,80.18,80.16,80.62,81.30,82.02,82.79,83.55,84.38,85.23,85.98,86.88,87.81,88.71,89.65,92.42,95.70,98.84,101.55,104.07,106.70,109.06,110.85,111.71,111.67,111.21,110.58,109.98,109.41,108.47,107.39,106.60,107.05,109.19,112.17,115.43,118.42,121.51,124.73,128.16,131.63,134.38,135.06,134.86,133.99,132.41,133.75
30.53,30.75,31.07,31.50,31.67,31.87,32.19,32.61,33.02,33.46,33.92,34.36,34.77,35.30,35.77,36.24,36.70,37.17,37.61,38.11,38.61,39.08,39.56,40.34,41.34,42.45,43.38,43.75,43.99,44.21,44.43,44.66,44.73,44.70,44.68,44.61,44.54,44.50,44.48,44.42,44.47,44.69,45.04,45.43,46.04,46.63,47.14,47.53,47.84,48.16,48.40,48.61,49.00,49.59,50.34,51.13,51.86,52.64,53.42,54.25,55.12,55.88,56.59,57.25,57.90,58.61,59.40,60.47,61.73,63.08,64.28,65.37,66.13,66.52,66.68,67.49,68.36,69.20,70.00,71.44,73.15,75.07,77.10,79.09,82.80,86.80,90.31,92.49,94.24,95.95,97.56,99.03,100.72,102.65,104.34,105.60,106.30,106.90,107.40,107.73,107.87,108.07,108.92,109.90,110.79,112.02,112.53,111.35,108.25,103.27,99.31,96.41,94.03,91.76,90.37,89.63,89.57,90.18,91.43,93.96,96.65,100.61,107.26,111.22,114.17,116.32,117.67,117.40,115.97,113.35,110.34,108.57,109.57,111.87,114.91,118.16,121.20,124.11,127.28,131.51,138.85,142.40,144.70,145.02,142.15,137.89,132.81,127.81,123.39,119.23,115.68,112.37,109.35,106.93,105.15,103.34,102.22,102.35,101.81,101.35,101.40,102.14,103.63,106.39,109.72,112.99,115.50,117.83,119.82,121.61,123.24,124.41,125.29,124.96,123.01,119.07,116.29,114.07,112.46,111.56,111.38,111.85,112.52,113.29,114.51,115.05,114.64,113.48,111.95,110.60,108.61,106.38,104.21,102.20,100.19,98.17,96.17,94.26,92.56,91.15,90.00,89.04,88.00,86.81,85.69,84.71,83.77,82.53,81.55,80.74,79.74,79.56,80.01,80.76,81.53,82.34,83.08,83.90,84.78,85.59,86.68,87.82,89.13,90.81,94.23,97.64,100.62,103.10,105.51,107.93,109.78,110.92,111.31,110.52,109.58,108.74,108.13,107.54,106.71,105.86,105.62,107.47,109.83,113.21,116.91,120.12,123.37,126.59,129.53,132.04,133.95,132.63,130.58,128.38,126.25,128.85
31.11,31.29,31.58,32.01,32.23,32.41,32.63,32.89,33.16,33.54,33.98,34.44,34.90,35.37,35.84,36.30,36.77,37.23,37.63,38.08,38.55,39.01,39.54,40.30,41.33,42.60,43.78,44.40,44.75,44.97,45.13,45.36,45.52,45.58,45.51,45.44,45.41,45.37,45.32,45.30,45.15,45.18,45.42,45.81,46.43,47.08,47.67,48.11,48.41,48.78,49.04,49.20,49.40,49.93,50.62,51.42,52.25,53.02,53.84,54.75,55.72,56.69,57.42,58.11,58.74,59.25,59.90,60.99,62.36,63.84,64.94,65.97,66.80,67.31,67.28,67.47,68.01,68.75,69.54,70.68,72.40,74.41,76.52,78.46,81.91,86.63,91.40,94.07,96.36,98.42,100.50,102.83,105.60,108.27,110.06,110.92,111.43,111.34,111.22,111.17,111.26,111.36,111.71,112.31,112.93,112.58,111.51,109.30,105.73,100.65,97.17,94.26,91.61,89.11,88.17,87.49,87.59,88.70,90.89,93.42,96.34,101.09,109.22,111.89,114.21,115.43,115.32,114.70,113.18,110.97,108.61,107.09,108.43,110.49,113.30,116.84,120.18,123.34,126.57,130.55,137.19,141.17,143.62,144.01,141.59,138.41,134.13,129.47,124.90,120.54,117.08,113.89,110.93,108.40,105.45,102.34,100.07,99.41,98.87,98.49,98.52,99.11,100.46,103.16,106.14,109.13,111.99,114.12,116.23,118.25,120.02,120.99,121.60,121.21,119.53,116.29,113.31,110.94,109.16,107.96,107.48,107.66,108.36,109.45,110.62,111.50,112.04,112.22,112.07,111.51,110.21,108.69,107.29,105.98,103.52,100.91,98.55,96.68,95.03,93.45,91.85,90.19,89.05,87.84,86.62,85.43,84.25,82.85,81.72,80.74,79.55,79.07,79.50,80.31,81.10,82.00,82.84,83.79,84.90,86.25,87.47,88.65,90.31,92.97,96.25,99.29,101.85,103.93,105.95,107.97,109.59,110.54,110.48,109.59,108.49,107.45,106.65,105.91,105.13,104.95,105.73,107.77,110.37,113.88,117.73,121.27,124.52,127.66,130.24,131.85,131.69,129.14,125.89,122.91,121.32,124.61
31.61,31.86,32.14,32.48,32.75,32.96,33.17,33.39,33.59,33.89,34.22,34.60,35.02,35.45,35.90,36.38,36.88,37.34,37.77,38.22,38.68,39.15,39.61,40.45,41.55,42.78,43.98,44.92,45.47,45.68,45.84,46.03,46.22,46.36,46.39,46.32,46.27,46.23,46.20,46.20,46.00,45.88,45.94,46.24,46.82,47.48,48.13,48.68,49.03,49.44,49.96,50.58,51.20,52.06,52.51,52.71,52.92,53.50,54.25,55.17,56.22,57.30,58.18,59.03,59.97,61.17,62.29,63.46,64.58,65.52,65.79,66.62,67.51,68.13,68.05,67.77,67.87,68.36,69.13,70.02,71.57,73.46,75.49,77.43,80.12,85.43,91.53,94.47,97.25,100.01,102.76,105.58,108.78,111.74,113.81,114.82,114.98,114.32,113.38,112.59,112.40,112.40,112.32,112.20,111.94,110.78,108.97,106.55,103.28,98.76,95.40,92.39,89.39,86.34,85.53,85.02,85.42,86.88,89.28,92.12,95.89,101.51,109.84,111.85,113.44,114.01,113.37,112.41,110.73,108.58,106.64,106.17,107.63,109.41,111.89,115.37,118.92,122.33,125.74,129.63,135.27,139.73,142.29,142.77,141.17,138.50,134.70,130.58,126.60,122.43,119.10,116.08,113.26,110.67,107.90,104.53,101.37,99.18,98.22,97.20,96.58,96.69,97.97,100.20,102.75,105.59,108.83,111.49,113.69,115.52,117.03,117.99,118.73,118.77,117.60,114.43,111.41,108.78,106.70,105.31,104.54,104.36,104.83,105.83,106.75,107.58,108.28,108.84,109.26,109.45,108.66,107.32,105.85,104.88,103.47,102.26,101.08,99.07,97.39,95.68,93.89,92.00,90.27,88.76,87.07,85.12,83.46,82.17,81.14,80.20,79.16,78.50,78.97,79.97,81.01,82.01,82.89,83.82,84.94,86.44,87.81,89.26,91.25,94.19,97.32,99.93,102.04,103.79,105.57,107.48,108.97,109.65,109.11,108.12,107.22,106.32,105.38,104.60,104.20,104.82,106.41,108.30,111.12,114.89,118.80,121.96,124.82,127.82,129.83,130.20,128.54,125.15,121.59,118.69,117.34,121.16
32.07,32.41,32.70,32.96,33.26,33.50,33.73,33.95,34.11,34.34,34.57,34.85,35.22,35.57,35.99,36.47,36.99,37.46,37.93,38.40,38.86,39.34,39.77,40.71,41.87,43.05,44.22,45.45,46.16,46.37,46.53,46.69,46.89,47.09,47.25,47.19,47.13,47.09,47.09,47.08,46.88,46.64,46.53,46.69,47.22,47.86,48.55,49.23,49.78,50.42,51.37,52.60,53.79,54.88,54.98,54.47,53.95,54.16,54.72,55.59,56.69,57.85,58.92,60.08,61.52,63.55,65.27,66.53,67.33,67.62,66.96,67.45,68.30,68.98,68.81,68.15,67.83,68.04,68.85,69.45,70.72,72.42,74.36,76.29,78.28,83.58,90.40,94.30,97.58,101.02,104.43,107.66,111.26,114.52,116.85,117.96,117.72,116.40,114.60,113.02,112.37,112.07,111.52,110.67,109.49,107.92,105.75,103.31,100.43,96.64,93.31,90.14,86.86,83.50,82.81,82.53,83.23,84.99,87.50,90.71,95.50,101.92,109.67,111.41,112.36,112.33,111.31,109.75,107.92,106.02,104.78,105.50,106.99,108.53,110.68,113.89,117.57,121.15,124.72,128.54,133.22,137.99,140.74,141.41,140.44,137.76,134.29,130.88,127.90,124.45,121.33,118.46,115.79,113.24,110.95,107.81,104.16,100.54,98.61,96.78,95.39,94.77,95.59,97.23,99.23,101.88,105.61,108.86,111.24,112.95,114.18,115.19,116.14,116.68,116.11,113.11,110.10,107.19,104.71,102.97,101.97,101.43,101.54,102.20,102.87,103.54,104.17,104.81,105.50,106.24,105.88,104.71,103.11,102.34,102.05,102.34,102.50,100.81,99.33,97.62,95.72,93.70,91.36,89.33,86.97,84.23,82.14,81.04,80.18,79.38,78.56,77.89,78.47,79.67,80.96,82.06,82.98,83.89,84.97,86.48,87.94,89.60,91.80,94.82,97.83,100.11,101.89,103.40,105.02,106.88,108.11,108.39,107.45,106.38,105.72,105.04,104.07,103.38,103.64,105.08,107.30,109.04,112.03,116.00,119.87,122.48,124.93,127.47,128.68,127.87,125.21,121.23,117.56,114.81,113.45,117.47
32.43,32.83,33.19,33.53,33.78,34.01,34.24,34.47,34.69,34.92,35.15,35.39,35.65,35.86,36.17,36.58,37.06,37.52,38.04,38.53,39.01,39.53,40.15,41.15,42.36,43.63,44.85,46.08,46.80,47.01,47.17,47.38,47.56,47.75,47.96,48.00,48.00,47.99,47.98,47.92,47.71,47.47,47.27,47.14,47.62,48.21,48.86,49.63,50.97,52.48,54.24,56.16,57.84,58.33,57.89,56.94,55.96,55.39,55.42,56.06,57.20,58.36,59.65,61.50,63.82,66.29,68.45,69.75,70.34,70.31,69.05,68.88,69.36,69.91,69.29,68.55,67.97,67.98,68.96,69.12,69.87,71.29,73.27,75.20,77.15,80.41,85.60,93.30,97.12,100.87,104.62,108.38,112.92,117.00,119.35,119.80,119.16,116.63,114.10,111.95,110.36,109.02,107.87,106.54,104.92,103.60,101.64,99.04,96.01,92.91,89.65,86.24,83.04,80.53,80.24,80.28,81.19,83.18,86.23,89.67,95.54,102.37,107.95,110.29,110.98,110.29,108.42,105.33,103.46,102.92,103.59,105.15,106.58,108.08,109.97,112.54,116.13,119.64,123.14,126.78,130.97,135.34,138.58,139.87,138.44,134.43,131.12,128.80,127.49,126.31,123.69,120.89,118.31,116.10,114.01,111.75,108.83,104.91,100.46,97.99,95.98,94.03,92.93,93.87,95.07,97.28,101.84,105.09,108.07,110.31,111.63,112.69,113.69,114.54,114.66,112.79,109.85,106.71,103.61,100.80,99.80,98.96,98.43,98.35,98.92,99.45,100.02,100.64,101.28,101.87,101.86,101.29,100.30,99.53,99.11,99.20,99.69,100.22,99.90,98.61,96.62,94.27,91.83,88.69,85.38,82.31,80.16,79.28,78.66,78.08,77.41,77.23,78.10,79.42,80.71,81.85,82.90,83.94,85.06,86.43,87.83,89.26,91.23,94.24,97.25,99.65,101.53,103.08,104.70,106.43,106.90,106.26,105.28,104.26,103.58,103.02,102.45,102.09,103.70,105.99,108.36,110.30,113.36,117.13,120.63,122.86,125.21,126.22,125.99,124.58,122.12,118.08,114.09,110.81,108.86,112.05
32.74,33.16,33.58,33.98,34.28,34.55,34.80,35.03,35.26,35.49,35.72,35.95,36.18,36.37,36.60,36.90,37.27,37.60,38.09,38.59,39.10,39.64,40.62,41.77,43.02,44.29,45.53,46.76,47.49,47.73,47.85,48.04,48.21,48.39,48.62,48.73,48.80,48.85,48.87,48.79,48.58,48.31,48.01,47.72,48.17,48.74,49.47,50.42,51.98,53.78,55.90,58.13,59.89,60.19,59.74,58.85,57.82,56.91,56.42,56.68,57.68,58.87,60.54,62.82,65.51,68.20,70.52,72.14,73.07,73.28,72.13,71.63,71.69,71.66,69.76,68.69,68.05,67.97,68.59,68.68,69.28,70.45,72.14,74.08,76.01,78.33,82.71,91.87,96.00,99.95,103.96,108.23,113.74,118.10,120.28,120.23,118.85,115.55,112.47,109.78,107.40,105.09,103.10,101.12,99.08,97.46,95.35,92.88,90.11,87.13,84.60,82.01,79.66,77.97,78.08,78.81,80.54,83.33,86.99,90.96,96.63,102.65,107.04,108.34,108.26,106.79,104.18,101.54,100.61,101.19,102.89,104.97,106.70,108.21,109.96,112.35,115.81,119.20,122.52,125.87,129.63,133.74,136.75,137.62,135.34,130.99,127.58,125.45,124.73,125.24,124.44,122.92,121.00,119.04,117.53,115.76,113.12,109.05,103.69,99.94,96.98,94.40,91.95,91.60,91.82,93.25,97.00,101.11,104.62,107.21,108.81,110.15,111.40,112.45,112.96,112.23,109.89,106.52,102.79,99.43,97.98,96.88,95.97,95.28,95.24,95.56,96.04,96.67,97.48,98.21,98.46,98.20,97.49,96.71,96.29,96.29,96.83,98.11,98.43,98.06,96.79,94.47,92.10,88.59,84.56,80.76,79.08,78.19,77.46,76.88,76.55,76.99,78.00,79.24,80.41,81.54,82.60,83.59,84.63,86.11,87.53,88.89,90.69,93.45,96.34,99.05,101.20,102.76,104.38,105.46,105.28,104.22,103.15,102.08,101.62,101.42,101.23,101.19,103.51,106.40,109.21,111.66,114.72,118.05,121.04,123.05,124.66,124.72,123.71,121.87,119.02,114.88,110.45,106.55,104.23,107.93
33.00,33.44,33.90,34.36,34.77,35.10,35.37,35.60,35.83,36.07,36.30,36.53,36.76,36.99,37.17,37.36,37.58,37.73,38.15,38.64,39.17,39.71,41.11,42.46,43.76,45.00,46.24,47.47,48.22,48.48,48.56,48.70,48.85,49.04,49.28,49.45,49.62,49.76,49.82,49.73,49.45,49.10,48.73,48.37,48.82,49.39,50.22,51.43,52.89,54.67,56.86,59.18,60.80,61.18,60.99,60.39,59.54,58.54,57.60,57.39,58.13,59.35,61.48,64.05,66.83,69.61,71.95,74.04,75.59,76.34,75.71,75.10,74.71,73.83,70.33,68.72,68.08,67.98,68.00,68.21,68.83,69.77,71.02,72.93,74.86,76.89,80.82,89.81,94.39,98.53,102.76,107.49,113.83,118.15,120.11,119.75,117.51,113.75,110.23,107.04,104.00,100.82,97.89,95.13,92.51,90.28,87.86,85.67,83.41,80.33,78.85,77.63,76.58,75.79,76.33,77.91,80.73,84.62,88.90,93.52,98.31,102.83,106.43,105.91,104.84,102.62,99.47,98.24,98.71,100.28,102.54,104.95,107.12,108.71,110.44,112.96,116.26,119.50,122.57,125.57,128.93,132.82,135.16,135.05,131.83,127.56,123.91,121.46,120.70,122.46,124.01,124.34,123.44,121.79,121.02,119.55,116.91,112.81,107.46,102.25,98.22,95.34,91.93,90.06,89.26,89.75,91.86,97.00,100.95,103.82,105.84,107.54,109.13,110.33,111.09,111.42,109.98,106.45,102.18,98.62,96.52,95.09,93.86,92.68,91.82,91.91,92.26,92.87,93.95,94.94,95.40,95.30,94.69,93.91,93.51,93.48,93.94,95.17,95.85,96.60,96.44,94.45,92.22,88.77,84.20,79.53,78.52,77.51,76.50,75.80,75.86,76.93,78.00,79.04,80.04,81.10,82.09,82.95,83.91,85.60,87.09,88.48,90.16,92.56,95.31,98.44,100.90,102.44,104.03,104.21,103.49,102.26,101.03,99.72,99.44,99.64,99.88,100.32,103.08,106.46,109.83,112.93,115.94,118.75,121.19,123.05,123.62,123.06,121.64,119.42,115.92,111.63,106.77,102.31,99.86,104.66
33.13,33.57,34.05,34.58,35.18,35.58,35.90,36.18,36.41,36.64,36.87,37.10,37.34,37.57,37.74,37.93,38.16,38.37,38.61,38.91,39.29,39.84,41.49,43.02,44.44,45.77,47.00,48.20,48.92,49.19,49.32,49.42,49.53,49.73,50.12,50.49,50.85,51.19,51.39,51.15,50.13,49.42,49.16,49.20,49.60,50.12,50.99,52.32,53.79,55.53,57.49,59.48,60.99,62.01,62.02,61.35,60.50,59.60,58.72,58.29,58.55,59.63,62.08,64.81,67.59,70.37,72.96,75.39,77.43,78.84,78.95,78.60,77.71,75.87,72.02,69.07,67.83,67.72,67.93,67.84,68.39,69.21,70.21,71.82,73.80,75.89,78.72,83.41,91.13,96.26,100.47,105.30,110.75,115.05,117.38,117.46,115.27,111.78,108.23,104.79,101.51,98.07,94.69,90.51,85.61,82.49,80.19,78.35,76.64,74.54,73.72,73.54,74.04,75.23,76.71,78.57,81.94,86.74,91.42,96.25,100.16,102.96,104.57,103.36,101.70,99.68,97.57,96.44,97.84,100.22,102.96,105.52,107.64,109.81,112.34,115.44,118.60,121.49,124.26,127.01,129.87,133.10,134.27,133.26,130.41,124.95,120.94,118.15,116.72,118.33,120.18,121.42,121.91,121.84,121.61,120.31,117.71,113.75,109.04,104.01,99.64,96.08,92.52,90.11,88.69,88.50,89.87,92.74,96.52,100.04,102.58,104.34,106.09,107.68,108.90,109.42,108.88,105.94,102.15,99.18,96.88,94.13,91.93,90.62,89.72,89.63,89.66,89.97,90.94,91.74,92.25,92.36,92.00,91.17,90.73,90.65,91.05,92.17,93.18,94.30,94.84,94.07,91.94,88.74,84.30,79.58,78.47,77.36,76.28,75.50,75.42,76.38,77.36,78.30,79.18,79.94,80.60,81.59,83.00,84.65,86.23,87.77,89.52,91.75,95.10,98.41,100.83,102.18,103.32,103.10,102.24,100.81,98.74,95.67,93.79,93.37,94.58,97.53,101.46,105.50,109.28,112.53,115.42,118.14,120.48,122.13,122.11,121.25,119.39,116.51,112.82,108.33,103.69,99.96,98.75,102.85
33.32,33.83,34.38,34.98,35.65,36.06,36.40,36.70,36.98,37.22,37.45,37.68,37.91,38.14,38.32,38.51,38.74,38.97,39.11,39.29,39.60,40.19,41.91,43.53,45.05,46.48,47.79,48.96,49.69,50.00,50.15,50.26,50.39,50.68,51.22,51.74,52.21,52.66,52.98,52.70,51.14,50.09,49.74,49.90,50.25,50.83,51.79,53.21,54.65,56.26,57.98,59.68,61.13,62.47,62.90,62.55,61.73,60.85,59.94,59.27,59.15,60.30,62.75,65.47,68.23,71.01,73.74,76.38,78.66,80.32,80.94,80.73,79.72,77.62,73.65,69.90,68.18,67.93,68.22,67.86,68.11,68.71,69.55,70.79,72.73,74.91,77.26,79.87,89.15,94.79,98.90,103.50,107.99,111.59,113.71,114.03,112.30,109.38,106.11,102.71,99.31,95.78,91.90,86.99,81.32,77.95,75.43,73.55,72.12,70.88,70.69,71.57,73.29,75.56,77.51,80.11,84.05,89.03,93.44,97.91,100.84,102.22,102.34,100.46,98.30,96.40,95.19,95.29,97.47,100.34,103.43,106.44,109.00,111.72,114.69,117.91,120.79,123.48,126.13,128.67,130.66,132.49,132.45,130.55,127.18,121.82,117.83,114.85,112.94,113.89,115.73,117.62,119.34,120.80,121.31,120.40,118.00,114.18,110.01,105.32,100.90,96.99,93.30,90.42,88.52,87.73,88.18,89.78,92.61,95.76,98.59,100.86,103.01,104.94,106.46,107.23,107.32,105.41,102.56,99.91,97.36,93.65,90.68,89.04,87.91,87.52,87.30,87.36,88.01,88.37,88.81,89.03,88.85,88.31,87.83,87.73,88.18,89.37,90.79,92.20,93.19,93.31,91.61,88.70,84.39,79.64,78.48,77.30,76.10,75.14,74.81,75.70,76.62,77.51,78.33,78.87,79.35,80.48,82.21,83.85,85.52,87.20,88.99,91.10,94.76,98.26,100.69,101.80,102.39,101.93,100.83,99.03,96.38,92.77,90.36,89.72,91.21,95.20,99.85,104.33,108.30,111.68,114.46,117.14,119.45,120.98,120.34,119.04,116.82,113.60,109.66,105.08,100.99,98.28,98.07,101.89
33.58,34.22,34.86,35.55,36.17,36.53,36.84,37.17,37.55,37.79,38.02,38.25,38.49,38.72,38.89,39.08,39.31,39.54,39.64,39.77,40.08,40.77,42.39,44.01,45.60,47.13,48.59,49.75,50.50,50.89,51.05,51.20,51.45,51.88,52.57,53.18,53.68,54.18,54.59,54.35,52.46,51.06,50.47,50.47,50.78,51.51,52.64,54.10,55.49,56.89,58.34,59.80,61.19,62.58,63.65,63.97,63.19,62.27,61.23,60.30,59.90,61.35,63.50,66.01,68.74,71.52,74.30,77.02,79.30,80.86,81.78,81.59,80.80,79.11,75.24,71.18,69.08,68.57,68.85,68.24,67.99,68.26,69.04,69.83,71.67,73.93,76.42,78.97,88.35,94.05,98.01,102.07,105.52,107.81,109.16,109.54,108.65,106.56,103.89,100.80,97.40,93.92,89.50,84.48,79.45,76.43,73.37,71.07,69.69,69.20,69.60,71.57,74.22,76.71,78.72,82.49,86.98,91.47,94.99,98.58,100.44,100.68,99.77,97.25,94.67,92.80,92.37,94.74,97.57,100.62,103.93,107.68,111.13,114.38,117.45,120.37,122.86,125.46,128.16,130.54,131.30,131.05,129.76,126.99,122.28,118.20,114.61,111.57,109.34,109.16,110.68,113.02,115.81,118.75,120.18,119.86,117.79,114.15,110.42,106.21,102.03,98.05,94.27,90.99,88.73,87.41,86.77,88.03,89.18,91.01,93.92,97.12,99.88,102.12,103.78,104.85,105.33,104.87,103.36,100.79,97.94,93.63,90.04,87.88,86.35,85.58,85.16,85.03,85.13,84.86,85.10,85.34,85.28,85.33,84.83,84.74,85.35,86.74,88.68,90.28,91.48,92.20,91.24,88.66,84.45,79.70,78.54,77.32,75.95,74.72,74.04,74.88,75.79,76.68,77.48,77.87,78.32,79.58,81.51,83.21,84.98,86.75,88.58,90.59,94.30,98.00,100.47,101.31,101.26,100.72,99.28,96.96,93.96,90.92,89.00,88.49,89.64,93.29,98.27,102.96,106.92,110.39,113.09,115.76,118.10,119.61,118.33,116.47,113.94,110.68,106.44,101.86,98.63,97.22,97.80,101.73
34.10,34.72,35.37,36.05,36.63,37.02,37.35,37.67,38.01,38.29,38.57,38.83,39.06,39.24,39.44,40.03,41.09,42.26,42.88,43.04,43.08,43.54,44.08,44.91,46.09,47.59,49.11,50.31,51.24,51.86,52.06,52.22,52.59,53.14,53.79,54.45,55.04,55.59,56.10,56.48,54.98,53.73,53.00,52.58,51.95,52.17,53.07,54.44,55.73,56.96,58.22,59.56,60.95,62.43,63.83,64.74,64.72,63.75,62.87,62.10,61.65,62.46,64.55,66.83,69.16,71.61,74.29,77.02,79.41,81.16,82.42,82.15,81.18,79.48,76.18,72.41,70.14,69.27,69.37,68.75,68.30,68.18,68.49,69.40,71.13,73.39,75.98,78.62,88.10,93.71,97.33,100.78,103.43,105.28,106.19,106.09,104.91,103.22,100.80,97.86,94.69,91.40,87.60,83.35,78.95,75.56,72.14,69.91,68.91,68.68,69.44,71.72,74.78,77.87,80.77,84.65,88.54,92.01,94.82,97.50,98.33,97.64,96.17,93.34,91.31,90.50,91.31,94.58,97.93,101.65,105.68,109.80,113.03,116.21,119.18,121.85,124.60,126.30,127.46,128.21,128.34,127.73,126.32,123.71,119.49,115.62,112.15,109.13,106.78,106.40,107.50,109.31,111.67,114.64,117.45,118.05,116.71,113.92,110.40,106.40,102.46,98.74,95.09,91.64,89.20,87.59,86.34,86.40,87.06,88.39,90.33,92.45,95.21,98.05,100.61,102.44,103.21,103.33,102.60,100.86,98.52,94.41,90.79,88.50,86.95,85.49,84.04,82.86,82.32,81.87,81.87,81.94,81.88,81.96,81.77,81.86,82.43,83.58,84.70,86.08,87.95,90.30,90.13,87.53,83.66,79.73,78.39,77.05,75.64,74.33,73.40,74.14,74.98,75.85,76.66,77.09,77.97,79.31,81.00,82.75,84.66,86.57,88.58,90.80,94.18,97.52,99.64,100.11,99.51,98.57,97.14,95.11,92.38,89.98,88.24,87.80,89.09,92.20,96.84,101.35,105.28,108.81,111.72,114.54,116.87,118.14,116.54,114.51,111.90,108.51,103.75,99.74,96.77,95.59,97.33,100.75
34.62,35.25,35.90,36.56,37.10,37.50,37.84,38.15,38.45,38.76,39.09,39.45,39.88,40.53,41.14,42.18,43.77,45.57,46.38,46.50,46.35,46.46,46.14,46.21,46.86,48.16,49.63,50.84,51.91,52.75,53.07,53.29,53.76,54.38,55.00,55.68,56.34,56.96,57.60,58.52,57.43,56.22,55.19,54.31,53.04,52.76,53.33,54.52,55.72,56.84,58.02,59.30,60.67,62.22,63.84,65.20,65.97,65.27,64.59,63.93,63.42,63.55,65.34,67.33,69.36,71.58,74.24,76.98,79.43,81.33,82.95,82.61,81.46,79.72,77.02,73.57,71.34,70.31,70.10,69.42,68.76,68.24,68.07,69.02,70.49,72.66,75.33,78.03,87.78,93.24,96.47,99.44,101.49,102.83,103.13,102.38,100.85,99.38,97.16,94.43,91.58,88.65,85.57,82.03,78.01,74.18,70.95,68.95,68.19,68.35,69.34,71.86,75.24,78.78,82.26,86.04,89.44,92.24,94.58,95.98,95.84,94.55,92.75,89.87,88.40,88.60,90.65,94.66,98.73,102.99,107.37,111.62,114.77,117.82,120.62,123.05,125.45,125.98,125.71,125.21,124.94,124.22,122.77,120.26,116.37,112.70,109.39,106.42,104.02,103.48,104.29,105.81,107.97,110.96,114.64,115.86,115.14,113.20,110.17,106.52,102.87,99.42,95.98,92.66,90.14,88.23,86.54,85.48,85.36,86.05,87.35,88.74,91.13,93.87,96.68,99.22,100.66,101.41,101.35,100.33,98.35,94.90,91.68,89.33,87.54,85.55,83.39,81.46,80.40,79.94,79.76,79.69,79.63,79.69,79.72,79.88,80.28,81.03,81.48,82.43,84.23,86.96,87.63,85.65,82.58,79.56,78.11,76.73,75.31,73.94,72.79,73.45,74.22,75.04,75.85,76.55,77.74,79.14,80.74,82.80,84.85,86.90,88.99,91.21,94.21,97.01,98.52,98.40,97.44,96.25,94.84,93.06,90.72,88.74,87.36,87.24,88.80,91.52,95.73,99.99,103.90,107.57,110.79,113.85,116.04,116.53,114.70,112.58,109.90,106.43,101.71,98.08,95.16,94.08,96.84,99.87
35.13,35.79,36.46,37.07,37.61,37.97,38.28,38.59,38.90,39.21,39.56,40.13,41.10,43.04,44.67,46.21,47.80,49.65,50.08,50.08,49.85,49.47,48.70,48.08,48.07,48.90,50.18,51.35,52.50,53.51,54.08,54.45,54.98,55.60,56.22,56.84,57.57,58.28,59.07,60.39,59.69,58.31,56.72,55.34,53.96,53.24,53.34,54.26,55.36,56.50,57.73,59.04,60.36,61.95,63.61,65.26,66.77,66.86,66.41,65.76,65.10,64.60,65.70,67.31,69.22,71.39,74.14,76.92,79.37,81.31,83.32,82.94,81.61,79.85,77.74,74.61,72.77,71.87,71.18,70.36,69.44,68.50,67.85,68.65,69.64,71.61,74.30,77.01,87.28,92.56,95.34,98.01,99.76,100.41,99.80,98.15,96.28,94.78,92.71,90.29,87.89,85.55,83.28,80.28,76.27,71.96,69.74,68.20,67.45,68.20,69.26,71.97,75.57,79.29,82.77,86.24,89.41,92.15,94.33,93.89,92.87,91.49,89.69,87.16,86.17,87.24,90.47,95.08,100.19,104.78,108.85,112.90,116.29,119.16,121.67,123.91,124.92,123.92,122.53,121.49,121.12,120.56,119.14,116.53,112.54,109.16,106.08,103.25,100.86,100.12,100.90,102.58,105.00,108.15,111.83,113.18,112.87,111.73,109.63,106.58,103.31,100.11,96.97,94.25,91.78,89.58,87.68,85.69,84.21,83.98,85.24,86.63,88.12,89.65,91.58,94.72,97.44,98.98,99.43,98.93,96.99,94.88,92.67,90.37,87.93,85.70,83.39,81.30,79.89,79.62,79.40,79.25,79.18,79.19,79.25,79.30,79.36,79.48,79.61,79.81,80.33,81.38,82.99,82.66,81.13,79.05,77.65,76.32,74.96,73.57,72.21,72.82,73.51,74.25,75.09,76.37,77.68,79.07,80.84,83.64,85.84,87.98,90.02,91.89,94.44,96.47,97.00,95.96,94.89,93.74,92.32,90.65,88.86,86.99,86.24,86.86,88.85,91.42,95.12,99.04,102.94,106.91,110.56,114.01,115.87,114.74,112.76,110.63,107.89,104.41,100.68,97.06,93.90,92.81,96.31,99.21
35.64,36.31,36.98,37.58,38.08,38.42,38.73,39.05,39.40,39.63,39.89,40.47,41.68,43.64,45.83,47.93,49.81,51.54,52.14,52.26,52.16,52.10,51.42,50.58,50.20,50.65,51.77,52.75,53.71,54.57,55.10,55.61,56.22,56.86,57.48,58.10,59.35,61.25,63.31,63.69,61.27,59.14,57.59,56.20,54.85,53.89,53.66,54.28,55.00,56.13,57.39,58.66,59.94,61.50,63.20,65.04,66.94,67.99,67.94,67.53,67.06,66.32,66.98,68.13,69.70,71.78,74.43,77.14,79.68,81.89,84.05,83.65,82.08,80.01,77.92,75.40,73.81,72.84,71.95,71.02,70.03,69.01,68.15,68.31,69.09,70.52,72.70,75.77,82.79,89.37,94.34,97.00,97.97,97.10,95.35,93.25,91.32,89.48,87.40,85.26,83.32,82.02,80.47,78.00,74.43,70.63,68.75,67.45,66.92,68.06,69.14,71.72,75.25,79.12,82.51,85.78,88.79,91.29,92.68,91.77,90.14,88.04,85.59,83.68,84.18,87.00,91.85,97.66,102.21,106.09,109.74,113.71,117.45,120.07,122.10,123.92,123.56,122.16,119.84,117.24,116.25,115.22,113.63,111.38,108.50,105.46,102.58,99.92,97.67,96.85,97.76,99.87,102.86,106.27,109.23,110.42,110.20,109.13,108.33,106.93,105.10,102.68,98.90,96.25,93.79,91.32,88.78,86.54,84.44,83.11,82.90,83.64,84.82,86.12,87.72,90.28,92.66,94.43,95.43,95.52,94.28,92.79,91.26,89.75,88.06,86.13,84.35,82.60,80.64,79.84,79.44,79.22,79.02,78.82,78.78,78.78,78.77,78.73,78.76,78.85,79.07,79.51,80.48,80.33,79.42,78.02,76.63,75.30,73.95,72.66,71.64,72.20,72.86,73.72,74.85,76.33,77.67,79.06,80.99,84.54,87.06,89.23,91.14,92.89,95.04,95.63,95.05,93.71,92.47,91.12,89.75,88.29,86.63,85.42,85.84,87.34,89.49,92.56,96.05,99.94,104.07,108.00,111.47,113.88,114.45,112.52,110.14,107.53,104.58,101.34,98.32,94.81,92.00,90.88,92.69,96.55
36.16,36.83,37.49,38.09,38.55,38.89,39.19,39.50,39.84,40.01,40.19,40.79,42.16,43.91,46.32,48.79,50.97,52.61,53.57,54.04,54.26,54.57,54.19,53.39,52.81,52.91,53.75,54.54,55.19,55.68,56.07,56.69,57.35,58.01,58.71,61.00,63.50,66.26,68.45,66.65,62.35,59.54,58.13,56.83,55.53,54.48,54.08,54.51,54.96,55.92,57.07,58.27,59.49,61.03,62.81,64.81,66.96,68.81,69.33,69.30,69.05,68.28,68.52,69.26,70.53,72.55,75.05,77.65,80.22,82.65,84.91,84.37,82.53,80.16,78.01,76.09,74.68,73.60,72.60,71.59,70.58,69.53,68.55,68.10,68.65,69.55,71.18,74.38,78.33,85.97,93.05,96.14,96.40,93.98,91.10,88.54,86.38,84.27,82.30,80.54,79.10,78.69,77.67,75.67,72.67,69.61,67.91,66.74,66.41,67.79,68.94,71.34,74.71,78.62,81.92,84.96,87.82,90.11,90.66,89.38,87.21,84.51,81.69,80.68,83.06,87.74,93.80,100.12,103.79,106.89,110.13,114.01,118.10,120.58,122.18,123.51,122.22,120.48,117.26,113.16,111.49,109.98,108.22,106.30,104.41,101.76,99.11,96.59,94.46,93.67,94.83,97.47,101.06,104.74,106.99,108.16,108.34,107.79,108.32,108.41,107.70,105.70,101.35,98.42,95.73,92.91,89.75,87.38,84.93,82.69,81.03,81.01,81.83,82.91,84.24,86.11,87.96,89.80,91.19,91.70,91.22,90.27,89.32,88.55,87.84,86.80,85.92,84.73,82.49,80.81,79.85,79.34,79.04,78.67,78.48,78.38,78.29,78.18,78.14,78.19,78.30,78.43,78.62,78.34,77.72,76.81,75.46,74.15,72.86,71.75,71.06,71.58,72.26,73.27,74.70,76.25,77.63,79.05,81.12,85.21,88.19,90.36,92.08,93.74,95.25,94.56,93.08,91.52,89.95,88.35,87.03,85.87,84.51,84.38,85.91,88.21,90.69,94.32,97.76,101.70,106.00,109.72,112.11,112.82,111.84,109.34,106.84,104.01,101.06,98.15,95.58,92.35,89.97,88.80,88.94,93.63
36.72,37.37,38.00,38.60,39.06,39.40,39.67,39.91,40.11,40.27,40.54,41.29,42.80,44.45,46.35,48.56,50.92,52.67,54.20,55.54,56.50,56.81,57.01,56.67,56.22,56.04,56.24,56.90,57.06,56.77,56.86,57.50,58.15,58.78,59.79,68.60,74.12,76.16,74.41,67.73,62.41,59.47,58.15,56.90,55.65,54.78,54.59,55.18,55.87,56.16,56.80,57.88,59.05,60.62,62.58,64.75,66.91,69.06,70.49,71.11,70.95,70.48,70.29,70.76,72.02,74.09,76.44,78.83,81.20,83.55,85.92,84.92,82.71,80.23,78.13,76.63,75.29,74.11,73.11,72.10,71.05,69.98,68.96,68.26,68.36,68.96,70.28,72.74,76.48,83.55,90.82,95.42,95.48,92.00,88.11,84.78,81.73,79.77,78.35,77.28,76.42,76.21,75.24,73.54,71.24,68.93,67.33,66.16,65.82,67.15,68.54,70.82,73.94,77.66,80.85,83.53,86.21,88.46,88.41,86.28,83.58,80.96,79.04,79.51,84.33,90.61,96.42,100.86,103.78,106.50,109.49,113.12,117.54,120.20,121.63,122.39,121.49,118.88,114.66,109.87,107.70,106.05,104.26,102.31,100.33,98.17,95.80,93.38,91.23,90.69,92.39,95.64,99.77,103.65,105.67,107.40,109.07,110.81,112.47,112.97,111.80,108.87,104.72,100.84,97.27,93.85,90.39,87.82,85.28,82.83,80.69,79.98,79.90,80.23,81.05,82.67,84.51,86.29,87.56,87.97,88.03,87.85,87.32,86.65,86.78,87.98,88.67,88.35,86.70,83.59,81.07,79.62,79.36,79.04,78.66,78.28,77.94,77.67,77.54,77.40,77.31,77.34,77.38,76.91,76.24,75.43,74.22,72.98,71.97,71.18,70.48,70.95,71.75,72.93,74.45,75.99,77.50,79.01,81.12,85.21,88.88,91.07,92.48,93.93,94.11,93.01,91.32,89.36,87.10,85.20,83.92,83.22,82.90,84.73,86.94,89.70,93.15,97.07,100.81,104.84,108.95,112.13,111.29,109.22,106.53,103.68,101.97,100.01,97.74,95.20,92.59,90.07,87.97,86.67,86.77,91.22
37.26,37.89,38.52,39.14,39.54,39.78,39.98,40.17,40.32,40.48,40.94,41.90,43.47,45.06,46.72,48.62,50.75,52.67,54.54,56.38,57.87,58.56,59.08,59.06,58.79,58.52,58.32,58.33,57.96,57.41,57.62,58.25,59.66,62.16,66.11,74.43,78.69,79.72,77.30,68.81,62.57,59.37,58.15,56.92,55.68,55.16,55.30,56.00,56.77,56.94,57.15,57.72,58.91,60.25,62.16,64.38,66.59,68.86,70.82,72.21,72.88,72.60,72.32,72.61,73.67,75.62,77.76,80.33,82.85,84.96,86.67,85.21,82.80,80.40,78.55,77.22,75.92,74.68,73.57,72.57,71.48,70.40,69.38,68.54,68.22,68.58,69.60,71.20,74.71,80.00,86.53,93.25,94.65,90.86,86.38,82.61,79.12,76.94,75.41,74.43,73.92,73.73,72.92,71.62,69.97,68.26,66.76,65.59,65.28,66.73,68.26,70.44,73.39,77.06,80.29,82.81,85.10,86.73,85.88,83.58,80.91,78.61,77.49,79.44,85.40,92.04,97.30,100.76,103.30,105.51,108.01,111.70,116.05,119.19,120.93,121.28,120.30,116.57,111.78,107.16,104.50,102.46,100.48,98.50,96.56,94.65,92.61,90.61,88.98,89.07,90.99,94.40,98.69,102.77,105.61,108.53,111.69,115.01,116.48,116.30,114.39,110.96,106.94,102.84,98.94,95.26,91.78,88.91,86.25,83.58,80.99,79.76,79.24,78.93,78.95,79.88,81.36,82.99,84.23,84.61,84.98,85.20,85.05,84.79,85.69,87.51,89.06,89.93,89.90,87.41,84.40,81.72,79.97,79.42,78.97,78.56,78.18,77.87,77.61,77.24,76.81,76.41,76.03,75.46,74.84,74.15,73.16,72.19,71.41,70.75,70.08,70.44,71.34,72.64,74.19,75.73,77.22,78.72,80.79,84.82,88.98,91.26,92.32,93.06,92.72,91.48,89.35,86.54,83.83,82.30,81.67,81.98,83.31,85.93,88.68,91.99,96.07,100.09,104.08,107.65,110.40,111.63,108.62,105.18,101.82,98.80,97.19,95.51,93.76,91.92,89.94,87.94,86.00,84.69,84.90,89.35
37.80,38.42,39.06,39.68,39.97,40.09,40.21,40.36,40.51,40.67,41.35,42.55,44.17,45.71,47.24,48.81,50.52,52.60,54.70,56.87,58.79,59.97,60.62,60.82,60.72,60.45,59.96,59.18,58.37,57.87,58.35,59.48,62.05,66.75,73.93,78.90,80.37,80.37,78.59,69.69,62.72,59.26,58.15,56.92,55.70,55.57,56.10,56.89,57.66,57.94,57.82,57.77,58.90,59.90,61.66,63.90,66.15,68.47,70.74,72.89,74.62,74.66,74.47,74.63,75.43,77.16,79.18,82.05,84.80,86.64,87.37,85.45,82.92,80.62,79.05,77.79,76.52,75.27,74.10,73.04,71.90,70.81,69.81,68.87,68.20,68.33,69.06,69.83,73.02,76.22,81.59,90.04,93.90,90.21,85.34,81.32,77.59,74.99,73.05,71.86,71.53,71.30,70.70,69.83,68.77,67.58,66.17,65.01,64.74,66.36,68.00,70.09,72.93,76.58,79.91,82.37,84.15,84.89,83.28,81.04,78.58,76.75,76.56,79.78,86.11,92.45,96.97,99.87,102.22,104.00,106.04,109.91,114.10,117.74,119.93,120.01,118.67,113.97,108.89,104.67,101.56,99.07,96.82,94.78,92.96,91.24,89.60,88.17,87.27,88.14,90.16,93.53,97.81,102.00,106.04,110.29,114.76,119.17,119.93,118.78,116.15,112.47,108.54,104.55,100.59,96.83,93.45,90.28,87.50,84.66,81.72,80.19,79.42,78.55,77.72,77.75,78.52,79.86,81.04,81.45,81.99,82.44,82.66,82.93,84.46,86.20,88.18,90.21,91.99,91.10,88.44,84.82,81.18,80.09,79.43,79.00,78.69,78.38,78.02,77.45,76.69,75.77,74.92,74.31,73.77,73.17,72.34,71.66,71.04,70.42,69.80,69.99,70.98,72.39,73.93,75.46,76.88,78.30,80.25,83.94,88.55,91.06,91.87,91.77,91.28,89.80,87.09,83.45,80.63,79.79,80.06,81.55,84.64,87.59,90.90,94.76,99.14,103.05,107.10,109.88,110.85,109.74,105.23,101.12,97.57,94.43,92.66,91.01,89.65,88.57,87.41,85.81,84.01,82.75,83.12,87.66
38.42,39.10,39.66,40.05,40.19,40.33,40.44,40.55,40.71,40.86,41.76,43.19,44.81,46.35,47.77,48.99,50.19,52.22,54.49,56.98,59.21,60.54,60.85,60.94,60.83,60.49,59.75,59.01,58.47,58.35,58.98,64.26,68.18,71.68,76.15,79.49,80.63,80.46,78.25,69.20,62.46,59.17,58.10,56.92,55.84,56.00,56.79,57.72,58.55,58.88,58.78,58.54,58.83,59.63,61.28,63.47,65.77,68.14,70.46,72.75,74.93,76.55,76.62,76.72,77.31,78.70,81.44,84.24,86.78,88.66,88.45,86.23,83.53,81.02,79.19,77.96,76.84,75.88,75.17,73.67,72.38,71.23,70.18,69.20,68.44,68.27,68.67,69.45,71.58,74.43,78.43,84.14,93.53,90.43,85.21,81.16,77.29,73.95,71.46,69.94,69.42,69.24,68.83,68.28,67.61,66.76,65.53,64.41,64.10,65.72,67.45,69.62,72.41,75.88,79.26,81.66,82.80,82.61,81.10,78.38,75.67,74.51,76.49,79.57,85.03,90.19,93.61,96.21,98.51,100.73,103.37,107.29,111.71,115.21,117.31,117.65,115.52,111.49,106.71,102.02,98.70,96.06,93.49,91.23,89.71,88.44,87.38,86.55,86.22,87.88,90.12,93.45,97.51,101.25,105.98,110.68,115.21,119.29,120.01,119.23,116.85,113.19,109.36,105.51,101.67,98.02,94.79,91.63,88.80,86.06,83.47,82.62,81.57,80.36,79.16,78.25,76.97,77.11,77.90,78.45,78.93,79.60,80.25,80.99,82.43,84.07,85.89,87.79,89.56,90.74,90.89,89.26,85.76,82.80,80.62,79.51,79.20,78.90,78.67,78.25,77.59,76.67,75.87,75.27,74.70,73.98,72.65,71.70,71.00,70.41,69.73,69.68,70.66,72.11,73.60,75.09,76.50,77.84,79.24,80.95,86.24,89.64,91.04,90.93,90.19,87.13,83.57,80.63,79.28,79.20,80.19,82.42,86.10,89.74,94.11,98.35,101.80,104.81,107.66,109.19,109.01,107.06,102.49,98.31,94.61,91.24,89.57,88.02,86.78,85.82,84.67,83.19,81.71,80.73,80.95,85.54
39.14,39.72,40.17,40.42,40.44,40.55,40.66,40.77,40.90,41.21,42.29,43.83,45.43,46.79,47.96,48.93,49.92,51.85,54.41,57.18,59.56,60.76,60.92,60.96,60.74,60.15,59.33,58.63,58.42,58.74,59.47,66.29,70.94,74.22,77.65,79.97,80.87,80.34,77.52,68.82,62.27,59.05,58.02,56.91,56.18,56.57,57.48,58.46,59.45,60.18,60.26,59.80,59.47,59.83,61.24,63.36,65.70,68.02,70.43,73.01,75.68,78.03,78.55,78.89,79.64,81.27,84.36,86.79,88.69,90.01,89.42,87.25,84.58,81.92,79.71,78.42,77.28,76.45,76.12,74.90,73.50,72.11,70.82,69.59,68.75,68.30,68.36,69.10,70.42,72.95,76.26,80.61,91.87,90.10,85.53,81.55,77.55,73.74,70.83,68.97,68.16,67.51,67.07,66.68,66.22,65.63,64.71,63.74,63.48,65.19,67.07,69.22,71.93,75.30,78.31,80.46,81.10,80.14,77.98,75.03,72.96,72.86,75.74,78.67,82.95,86.87,89.58,91.94,94.27,97.00,100.40,104.76,109.38,112.75,114.74,115.26,112.87,108.87,104.19,99.58,96.29,93.47,90.62,88.18,86.85,85.85,85.19,84.99,85.49,87.61,90.03,93.27,97.15,100.95,106.51,111.47,115.85,119.63,120.21,119.35,116.93,113.27,109.60,105.85,102.11,98.62,95.70,92.59,90.01,87.82,86.09,85.74,84.73,83.51,82.11,80.29,77.66,76.49,76.11,75.73,76.25,77.02,77.89,78.85,80.25,81.77,83.47,85.29,87.10,89.10,90.65,90.78,88.99,86.20,83.50,81.60,80.52,79.83,79.43,79.03,78.47,77.63,76.86,76.24,75.54,74.55,73.01,71.74,70.91,70.31,69.56,69.49,70.47,71.89,73.27,74.65,76.00,77.28,78.42,79.21,82.92,85.48,86.65,86.64,86.35,83.75,80.84,78.81,78.56,79.13,80.89,83.88,87.96,92.33,96.90,100.77,103.36,104.90,106.25,106.74,106.06,103.96,100.02,96.16,92.56,89.29,87.48,85.79,84.38,83.22,82.06,80.88,79.75,79.07,79.42,83.25
39.94,40.32,40.59,40.79,40.71,40.76,40.88,41.02,41.09,41.68,42.89,44.47,46.05,47.06,47.89,48.70,49.71,51.48,54.41,57.46,59.84,60.70,60.85,60.90,60.49,59.52,58.74,58.10,58.24,59.07,59.85,66.17,71.06,74.90,78.58,80.36,81.09,80.06,76.49,68.53,62.12,58.92,57.92,56.91,56.67,57.24,58.17,59.13,60.36,61.78,62.14,61.42,60.65,60.38,61.47,63.50,65.89,68.05,70.62,73.60,76.77,79.17,80.29,81.13,82.33,84.64,87.79,89.64,90.54,90.84,90.30,88.46,85.98,83.22,80.52,79.09,77.83,77.00,76.98,76.59,75.12,73.34,71.65,70.03,69.14,68.41,68.09,68.78,69.48,71.70,74.84,78.92,89.20,89.34,86.21,82.36,78.26,74.17,70.93,68.73,67.56,66.02,65.38,65.04,64.65,64.26,63.74,63.03,62.88,64.74,66.81,68.90,71.48,74.79,77.11,78.88,79.14,77.54,74.14,71.16,70.39,71.68,74.46,77.24,80.08,82.71,85.01,87.18,89.60,92.91,97.20,102.30,107.10,110.35,112.22,112.84,110.60,106.13,101.41,97.32,94.23,91.21,88.10,85.53,84.30,83.45,83.04,83.50,85.00,87.32,89.89,93.02,96.75,100.99,107.52,112.59,116.64,120.12,120.51,119.23,116.53,112.86,109.39,105.70,102.04,98.76,96.28,93.27,91.13,89.87,89.39,89.39,88.68,87.71,86.24,83.54,80.11,77.54,75.38,73.25,73.86,74.66,75.55,76.55,77.95,79.34,80.95,82.75,84.61,86.46,88.31,90.00,91.18,90.16,87.70,84.92,82.47,81.08,80.27,79.80,79.35,78.65,77.88,77.23,76.29,74.94,73.39,71.78,70.79,70.16,69.31,69.38,70.37,71.70,72.93,74.17,75.41,76.64,77.76,78.45,78.80,79.17,79.48,79.66,80.35,79.82,78.74,77.79,78.33,79.47,82.03,85.80,90.12,95.28,99.34,102.29,104.06,103.68,103.30,102.92,102.25,100.54,97.77,94.52,91.23,88.32,86.16,84.17,82.34,80.73,79.57,78.81,78.07,77.69,78.39,80.82
40.37,40.70,40.98,41.17,41.10,41.06,41.11,41.22,41.35,42.21,43.53,44.92,45.99,46.89,47.70,48.48,49.34,50.48,53.20,55.78,57.70,58.59,59.00,59.19,59.12,58.79,58.36,58.10,58.43,59.43,60.94,65.57,69.23,72.60,76.70,80.14,81.47,80.77,77.54,69.38,62.56,59.26,58.38,57.42,56.94,57.47,58.44,59.49,61.12,62.97,64.02,64.08,63.51,62.93,62.83,63.71,65.95,68.12,70.72,73.75,77.04,79.88,81.87,83.73,85.70,87.96,89.72,90.61,90.94,90.99,90.60,89.61,86.77,82.66,80.01,78.77,77.82,77.40,77.84,78.09,76.96,75.14,72.91,69.91,69.20,68.66,68.22,68.47,69.16,70.64,73.17,77.11,84.29,88.76,88.63,84.60,80.55,76.42,72.80,69.97,68.12,66.18,64.54,63.48,63.05,62.67,62.23,61.95,62.35,64.35,66.43,68.55,70.90,73.58,75.95,77.15,76.81,74.88,71.63,69.78,69.52,70.71,73.05,75.69,78.09,80.09,81.75,83.91,86.54,90.21,95.12,101.35,105.35,108.50,110.36,110.44,107.71,103.36,99.15,95.65,92.56,89.02,85.50,82.72,81.50,81.29,81.31,82.02,83.75,86.70,90.20,93.97,98.12,103.06,109.25,114.25,117.97,120.42,120.46,118.87,115.92,112.10,108.62,105.24,101.87,98.77,96.35,94.27,93.00,92.56,92.78,92.88,92.28,91.27,89.83,87.72,83.85,80.37,77.44,75.09,73.74,73.06,73.27,74.32,75.71,77.14,78.72,80.42,82.18,84.03,85.92,87.57,88.68,88.56,88.23,87.21,85.55,83.66,82.82,82.06,81.13,79.86,78.89,77.96,76.77,75.26,73.71,72.14,70.91,69.90,68.80,68.92,69.92,71.21,72.36,73.54,74.81,76.04,77.08,77.57,77.85,78.13,78.34,78.39,78.30,77.91,77.48,77.41,78.73,80.84,83.79,87.47,91.60,96.13,99.14,100.91,101.72,101.48,99.86,98.53,97.62,96.07,94.58,92.43,90.00,87.80,85.54,83.34,81.34,79.63,78.42,77.49,76.69,76.51,77.80,80.24
40.77,41.08,41.35,41.53,41.45,41.37,41.36,41.42,41.57,42.66,43.92,45.06,45.84,46.66,47.45,48.21,48.97,49.74,51.84,53.81,55.31,56.21,56.82,57.09,57.25,57.45,57.56,57.80,58.40,59.49,61.28,64.65,67.54,70.61,74.69,79.28,81.44,81.41,78.75,71.18,64.27,60.40,58.91,57.99,57.28,57.70,58.65,59.77,61.81,64.06,65.75,66.59,66.41,65.48,64.58,64.49,65.97,68.21,70.83,73.78,76.97,80.08,82.61,85.10,87.59,89.94,90.87,91.21,91.21,91.07,90.74,90.10,86.66,81.40,79.26,78.36,77.94,78.04,78.75,79.73,78.91,76.57,73.11,69.51,68.93,68.66,68.36,68.38,68.89,69.80,71.77,75.31,80.35,87.88,90.36,87.00,83.11,78.97,75.10,71.76,69.13,66.84,64.46,62.61,61.60,61.26,60.98,61.01,61.73,63.77,65.98,68.24,70.50,72.70,75.03,75.66,74.78,72.67,69.87,68.67,68.77,69.94,71.89,74.20,76.25,77.90,79.28,81.33,84.37,88.43,93.62,100.11,103.70,106.86,108.64,108.13,104.97,100.92,97.18,94.02,90.81,86.85,83.19,80.50,79.41,79.54,79.89,80.92,83.00,86.70,90.81,95.00,99.60,105.48,111.15,115.93,119.28,120.77,120.45,118.56,115.47,111.68,108.31,105.16,101.92,98.98,96.89,95.68,95.10,95.24,95.98,96.30,95.68,94.47,92.81,90.80,86.88,82.95,79.48,76.70,73.76,71.91,71.43,72.22,73.61,75.14,76.70,78.29,79.97,81.63,83.35,84.83,85.82,86.06,87.00,87.53,87.33,86.38,85.48,84.43,83.10,81.40,79.94,78.57,77.08,75.43,73.82,72.21,70.79,69.53,68.29,68.48,69.52,70.80,71.89,73.05,74.28,75.40,76.26,76.58,76.82,77.04,77.18,77.18,76.64,76.43,76.62,77.36,79.20,81.88,85.03,88.59,92.52,96.25,98.39,99.36,99.58,99.31,97.03,94.90,93.39,91.97,91.30,89.95,88.22,86.56,84.49,82.34,80.36,78.70,77.44,76.37,75.45,75.24,76.70,78.94
41.16,41.47,41.71,41.85,41.77,41.69,41.62,41.61,41.76,42.99,43.99,44.81,45.58,46.36,47.13,47.87,48.58,49.36,50.29,51.44,52.61,53.46,54.22,54.50,54.75,55.30,56.20,57.11,58.07,59.16,60.60,63.30,66.07,69.05,72.54,77.58,80.89,81.94,80.17,74.23,67.66,62.60,59.55,58.63,57.73,57.95,58.78,59.94,62.43,65.00,67.27,68.91,69.36,68.03,66.82,66.04,65.91,68.36,70.95,73.64,76.47,79.63,82.25,84.87,87.53,90.12,91.01,91.34,91.30,91.06,90.68,89.72,85.36,79.21,78.21,77.86,78.24,79.00,79.73,81.55,80.99,77.52,71.90,68.75,68.23,68.32,68.50,68.57,68.70,69.25,70.72,73.51,77.71,86.60,91.15,89.62,86.03,81.91,77.98,74.27,70.71,68.13,65.38,62.64,60.34,60.09,60.09,60.27,61.00,62.94,65.43,68.00,70.32,72.24,74.42,74.47,73.15,71.05,69.08,67.92,68.18,69.45,71.05,72.82,74.61,76.28,77.84,79.65,83.35,87.84,92.89,98.49,102.18,105.49,107.11,105.93,102.42,98.92,95.61,92.43,88.92,84.71,81.28,79.06,78.26,78.34,78.89,80.30,82.92,87.51,91.81,96.13,101.19,108.36,113.29,117.66,120.55,121.19,120.47,118.30,115.23,111.73,108.60,105.57,102.28,99.44,98.04,97.63,97.48,97.89,98.90,99.62,98.82,97.18,94.98,92.43,88.94,85.19,81.47,77.98,73.95,71.36,70.16,70.30,71.69,73.40,74.95,76.43,78.06,79.27,80.55,81.70,82.53,82.42,83.45,85.25,87.41,89.27,88.27,86.92,85.33,83.40,81.05,79.02,77.16,75.40,73.65,71.89,70.35,69.02,67.78,68.06,69.17,70.48,71.57,72.73,73.84,74.71,75.27,75.44,75.67,75.86,75.99,76.03,75.49,75.50,76.25,77.77,79.76,82.50,85.59,88.98,92.72,95.42,96.94,97.60,97.70,97.19,95.02,92.27,89.71,88.38,87.90,86.97,85.70,84.34,82.87,81.09,79.40,77.99,76.68,75.52,74.39,73.86,74.92,76.67
41.55,41.85,42.10,42.22,42.15,42.07,41.99,41.94,41.96,42.88,43.69,44.44,45.21,45.98,46.72,47.46,48.19,48.87,49.45,50.10,50.80,51.44,52.42,53.16,53.89,54.80,55.89,56.94,58.01,59.18,60.61,63.59,66.45,69.36,72.66,77.03,80.48,82.16,81.39,76.91,70.62,65.24,61.37,59.12,58.13,58.25,59.02,60.20,62.92,65.64,68.20,70.38,71.69,70.40,69.00,67.86,67.20,68.86,71.27,73.96,76.66,79.36,81.92,84.51,87.00,89.16,90.41,90.97,91.03,90.40,86.00,84.03,81.32,78.13,78.01,78.38,79.61,81.28,82.79,84.51,82.82,78.71,73.35,69.62,68.80,68.56,68.42,68.33,68.61,69.11,70.12,71.99,76.09,84.30,89.99,91.13,88.64,84.78,80.73,76.71,72.84,69.45,66.41,63.38,60.53,59.74,59.58,59.75,60.54,62.55,65.25,67.91,70.21,71.95,73.39,72.97,71.65,69.90,68.09,67.29,67.90,69.44,71.16,72.94,74.72,76.40,77.97,79.75,83.15,87.21,91.67,96.48,100.60,104.54,106.21,104.03,100.52,97.20,94.00,90.64,86.36,82.58,79.83,78.10,77.23,78.16,79.04,80.60,83.32,87.35,91.60,96.29,102.05,109.98,114.94,118.82,121.14,121.47,120.65,118.73,116.03,112.88,110.05,107.06,104.23,101.82,100.13,99.87,99.82,100.17,100.90,101.25,100.38,98.59,96.08,93.11,89.70,86.10,82.46,78.83,74.02,71.08,69.71,69.67,70.51,71.72,73.03,74.32,75.48,76.17,77.15,78.24,79.19,79.33,80.36,82.42,85.35,88.70,89.16,88.69,87.33,85.03,82.17,79.41,76.70,74.18,72.41,70.78,69.42,68.28,67.21,67.68,68.82,70.14,71.29,72.37,73.34,73.99,74.29,74.36,74.50,74.65,74.79,74.89,74.65,75.44,76.82,78.56,80.65,83.19,85.99,88.99,92.14,94.91,96.85,97.77,97.60,96.42,94.03,91.23,88.56,86.78,85.38,84.19,83.05,81.79,80.65,79.33,78.08,76.98,75.84,74.61,73.37,72.54,72.81,74.10
42.08,42.30,42.49,42.61,42.53,42.45,42.37,42.30,42.22,42.73,43.36,44.07,44.83,45.60,46.31,47.05,47.78,48.36,48.75,49.14,49.59,50.15,51.28,52.39,53.51,54.66,55.81,56.91,58.03,59.24,60.72,64.03,67.07,70.02,73.27,77.00,80.35,82.41,82.44,79.08,73.11,67.63,63.13,59.52,58.53,58.58,59.31,60.58,63.40,66.20,68.94,71.51,73.59,72.83,71.60,70.25,69.03,69.65,71.68,74.25,76.85,79.16,81.62,84.07,86.25,87.77,89.36,90.32,90.05,87.88,81.49,79.06,78.05,77.69,78.26,79.76,82.06,84.52,86.40,87.44,84.66,80.12,75.14,70.66,69.45,68.85,68.38,68.11,68.52,69.02,69.67,70.80,74.74,81.55,87.93,91.82,90.57,87.27,83.22,78.92,74.81,70.70,67.36,64.10,60.90,59.55,59.16,59.33,60.22,62.27,65.03,67.65,69.86,71.45,72.20,71.45,70.14,68.63,66.85,66.77,67.92,69.78,71.70,73.48,75.27,76.95,78.54,80.39,83.39,86.88,90.80,95.28,99.71,103.83,105.23,102.21,98.77,95.55,92.22,88.46,83.64,80.49,78.41,77.16,76.56,78.29,79.57,81.27,83.87,87.11,91.01,96.12,102.71,110.98,116.18,119.72,121.56,121.71,120.96,119.47,117.31,114.66,112.00,109.07,106.60,104.53,102.62,102.30,102.25,102.38,102.53,102.27,101.29,99.43,96.75,93.52,90.14,86.68,83.16,79.52,74.25,71.00,69.48,69.28,69.61,70.30,71.25,72.21,72.83,73.07,73.74,74.74,75.89,76.70,77.98,80.22,83.51,87.81,89.56,89.94,88.91,86.45,83.15,79.65,76.14,72.96,71.10,69.67,68.50,67.52,66.65,67.36,68.52,69.80,70.97,71.96,72.75,73.19,73.31,73.31,73.38,73.49,73.64,73.85,74.20,75.69,77.51,79.38,81.66,84.13,86.64,89.27,92.23,95.38,97.55,98.50,98.15,96.40,93.73,90.86,88.15,85.93,83.52,81.83,80.60,79.39,78.45,77.44,76.49,75.65,74.75,73.59,72.34,71.31,71.00,72.05
42.90,42.89,42.92,42.99,42.91,42.83,42.76,42.68,42.60,42.65,43.07,43.73,44.44,45.22,45.93,46.66,47.37,47.80,48.14,48.67,49.43,50.34,51.37,52.48,53.64,54.79,55.88,57.02,58.10,59.25,60.78,64.23,67.54,70.79,74.22,77.75,80.83,82.85,83.14,80.18,74.65,69.24,64.33,59.79,58.93,58.92,59.69,61.21,63.87,66.68,69.45,72.13,74.70,75.44,75.17,73.88,71.66,71.00,72.23,74.36,76.78,79.10,81.34,83.46,85.13,85.81,87.53,89.17,87.53,81.25,79.06,77.74,77.57,78.34,79.25,82.77,86.60,89.55,90.56,89.92,86.63,81.97,76.75,71.47,69.81,69.05,68.54,68.11,68.43,68.86,69.38,70.24,73.70,78.09,84.49,90.98,90.97,88.91,85.18,80.61,76.21,71.81,68.06,64.50,61.16,59.41,58.80,59.05,60.13,62.08,64.60,66.94,68.93,70.40,70.80,69.98,68.58,66.90,65.13,66.52,68.55,70.75,72.91,74.44,76.20,77.91,79.53,81.63,84.38,87.31,90.87,96.14,100.41,103.52,103.85,100.43,97.14,93.95,90.07,85.42,80.75,78.50,76.87,76.07,76.69,78.76,80.57,82.44,84.60,87.05,89.99,95.50,103.16,110.94,116.68,120.20,121.79,121.92,121.52,120.68,119.36,117.45,114.69,111.88,109.38,107.30,105.68,105.07,104.90,104.54,103.64,102.48,101.23,99.38,96.82,93.64,90.32,86.97,83.56,79.97,74.90,71.33,69.42,68.99,69.12,69.49,69.86,70.15,70.28,70.27,70.52,71.28,72.73,74.91,77.10,79.65,82.91,87.42,89.50,90.22,89.58,87.51,83.77,79.57,75.54,72.15,70.05,68.84,67.77,66.81,66.14,67.19,68.35,69.49,70.52,71.46,71.96,72.23,72.35,72.35,72.43,72.47,72.61,73.01,74.55,76.32,78.17,80.15,82.83,85.65,87.93,90.34,94.13,98.03,99.57,99.82,99.54,97.65,94.62,91.46,88.56,86.14,82.89,80.38,78.63,77.47,76.48,75.38,74.41,73.66,73.10,72.33,71.28,70.29,69.98,71.27
44.03,43.81,43.57,43.37,43.30,43.22,43.14,43.06,42.99,42.91,43.09,43.52,44.15,44.85,45.55,46.26,46.94,47.37,47.94,48.73,49.65,50.58,51.51,52.60,53.75,54.87,55.99,57.08,58.12,59.27,60.88,64.35,67.86,71.33,74.85,78.36,81.38,83.32,83.58,80.83,75.84,70.61,65.45,60.34,59.33,59.22,60.06,61.84,64.51,67.24,70.04,72.90,75.78,77.77,78.49,77.99,76.44,75.33,75.61,76.66,78.10,79.66,81.24,82.77,83.84,83.80,85.18,85.23,83.02,78.64,77.88,77.71,78.34,80.16,84.03,87.81,90.71,92.36,92.50,91.28,88.46,84.15,78.68,73.19,70.51,69.24,68.72,68.25,68.37,68.72,69.21,69.95,72.73,76.31,82.54,89.68,90.90,89.28,85.78,81.28,76.77,72.29,68.35,64.64,61.23,59.34,58.38,58.58,59.76,61.48,63.71,65.86,67.59,68.64,68.55,67.62,66.32,65.13,64.98,67.12,69.49,71.83,74.12,75.63,77.23,78.90,80.70,82.97,85.61,88.64,92.47,97.92,101.38,103.13,102.34,98.64,95.40,92.07,87.58,82.26,78.57,76.73,75.61,75.60,77.29,79.45,81.47,83.46,85.47,87.53,90.55,96.10,103.55,110.76,116.00,119.57,121.53,122.03,121.83,121.42,120.70,119.53,117.40,114.73,112.13,109.83,108.00,106.79,105.65,104.34,102.79,101.33,99.81,98.09,96.04,93.46,90.21,86.81,83.32,79.75,75.16,71.49,69.41,68.86,68.61,68.85,69.07,69.18,69.18,69.06,69.32,69.99,71.24,74.26,77.07,79.96,83.25,87.52,89.60,90.39,89.85,87.88,83.83,79.37,74.94,71.11,69.34,68.21,67.15,66.25,65.82,66.93,68.00,69.00,69.91,70.70,71.09,71.30,71.41,71.48,71.60,71.68,72.03,72.98,75.02,77.00,78.99,81.15,83.93,86.85,89.32,91.81,95.21,98.83,100.13,100.26,100.07,98.83,95.82,92.50,89.39,86.59,83.43,80.61,78.10,75.82,74.53,73.33,72.37,71.69,71.38,70.89,70.19,69.56,69.47,70.86
45.18,44.76,44.24,43.76,43.68,43.60,43.52,43.45,43.37,43.29,43.26,43.42,43.91,44.53,45.19,45.90,46.59,47.10,47.97,48.98,49.99,50.84,51.68,52.73,53.85,54.95,56.09,57.12,58.13,59.30,61.00,64.39,67.98,71.59,75.17,78.78,81.82,83.77,84.07,81.46,77.12,72.03,66.59,61.16,59.76,59.50,60.42,62.46,65.15,67.78,70.62,73.67,76.79,79.76,81.49,82.07,81.75,80.57,79.94,79.79,80.06,80.60,81.34,82.15,82.57,81.93,82.64,80.76,78.52,77.67,77.45,78.61,80.63,83.98,90.34,93.32,94.41,94.28,93.61,92.21,90.16,86.37,80.71,75.17,71.29,69.41,68.89,68.42,68.32,68.60,69.09,69.76,71.79,75.15,80.96,87.81,90.56,88.95,85.59,81.34,76.90,72.46,68.45,64.64,61.16,59.24,57.95,58.07,59.30,60.75,62.73,64.67,66.04,66.45,65.89,64.92,64.00,63.74,65.51,68.05,70.53,72.93,75.31,76.90,78.36,79.99,81.99,84.37,86.95,90.32,94.62,99.80,102.27,102.65,100.80,96.86,93.58,89.92,84.93,79.35,76.73,75.03,74.54,75.50,78.08,80.23,82.34,84.40,86.40,88.29,91.93,97.36,104.02,110.57,114.98,118.56,121.02,122.09,122.03,121.91,121.66,121.11,119.81,117.36,114.68,112.07,109.76,107.77,105.46,103.19,101.19,99.51,97.75,96.20,94.73,92.87,89.68,86.13,82.54,79.11,75.15,71.54,69.39,68.77,68.13,68.30,68.49,68.59,68.60,68.46,68.88,69.52,70.48,74.01,77.30,80.54,83.94,87.85,89.80,90.53,89.99,88.06,83.78,79.21,74.45,70.18,68.85,67.74,66.65,65.79,65.50,66.56,67.52,68.40,69.19,69.80,70.18,70.39,70.51,70.67,70.83,71.01,71.65,73.24,75.48,77.64,79.83,82.18,84.95,87.85,90.55,93.10,95.62,98.57,99.90,100.28,100.25,99.83,97.09,93.78,90.51,87.39,84.60,81.66,78.41,74.82,72.95,71.52,70.51,69.95,69.79,69.50,69.14,68.94,69.18,70.67
45.99,45.29,44.63,44.14,44.06,43.98,43.91,43.83,43.75,43.68,43.61,43.62,43.79,44.40,44.99,45.73,46.64,47.45,48.31,49.27,50.24,51.09,51.89,52.85,53.94,55.06,56.11,57.12,58.15,59.36,61.06,64.27,67.47,70.81,74.55,78.50,81.63,84.08,85.30,82.73,79.38,74.12,67.96,62.88,60.36,59.72,60.71,62.97,65.55,68.13,71.01,74.21,77.48,80.60,83.29,85.17,85.85,85.02,83.89,83.06,82.72,82.32,82.17,82.00,81.64,80.85,80.06,78.64,77.61,77.70,78.47,81.80,88.22,95.57,97.54,97.53,96.86,95.81,94.57,93.06,91.50,88.20,82.70,76.81,71.87,69.47,68.95,68.49,68.29,68.54,69.01,69.56,70.80,74.00,78.55,84.01,89.72,87.38,83.88,80.17,76.46,72.27,68.32,64.42,60.78,58.91,57.54,57.62,58.83,60.18,62.11,63.60,64.14,63.50,62.79,62.18,62.65,64.34,66.56,69.09,71.55,73.95,76.33,78.23,79.84,81.53,83.51,85.85,88.33,92.12,96.71,100.56,102.26,101.84,99.35,95.12,91.65,86.94,82.10,77.89,75.32,73.36,73.88,76.20,78.97,81.08,83.17,85.25,87.32,89.47,94.46,99.77,104.99,110.55,114.35,117.57,120.17,122.03,122.13,122.07,121.89,121.52,120.71,118.94,116.39,113.35,110.20,106.93,104.07,101.57,99.31,96.84,94.94,93.52,92.33,90.87,87.56,83.70,80.19,77.69,74.52,71.32,69.31,68.62,67.89,67.87,67.93,67.97,68.03,67.99,68.53,69.30,70.34,73.72,77.30,80.96,84.67,88.43,90.14,90.72,90.23,88.56,84.08,79.39,74.54,70.17,68.80,67.63,66.49,65.51,64.93,65.89,66.78,67.55,68.16,68.72,69.17,69.51,69.75,69.96,70.18,70.46,71.37,73.43,75.73,78.04,80.43,82.94,85.66,88.42,90.84,92.80,94.23,96.39,98.36,99.72,100.21,100.10,98.25,95.44,92.23,89.41,86.73,83.70,80.27,76.49,73.19,70.80,69.50,69.18,69.02,68.69,68.34,68.32,69.11,70.90
46.51,45.69,44.97,44.48,44.41,44.33,44.25,44.18,44.10,44.02,43.94,43.88,43.88,44.38,45.03,45.88,46.90,47.89,48.75,49.66,50.59,51.47,52.30,53.17,54.08,55.03,56.04,57.02,58.05,59.24,60.79,63.80,66.71,69.56,72.56,76.69,80.40,83.48,85.38,84.18,81.42,76.25,69.88,64.61,61.65,60.48,61.15,63.43,65.92,68.31,71.15,74.43,77.75,81.04,84.29,87.00,88.64,88.25,87.33,86.33,85.38,84.01,82.50,81.45,80.69,79.72,78.37,77.68,77.72,78.80,83.63,88.83,95.11,100.84,101.04,99.82,98.41,96.92,95.32,93.36,91.56,88.48,83.68,78.67,72.59,69.55,69.05,68.59,68.26,68.48,68.94,69.43,70.18,73.13,76.94,81.18,86.09,84.18,81.43,78.52,75.49,71.75,67.92,64.02,60.38,58.61,57.15,57.14,58.30,59.64,61.38,62.29,62.24,61.31,60.72,60.59,61.77,64.22,66.97,69.73,72.30,74.75,77.17,79.30,81.04,82.70,84.48,86.65,89.25,93.31,97.94,100.88,101.69,100.53,97.59,93.24,89.21,84.01,79.23,75.56,73.13,72.01,73.57,76.72,79.71,81.83,83.90,85.98,88.23,91.33,96.83,101.88,106.21,110.73,114.03,116.69,118.93,120.90,121.77,122.00,121.94,121.71,121.21,119.69,116.95,113.47,109.99,106.15,102.76,99.78,97.08,94.18,92.23,90.94,89.89,88.27,84.85,81.33,78.33,76.22,73.66,70.99,69.23,68.54,67.86,67.57,67.42,67.37,67.41,67.56,68.21,69.05,70.15,73.35,77.16,81.02,84.80,88.51,90.18,90.78,90.43,89.07,84.57,79.90,75.06,70.64,68.90,67.64,66.43,65.31,64.44,65.17,65.91,66.55,67.06,67.60,68.11,68.50,68.83,69.21,69.54,70.13,71.45,73.90,76.27,78.64,81.09,83.65,86.30,88.30,89.86,91.03,91.80,93.22,95.50,98.00,100.02,100.20,99.25,97.03,93.98,91.40,88.75,85.54,81.79,77.59,73.13,70.34,68.87,68.37,68.18,67.88,67.76,68.09,69.15,70.86
46.86,46.01,45.29,44.81,44.73,44.65,44.57,44.50,44.42,44.34,44.26,44.18,44.13,44.44,45.22,46.22,47.30,48.38,49.28,50.16,51.05,51.98,52.91,53.67,54.33,54.98,55.97,56.88,57.87,58.99,60.30,63.10,65.78,68.01,69.75,73.85,78.43,82.25,84.71,85.70,83.29,78.38,72.16,66.35,63.40,61.62,61.71,63.85,66.23,68.38,71.10,74.42,77.74,81.21,84.74,87.99,90.51,90.61,90.34,89.50,87.97,85.60,82.46,80.61,79.73,78.57,77.32,77.52,78.57,80.81,91.40,98.12,101.35,101.98,102.11,100.84,99.35,97.72,95.91,93.29,90.83,87.79,84.02,80.62,73.41,69.68,69.18,68.72,68.25,68.41,68.87,69.34,69.80,72.46,75.83,78.99,80.74,79.98,78.51,76.55,74.14,70.99,67.32,63.47,59.95,58.32,56.77,56.64,57.74,59.12,60.57,60.84,60.37,59.65,59.34,59.77,61.18,63.62,66.94,70.05,72.80,75.31,77.77,80.09,81.95,83.51,84.97,86.93,89.77,94.01,98.53,100.88,100.75,98.90,95.63,91.27,86.47,81.12,76.35,72.69,70.49,70.88,73.43,77.05,80.31,82.48,84.55,86.64,89.12,93.64,99.06,103.76,107.56,111.01,113.88,115.86,117.43,119.07,121.07,121.73,121.84,121.72,121.41,119.85,116.73,112.83,109.35,105.41,101.53,97.92,94.69,91.60,89.65,88.47,87.42,85.33,81.83,79.07,76.85,74.76,72.67,70.60,69.18,68.52,67.97,67.36,66.97,66.79,66.78,67.17,67.89,68.77,69.93,72.90,76.86,80.80,84.51,88.21,90.00,90.74,90.61,89.58,85.20,80.63,75.89,71.44,69.10,67.73,66.45,65.18,64.01,64.44,64.95,65.46,65.93,66.47,67.01,67.44,67.84,68.47,68.95,69.96,71.77,74.53,77.01,79.37,81.79,84.33,86.79,87.63,88.01,88.28,88.67,89.47,91.87,95.56,99.70,100.20,100.12,98.52,95.72,93.32,90.64,87.20,83.05,78.32,72.91,70.08,68.51,67.56,67.31,67.08,67.34,68.12,69.28,70.67
47.18,46.33,45.63,45.19,45.11,45.03,44.96,44.88,44.80,44.73,44.62,44.49,44.38,44.69,45.55,46.60,47.68,48.77,50.23,51.75,53.14,54.22,55.15,55.77,56.25,56.72,57.26,57.57,58.05,58.82,59.93,62.26,64.63,66.71,68.33,70.81,75.36,79.96,83.63,86.20,84.47,80.21,74.44,68.34,65.77,63.67,62.86,63.83,66.02,68.12,70.79,74.07,77.54,81.06,84.71,88.08,90.72,91.26,90.99,90.32,89.01,85.10,81.37,79.25,78.28,77.23,77.48,78.39,81.59,88.11,96.87,100.89,102.71,103.25,102.74,101.37,99.77,97.95,95.85,93.48,90.94,88.05,84.80,81.50,74.85,70.71,69.31,68.85,68.38,68.41,68.74,69.21,69.67,71.98,74.74,77.14,78.25,77.43,76.17,74.50,72.30,69.49,66.13,62.63,59.44,57.81,56.26,56.10,57.12,58.36,59.33,59.60,59.42,59.02,58.81,59.30,60.54,62.66,65.98,69.05,71.51,73.60,75.72,78.14,79.78,81.14,82.68,85.18,88.15,92.39,97.11,100.40,100.07,97.55,93.75,89.46,84.36,78.60,73.74,70.54,69.48,69.90,72.20,75.82,79.86,82.08,84.73,87.32,90.02,95.63,100.45,104.45,107.73,110.60,112.77,114.55,116.09,117.52,119.17,120.51,121.21,121.20,120.84,118.97,115.92,112.21,108.58,104.69,100.86,97.22,93.85,90.65,88.53,86.88,85.30,83.16,80.68,78.53,76.55,74.50,72.31,70.56,69.42,68.82,68.17,67.55,67.04,66.63,66.27,66.81,67.60,68.47,69.44,71.47,75.35,79.43,83.26,86.81,89.38,90.58,90.69,89.93,86.14,81.91,77.16,72.36,69.37,67.92,66.67,65.38,64.01,63.90,64.25,64.76,65.23,65.77,66.27,66.96,67.83,68.70,69.39,70.60,72.47,75.05,77.62,80.01,82.43,84.63,85.02,85.03,84.97,85.06,85.60,87.28,90.43,94.46,98.52,100.01,100.20,99.02,96.78,94.23,91.44,87.87,83.66,79.02,73.67,70.44,68.53,67.41,66.61,66.52,67.12,68.20,69.41,70.89
47.50,46.65,45.97,45.57,45.50,45.42,45.33,45.23,45.16,45.10,45.03,44.93,44.81,44.96,45.81,46.90,47.97,49.03,50.95,53.18,55.22,56.45,57.27,57.81,58.24,58.65,58.82,58.61,58.61,58.99,59.83,61.82,63.92,65.86,67.43,69.07,73.10,77.72,82.00,85.78,85.36,81.91,76.47,70.50,67.67,65.30,63.85,63.78,65.82,67.90,70.49,73.68,77.31,80.95,84.72,88.19,90.86,91.59,91.19,89.75,87.23,83.10,79.84,78.04,77.38,77.05,77.97,80.23,85.23,93.41,100.02,102.46,103.71,104.43,103.72,102.28,100.67,98.94,97.08,95.16,92.54,89.53,86.32,83.03,76.65,71.88,69.47,69.00,68.52,68.42,68.65,69.11,69.57,71.36,73.54,75.39,75.81,74.91,73.77,72.30,70.27,67.69,64.60,61.55,58.96,57.36,55.79,55.56,56.49,57.60,58.15,58.39,58.39,58.25,58.33,58.93,59.99,61.74,64.95,67.64,70.00,72.08,73.95,76.33,78.08,79.70,81.62,84.51,87.63,91.59,95.95,99.54,98.54,95.77,91.91,87.51,82.33,76.17,71.52,69.19,68.65,69.14,71.07,74.28,78.36,80.86,84.16,87.52,90.94,97.24,101.37,104.67,107.50,109.96,111.63,113.18,114.63,115.97,117.47,119.14,120.23,120.45,119.95,118.01,115.14,111.72,108.15,104.36,100.67,97.08,93.60,90.27,88.05,86.14,84.22,82.08,80.12,78.28,76.43,74.49,72.89,71.53,70.29,69.17,68.52,67.92,67.29,66.63,65.97,66.35,67.07,67.90,68.77,70.20,73.68,77.97,82.31,85.69,88.63,90.28,90.76,90.19,87.04,83.01,78.25,73.27,69.67,68.12,66.82,65.44,63.95,63.42,63.63,64.15,64.64,65.16,65.77,66.71,67.91,69.00,70.04,71.46,73.35,75.71,78.22,80.46,82.50,83.94,83.06,82.50,82.17,82.17,82.69,85.38,89.38,93.76,97.67,99.82,100.20,99.19,97.12,94.52,91.75,88.06,83.72,79.10,73.93,70.54,68.43,67.17,66.02,66.21,67.10,68.35,69.56,71.17
47.82,46.97,46.31,45.96,45.88,45.80,45.69,45.55,45.48,45.47,45.51,45.52,45.43,45.23,46.01,47.09,48.16,49.16,51.43,54.46,57.31,58.69,59.26,59.80,60.33,60.79,60.66,60.04,59.59,59.55,60.05,61.83,63.70,65.49,67.11,68.81,71.77,75.52,79.77,84.33,85.96,83.48,78.24,72.85,69.06,66.45,64.67,63.71,65.65,67.70,70.20,73.27,77.04,80.88,84.78,88.30,90.92,91.55,90.86,87.63,82.31,79.42,77.82,77.02,77.07,78.17,78.83,83.12,89.58,96.49,100.58,102.68,104.31,105.52,105.11,103.59,102.10,100.80,99.72,98.50,95.80,92.36,88.67,85.28,78.85,73.19,69.66,69.20,68.66,68.45,68.58,69.05,69.51,70.59,72.22,73.77,73.45,72.44,71.31,69.92,68.04,65.56,62.67,60.21,58.52,56.97,55.36,55.03,55.82,56.83,57.05,57.21,57.30,57.33,57.91,58.69,59.56,60.86,63.82,65.78,68.25,70.76,72.48,74.66,76.89,79.27,81.91,85.05,88.33,91.71,95.08,98.28,96.08,93.51,90.12,85.42,80.38,73.83,69.71,68.71,68.03,68.64,70.06,72.37,75.68,78.72,82.75,87.16,91.86,98.41,101.76,104.36,106.81,109.07,110.46,111.74,113.05,114.44,115.98,117.60,118.87,119.45,118.70,116.95,114.42,111.36,108.08,104.44,101.01,97.57,94.03,90.49,88.28,86.31,84.30,82.21,80.20,78.34,76.53,74.77,74.49,73.64,71.85,69.57,69.02,68.47,67.72,66.81,65.91,65.80,66.26,67.03,67.91,69.09,71.84,76.41,81.69,84.87,87.76,89.83,90.79,90.36,87.90,83.92,79.15,74.20,70.00,68.33,66.90,65.37,63.82,63.00,63.12,63.66,64.19,64.66,65.54,66.72,68.08,69.37,70.93,72.58,74.41,76.53,78.79,80.71,81.93,82.15,80.87,80.05,79.64,79.62,79.95,83.80,88.74,93.52,97.19,99.64,100.11,98.97,96.69,94.13,91.50,87.72,83.18,78.47,73.65,70.35,68.20,66.83,65.53,66.17,67.32,68.59,69.76,71.51
