25.13,25.09,25.04,24.96,24.86,24.73,24.59,24.44,24.28,24.18,24.06,23.92,23.77,23.64,23.61,23.65,23.74,23.89,24.05,24.20,24.35,24.47,24.66,24.79,24.88,24.95,24.97,24.94,24.87,24.80,24.75,24.72,24.68,24.65,24.65,24.70,24.77,24.88,25.03,25.10,25.18,25.26,25.31,25.31,25.24,25.17,25.11,25.02,24.89,24.68,24.58,24.56,24.48,24.40,24.36,24.32,24.27,24.19,24.15,24.12,24.06,23.99,23.95,23.91,23.85,23.78,23.70,23.68,23.65,23.57,23.49,23.45,23.41,23.36,23.28,23.25,23.21,23.15,23.07,23.05,22.98,22.90,22.83,22.78,22.78,22.76,22.72,22.68,22.68,22.66,22.62,22.58,22.58,22.55,22.54,22.53,22.48,22.48,22.46,22.42,22.38,22.38,22.35,22.34,22.33,22.28,22.28,22.26,22.23,22.18,22.18,22.16,22.14,22.13,22.09,22.05,21.98,21.85,21.75,21.60,21.46,21.34,21.23,21.08,20.98,20.87,20.72,20.62,20.49,20.35,20.22,20.14,19.99,19.87,19.75,19.63,19.52,19.40,19.29,19.19,19.11,18.96,18.82,18.69,18.54,18.38,18.25,18.13,18.02,17.86,17.92,18.06,18.25,18.45,18.61,18.80,18.98,19.14,19.32,19.48,19.64,19.83,20.23,21.54,23.19,25.02,26.87,28.75,32.06,36.12,40.26,43.14,45.66,47.94,50.00,51.86,53.73,55.66,57.70,59.88,61.95,63.52,64.73,65.87,67.72,70.46,73.36,76.37,79.58,83.13,85.19,85.69,84.75,83.25,81.00,78.37,75.72,73.69,72.73,72.80,73.95,76.14,78.70,82.80,87.82,93.16,97.57,100.01,101.08,99.46,93.10,87.38,82.63,79.13,76.95,75.50,74.52,73.66,73.38,75.09,75.49,75.14,73.97,71.84,66.53,63.05,60.40,58.24,57.31,56.06,54.53,52.80,51.00,49.35,46.98,44.71,43.27,43.50,42.60,40.36,37.03,33.42,30.73,29.59,29.31,29.05,28.79,28.55,28.34,28.15,27.92,27.69,27.46,27.22,26.99,26.76
25.30,25.25,25.17,25.09,24.93,24.84,24.72,24.57,24.41,24.26,24.16,24.05,23.90,23.83,23.81,23.84,23.93,24.08,24.24,24.39,24.53,24.60,24.84,25.01,25.14,25.20,25.12,25.11,25.07,25.01,25.01,24.93,24.91,24.91,24.91,24.91,24.96,25.08,25.22,25.29,25.37,25.45,25.50,25.50,25.42,25.29,25.17,25.08,24.85,24.74,24.70,24.68,24.61,24.53,24.45,24.40,24.40,24.32,24.24,24.20,24.19,24.11,24.03,24.00,23.98,23.90,23.82,23.80,23.77,23.69,23.62,23.54,23.50,23.48,23.41,23.33,23.30,23.27,23.20,23.12,23.04,22.97,22.90,22.90,22.90,22.86,22.80,22.80,22.80,22.75,22.70,22.70,22.70,22.64,22.60,22.60,22.60,22.60,22.55,22.50,22.50,22.50,22.45,22.40,22.40,22.40,22.40,22.36,22.30,22.30,22.30,22.25,22.20,22.20,22.20,22.14,22.06,21.97,21.82,21.66,21.56,21.45,21.30,21.15,21.05,20.94,20.78,20.63,20.54,20.42,20.28,20.20,20.05,19.90,19.77,19.69,19.54,19.44,19.33,19.19,19.11,18.96,18.86,18.76,18.60,18.45,18.35,18.24,18.08,17.93,17.90,18.02,18.24,18.39,18.55,18.70,18.85,19.01,19.24,19.42,19.57,19.73,19.88,20.85,22.24,23.92,25.77,27.71,30.23,33.83,38.40,41.59,43.93,45.98,47.83,49.45,51.07,52.53,54.16,56.22,58.16,59.34,60.24,61.45,64.30,67.84,71.20,74.33,77.33,80.10,81.90,82.30,81.26,79.95,77.95,75.58,73.08,70.75,69.96,70.16,71.43,73.76,76.08,78.51,82.46,88.01,92.97,96.36,98.29,97.21,90.85,86.28,82.04,78.41,75.50,72.79,70.21,69.04,69.54,71.36,72.74,74.02,74.54,73.59,71.54,67.76,63.27,59.21,58.16,56.69,55.07,53.27,51.13,49.04,46.91,44.81,42.83,41.13,39.72,37.54,34.55,31.62,30.19,29.55,29.30,28.99,28.68,28.42,28.19,27.96,27.73,27.50,27.27,27.03,26.80,26.57
25.45,25.41,25.36,25.27,25.07,24.97,24.85,24.71,24.60,24.50,24.44,24.37,24.22,24.15,24.09,24.05,24.05,24.15,24.30,24.49,24.67,24.80,25.03,25.24,25.37,25.39,25.37,25.36,25.32,25.26,25.26,25.19,25.16,25.16,25.16,25.16,25.18,25.24,25.34,25.42,25.50,25.58,25.62,25.57,25.44,25.29,25.17,25.08,24.90,24.80,24.77,24.75,24.67,24.59,24.52,24.47,24.46,24.39,24.31,24.24,24.20,24.17,24.10,24.04,23.98,23.90,23.82,23.80,23.77,23.69,23.62,23.54,23.47,23.43,23.40,23.33,23.27,23.21,23.13,23.11,23.04,22.99,22.97,22.97,22.97,22.95,22.93,22.93,22.88,22.85,22.83,22.83,22.78,22.74,22.73,22.72,22.67,22.67,22.65,22.63,22.63,22.58,22.55,22.53,22.52,22.47,22.47,22.45,22.43,22.43,22.38,22.35,22.33,22.33,22.28,22.24,22.17,22.03,21.88,21.77,21.65,21.52,21.36,21.26,21.14,21.00,20.85,20.75,20.62,20.48,20.35,20.27,20.12,19.96,19.84,19.75,19.60,19.51,19.39,19.25,19.17,19.07,18.98,18.88,18.73,18.57,18.44,18.30,18.15,17.99,17.88,17.96,18.17,18.33,18.48,18.64,18.79,18.95,19.13,19.29,19.47,19.65,19.76,20.19,21.14,22.55,24.30,26.29,28.44,31.27,34.98,38.96,41.73,43.82,45.54,47.21,48.46,49.59,50.87,52.53,54.72,56.63,58.05,59.26,61.66,65.28,68.88,72.15,74.91,77.18,78.58,78.81,77.82,76.55,74.80,72.50,69.81,67.13,66.41,66.90,68.55,71.20,73.57,76.02,78.96,82.83,88.53,92.15,94.65,94.81,90.57,86.07,81.85,78.16,75.10,72.24,69.60,67.51,66.42,67.16,69.37,71.36,72.67,73.02,72.56,70.62,68.25,65.41,59.67,57.88,56.90,55.16,51.10,48.93,46.85,44.83,42.87,40.97,38.97,36.65,34.04,31.41,30.13,29.52,29.23,28.92,28.61,28.32,28.06,27.83,27.54,27.35,27.14,26.91,26.67,26.44
25.60,25.57,25.53,25.43,25.23,25.11,24.99,24.88,24.82,24.77,24.73,24.67,24.54,24.44,24.36,24.27,24.21,24.31,24.45,24.64,24.84,25.02,25.25,25.48,25.62,25.62,25.62,25.60,25.56,25.52,25.52,25.45,25.42,25.42,25.42,25.42,25.42,25.44,25.50,25.58,25.66,25.72,25.73,25.63,25.45,25.29,25.16,25.06,24.93,24.84,24.79,24.76,24.70,24.63,24.55,24.49,24.47,24.39,24.33,24.27,24.20,24.17,24.10,24.04,23.98,23.90,23.82,23.78,23.74,23.67,23.61,23.54,23.46,23.40,23.37,23.30,23.24,23.17,23.10,23.10,23.06,23.03,23.03,23.03,23.03,23.03,23.03,23.03,22.98,22.94,22.93,22.92,22.87,22.86,22.85,22.82,22.76,22.76,22.74,22.73,22.73,22.67,22.64,22.63,22.62,22.57,22.56,22.55,22.53,22.53,22.48,22.46,22.45,22.42,22.37,22.34,22.25,22.10,21.97,21.87,21.74,21.59,21.46,21.36,21.22,21.07,20.95,20.85,20.70,20.56,20.43,20.33,20.18,20.04,19.92,19.82,19.69,19.58,19.47,19.34,19.27,19.21,19.13,19.01,18.86,18.70,18.55,18.39,18.24,18.08,17.93,17.95,18.11,18.26,18.42,18.57,18.73,18.88,19.06,19.22,19.39,19.56,19.66,19.79,20.32,21.33,22.80,24.77,26.68,28.90,31.75,35.63,38.76,41.27,43.27,44.95,45.99,47.08,48.35,49.91,52.12,54.27,56.00,57.43,59.60,62.92,66.41,69.64,72.24,74.05,75.08,75.13,74.21,73.13,71.53,69.18,66.30,63.58,63.05,63.72,65.50,68.27,70.71,73.17,75.55,78.42,84.23,88.13,91.12,92.32,90.21,86.07,81.89,78.09,74.87,71.80,69.03,66.39,64.22,63.51,65.27,67.39,69.46,71.21,72.12,71.66,70.77,68.97,62.39,60.10,59.10,57.28,52.11,49.12,46.77,44.73,42.75,40.74,38.46,36.09,33.67,31.20,30.08,29.51,29.20,28.89,28.58,28.27,27.99,27.72,27.41,27.20,26.98,26.75,26.52,26.29
25.78,25.73,25.65,25.57,25.41,25.26,25.14,25.08,25.07,25.07,25.02,24.94,24.86,24.71,24.61,24.50,24.41,24.56,24.71,24.87,25.05,25.27,25.50,25.74,25.87,25.87,25.87,25.81,25.78,25.77,25.77,25.70,25.67,25.67,25.67,25.67,25.67,25.68,25.69,25.77,25.85,25.88,25.84,25.70,25.47,25.29,25.14,25.00,24.92,24.84,24.76,24.71,24.70,24.63,24.55,24.48,24.40,24.33,24.30,24.27,24.19,24.12,24.04,24.00,23.98,23.90,23.82,23.75,23.68,23.61,23.60,23.54,23.46,23.38,23.31,23.24,23.20,23.17,23.10,23.10,23.10,23.09,23.09,23.09,23.09,23.09,23.09,23.09,23.09,23.04,22.99,22.99,22.99,22.99,22.95,22.89,22.89,22.89,22.84,22.79,22.79,22.79,22.73,22.69,22.69,22.69,22.69,22.65,22.59,22.59,22.59,22.59,22.56,22.49,22.49,22.43,22.32,22.18,22.09,21.95,21.80,21.67,21.58,21.43,21.28,21.16,21.07,20.92,20.76,20.65,20.55,20.40,20.25,20.14,20.03,19.89,19.80,19.67,19.55,19.47,19.39,19.38,19.29,19.14,18.98,18.83,18.68,18.52,18.37,18.21,18.06,18.00,18.04,18.20,18.35,18.51,18.66,18.82,19.05,19.22,19.34,19.44,19.59,19.68,19.84,20.29,21.27,23.13,24.94,26.76,28.73,31.48,34.91,38.24,41.02,42.65,43.69,45.06,46.73,48.56,50.51,52.31,54.11,56.03,58.19,60.77,63.74,66.75,69.30,70.66,71.36,71.26,70.41,69.68,68.10,65.57,62.54,60.11,59.93,60.62,62.25,64.89,67.43,69.91,72.25,74.93,80.09,84.34,87.71,89.74,89.75,86.31,82.20,78.22,74.84,71.47,68.53,65.76,63.09,60.51,60.30,61.89,64.68,67.94,69.98,70.59,70.39,69.44,66.51,63.50,61.74,59.67,54.35,49.65,46.67,44.50,42.43,40.42,38.22,35.89,33.48,31.01,30.02,29.51,29.20,28.89,28.58,28.27,27.96,27.66,27.35,27.05,26.79,26.56,26.33,26.09
25.93,25.89,25.82,25.70,25.54,25.42,25.33,25.27,25.27,25.27,25.22,25.11,24.95,24.79,24.70,24.63,24.60,24.75,24.91,25.09,25.28,25.47,25.66,25.85,25.99,26.08,26.12,26.07,26.03,26.03,26.03,25.96,25.93,25.93,25.93,25.93,25.93,25.93,25.93,25.97,26.00,25.96,25.86,25.70,25.47,25.29,25.12,24.94,24.91,24.84,24.76,24.69,24.65,24.57,24.52,24.47,24.40,24.32,24.27,24.21,24.14,24.10,24.03,23.97,23.92,23.84,23.77,23.72,23.67,23.60,23.55,23.48,23.43,23.38,23.31,23.23,23.20,23.19,23.16,23.16,23.16,23.18,23.21,23.21,23.21,23.21,23.21,23.21,23.17,23.13,23.11,23.11,23.07,23.06,23.04,23.01,23.01,22.97,22.94,22.91,22.91,22.87,22.83,22.81,22.81,22.76,22.76,22.74,22.71,22.71,22.67,22.66,22.63,22.56,22.56,22.50,22.38,22.24,22.16,22.02,21.86,21.73,21.65,21.50,21.38,21.26,21.14,20.98,20.86,20.75,20.62,20.46,20.35,20.26,20.19,20.11,19.90,19.77,19.68,19.61,19.58,19.53,19.45,19.31,19.11,18.96,18.80,18.65,18.49,18.34,18.15,18.01,17.98,18.14,18.29,18.47,18.66,18.81,19.00,19.16,19.28,19.37,19.53,19.61,19.73,19.97,20.42,21.92,23.62,25.40,27.20,29.21,31.35,34.05,37.12,39.94,41.79,43.51,45.26,47.15,49.04,50.72,52.44,54.34,56.55,58.75,61.20,63.74,66.02,67.11,67.74,67.93,67.73,67.03,65.89,63.66,60.87,59.14,58.86,59.29,60.30,61.78,64.29,66.64,68.91,71.58,76.33,80.46,83.83,86.16,87.06,86.33,82.72,78.32,74.56,70.76,67.84,65.08,62.30,59.56,58.17,58.47,59.89,61.68,63.31,65.42,66.89,67.12,65.85,64.43,62.97,60.79,56.74,50.80,47.34,44.93,42.40,39.81,37.69,35.54,33.25,30.87,29.94,29.45,29.14,28.83,28.52,28.21,27.90,27.59,27.23,26.88,26.60,26.38,26.19,25.96
26.09,26.05,25.98,25.83,25.69,25.60,25.53,25.48,25.48,25.47,25.40,25.26,25.03,24.88,24.78,24.74,24.77,24.92,25.08,25.27,25.47,25.62,25.77,25.94,26.10,26.25,26.35,26.31,26.28,26.28,26.28,26.21,26.18,26.18,26.18,26.18,26.18,26.18,26.18,26.15,26.11,26.00,25.83,25.66,25.45,25.26,25.07,24.86,24.88,24.82,24.74,24.67,24.60,24.53,24.49,24.45,24.38,24.30,24.23,24.17,24.10,24.08,24.01,23.94,23.88,23.80,23.72,23.69,23.65,23.57,23.51,23.44,23.39,23.37,23.30,23.24,23.22,23.22,23.22,23.22,23.23,23.27,23.32,23.32,23.32,23.32,23.32,23.32,23.26,23.24,23.24,23.22,23.15,23.14,23.13,23.12,23.12,23.07,23.03,23.02,23.02,22.96,22.94,22.94,22.91,22.85,22.84,22.83,22.82,22.82,22.76,22.73,22.70,22.64,22.62,22.56,22.45,22.32,22.23,22.08,21.94,21.81,21.72,21.56,21.47,21.35,21.20,21.06,20.96,20.85,20.71,20.57,20.51,20.43,20.38,20.34,20.07,19.92,19.83,19.78,19.77,19.69,19.61,19.48,19.26,19.11,18.94,18.78,18.62,18.45,18.24,18.05,17.96,18.09,18.25,18.44,18.63,18.79,18.94,19.09,19.20,19.30,19.44,19.54,19.66,19.79,19.88,20.88,22.38,24.12,25.86,27.36,28.54,30.49,33.36,36.77,39.61,41.86,43.79,45.68,47.50,49.11,50.79,52.69,54.95,56.97,59.02,61.02,62.84,63.64,64.23,64.70,65.02,64.45,63.67,61.92,59.67,58.46,57.95,58.16,58.75,59.44,61.65,63.94,66.31,69.05,73.22,77.21,80.40,82.74,84.32,86.15,83.17,78.35,73.95,69.99,67.12,64.41,61.64,58.98,56.87,55.90,55.76,56.07,57.20,60.10,62.76,64.17,64.17,64.05,63.10,61.18,58.28,51.87,47.87,44.93,41.92,39.00,36.88,34.89,32.83,30.64,29.84,29.37,29.05,28.74,28.42,28.09,27.77,27.44,27.07,26.70,26.41,26.19,26.04,25.81
26.28,26.21,26.11,25.96,25.87,25.79,25.75,25.74,25.74,25.68,25.56,25.39,25.16,25.01,24.91,24.87,24.90,25.05,25.21,25.37,25.53,25.68,25.84,26.04,26.23,26.39,26.53,26.55,26.54,26.54,26.54,26.47,26.44,26.44,26.44,26.44,26.44,26.44,26.42,26.29,26.16,25.97,25.75,25.53,25.37,25.16,24.94,24.74,24.80,24.75,24.68,24.61,24.60,24.53,24.46,24.39,24.31,24.23,24.21,24.17,24.09,24.02,23.95,23.91,23.88,23.80,23.72,23.65,23.58,23.51,23.50,23.44,23.37,23.31,23.30,23.29,23.29,23.29,23.29,23.29,23.33,23.38,23.39,23.39,23.39,23.39,23.39,23.39,23.37,23.37,23.34,23.28,23.27,23.27,23.24,23.19,23.19,23.17,23.13,23.09,23.08,23.07,23.07,23.04,22.98,22.97,22.97,22.93,22.89,22.89,22.87,22.83,22.78,22.76,22.70,22.62,22.54,22.44,22.30,22.15,22.03,21.93,21.78,21.63,21.53,21.42,21.27,21.18,21.05,20.94,20.85,20.76,20.74,20.69,20.62,20.54,20.36,20.16,20.05,20.03,19.96,19.89,19.77,19.62,19.45,19.30,19.10,18.90,18.74,18.52,18.35,18.15,18.01,18.10,18.25,18.41,18.57,18.73,18.88,18.98,19.10,19.23,19.32,19.46,19.57,19.67,19.82,20.07,21.22,22.84,24.56,25.91,27.15,28.52,30.27,32.80,36.75,39.91,42.28,44.08,45.80,47.39,49.13,51.17,53.47,55.68,57.51,58.94,59.97,60.37,60.91,61.50,62.00,61.83,61.15,60.13,58.92,57.82,56.84,56.97,57.73,58.57,59.99,62.42,65.22,68.13,71.36,75.27,77.96,79.84,82.02,85.61,83.41,78.26,72.71,69.14,66.40,63.78,61.16,58.65,56.60,54.55,52.99,52.47,53.32,55.43,58.10,60.62,61.56,61.60,61.33,60.38,58.08,52.65,47.93,43.90,40.48,37.86,35.59,33.69,32.02,30.23,29.68,29.28,28.93,28.62,28.24,27.87,27.49,27.12,26.80,26.48,26.21,26.00,25.85,25.62
26.42,26.37,26.28,26.14,26.06,25.98,25.95,25.94,25.90,25.83,25.67,25.48,25.29,25.13,25.04,25.00,25.02,25.13,25.32,25.49,25.64,25.80,25.95,26.13,26.31,26.47,26.62,26.71,26.77,26.80,26.80,26.76,26.72,26.70,26.70,26.70,26.61,26.51,26.43,26.27,26.12,25.92,25.69,25.45,25.30,25.09,24.86,24.66,24.69,24.70,24.66,24.59,24.55,24.48,24.43,24.37,24.30,24.22,24.17,24.12,24.04,24.01,23.93,23.88,23.83,23.75,23.68,23.62,23.57,23.50,23.50,23.47,23.43,23.39,23.35,23.35,23.35,23.35,23.35,23.39,23.43,23.47,23.50,23.50,23.50,23.50,23.50,23.50,23.50,23.47,23.43,23.40,23.40,23.37,23.33,23.30,23.30,23.26,23.22,23.20,23.20,23.16,23.15,23.13,23.10,23.10,23.07,23.03,23.00,23.00,22.96,22.92,22.88,22.85,22.81,22.74,22.64,22.52,22.36,22.24,22.13,22.00,21.85,21.73,21.61,21.50,21.39,21.31,21.20,21.13,21.08,21.00,20.96,20.92,20.87,20.78,20.63,20.44,20.33,20.28,20.20,20.13,19.96,19.74,19.55,19.39,19.18,18.98,18.82,18.59,18.42,18.22,18.06,18.10,18.25,18.40,18.54,18.66,18.82,18.91,19.02,19.17,19.24,19.39,19.50,19.59,19.70,19.82,20.41,21.59,23.28,24.55,25.79,27.03,28.41,30.23,33.52,36.91,39.98,42.44,44.37,46.35,48.44,50.63,52.76,54.68,56.11,56.98,57.34,57.46,57.90,58.50,59.05,59.09,58.92,58.40,57.56,56.63,55.74,56.11,57.14,58.12,59.40,61.82,64.69,67.60,70.24,73.48,75.91,77.84,80.16,84.38,83.10,78.20,71.85,68.49,65.88,63.42,61.02,58.85,56.62,54.21,52.04,50.61,50.36,51.56,53.67,56.15,57.84,58.26,58.42,58.07,56.55,52.37,47.85,43.36,39.25,36.59,34.33,32.40,30.85,29.83,29.43,29.06,28.69,28.34,27.99,27.62,27.23,26.86,26.55,26.27,26.02,25.81,25.66,25.43
26.56,26.53,26.46,26.32,26.25,26.18,26.15,26.12,26.04,25.96,25.78,25.58,25.43,25.28,25.18,25.14,25.15,25.22,25.42,25.60,25.76,25.91,26.07,26.22,26.38,26.53,26.70,26.85,26.97,27.04,27.05,27.05,27.00,26.94,26.92,26.89,26.71,26.52,26.36,26.21,26.04,25.85,25.62,25.39,25.23,25.02,24.79,24.59,24.59,24.64,24.64,24.57,24.51,24.43,24.39,24.36,24.28,24.22,24.14,24.07,24.00,23.99,23.92,23.85,23.78,23.70,23.62,23.60,23.57,23.51,23.51,23.51,23.51,23.50,23.42,23.41,23.41,23.42,23.43,23.50,23.52,23.56,23.61,23.61,23.61,23.61,23.61,23.61,23.61,23.57,23.53,23.52,23.51,23.46,23.43,23.42,23.41,23.35,23.33,23.32,23.31,23.24,23.23,23.22,23.21,23.21,23.16,23.13,23.12,23.11,23.04,23.01,22.98,22.91,22.91,22.85,22.74,22.58,22.44,22.35,22.22,22.07,21.92,21.85,21.72,21.61,21.53,21.46,21.39,21.35,21.32,21.25,21.18,21.15,21.11,21.04,20.90,20.74,20.61,20.54,20.46,20.36,20.13,19.84,19.61,19.46,19.25,19.05,18.88,18.65,18.48,18.29,18.11,18.10,18.24,18.38,18.51,18.60,18.74,18.84,18.96,19.09,19.18,19.32,19.43,19.51,19.59,19.74,19.84,20.51,21.98,23.23,24.47,25.72,26.99,28.32,30.55,33.82,37.47,40.78,43.08,45.52,47.97,50.29,52.18,53.71,54.66,55.02,54.82,54.71,55.02,55.58,56.17,56.42,56.79,56.64,55.96,55.21,54.77,55.58,56.94,58.05,59.41,61.72,64.45,67.20,69.44,72.03,74.35,76.51,78.83,83.25,82.63,78.04,71.27,68.07,65.63,63.36,61.19,59.34,56.96,54.50,52.09,49.88,48.44,48.43,49.49,51.33,53.63,54.43,54.93,55.10,54.57,51.54,47.48,42.81,38.09,35.10,32.94,31.14,29.78,29.47,29.16,28.81,28.42,28.04,27.73,27.36,26.97,26.60,26.30,26.06,25.83,25.62,25.46,25.23
26.75,26.69,26.59,26.45,26.43,26.42,26.38,26.31,26.24,26.10,25.90,25.72,25.62,25.47,25.37,25.33,25.33,25.35,25.50,25.67,25.82,25.98,26.13,26.28,26.44,26.60,26.81,26.98,27.12,27.24,27.30,27.31,27.26,27.17,27.04,26.87,26.65,26.45,26.30,26.14,25.94,25.75,25.56,25.33,25.17,24.92,24.68,24.52,24.52,24.54,24.54,24.52,24.50,24.43,24.36,24.30,24.22,24.20,24.14,24.07,23.99,23.93,23.86,23.81,23.78,23.70,23.62,23.60,23.59,23.58,23.58,23.58,23.58,23.56,23.48,23.48,23.48,23.50,23.55,23.57,23.62,23.66,23.68,23.68,23.68,23.68,23.68,23.68,23.68,23.66,23.65,23.65,23.59,23.56,23.55,23.54,23.48,23.46,23.45,23.43,23.38,23.36,23.35,23.33,23.28,23.28,23.26,23.25,23.24,23.18,23.10,23.08,23.05,22.98,22.98,22.92,22.80,22.66,22.56,22.43,22.28,22.15,22.05,21.97,21.88,21.80,21.73,21.71,21.64,21.57,21.53,21.51,21.43,21.37,21.32,21.30,21.21,21.02,20.87,20.79,20.72,20.48,20.19,19.91,19.67,19.52,19.31,19.11,18.95,18.72,18.55,18.35,18.16,18.10,18.19,18.29,18.40,18.53,18.62,18.75,18.87,18.97,19.11,19.21,19.33,19.45,19.52,19.68,19.78,20.04,20.64,21.94,23.24,24.53,25.86,27.29,29.02,31.64,35.08,39.03,42.02,44.66,47.19,49.55,51.25,52.44,52.93,52.85,52.46,52.14,52.26,52.74,53.48,54.16,54.70,54.70,54.20,53.54,54.41,56.03,57.74,58.96,60.51,62.53,64.68,66.82,69.06,71.69,74.29,76.77,79.09,83.31,82.18,77.48,71.36,68.41,66.17,64.15,62.21,60.36,58.26,56.06,53.81,51.58,49.49,47.32,46.00,46.20,48.80,49.76,50.49,51.32,52.37,49.85,46.12,41.66,36.97,32.94,31.05,30.07,29.53,29.22,28.91,28.55,28.16,27.78,27.47,27.11,26.72,26.35,26.10,25.87,25.64,25.43,25.27,25.04
26.94,26.85,26.73,26.62,26.62,26.60,26.56,26.50,26.43,26.25,26.05,25.88,25.77,25.65,25.56,25.51,25.48,25.48,25.59,25.73,25.89,26.08,26.24,26.39,26.54,26.70,26.90,27.07,27.22,27.37,27.47,27.48,27.43,27.32,27.13,26.90,26.67,26.46,26.26,26.05,25.84,25.67,25.49,25.26,25.11,24.85,24.59,24.42,24.45,24.46,24.48,24.49,24.46,24.39,24.33,24.27,24.20,24.17,24.10,24.02,23.95,23.91,23.83,23.78,23.75,23.70,23.66,23.64,23.64,23.64,23.64,23.64,23.64,23.63,23.59,23.55,23.56,23.60,23.64,23.67,23.74,23.78,23.78,23.78,23.78,23.78,23.78,23.78,23.78,23.78,23.77,23.74,23.69,23.68,23.67,23.63,23.59,23.58,23.56,23.53,23.48,23.48,23.46,23.42,23.38,23.38,23.35,23.34,23.32,23.24,23.20,23.16,23.12,23.08,23.08,23.00,22.88,22.76,22.65,22.50,22.38,22.30,22.22,22.14,22.09,22.03,21.96,21.93,21.88,21.82,21.75,21.72,21.68,21.61,21.56,21.56,21.48,21.28,21.13,21.04,20.93,20.62,20.28,19.97,19.74,19.55,19.36,19.16,18.97,18.77,18.59,18.37,18.18,18.10,18.17,18.27,18.39,18.51,18.62,18.74,18.85,18.96,19.09,19.20,19.31,19.43,19.54,19.63,19.71,19.81,20.02,20.83,22.03,23.34,24.73,26.26,27.81,29.86,32.80,36.85,40.75,43.57,45.98,48.18,49.77,50.68,50.94,50.69,50.13,49.59,49.77,50.35,51.09,52.10,52.64,52.70,52.50,52.61,54.58,56.68,58.64,60.36,62.33,64.45,66.38,68.10,70.09,72.54,75.17,77.80,80.28,83.00,81.50,77.29,72.06,69.32,67.28,65.45,63.65,61.83,59.95,58.01,55.94,53.71,51.51,48.61,46.15,44.81,45.15,44.86,45.04,45.91,47.50,46.04,43.04,39.03,34.62,31.26,29.93,29.41,29.20,28.92,28.61,28.27,27.91,27.52,27.18,26.83,26.46,26.11,25.91,25.68,25.45,25.24,25.08,24.85
27.11,27.00,26.88,26.82,26.81,26.75,26.71,26.69,26.61,26.39,26.21,26.06,25.91,25.83,25.76,25.68,25.61,25.61,25.68,25.80,25.98,26.20,26.36,26.51,26.67,26.82,26.98,27.13,27.29,27.44,27.60,27.61,27.56,27.43,27.20,26.97,26.73,26.50,26.25,25.95,25.77,25.61,25.43,25.20,25.03,24.77,24.51,24.31,24.38,24.40,24.43,24.48,24.41,24.33,24.30,24.27,24.19,24.12,24.04,23.97,23.90,23.90,23.83,23.76,23.70,23.70,23.70,23.70,23.70,23.70,23.70,23.70,23.70,23.70,23.70,23.64,23.66,23.71,23.71,23.79,23.86,23.90,23.90,23.90,23.90,23.90,23.90,23.90,23.90,23.90,23.88,23.81,23.81,23.81,23.77,23.71,23.71,23.71,23.66,23.61,23.61,23.61,23.55,23.51,23.51,23.51,23.44,23.41,23.39,23.31,23.31,23.25,23.20,23.20,23.20,23.09,22.97,22.87,22.72,22.58,22.52,22.49,22.42,22.34,22.32,22.28,22.21,22.13,22.12,22.07,22.00,21.92,21.92,21.87,21.82,21.81,21.73,21.54,21.39,21.29,21.13,20.76,20.38,20.04,19.80,19.57,19.40,19.21,18.98,18.83,18.61,18.38,18.19,18.10,18.18,18.30,18.43,18.51,18.67,18.76,18.88,19.01,19.09,19.23,19.34,19.44,19.59,19.59,19.65,19.73,19.80,19.88,20.87,22.17,23.61,25.23,26.78,28.32,30.63,34.40,39.28,42.29,44.51,46.40,47.86,48.49,48.67,48.45,47.78,47.07,47.47,48.24,48.93,50.16,50.63,50.71,50.89,52.12,55.04,57.46,59.66,62.08,64.57,66.99,68.95,70.43,72.04,74.16,76.63,79.28,81.88,82.38,80.61,77.23,73.12,70.65,68.77,67.05,65.33,63.57,61.87,60.18,58.32,56.14,54.17,51.36,48.44,45.67,42.58,40.32,39.48,39.95,41.30,41.06,38.97,35.58,31.71,29.92,29.26,29.00,28.82,28.59,28.29,27.99,27.65,27.27,26.88,26.55,26.21,25.87,25.71,25.49,25.25,25.04,24.89,24.66
27.25,27.17,27.10,27.07,27.02,26.94,26.88,26.81,26.68,26.50,26.34,26.20,26.10,26.02,25.95,25.87,25.81,25.81,25.83,25.93,26.09,26.27,26.42,26.58,26.73,26.89,27.04,27.19,27.38,27.57,27.73,27.74,27.69,27.56,27.33,27.09,26.82,26.56,26.33,26.07,25.81,25.58,25.37,25.13,24.77,24.59,24.48,24.37,24.34,24.33,24.34,24.37,24.40,24.33,24.27,24.21,24.13,24.11,24.04,23.97,23.89,23.84,23.81,23.79,23.77,23.77,23.77,23.77,23.77,23.77,23.77,23.77,23.77,23.77,23.77,23.75,23.75,23.79,23.84,23.92,23.96,23.97,23.97,23.97,23.97,23.97,23.97,23.97,23.97,23.97,23.96,23.94,23.94,23.90,23.86,23.84,23.84,23.79,23.75,23.74,23.74,23.68,23.65,23.64,23.63,23.58,23.55,23.51,23.46,23.44,23.39,23.32,23.27,23.27,23.27,23.19,23.07,22.95,22.85,22.79,22.74,22.70,22.67,22.60,22.54,22.50,22.46,22.39,22.33,22.29,22.25,22.18,22.12,22.09,22.05,22.00,21.98,21.83,21.71,21.58,21.27,20.89,20.50,20.15,19.87,19.69,19.49,19.27,19.05,18.89,18.68,18.47,18.29,18.11,18.22,18.34,18.45,18.58,18.68,18.80,18.92,19.01,19.09,19.19,19.28,19.36,19.46,19.52,19.59,19.66,19.74,19.82,20.20,21.14,22.58,24.15,25.69,27.24,29.11,31.73,36.86,40.34,42.66,44.03,44.35,44.50,44.81,45.05,44.78,44.91,45.73,46.68,47.44,48.47,48.95,49.23,49.89,52.00,55.30,58.45,61.36,64.07,66.81,69.41,71.79,73.86,75.38,76.88,78.80,80.72,81.89,80.52,78.53,76.38,74.45,73.07,70.91,68.88,67.16,65.54,63.99,62.42,60.86,59.36,57.88,55.23,51.80,48.03,44.94,42.13,40.17,38.81,37.44,36.82,34.76,32.27,30.26,29.36,28.92,28.65,28.45,28.27,28.02,27.73,27.40,27.01,26.62,26.26,25.95,25.73,25.52,25.29,25.06,24.85,24.70,24.47
27.41,27.34,27.29,27.26,27.21,27.13,27.06,26.96,26.81,26.65,26.50,26.37,26.29,26.22,26.14,26.06,26.00,26.00,25.98,26.04,26.18,26.33,26.49,26.66,26.83,26.98,27.14,27.29,27.47,27.67,27.82,27.86,27.82,27.68,27.42,27.19,26.92,26.65,26.39,26.16,25.89,25.63,25.39,25.14,24.70,24.53,24.48,24.42,24.35,24.31,24.29,24.28,24.36,24.30,24.23,24.17,24.10,24.07,24.03,23.98,23.92,23.87,23.84,23.83,23.83,23.83,23.83,23.83,23.83,23.83,23.83,23.83,23.83,23.83,23.83,23.83,23.85,23.89,23.97,24.04,24.06,24.06,24.06,24.06,24.06,24.06,24.06,24.06,24.06,24.06,24.06,24.03,24.03,23.99,23.96,23.96,23.93,23.88,23.86,23.86,23.83,23.78,23.76,23.75,23.72,23.67,23.66,23.62,23.56,23.53,23.46,23.40,23.36,23.36,23.36,23.30,23.21,23.11,23.04,23.03,22.98,22.92,22.90,22.84,22.77,22.72,22.69,22.64,22.56,22.52,22.48,22.43,22.36,22.33,22.30,22.23,22.20,22.10,21.98,21.82,21.44,21.05,20.68,20.33,20.03,19.82,19.62,19.40,19.18,19.02,18.78,18.55,18.35,18.14,18.26,18.37,18.48,18.61,18.68,18.80,18.90,18.98,19.06,19.14,19.23,19.32,19.40,19.48,19.55,19.63,19.71,19.79,19.86,20.41,21.52,23.06,24.61,26.18,27.86,29.85,34.30,38.04,40.55,41.68,41.54,41.44,41.69,42.07,42.20,42.99,44.07,45.11,45.92,46.83,47.43,48.08,49.36,52.37,56.10,59.74,63.11,66.05,68.76,71.27,73.85,76.38,77.98,79.06,80.18,80.89,80.35,77.65,75.35,73.83,73.21,72.84,71.37,69.80,68.30,66.56,65.30,64.19,63.10,61.92,60.65,58.53,55.44,51.58,47.93,44.77,42.16,39.74,36.94,35.49,33.14,30.87,29.49,29.08,28.71,28.37,28.07,27.92,27.71,27.44,27.12,26.76,26.37,26.00,25.73,25.57,25.33,25.10,24.87,24.66,24.51,24.28
27.59,27.53,27.46,27.39,27.39,27.33,27.25,27.15,27.00,26.84,26.69,26.56,26.48,26.41,26.33,26.25,26.19,26.19,26.12,26.14,26.24,26.40,26.55,26.76,26.96,27.11,27.26,27.42,27.57,27.73,27.89,27.97,27.94,27.79,27.49,27.25,27.02,26.75,26.46,26.23,25.99,25.76,25.51,25.20,24.81,24.59,24.50,24.49,24.41,24.34,24.26,24.22,24.30,24.23,24.20,24.17,24.10,24.02,24.00,24.00,24.00,23.99,23.93,23.90,23.90,23.90,23.90,23.90,23.90,23.90,23.90,23.90,23.90,23.90,23.90,23.90,23.94,24.02,24.10,24.17,24.19,24.19,24.19,24.19,24.19,24.19,24.19,24.19,24.19,24.19,24.16,24.10,24.10,24.09,24.09,24.08,24.00,23.99,23.99,23.97,23.90,23.89,23.89,23.86,23.80,23.79,23.79,23.75,23.67,23.60,23.52,23.49,23.49,23.49,23.49,23.43,23.39,23.37,23.29,23.29,23.24,23.16,23.09,23.09,23.03,22.95,22.89,22.89,22.82,22.74,22.69,22.69,22.61,22.59,22.56,22.48,22.41,22.33,22.21,22.02,21.63,21.24,20.90,20.59,20.28,19.98,19.78,19.59,19.37,19.21,18.93,18.63,18.36,18.20,18.27,18.40,18.53,18.61,18.68,18.76,18.84,18.92,19.00,19.07,19.19,19.32,19.40,19.48,19.55,19.63,19.71,19.79,19.86,19.97,20.43,21.98,23.52,25.16,26.89,28.73,31.60,35.39,38.19,39.35,39.41,39.29,39.28,39.50,40.02,41.31,42.50,43.54,44.38,45.24,46.07,47.26,49.31,53.20,57.41,61.34,64.90,68.02,70.43,72.61,75.16,78.02,79.86,80.71,80.80,79.81,77.29,73.79,71.12,69.64,69.48,70.04,70.19,69.84,68.79,66.65,65.82,65.52,65.07,63.83,62.52,61.27,59.34,56.26,51.53,48.22,45.41,42.69,39.69,36.98,34.02,31.32,29.38,29.06,28.63,28.14,27.69,27.53,27.38,27.12,26.81,26.50,26.11,25.78,25.54,25.37,25.14,24.91,24.68,24.47,24.31,24.08
27.73,27.70,27.65,27.58,27.53,27.50,27.42,27.28,27.13,26.98,26.85,26.74,26.62,26.54,26.46,26.41,26.37,26.33,26.29,26.30,26.37,26.52,26.67,26.85,27.02,27.18,27.33,27.49,27.64,27.81,28.01,28.09,28.04,27.87,27.61,27.33,27.09,26.84,26.58,26.35,26.08,25.83,25.59,25.32,24.80,24.60,24.56,24.55,24.48,24.40,24.32,24.26,24.24,24.21,24.17,24.13,24.10,24.07,24.06,24.06,24.06,24.06,24.03,23.99,23.96,23.96,23.96,23.96,23.96,23.96,23.96,23.96,23.96,23.96,23.96,24.00,24.07,24.15,24.22,24.25,24.26,24.26,24.26,24.26,24.26,24.26,24.26,24.26,24.26,24.26,24.25,24.22,24.22,24.22,24.20,24.15,24.12,24.12,24.09,24.05,24.02,24.02,23.99,23.95,23.91,23.87,23.86,23.82,23.75,23.72,23.65,23.59,23.56,23.56,23.56,23.50,23.51,23.57,23.49,23.48,23.43,23.36,23.28,23.28,23.22,23.17,23.13,23.09,23.06,23.00,22.93,22.88,22.85,22.81,22.77,22.74,22.66,22.58,22.44,22.21,21.82,21.48,21.16,20.86,20.60,20.29,20.02,19.76,19.49,19.24,18.94,18.63,18.36,18.21,18.27,18.37,18.48,18.61,18.68,18.76,18.84,18.92,19.05,19.13,19.22,19.32,19.40,19.48,19.55,19.63,19.70,19.73,19.80,19.88,20.12,20.87,22.51,24.26,26.08,27.97,30.24,33.84,36.52,37.60,38.10,38.02,38.03,38.33,39.05,40.04,41.05,42.10,43.20,44.47,45.74,47.18,49.28,53.08,58.57,62.94,66.43,69.50,71.57,73.68,75.94,78.01,78.56,78.67,78.18,76.78,74.11,71.02,68.54,66.76,65.71,65.26,64.81,64.43,64.03,63.41,63.06,63.09,63.11,62.69,61.85,61.26,60.34,58.60,55.12,51.49,48.37,45.59,42.62,39.74,36.50,33.06,29.89,29.35,28.83,28.30,27.80,27.41,27.06,26.80,26.54,26.19,25.85,25.56,25.35,25.18,24.95,24.72,24.51,24.32,24.12,23.89
27.90,27.86,27.82,27.76,27.69,27.66,27.58,27.44,27.28,27.13,27.01,26.90,26.77,26.69,26.61,26.56,26.54,26.48,26.47,26.46,26.49,26.62,26.78,26.93,27.09,27.24,27.42,27.57,27.73,27.90,28.11,28.21,28.14,27.94,27.71,27.42,27.17,26.93,26.69,26.45,26.17,25.91,25.68,25.43,24.89,24.68,24.64,24.62,24.54,24.46,24.38,24.31,24.23,24.22,24.18,24.12,24.12,24.12,24.12,24.12,24.12,24.12,24.12,24.09,24.04,24.02,24.02,24.02,24.02,24.02,24.02,24.02,24.03,24.05,24.05,24.12,24.20,24.27,24.35,24.35,24.35,24.35,24.35,24.35,24.35,24.35,24.35,24.35,24.35,24.35,24.34,24.32,24.32,24.32,24.29,24.25,24.25,24.23,24.19,24.15,24.15,24.13,24.08,24.04,24.02,23.96,23.93,23.89,23.84,23.82,23.75,23.68,23.65,23.65,23.65,23.57,23.58,23.67,23.65,23.67,23.63,23.55,23.50,23.48,23.42,23.37,23.36,23.28,23.27,23.23,23.15,23.08,23.07,23.02,22.97,22.97,22.89,22.83,22.68,22.40,22.03,21.72,21.41,21.13,20.89,20.60,20.29,19.95,19.61,19.28,18.97,18.65,18.36,18.21,18.29,18.37,18.47,18.61,18.68,18.77,18.86,18.95,19.08,19.17,19.25,19.32,19.40,19.48,19.54,19.61,19.68,19.70,19.76,19.83,19.92,20.12,21.63,23.41,25.32,27.25,29.18,32.48,34.92,35.88,36.66,36.74,36.89,37.30,38.14,39.00,40.00,41.16,42.48,44.02,45.60,47.20,49.43,53.66,59.85,64.44,67.83,70.71,72.55,74.43,76.06,77.07,76.57,76.04,75.17,73.65,71.13,68.48,66.17,64.13,62.33,60.93,59.95,59.53,59.63,60.04,60.17,60.37,60.60,60.75,60.41,60.30,60.03,59.20,56.87,53.69,50.70,47.89,44.98,42.08,38.77,34.93,30.88,29.70,29.04,28.50,27.95,27.39,26.90,26.57,26.27,25.89,25.60,25.35,25.16,24.99,24.76,24.53,24.34,24.16,23.93,23.70
28.09,28.02,27.97,27.96,27.88,27.81,27.73,27.63,27.47,27.32,27.17,27.05,26.96,26.88,26.81,26.73,26.67,26.67,26.66,26.62,26.60,26.69,26.84,27.00,27.15,27.31,27.54,27.70,27.86,28.01,28.18,28.32,28.23,28.01,27.78,27.54,27.30,27.04,26.75,26.52,26.28,26.04,25.79,25.49,25.15,24.90,24.75,24.68,24.60,24.53,24.45,24.37,24.29,24.29,24.24,24.19,24.19,24.19,24.19,24.19,24.19,24.19,24.19,24.18,24.16,24.09,24.09,24.09,24.09,24.09,24.09,24.09,24.12,24.18,24.18,24.25,24.32,24.40,24.48,24.48,24.48,24.48,24.48,24.48,24.48,24.48,24.48,24.48,24.48,24.48,24.45,24.39,24.39,24.39,24.38,24.38,24.38,24.31,24.28,24.28,24.27,24.21,24.18,24.15,24.09,24.08,24.02,23.98,23.96,23.89,23.81,23.78,23.78,23.78,23.78,23.66,23.60,23.64,23.76,23.84,23.82,23.76,23.75,23.68,23.61,23.56,23.55,23.48,23.46,23.42,23.34,23.27,23.26,23.21,23.16,23.16,23.08,23.06,22.91,22.60,22.29,21.98,21.67,21.38,21.15,20.91,20.57,20.16,19.73,19.35,19.03,18.68,18.36,18.21,18.34,18.44,18.52,18.61,18.68,18.81,18.93,19.00,19.09,19.17,19.25,19.32,19.40,19.48,19.51,19.54,19.62,19.69,19.76,19.80,19.83,19.93,20.97,22.65,24.62,26.55,28.48,31.32,33.35,34.16,34.93,35.36,35.82,36.40,37.18,38.29,39.61,41.03,42.48,44.02,45.68,47.33,49.88,55.49,61.35,65.78,69.04,71.54,73.33,74.68,75.18,74.75,73.76,72.82,71.84,70.53,68.50,66.20,64.00,61.80,59.58,57.53,56.35,56.01,56.32,56.77,57.37,57.53,57.55,57.77,57.98,58.07,57.86,57.15,55.62,54.17,52.01,49.25,46.38,43.58,40.54,36.87,32.61,30.14,29.23,28.69,28.13,27.52,26.99,26.48,26.02,25.64,25.40,25.16,24.97,24.80,24.57,24.34,24.15,23.97,23.74,23.51
28.23,28.18,28.14,28.10,28.06,27.99,27.89,27.77,27.61,27.46,27.33,27.23,27.15,27.07,27.00,26.92,26.86,26.86,26.82,26.78,26.77,26.80,26.96,27.11,27.27,27.43,27.62,27.78,27.93,28.10,28.29,28.45,28.36,28.12,27.89,27.62,27.38,27.13,26.87,26.63,26.40,26.15,25.88,25.61,25.34,25.07,24.86,24.74,24.67,24.59,24.49,24.38,24.31,24.30,24.30,24.29,24.25,24.25,24.25,24.25,24.25,24.25,24.25,24.25,24.24,24.20,24.16,24.15,24.15,24.15,24.15,24.18,24.22,24.26,24.30,24.37,24.45,24.52,24.55,24.55,24.55,24.55,24.55,24.55,24.55,24.55,24.55,24.55,24.55,24.55,24.54,24.50,24.50,24.50,24.48,24.45,24.45,24.42,24.40,24.39,24.35,24.31,24.27,24.24,24.20,24.20,24.14,24.08,24.03,23.95,23.88,23.85,23.85,23.85,23.85,23.76,23.68,23.67,23.74,23.85,23.90,23.92,23.95,23.88,23.83,23.79,23.75,23.67,23.66,23.61,23.55,23.51,23.47,23.40,23.36,23.35,23.23,23.27,23.16,22.85,22.54,22.27,21.97,21.69,21.46,21.06,20.65,20.20,19.75,19.36,19.01,18.66,18.37,18.26,18.36,18.45,18.53,18.61,18.73,18.84,18.94,19.01,19.09,19.17,19.25,19.31,19.35,19.43,19.48,19.53,19.60,19.64,19.71,19.77,19.81,19.85,20.34,21.75,23.67,25.64,27.65,30.00,31.72,32.60,33.45,34.14,35.06,36.13,37.10,38.26,39.52,40.93,42.48,44.07,45.71,47.37,50.28,57.32,62.47,66.68,69.82,71.78,73.11,73.64,73.49,72.76,71.67,70.41,69.20,67.83,65.93,63.78,61.45,58.90,56.20,53.95,53.01,52.93,53.40,54.02,54.53,54.51,54.31,54.35,54.70,54.67,54.42,54.00,53.18,52.41,50.86,48.63,46.17,43.51,40.67,37.36,33.56,30.41,29.37,28.83,28.27,27.65,27.11,26.54,25.98,25.48,25.17,24.92,24.70,24.50,24.27,24.07,23.88,23.69,23.50,23.27
28.37,28.35,28.32,28.25,28.23,28.17,28.05,27.90,27.76,27.60,27.50,27.42,27.34,27.27,27.19,27.11,27.05,27.05,26.98,26.95,26.94,26.93,27.07,27.22,27.38,27.53,27.70,27.86,28.01,28.18,28.40,28.56,28.48,28.25,28.02,27.72,27.47,27.24,27.01,26.78,26.54,26.26,25.98,25.75,25.51,25.20,24.94,24.79,24.71,24.64,24.52,24.38,24.31,24.31,24.36,24.39,24.32,24.32,24.32,24.32,24.32,24.32,24.32,24.32,24.32,24.32,24.25,24.22,24.22,24.22,24.23,24.28,24.32,24.35,24.43,24.50,24.57,24.62,24.63,24.63,24.63,24.63,24.63,24.63,24.63,24.63,24.63,24.63,24.63,24.62,24.62,24.62,24.62,24.62,24.58,24.53,24.53,24.52,24.52,24.49,24.42,24.42,24.37,24.33,24.32,24.32,24.25,24.17,24.10,24.02,23.95,23.93,23.93,23.93,23.92,23.86,23.79,23.71,23.70,23.83,23.94,24.02,24.10,24.06,24.05,24.01,23.94,23.86,23.85,23.81,23.75,23.75,23.67,23.60,23.52,23.44,23.43,23.50,23.40,23.09,22.81,22.57,22.29,21.98,21.66,21.10,20.60,20.16,19.73,19.35,18.97,18.63,18.38,18.30,18.37,18.45,18.53,18.63,18.77,18.86,18.94,19.01,19.08,19.15,19.23,19.29,19.30,19.38,19.45,19.53,19.59,19.60,19.66,19.73,19.79,19.80,19.87,20.93,22.65,24.65,26.71,28.69,30.25,31.33,32.25,33.06,34.35,35.91,37.26,38.42,39.65,41.06,42.69,44.32,45.85,47.44,50.64,58.93,63.42,67.34,70.29,71.71,72.43,72.19,71.54,70.70,69.54,68.05,66.66,65.22,63.38,61.23,58.67,55.78,52.74,50.43,49.73,49.84,50.43,51.23,51.55,51.34,50.92,50.69,50.92,50.57,50.22,50.08,49.87,49.64,48.71,47.13,45.20,42.82,40.22,37.31,34.05,30.57,29.46,28.91,28.33,27.72,27.16,26.56,25.95,25.34,24.93,24.65,24.42,24.18,23.95,23.78,23.58,23.37,23.21,23.15
28.56,28.54,28.51,28.43,28.37,28.30,28.18,28.04,27.95,27.79,27.69,27.61,27.54,27.46,27.38,27.30,27.24,27.24,27.17,27.14,27.12,27.06,27.15,27.29,27.44,27.60,27.82,27.99,28.14,28.30,28.47,28.62,28.57,28.38,28.15,27.90,27.66,27.43,27.20,26.97,26.68,26.42,26.17,25.94,25.65,25.26,24.94,24.79,24.71,24.64,24.52,24.38,24.31,24.36,24.43,24.45,24.38,24.38,24.38,24.38,24.38,24.38,24.38,24.38,24.38,24.38,24.36,24.32,24.28,24.29,24.35,24.37,24.41,24.48,24.55,24.63,24.67,24.70,24.76,24.76,24.76,24.76,24.76,24.76,24.76,24.76,24.76,24.76,24.76,24.72,24.68,24.68,24.68,24.68,24.67,24.66,24.66,24.60,24.58,24.56,24.48,24.48,24.47,24.43,24.38,24.38,24.31,24.24,24.16,24.08,24.06,24.06,24.06,24.05,23.99,23.97,23.89,23.77,23.71,23.78,23.90,24.02,24.10,24.21,24.24,24.21,24.13,24.05,24.04,24.00,23.94,23.94,23.87,23.79,23.58,23.22,23.81,23.82,23.59,23.30,23.12,22.89,22.61,22.20,21.53,20.87,20.35,19.96,19.67,19.28,18.95,18.63,18.38,18.30,18.37,18.45,18.55,18.69,18.78,18.86,18.94,19.00,19.02,19.09,19.17,19.24,19.30,19.38,19.45,19.51,19.53,19.59,19.66,19.71,19.73,19.80,19.87,20.41,21.61,23.56,25.52,27.56,29.38,30.81,31.68,32.31,33.55,35.37,37.52,38.68,40.18,41.85,43.52,45.15,46.31,47.62,50.87,59.91,64.07,67.56,70.11,71.15,71.03,70.37,69.40,68.22,66.77,65.23,63.93,62.61,60.82,58.43,55.49,52.39,49.48,47.23,46.46,46.50,47.07,47.96,48.20,47.86,47.21,46.57,46.15,45.20,44.58,44.58,44.77,45.41,45.27,44.37,43.08,41.34,39.18,36.62,33.70,30.52,29.46,28.86,28.21,27.59,26.98,26.37,25.75,25.14,24.63,24.33,24.10,23.86,23.63,23.41,23.22,23.04,22.83,23.44
28.74,28.71,28.67,28.62,28.54,28.47,28.35,28.21,28.09,27.97,27.88,27.80,27.73,27.65,27.57,27.50,27.43,27.39,27.35,27.33,27.32,27.28,27.25,27.38,27.55,27.71,27.91,28.07,28.22,28.38,28.53,28.72,28.69,28.51,28.28,28.04,27.81,27.58,27.35,27.12,26.85,26.60,26.36,26.09,25.72,25.26,24.91,24.79,24.71,24.64,24.54,24.42,24.31,24.37,24.45,24.50,24.49,24.45,24.44,24.44,24.44,24.44,24.44,24.44,24.44,24.44,24.44,24.39,24.36,24.39,24.44,24.47,24.53,24.60,24.68,24.73,24.76,24.80,24.84,24.84,24.84,24.84,24.84,24.84,24.84,24.84,24.84,24.84,24.84,24.81,24.79,24.79,24.79,24.79,24.79,24.78,24.75,24.70,24.67,24.63,24.59,24.59,24.56,24.52,24.48,24.45,24.41,24.33,24.22,24.15,24.14,24.14,24.14,24.14,24.10,24.06,23.98,23.87,23.75,23.75,23.85,23.99,24.10,24.22,24.31,24.34,24.33,24.28,24.25,24.19,24.13,24.13,24.06,23.87,23.68,23.62,24.16,24.09,23.84,23.59,23.43,23.24,22.81,22.15,21.32,20.62,20.12,19.77,19.53,19.21,18.90,18.61,18.38,18.30,18.37,18.47,18.59,18.71,18.78,18.83,18.89,18.96,19.00,19.07,19.15,19.22,19.30,19.34,19.41,19.47,19.51,19.55,19.62,19.67,19.71,19.75,19.83,20.08,20.73,21.98,23.71,25.63,27.70,29.70,30.89,31.51,32.63,34.42,36.85,38.55,40.64,42.82,44.84,46.46,47.46,48.78,52.10,60.70,64.71,67.49,68.93,68.79,67.59,66.19,64.85,63.69,62.75,61.91,60.97,59.72,57.87,55.50,52.66,49.63,46.69,44.24,43.16,42.96,43.42,44.31,44.55,44.20,43.29,41.92,40.76,39.36,38.76,39.21,39.76,40.76,41.28,41.13,40.35,39.25,37.60,35.46,32.94,30.32,29.35,28.73,28.08,27.46,26.84,26.22,25.61,24.99,24.38,24.03,23.78,23.55,23.31,23.08,22.93,22.88,22.92,23.91
28.92,28.86,28.82,28.81,28.74,28.65,28.53,28.38,28.23,28.15,28.07,28.00,27.92,27.84,27.76,27.68,27.60,27.53,27.52,27.52,27.52,27.52,27.38,27.48,27.67,27.82,27.98,28.14,28.30,28.45,28.60,28.83,28.82,28.64,28.40,28.17,27.94,27.71,27.48,27.25,27.02,26.79,26.53,26.19,25.71,25.21,24.87,24.79,24.71,24.64,24.56,24.47,24.32,24.38,24.45,24.53,24.60,24.53,24.51,24.51,24.51,24.51,24.51,24.51,24.51,24.51,24.51,24.46,24.44,24.51,24.51,24.58,24.65,24.73,24.80,24.81,24.86,24.92,24.92,24.92,24.92,24.92,24.92,24.92,24.92,24.92,24.92,24.92,24.92,24.92,24.93,24.92,24.92,24.92,24.92,24.90,24.83,24.81,24.76,24.71,24.71,24.71,24.66,24.62,24.60,24.53,24.51,24.42,24.29,24.22,24.22,24.22,24.21,24.21,24.21,24.15,24.07,23.98,23.83,23.75,23.80,23.94,24.09,24.18,24.31,24.43,24.50,24.51,24.46,24.38,24.32,24.32,24.23,23.90,23.81,24.28,24.49,24.35,24.13,23.92,23.77,23.60,22.97,22.03,21.10,20.38,19.91,19.59,19.36,19.13,18.84,18.58,18.39,18.30,18.37,18.50,18.63,18.70,18.77,18.80,18.84,18.91,18.99,19.07,19.14,19.22,19.29,19.30,19.35,19.42,19.49,19.50,19.56,19.63,19.69,19.70,19.77,19.85,20.00,20.35,21.71,23.33,25.51,28.04,29.74,30.55,31.62,33.29,35.74,38.33,41.17,43.94,46.39,48.07,49.11,50.69,54.10,61.54,65.23,66.98,66.97,65.37,63.11,60.93,59.24,58.28,58.15,58.25,57.80,56.64,54.75,52.46,49.89,47.06,44.05,41.34,39.86,39.34,39.61,40.43,40.66,40.23,39.02,37.00,35.26,33.66,33.24,34.16,34.96,36.04,37.07,37.68,37.34,36.84,35.70,34.01,31.92,30.03,29.17,28.56,27.94,27.32,26.71,26.09,25.47,24.85,24.16,23.75,23.47,23.23,23.00,22.79,22.72,22.84,23.22,24.41
29.06,29.03,28.99,28.94,28.92,28.81,28.66,28.52,28.42,28.34,28.26,28.19,28.11,28.03,27.96,27.85,27.74,27.72,27.71,27.68,27.66,27.71,27.62,27.63,27.73,27.89,28.04,28.24,28.42,28.58,28.73,28.96,28.94,28.76,28.53,28.30,28.07,27.84,27.61,27.44,27.21,26.98,26.65,26.06,25.44,25.06,24.87,24.79,24.71,24.64,24.56,24.48,24.38,24.44,24.49,24.53,24.60,24.63,24.60,24.57,24.57,24.57,24.57,24.57,24.57,24.57,24.57,24.56,24.55,24.58,24.63,24.71,24.78,24.85,24.87,24.92,24.99,25.04,25.04,25.04,25.04,25.04,25.04,25.04,25.04,25.04,25.04,25.04,25.04,25.12,25.17,25.11,25.11,25.11,25.09,25.04,25.02,24.91,24.86,24.83,24.77,24.77,24.76,24.74,24.73,24.65,24.60,24.49,24.37,24.34,24.34,24.34,24.32,24.27,24.27,24.25,24.18,24.05,23.95,23.87,23.84,23.88,24.03,24.16,24.27,24.39,24.52,24.63,24.62,24.57,24.51,24.51,24.23,23.97,24.09,24.77,24.78,24.65,24.47,24.31,24.21,23.96,23.23,22.20,21.16,20.24,19.79,19.53,19.30,19.07,18.86,18.65,18.44,18.31,18.37,18.50,18.61,18.63,18.71,18.77,18.84,18.91,18.99,19.07,19.11,19.15,19.23,19.28,19.32,19.36,19.44,19.49,19.52,19.57,19.64,19.70,19.77,19.81,19.88,20.04,20.46,20.96,22.21,24.32,26.66,28.63,30.36,32.16,34.46,38.68,42.45,45.58,48.05,50.28,52.22,54.79,58.40,63.42,64.88,64.41,62.65,60.24,57.84,55.66,54.09,53.34,53.46,53.98,54.00,53.28,51.68,49.00,46.38,43.77,41.11,38.35,36.58,35.68,35.60,36.23,36.03,34.59,32.86,31.87,31.12,30.61,30.59,31.02,31.37,32.14,33.27,34.28,34.33,34.13,33.32,32.03,30.49,29.53,28.89,28.33,27.75,27.13,26.52,25.90,25.28,24.66,24.02,23.54,23.21,22.98,22.75,22.70,22.86,23.15,23.48,24.42
29.22,29.21,29.17,29.10,29.08,28.94,28.80,28.68,28.58,28.55,28.49,28.41,28.30,28.22,28.15,28.03,27.91,27.91,27.88,27.86,27.86,27.91,27.83,27.77,27.81,27.99,28.14,28.34,28.52,28.67,28.83,29.05,29.07,28.93,28.70,28.46,28.23,28.00,27.78,27.63,27.38,27.03,26.53,25.83,25.22,24.94,24.83,24.76,24.68,24.60,24.54,24.49,24.44,24.48,24.52,24.56,24.64,24.72,24.68,24.64,24.64,24.64,24.64,24.64,24.64,24.64,24.64,24.64,24.65,24.68,24.76,24.83,24.90,24.94,24.97,25.04,25.10,25.14,25.14,25.14,25.16,25.17,25.17,25.17,25.17,25.17,25.17,25.17,25.25,25.38,25.45,25.38,25.38,25.36,25.32,25.28,25.28,25.14,25.06,25.02,24.94,24.94,24.90,24.86,24.82,24.75,24.67,24.55,24.44,24.44,24.44,24.44,24.42,24.37,24.37,24.35,24.27,24.16,24.08,23.98,23.89,23.87,23.97,24.12,24.22,24.33,24.49,24.64,24.71,24.72,24.70,24.67,24.17,23.95,24.21,25.00,24.98,24.94,24.86,24.76,24.63,24.26,23.42,22.28,21.12,20.17,19.75,19.54,19.31,19.07,18.88,18.69,18.49,18.31,18.37,18.48,18.57,18.61,18.68,18.76,18.84,18.91,18.99,19.04,19.08,19.12,19.20,19.25,19.28,19.32,19.37,19.45,19.49,19.53,19.58,19.66,19.74,19.76,19.79,19.86,19.86,19.86,20.42,21.72,23.63,26.11,28.73,31.55,34.75,39.66,43.87,47.48,50.63,53.70,55.93,58.52,61.45,63.85,62.96,60.60,57.68,55.03,52.75,50.10,48.23,47.61,47.98,48.65,48.90,48.52,47.43,44.94,42.60,40.33,38.03,35.33,33.47,32.48,32.29,32.67,32.37,31.06,29.69,29.27,28.99,28.99,29.14,29.34,29.50,29.98,30.81,31.61,31.79,31.74,31.28,30.50,29.56,29.02,28.50,27.97,27.43,26.87,26.28,25.69,25.09,24.47,23.85,23.31,22.92,22.71,22.61,22.76,23.05,23.40,23.73,24.44
29.40,29.40,29.37,29.29,29.21,29.07,28.96,28.86,28.71,28.77,28.75,28.64,28.49,28.42,28.34,28.23,28.10,28.10,28.03,28.04,28.10,28.10,28.02,27.89,27.89,28.12,28.27,28.43,28.58,28.73,28.89,29.12,29.20,29.12,28.89,28.66,28.42,28.19,27.97,27.82,27.53,26.96,26.21,25.51,25.04,24.85,24.77,24.69,24.62,24.54,24.50,24.50,24.50,24.50,24.55,24.63,24.70,24.78,24.74,24.70,24.70,24.70,24.70,24.70,24.70,24.70,24.70,24.70,24.73,24.81,24.88,24.96,25.00,25.02,25.09,25.17,25.20,25.20,25.20,25.20,25.26,25.30,25.30,25.30,25.30,25.30,25.30,25.30,25.52,25.70,25.77,25.70,25.70,25.64,25.60,25.60,25.60,25.46,25.35,25.27,25.20,25.20,25.09,24.97,24.89,24.81,24.73,24.61,24.50,24.50,24.50,24.50,24.50,24.50,24.50,24.44,24.36,24.28,24.21,24.06,23.95,23.90,23.90,24.06,24.16,24.27,24.42,24.58,24.73,24.84,24.88,24.80,24.06,23.85,24.21,25.01,25.08,25.22,25.30,25.25,25.02,24.51,23.55,22.30,20.99,20.14,19.79,19.60,19.37,19.14,18.91,18.72,18.54,18.31,18.37,18.45,18.53,18.61,18.68,18.76,18.84,18.91,18.99,19.00,19.05,19.12,19.20,19.20,19.26,19.30,19.31,19.39,19.46,19.50,19.52,19.60,19.67,19.70,19.73,19.80,19.80,19.80,19.84,20.02,20.65,23.11,26.81,31.35,36.28,41.15,45.41,49.58,53.95,58.11,60.13,61.97,63.49,63.13,59.80,55.81,52.19,49.74,47.81,44.30,41.80,41.26,41.88,42.50,42.76,42.64,42.25,40.40,38.60,36.79,34.85,32.30,30.51,29.65,29.54,29.62,29.48,29.22,28.93,28.69,28.46,28.52,28.67,28.83,28.98,29.21,29.40,29.54,29.62,29.62,29.51,29.32,29.05,28.51,28.03,27.53,27.00,26.54,26.00,25.46,24.90,24.28,23.66,23.04,22.60,22.43,22.58,22.93,23.27,23.60,23.99,24.45
29.59,29.59,29.56,29.48,29.40,29.26,29.12,29.01,28.96,28.98,28.94,28.85,28.75,28.62,28.49,28.38,28.29,28.29,28.22,28.24,28.29,28.29,28.21,28.08,28.04,28.18,28.33,28.49,28.64,28.81,29.01,29.24,29.33,29.25,29.02,28.78,28.59,28.41,28.23,28.07,27.44,26.70,25.94,25.19,24.97,24.85,24.77,24.69,24.61,24.54,24.50,24.51,24.56,24.56,24.61,24.69,24.76,24.79,24.82,24.80,24.76,24.76,24.76,24.76,24.76,24.76,24.76,24.80,24.86,24.93,25.01,25.05,25.09,25.14,25.22,25.25,25.29,25.33,25.33,25.33,25.38,25.43,25.43,25.43,25.43,25.43,25.47,25.61,25.84,25.99,26.04,26.02,26.02,25.96,25.92,25.92,25.92,25.78,25.67,25.61,25.58,25.53,25.44,25.28,25.06,24.89,24.76,24.67,24.63,24.63,24.63,24.63,24.61,24.56,24.56,24.54,24.49,24.40,24.28,24.17,24.05,23.95,23.90,24.01,24.13,24.25,24.36,24.51,24.67,24.81,25.05,25.66,24.62,23.94,24.03,25.01,25.14,25.28,25.39,25.41,25.33,25.10,24.25,22.93,21.43,20.24,19.79,19.62,19.43,19.20,18.97,18.78,18.62,18.44,18.41,18.45,18.53,18.61,18.68,18.76,18.81,18.85,18.93,18.98,19.02,19.06,19.14,19.19,19.22,19.26,19.31,19.39,19.42,19.46,19.52,19.60,19.63,19.67,19.71,19.74,19.74,19.77,19.84,19.94,20.17,24.48,29.24,33.88,38.38,42.52,46.40,50.89,56.19,59.72,61.50,62.26,61.79,59.15,54.37,50.98,48.79,47.17,44.21,41.19,39.19,38.56,38.88,39.12,39.22,39.15,38.91,37.46,35.84,33.92,31.74,30.51,29.60,29.06,28.88,28.96,28.82,28.60,28.33,28.06,27.93,28.01,28.16,28.33,28.53,28.72,28.85,28.97,29.09,28.90,28.80,28.69,28.48,27.99,27.52,27.02,26.49,26.03,25.49,24.95,24.42,23.90,23.33,22.80,22.47,22.44,22.69,23.02,23.37,23.74,24.18,24.60
29.75,29.77,29.75,29.67,29.57,29.44,29.30,29.18,29.18,29.18,29.13,29.05,28.97,28.82,28.66,28.55,28.48,28.46,28.42,28.44,28.49,28.51,28.41,28.27,28.20,28.24,28.40,28.57,28.74,28.91,29.14,29.35,29.45,29.39,29.14,28.93,28.78,28.65,28.49,28.23,27.36,26.49,25.71,24.98,24.92,24.85,24.77,24.69,24.61,24.54,24.51,24.54,24.62,24.63,24.68,24.75,24.83,24.83,24.88,24.90,24.85,24.83,24.83,24.83,24.83,24.83,24.85,24.91,24.98,25.03,25.09,25.12,25.17,25.24,25.32,25.33,25.38,25.43,25.46,25.48,25.52,25.55,25.55,25.55,25.55,25.58,25.67,25.90,26.13,26.28,26.34,26.33,26.31,26.26,26.24,26.23,26.21,26.09,25.99,25.94,25.93,25.84,25.74,25.56,25.28,25.04,24.88,24.79,24.75,24.75,24.75,24.74,24.71,24.65,24.65,24.64,24.59,24.50,24.37,24.27,24.15,24.03,23.95,23.97,24.07,24.19,24.29,24.45,24.60,24.76,25.12,26.10,25.21,24.23,24.01,25.01,25.17,25.34,25.47,25.55,25.55,25.47,24.72,23.41,21.79,20.34,19.80,19.63,19.47,19.24,19.02,18.84,18.69,18.56,18.46,18.46,18.53,18.60,18.66,18.73,18.78,18.81,18.87,18.94,18.99,19.02,19.07,19.15,19.19,19.22,19.28,19.36,19.39,19.43,19.49,19.57,19.59,19.64,19.67,19.67,19.70,19.76,19.84,20.05,20.89,25.97,31.01,35.51,39.65,43.27,46.87,51.56,57.46,60.58,62.00,61.95,60.19,56.02,50.89,47.91,46.29,44.84,41.79,39.15,37.18,36.10,36.23,36.23,36.21,36.14,35.94,34.73,33.28,31.55,29.73,29.27,28.85,28.49,28.27,28.32,28.18,27.98,27.72,27.43,27.39,27.50,27.65,27.82,28.03,28.19,28.30,28.39,28.53,28.29,28.15,28.05,27.89,27.49,27.02,26.51,25.98,25.52,24.98,24.46,23.95,23.46,22.92,22.55,22.41,22.53,22.84,23.15,23.49,23.87,24.32,24.70
29.88,29.93,29.94,29.86,29.71,29.61,29.49,29.37,29.37,29.37,29.32,29.25,29.16,29.01,28.86,28.74,28.66,28.59,28.64,28.67,28.69,28.76,28.62,28.47,28.35,28.31,28.46,28.67,28.86,29.03,29.27,29.43,29.58,29.57,29.27,29.11,29.01,28.93,28.77,28.27,27.27,26.33,25.55,24.92,24.90,24.85,24.77,24.69,24.61,24.54,24.54,24.61,24.69,24.69,24.74,24.82,24.89,24.89,24.95,24.99,24.97,24.90,24.89,24.89,24.89,24.89,24.96,25.04,25.08,25.09,25.10,25.16,25.23,25.31,25.38,25.39,25.44,25.51,25.58,25.66,25.68,25.68,25.68,25.68,25.68,25.76,25.93,26.16,26.39,26.56,26.66,26.65,26.58,26.56,26.56,26.54,26.47,26.39,26.31,26.26,26.25,26.10,25.96,25.77,25.53,25.30,25.13,24.99,24.88,24.88,24.88,24.84,24.79,24.78,24.78,24.73,24.65,24.57,24.49,24.35,24.24,24.16,24.08,23.95,23.97,24.08,24.23,24.38,24.54,24.69,25.04,25.98,25.84,24.80,24.19,25.01,25.17,25.38,25.56,25.68,25.68,25.55,24.87,23.67,22.04,20.44,19.83,19.63,19.47,19.24,19.07,18.91,18.77,18.69,18.54,18.50,18.53,18.60,18.61,18.67,18.74,18.80,18.81,18.88,18.95,19.00,19.01,19.09,19.16,19.20,19.22,19.30,19.37,19.40,19.43,19.50,19.58,19.60,19.61,19.61,19.68,19.76,19.84,20.40,23.21,27.56,31.85,35.88,39.78,43.20,46.67,51.38,57.45,60.47,61.34,60.86,58.79,54.07,50.07,47.21,44.98,42.79,40.93,38.50,35.95,33.91,34.00,33.95,33.88,33.74,33.45,32.29,30.95,29.85,29.22,28.76,28.30,27.92,27.68,27.69,27.54,27.34,27.08,26.79,26.85,26.99,27.14,27.30,27.46,27.61,27.72,27.80,27.89,27.79,27.57,27.36,27.26,27.01,26.53,25.99,25.47,25.01,24.47,23.98,23.48,22.95,22.41,22.29,22.44,22.72,23.03,23.34,23.65,23.99,24.38,24.77
30.21,30.22,30.17,30.05,29.89,29.77,29.65,29.57,29.57,29.57,29.52,29.44,29.36,29.20,29.05,28.93,28.85,28.77,28.83,28.89,28.93,28.97,28.81,28.69,28.57,28.48,28.59,28.76,28.96,29.15,29.34,29.54,29.71,29.73,29.52,29.45,29.37,29.28,29.06,28.35,27.28,26.24,25.40,24.91,24.90,24.85,24.77,24.69,24.61,24.57,24.59,24.66,24.70,24.74,24.80,24.88,24.96,25.09,25.24,25.33,25.31,25.19,25.10,25.02,24.96,24.96,24.99,25.05,25.10,25.10,25.15,25.22,25.29,25.37,25.45,25.46,25.45,25.48,25.60,25.72,25.79,25.81,25.81,25.81,25.88,26.03,26.24,26.47,26.70,26.88,26.98,26.97,26.89,26.88,26.85,26.81,26.78,26.70,26.65,26.60,26.52,26.36,26.18,25.96,25.74,25.55,25.39,25.26,25.16,25.12,25.08,24.98,24.89,24.86,24.86,24.83,24.77,24.69,24.62,24.47,24.36,24.27,24.15,24.00,23.95,24.01,24.16,24.27,24.42,24.57,24.83,25.37,25.85,25.04,24.32,24.86,25.14,25.35,25.54,25.70,25.70,25.52,24.89,23.82,22.41,20.87,20.06,19.69,19.54,19.39,19.24,19.08,18.94,18.82,18.66,18.55,18.51,18.55,18.59,18.63,18.68,18.75,18.80,18.83,18.89,18.96,19.00,19.03,19.10,19.16,19.20,19.24,19.31,19.37,19.42,19.50,19.53,19.54,19.56,19.60,19.68,19.76,19.94,20.76,24.06,27.89,31.90,35.97,39.96,43.32,46.64,51.06,56.76,59.98,60.46,59.14,56.31,52.11,48.58,45.90,43.62,41.27,39.02,36.51,34.01,31.97,31.74,31.65,31.57,31.45,31.23,30.58,29.80,29.13,28.71,28.25,27.78,27.35,27.05,27.05,26.91,26.70,26.46,26.21,26.33,26.48,26.63,26.78,26.89,27.00,27.12,27.23,27.30,27.31,27.07,26.78,26.58,26.43,26.00,25.48,24.96,24.50,23.96,23.47,22.98,22.45,22.25,22.35,22.60,22.91,23.22,23.49,23.79,24.10,24.45,24.87
30.52,30.49,30.38,30.24,30.08,29.93,29.82,29.78,29.79,29.78,29.72,29.63,29.55,29.39,29.24,29.11,29.03,28.98,29.03,29.10,29.16,29.16,29.02,28.91,28.79,28.66,28.71,28.86,29.05,29.26,29.43,29.65,29.84,29.91,29.81,29.80,29.74,29.62,29.33,28.43,27.35,26.22,25.29,24.91,24.89,24.84,24.77,24.69,24.63,24.62,24.65,24.70,24.72,24.79,24.86,24.94,25.05,25.28,25.52,25.68,25.69,25.52,25.35,25.17,25.03,25.00,25.00,25.05,25.11,25.13,25.20,25.28,25.36,25.43,25.49,25.49,25.44,25.45,25.61,25.76,25.87,25.93,25.94,25.97,26.12,26.33,26.56,26.79,27.02,27.20,27.29,27.29,27.21,27.19,27.16,27.09,27.09,27.02,26.99,26.92,26.75,26.60,26.40,26.17,25.95,25.80,25.66,25.55,25.47,25.40,25.32,25.20,25.08,24.99,24.99,24.98,24.92,24.82,24.75,24.60,24.48,24.37,24.23,24.08,23.97,23.96,24.06,24.15,24.29,24.45,24.62,24.83,25.59,25.09,24.41,24.57,25.07,25.29,25.47,25.64,25.64,25.42,24.80,23.84,22.64,21.28,20.32,19.79,19.65,19.55,19.42,19.27,19.12,18.96,18.80,18.64,18.53,18.51,18.58,18.60,18.64,18.71,18.77,18.79,18.85,18.92,18.98,19.00,19.05,19.13,19.18,19.20,19.26,19.33,19.40,19.48,19.48,19.49,19.53,19.62,19.70,19.78,20.05,21.06,24.46,27.88,31.72,35.84,39.92,43.28,46.52,50.60,55.70,58.79,58.97,57.08,53.75,49.94,46.65,44.08,41.82,39.38,36.68,34.16,31.95,30.29,29.88,29.77,29.70,29.62,29.49,29.25,28.91,28.54,28.16,27.71,27.26,26.81,26.44,26.41,26.27,26.06,25.84,25.66,25.81,25.95,26.09,26.23,26.32,26.40,26.52,26.65,26.73,26.81,26.58,26.23,25.92,25.83,25.46,24.97,24.45,23.98,23.45,22.96,22.51,22.10,22.23,22.49,22.80,23.10,23.41,23.66,23.92,24.23,24.55,25.11
30.74,30.65,30.53,30.43,30.28,30.12,30.04,30.05,30.11,30.05,29.94,29.82,29.74,29.59,29.43,29.28,29.17,29.23,29.24,29.29,29.35,29.35,29.26,29.13,28.99,28.84,28.79,28.96,29.15,29.33,29.55,29.78,29.96,30.10,30.19,30.13,30.06,29.91,29.56,28.52,27.54,26.36,25.29,24.91,24.84,24.81,24.77,24.70,24.69,24.68,24.69,24.71,24.78,24.85,24.89,24.97,25.18,25.41,25.69,25.94,26.06,25.84,25.63,25.37,25.13,25.00,25.00,25.05,25.13,25.19,25.27,25.34,25.42,25.49,25.50,25.44,25.41,25.45,25.61,25.76,25.90,26.01,26.09,26.21,26.42,26.64,26.88,27.11,27.34,27.52,27.61,27.61,27.53,27.51,27.48,27.41,27.41,27.34,27.28,27.16,26.94,26.79,26.63,26.43,26.21,26.05,25.95,25.87,25.79,25.72,25.64,25.55,25.44,25.31,25.31,25.26,25.13,24.95,24.87,24.73,24.58,24.45,24.36,24.21,24.06,23.94,23.87,24.01,24.16,24.32,24.48,24.64,24.93,24.78,24.38,24.02,24.92,25.19,25.32,25.45,25.45,25.19,24.52,23.56,22.52,21.50,20.57,19.98,19.83,19.69,19.59,19.47,19.31,19.16,18.94,18.76,18.62,18.51,18.58,18.60,18.64,18.70,18.72,18.77,18.85,18.90,18.92,18.98,19.05,19.11,19.12,19.19,19.26,19.31,19.34,19.41,19.42,19.46,19.55,19.69,19.76,19.84,20.16,21.21,24.36,27.58,31.28,35.32,39.35,42.80,46.14,49.90,54.05,56.10,56.09,54.46,51.44,47.28,43.92,41.30,38.98,36.44,33.74,31.44,29.90,29.17,28.97,28.87,28.83,28.81,28.79,28.49,28.18,27.86,27.53,27.13,26.73,26.30,25.91,25.78,25.63,25.42,25.24,25.14,25.30,25.40,25.50,25.59,25.74,25.82,25.94,26.08,26.15,26.23,26.08,25.75,25.34,25.20,24.90,24.46,23.94,23.47,22.94,22.45,22.13,22.11,22.38,22.68,22.99,23.30,23.61,23.85,24.09,24.37,24.74,25.64
30.94,30.83,30.71,30.62,30.47,30.31,30.22,30.22,30.33,30.37,30.28,30.13,29.98,29.79,29.62,29.47,29.35,29.43,29.47,29.51,29.54,29.54,29.46,29.33,29.18,29.03,28.91,29.05,29.25,29.45,29.68,29.94,30.16,30.34,30.48,30.41,30.33,30.18,29.85,29.02,27.82,26.41,25.22,24.90,24.82,24.80,24.78,24.74,24.71,24.70,24.72,24.76,24.80,24.87,24.92,25.05,25.35,25.66,25.96,26.24,26.40,26.17,25.84,25.52,25.23,25.00,25.04,25.10,25.18,25.25,25.33,25.41,25.49,25.54,25.50,25.43,25.40,25.45,25.61,25.76,25.91,26.07,26.23,26.50,26.73,26.96,27.20,27.43,27.66,27.84,27.92,27.88,27.84,27.83,27.80,27.73,27.73,27.63,27.52,27.38,27.18,26.99,26.83,26.64,26.42,26.31,26.25,26.19,26.11,26.04,25.96,25.88,25.79,25.68,25.64,25.54,25.39,25.20,25.05,24.87,24.72,24.60,24.49,24.34,24.18,24.03,23.89,23.90,24.04,24.19,24.34,24.45,24.61,24.44,24.12,23.91,24.73,25.03,25.15,25.20,25.13,24.84,24.16,23.23,22.30,21.45,20.77,20.35,20.16,19.97,19.78,19.61,19.46,19.30,19.11,18.92,18.74,18.59,18.60,18.60,18.64,18.70,18.70,18.77,18.82,18.86,18.90,18.98,19.03,19.07,19.11,19.15,19.22,19.27,19.32,19.40,19.43,19.50,19.59,19.70,19.78,19.86,20.07,20.92,24.01,27.10,30.57,34.37,38.35,41.86,45.19,48.49,51.64,53.02,52.92,51.37,48.44,44.23,40.95,38.29,35.86,33.31,31.36,29.81,28.77,28.27,28.11,28.02,27.99,27.99,27.99,27.76,27.47,27.15,26.80,26.45,26.10,25.71,25.34,25.15,24.99,24.81,24.66,24.63,24.71,24.82,24.91,25.00,25.16,25.25,25.35,25.46,25.58,25.65,25.54,25.26,24.85,24.58,24.34,23.97,23.46,22.96,22.43,22.12,22.06,22.25,22.56,22.87,23.18,23.49,23.80,24.04,24.27,24.55,24.93,25.99
31.13,31.02,30.90,30.80,30.66,30.51,30.39,30.37,30.52,30.69,30.65,30.49,30.26,30.02,29.83,29.67,29.56,29.63,29.71,29.75,29.75,29.74,29.66,29.52,29.37,29.22,29.06,29.15,29.34,29.57,29.81,30.10,30.36,30.58,30.73,30.66,30.57,30.41,30.14,29.63,28.18,26.54,25.24,24.90,24.83,24.80,24.80,24.79,24.72,24.70,24.74,24.79,24.80,24.87,24.96,25.15,25.55,25.93,26.27,26.56,26.72,26.47,26.03,25.65,25.32,25.01,25.08,25.16,25.24,25.32,25.40,25.47,25.54,25.57,25.50,25.42,25.39,25.44,25.59,25.76,25.92,26.12,26.39,26.78,27.04,27.28,27.52,27.75,27.98,28.15,28.22,28.15,28.15,28.15,28.11,28.05,28.04,27.89,27.74,27.58,27.43,27.20,27.02,26.84,26.64,26.57,26.56,26.51,26.43,26.36,26.29,26.21,26.12,26.05,25.97,25.83,25.66,25.49,25.25,25.02,24.88,24.77,24.62,24.46,24.31,24.15,24.00,23.85,23.92,24.05,24.18,24.26,24.38,24.12,23.87,23.99,24.55,24.82,24.91,24.88,24.72,24.44,23.79,22.92,22.10,21.39,21.02,20.78,20.54,20.30,20.00,19.76,19.59,19.44,19.29,19.08,18.88,18.73,18.64,18.61,18.64,18.70,18.70,18.77,18.80,18.82,18.90,18.97,19.00,19.03,19.09,19.10,19.16,19.24,19.31,19.38,19.46,19.54,19.62,19.69,19.77,19.85,19.93,20.52,23.53,26.53,29.75,33.28,37.17,40.67,43.89,46.70,48.90,49.76,49.56,48.01,45.10,41.03,37.84,35.16,32.75,30.42,29.41,28.63,27.97,27.42,27.27,27.19,27.16,27.16,27.16,27.02,26.76,26.42,26.05,25.74,25.42,25.08,24.73,24.52,24.36,24.21,24.11,24.14,24.14,24.24,24.35,24.43,24.57,24.67,24.75,24.85,25.00,25.08,25.01,24.77,24.39,24.00,23.78,23.46,23.00,22.46,21.98,21.91,22.13,22.44,22.75,23.06,23.37,23.68,23.99,24.23,24.47,24.76,25.19,26.29
31.34,31.21,31.07,30.94,30.84,30.70,30.58,30.56,30.71,30.92,30.97,30.89,30.71,30.42,30.14,29.93,29.81,29.89,29.97,30.03,30.06,30.00,29.86,29.72,29.56,29.41,29.25,29.30,29.47,29.70,29.93,30.18,30.46,30.72,30.92,30.90,30.75,30.54,30.30,29.99,28.74,27.23,25.84,24.91,24.88,24.83,24.80,24.80,24.78,24.73,24.71,24.74,24.80,24.87,25.02,25.30,25.74,26.13,26.50,26.86,27.08,26.68,26.22,25.78,25.37,25.01,25.08,25.19,25.30,25.38,25.46,25.54,25.56,25.51,25.43,25.35,25.33,25.38,25.53,25.74,25.96,26.23,26.58,26.97,27.32,27.60,27.84,28.07,28.30,28.44,28.49,28.47,28.47,28.43,28.39,28.36,28.30,28.11,27.93,27.77,27.62,27.45,27.24,27.07,26.97,26.95,26.90,26.83,26.75,26.68,26.65,26.56,26.44,26.37,26.29,26.11,25.89,25.68,25.45,25.21,25.04,24.90,24.75,24.59,24.44,24.28,24.13,23.97,23.89,23.87,23.94,24.07,24.00,24.00,24.10,24.28,24.44,24.43,24.40,24.36,24.15,23.95,23.46,22.79,22.17,21.80,21.53,21.27,20.99,20.70,20.34,20.03,19.79,19.63,19.48,19.27,19.07,18.91,18.78,18.66,18.64,18.70,18.70,18.77,18.80,18.82,18.90,18.92,18.97,19.01,19.03,19.09,19.16,19.21,19.24,19.32,19.40,19.48,19.55,19.63,19.71,19.78,19.86,20.37,22.88,25.79,28.90,32.23,35.83,39.04,41.89,44.24,45.91,46.32,45.84,44.15,41.34,37.86,34.48,31.90,30.15,29.10,28.48,27.80,27.12,26.53,26.37,26.34,26.33,26.33,26.33,26.23,25.99,25.67,25.35,25.04,24.68,24.33,24.05,23.94,23.78,23.63,23.59,23.75,23.81,23.81,23.81,23.84,23.94,24.07,24.17,24.27,24.43,24.50,24.50,24.32,23.94,23.55,23.21,22.88,22.49,21.94,21.83,21.97,22.27,22.64,22.94,23.25,23.56,23.87,24.18,24.42,24.69,25.08,25.76,26.62
31.51,31.39,31.25,31.11,31.03,30.89,30.77,30.75,30.91,31.13,31.27,31.28,31.11,30.81,30.54,30.35,30.26,30.30,30.35,30.41,30.46,30.41,30.23,29.96,29.71,29.56,29.41,29.44,29.58,29.80,30.10,30.33,30.61,30.90,31.12,31.12,30.92,30.66,30.40,30.13,29.09,27.79,26.46,25.30,25.08,24.92,24.84,24.84,24.81,24.76,24.74,24.76,24.83,24.94,25.16,25.51,25.97,26.39,26.78,27.17,27.41,26.85,26.38,25.91,25.46,25.05,25.09,25.21,25.34,25.45,25.52,25.55,25.52,25.45,25.37,25.29,25.28,25.35,25.51,25.74,26.02,26.36,26.77,27.16,27.55,27.86,28.12,28.35,28.61,28.75,28.79,28.79,28.79,28.73,28.68,28.63,28.53,28.33,28.16,27.99,27.81,27.66,27.49,27.37,27.33,27.30,27.23,27.15,27.07,27.00,26.99,26.91,26.79,26.68,26.54,26.33,26.10,25.87,25.64,25.43,25.24,25.07,24.91,24.73,24.59,24.45,24.29,24.14,23.99,23.88,23.85,23.88,23.82,23.91,24.08,24.21,24.18,24.02,23.92,23.87,23.76,23.66,23.34,22.90,22.51,22.27,22.02,21.73,21.39,21.08,20.71,20.36,20.08,19.86,19.68,19.48,19.30,19.14,18.99,18.81,18.71,18.70,18.70,18.74,18.78,18.81,18.86,18.89,18.95,19.00,19.01,19.09,19.14,19.18,19.21,19.26,19.33,19.41,19.49,19.57,19.64,19.74,19.84,20.21,22.00,24.77,27.79,30.92,34.10,37.01,39.50,41.46,42.76,42.96,42.09,40.14,37.30,34.06,31.44,29.45,28.20,27.69,27.23,26.68,26.10,25.61,25.51,25.50,25.50,25.50,25.50,25.42,25.22,24.95,24.64,24.30,23.95,23.65,23.44,23.36,23.21,23.05,23.05,23.34,23.47,23.47,23.43,23.41,23.39,23.50,23.60,23.69,23.81,23.92,23.97,23.85,23.49,23.10,22.72,22.34,21.99,21.72,21.85,22.11,22.43,22.79,23.13,23.45,23.75,24.06,24.37,24.64,25.01,25.54,26.25,27.05
31.65,31.55,31.44,31.30,31.22,31.08,30.97,30.94,31.10,31.33,31.56,31.66,31.50,31.19,31.00,30.89,30.82,30.82,30.82,30.86,30.92,30.92,30.69,30.24,29.85,29.69,29.53,29.57,29.68,29.89,30.28,30.52,30.81,31.09,31.31,31.30,31.07,30.76,30.45,30.14,29.30,28.25,27.10,25.94,25.39,25.06,24.91,24.89,24.82,24.80,24.80,24.82,24.89,25.05,25.35,25.77,26.23,26.69,27.10,27.49,27.70,27.01,26.51,26.04,25.57,25.11,25.10,25.21,25.36,25.51,25.58,25.54,25.46,25.38,25.30,25.23,25.25,25.35,25.51,25.75,26.09,26.51,26.96,27.35,27.74,28.08,28.37,28.61,28.91,29.06,29.11,29.11,29.11,29.05,28.97,28.88,28.72,28.57,28.41,28.23,28.01,27.85,27.75,27.71,27.70,27.63,27.55,27.47,27.39,27.32,27.31,27.26,27.15,26.99,26.76,26.53,26.29,26.06,25.83,25.67,25.47,25.26,25.10,24.87,24.75,24.64,24.49,24.33,24.18,24.02,23.87,23.71,23.78,23.85,23.90,23.89,23.81,23.62,23.48,23.43,23.51,23.52,23.38,23.17,23.01,22.78,22.49,22.15,21.77,21.47,21.10,20.75,20.44,20.13,19.90,19.71,19.55,19.40,19.24,19.03,18.84,18.71,18.71,18.70,18.74,18.80,18.80,18.88,18.95,19.00,19.01,19.08,19.10,19.14,19.20,19.20,19.27,19.35,19.42,19.50,19.58,19.72,19.83,20.06,20.96,23.56,26.48,29.40,32.10,34.71,36.83,38.43,39.45,39.59,38.29,36.04,33.14,29.94,28.66,27.55,26.68,26.22,25.75,25.35,24.98,24.67,24.67,24.67,24.67,24.67,24.67,24.59,24.46,24.25,23.93,23.54,23.22,23.00,22.86,22.78,22.64,22.48,22.51,22.89,23.13,23.19,23.15,23.07,22.91,22.95,23.03,23.10,23.18,23.33,23.43,23.36,23.04,22.66,22.27,21.85,21.54,21.69,21.99,22.30,22.61,22.92,23.31,23.63,23.94,24.26,24.56,24.88,25.41,26.09,26.71,27.55
31.84,31.74,31.64,31.48,31.36,31.25,31.16,31.15,31.35,31.54,31.75,31.92,31.95,31.64,31.53,31.46,31.40,31.40,31.35,31.38,31.43,31.43,31.10,30.58,30.11,29.82,29.66,29.65,29.75,29.95,30.34,30.73,31.10,31.41,31.62,31.42,31.09,30.73,30.38,30.07,29.49,28.71,27.74,26.58,26.03,25.60,25.22,24.90,24.87,24.82,24.83,24.87,24.90,25.23,25.64,26.07,26.48,26.95,27.39,27.81,28.03,27.39,26.77,26.15,25.56,25.04,25.08,25.21,25.36,25.50,25.53,25.47,25.39,25.32,25.24,25.16,25.21,25.37,25.58,25.91,26.28,26.68,27.09,27.48,27.91,28.30,28.64,28.92,29.18,29.35,29.43,29.43,29.43,29.37,29.27,29.12,28.92,28.76,28.60,28.44,28.26,28.11,28.05,28.05,28.09,28.01,27.93,27.86,27.78,27.70,27.65,27.58,27.45,27.25,27.01,26.74,26.48,26.25,26.02,25.86,25.66,25.45,25.30,25.12,24.94,24.79,24.68,24.52,24.37,24.21,24.06,23.91,23.83,23.82,23.83,23.83,23.75,23.75,23.83,23.96,24.08,24.05,23.89,23.67,23.46,23.23,22.91,22.53,22.16,21.85,21.56,21.24,20.89,20.58,20.30,20.03,19.81,19.65,19.45,19.26,19.09,18.95,18.84,18.74,18.72,18.75,18.80,18.88,18.92,18.95,19.00,19.03,19.08,19.11,19.13,19.13,19.21,19.28,19.36,19.44,19.52,19.65,19.77,19.90,20.26,21.88,24.23,26.93,29.48,31.79,33.52,34.61,35.07,34.97,33.67,32.01,30.25,28.39,27.14,26.01,25.15,24.68,24.27,23.96,23.79,23.78,23.83,23.84,23.84,23.84,23.84,23.76,23.67,23.48,23.17,22.83,22.56,22.38,22.27,22.15,22.09,21.97,22.02,22.45,22.68,22.81,22.86,22.82,22.71,22.63,22.59,22.58,22.60,22.75,22.86,22.82,22.60,22.21,21.78,21.57,21.61,21.82,22.17,22.49,22.80,23.11,23.45,23.76,24.09,24.45,24.76,25.20,25.82,26.55,27.22,28.01
32.04,31.92,31.81,31.67,31.52,31.43,31.35,31.35,31.58,31.76,31.97,32.18,32.31,32.12,32.07,32.04,31.97,31.97,31.90,31.90,31.94,31.94,31.49,30.95,30.44,30.03,29.83,29.77,29.87,30.12,30.55,31.01,31.44,31.73,31.75,31.40,31.04,30.66,30.29,29.98,29.52,28.90,28.12,27.13,26.60,26.09,25.57,25.07,24.93,24.86,24.86,24.93,25.04,25.48,25.94,26.38,26.77,27.23,27.68,28.11,28.35,27.74,27.03,26.30,25.60,25.01,25.10,25.24,25.38,25.50,25.47,25.41,25.33,25.25,25.18,25.12,25.20,25.39,25.67,26.06,26.46,26.86,27.25,27.64,28.07,28.49,28.88,29.21,29.47,29.64,29.72,29.72,29.72,29.64,29.51,29.35,29.14,28.98,28.81,28.64,28.49,28.36,28.34,28.39,28.44,28.39,28.32,28.24,28.16,28.08,28.01,27.88,27.70,27.47,27.24,26.97,26.71,26.47,26.22,26.05,25.85,25.64,25.49,25.33,25.14,24.98,24.87,24.72,24.56,24.41,24.25,24.10,23.90,23.83,23.86,23.92,23.89,23.98,24.19,24.46,24.71,24.62,24.42,24.16,23.91,23.65,23.30,22.94,22.60,22.29,22.03,21.70,21.34,21.03,20.72,20.41,20.14,19.93,19.68,19.50,19.35,19.19,19.04,18.88,18.79,18.77,18.80,18.85,18.89,18.92,18.97,19.00,19.04,19.07,19.08,19.10,19.15,19.22,19.30,19.38,19.48,19.60,19.71,19.78,19.83,20.62,22.07,24.01,26.16,28.18,29.58,30.39,30.64,30.34,29.31,28.32,27.52,26.73,25.61,24.49,23.61,23.16,22.89,22.74,22.75,22.89,22.94,22.97,22.98,22.98,22.98,22.92,22.87,22.72,22.43,22.12,21.92,21.78,21.67,21.54,21.51,21.44,21.55,22.00,22.23,22.42,22.53,22.54,22.49,22.37,22.25,22.17,22.15,22.21,22.28,22.28,22.15,21.76,21.48,21.48,21.72,21.97,22.33,22.65,22.96,23.27,23.58,23.91,24.25,24.62,24.97,25.51,26.16,26.87,27.55,28.32
32.23,32.08,31.95,31.86,31.71,31.62,31.54,31.54,31.77,32.00,32.23,32.43,32.58,32.63,32.65,32.61,32.55,32.55,32.48,32.45,32.45,32.45,31.85,31.34,30.84,30.34,30.04,29.92,30.04,30.40,30.93,31.40,31.86,32.04,31.68,31.23,30.88,30.53,30.16,29.85,29.34,28.80,28.22,27.57,27.10,26.53,25.95,25.42,24.98,24.90,24.90,24.98,25.34,25.80,26.26,26.70,27.09,27.55,27.96,28.38,28.67,28.06,27.31,26.50,25.70,25.01,25.15,25.30,25.43,25.49,25.42,25.34,25.27,25.19,25.11,25.10,25.20,25.42,25.80,26.19,26.63,27.05,27.44,27.83,28.22,28.65,29.08,29.47,29.77,29.93,29.98,29.98,29.98,29.86,29.71,29.55,29.39,29.24,29.04,28.83,28.68,28.60,28.63,28.70,28.77,28.77,28.70,28.62,28.55,28.47,28.39,28.17,27.90,27.66,27.43,27.20,26.96,26.72,26.41,26.24,26.04,25.83,25.68,25.53,25.37,25.21,25.06,24.91,24.75,24.60,24.44,24.29,24.00,23.89,23.97,24.18,24.25,24.33,24.55,24.94,25.39,25.24,24.96,24.66,24.36,24.05,23.69,23.36,23.11,22.80,22.50,22.15,21.78,21.47,21.17,20.86,20.55,20.25,19.95,19.76,19.60,19.45,19.29,19.14,18.99,18.87,18.80,18.80,18.86,18.90,18.91,18.99,19.00,19.01,19.02,19.10,19.10,19.16,19.23,19.31,19.46,19.56,19.64,19.71,19.71,19.84,20.03,20.62,22.07,23.79,24.97,25.74,26.15,25.70,25.25,25.00,24.95,24.96,24.07,22.99,22.08,21.64,21.62,21.71,21.85,21.98,21.99,22.05,22.08,22.08,22.08,22.08,22.07,21.97,21.73,21.42,21.29,21.17,21.04,20.96,20.88,20.90,21.10,21.55,21.78,22.01,22.17,22.23,22.22,22.15,22.03,21.90,21.83,21.69,21.71,21.75,21.70,21.32,21.39,21.61,21.85,22.16,22.47,22.78,23.09,23.40,23.71,24.07,24.42,24.76,25.21,25.80,26.43,27.05,27.67,28.44
32.41,32.27,32.14,32.06,31.90,31.77,31.72,31.79,32.02,32.21,32.42,32.64,32.84,32.96,33.02,33.01,32.95,32.95,32.88,32.85,32.86,32.91,32.38,31.87,31.38,30.95,30.64,30.52,30.62,30.93,31.38,31.84,32.16,32.14,31.61,31.06,30.66,30.29,29.90,29.50,29.06,28.53,27.96,27.43,26.97,26.46,25.94,25.45,24.99,24.90,24.97,25.18,25.65,26.12,26.58,27.04,27.47,27.88,28.31,28.74,29.01,28.53,27.76,26.87,25.94,25.02,25.15,25.31,25.41,25.43,25.31,25.22,25.14,25.09,25.10,25.06,25.25,25.60,25.99,26.37,26.78,27.17,27.52,27.95,28.39,28.81,29.22,29.61,29.87,30.01,30.08,30.12,30.12,30.03,29.90,29.74,29.59,29.43,29.26,29.08,28.93,28.90,28.95,29.02,29.10,29.14,29.08,29.01,28.93,28.85,28.64,28.37,28.07,27.80,27.57,27.37,27.16,26.92,26.66,26.45,26.26,26.08,25.93,25.77,25.62,25.47,25.32,25.21,24.98,24.77,24.57,24.37,24.11,23.96,24.00,24.27,24.44,24.60,24.94,25.48,26.08,25.97,25.68,25.29,24.80,24.45,24.14,23.85,23.57,23.26,22.95,22.60,22.23,21.92,21.61,21.30,20.99,20.68,20.33,20.06,19.84,19.65,19.49,19.34,19.18,19.05,18.97,18.88,18.85,18.86,18.90,18.94,18.98,19.00,19.01,19.04,19.08,19.12,19.17,19.25,19.41,19.47,19.52,19.59,19.64,19.71,19.76,19.97,20.59,21.31,21.82,22.17,22.35,22.15,21.99,21.91,21.92,21.95,21.59,21.14,20.75,20.57,20.66,20.80,20.94,21.04,21.08,21.15,21.19,21.19,21.19,21.23,21.24,21.17,20.98,20.81,20.71,20.60,20.45,20.33,20.29,20.38,20.65,21.10,21.34,21.57,21.77,21.91,21.91,21.88,21.80,21.69,21.57,21.46,21.39,21.33,21.29,21.31,21.54,21.79,22.04,22.35,22.62,22.91,23.23,23.59,23.90,24.23,24.58,24.96,25.51,26.08,26.71,27.36,27.98,28.66
32.57,32.45,32.33,32.23,32.09,31.94,31.91,32.02,32.25,32.43,32.63,32.85,33.08,33.25,33.36,33.38,33.33,33.33,33.26,33.24,33.28,33.38,32.93,32.43,31.96,31.59,31.31,31.19,31.26,31.53,31.90,32.30,32.39,32.12,31.50,30.90,30.44,30.03,29.61,29.15,28.75,28.24,27.68,27.22,26.75,26.30,25.86,25.43,25.00,24.94,25.09,25.43,25.95,26.43,26.90,27.37,27.83,28.23,28.67,29.08,29.36,29.04,28.22,27.23,26.17,25.09,25.17,25.31,25.41,25.40,25.22,25.12,25.05,25.01,25.07,25.02,25.27,25.68,26.07,26.46,26.84,27.20,27.55,27.99,28.44,28.87,29.28,29.67,29.92,30.05,30.13,30.20,30.22,30.16,30.05,29.92,29.78,29.64,29.49,29.34,29.19,29.21,29.27,29.34,29.42,29.50,29.46,29.39,29.30,29.19,28.87,28.56,28.25,27.95,27.72,27.53,27.33,27.10,26.89,26.70,26.54,26.39,26.25,26.10,25.94,25.79,25.66,25.53,25.25,24.97,24.72,24.46,24.21,24.02,24.03,24.32,24.57,24.86,25.32,25.97,26.68,26.72,26.47,26.02,25.47,25.03,24.67,24.34,24.01,23.71,23.40,23.05,22.68,22.37,22.06,21.74,21.41,21.08,20.70,20.37,20.10,19.88,19.69,19.53,19.37,19.24,19.17,19.01,18.90,18.88,18.94,18.92,18.97,18.99,18.98,19.00,19.06,19.08,19.11,19.19,19.32,19.37,19.41,19.47,19.55,19.62,19.66,19.68,19.76,19.76,19.81,19.86,19.86,19.86,19.87,19.88,19.88,19.88,19.88,19.88,19.88,19.88,20.00,20.13,20.23,20.30,20.36,20.42,20.45,20.45,20.45,20.51,20.52,20.48,20.36,20.30,20.24,20.15,20.03,19.91,19.90,20.01,20.26,20.64,20.88,21.12,21.35,21.55,21.59,21.59,21.55,21.46,21.34,21.24,21.15,21.10,21.14,21.45,21.75,22.02,22.27,22.57,22.82,23.08,23.38,23.73,24.06,24.37,24.73,25.16,25.78,26.35,26.96,27.61,28.23,28.83
32.71,32.61,32.50,32.36,32.27,32.13,32.10,32.21,32.44,32.67,32.85,33.04,33.27,33.49,33.65,33.72,33.72,33.72,33.65,33.65,33.74,33.89,33.49,33.04,32.60,32.24,32.06,31.91,31.97,32.22,32.54,32.81,32.53,31.93,31.32,30.76,30.24,29.75,29.29,28.83,28.43,27.95,27.43,26.96,26.50,26.08,25.71,25.38,25.05,25.04,25.29,25.73,26.21,26.73,27.22,27.69,28.15,28.60,29.01,29.40,29.71,29.59,28.67,27.53,26.36,25.28,25.21,25.31,25.43,25.46,25.17,25.05,25.01,25.00,25.01,25.00,25.21,25.56,25.94,26.33,26.71,27.10,27.47,27.87,28.27,28.73,29.22,29.60,29.90,30.05,30.13,30.21,30.27,30.22,30.14,30.05,29.97,29.88,29.75,29.59,29.45,29.51,29.59,29.66,29.74,29.82,29.82,29.77,29.66,29.45,29.08,28.75,28.44,28.14,27.91,27.68,27.46,27.24,27.07,27.03,26.92,26.79,26.70,26.54,26.39,26.26,26.15,25.87,25.57,25.27,24.95,24.59,24.29,24.08,24.08,24.32,24.62,25.07,25.66,26.36,27.12,27.48,27.33,26.91,26.55,25.97,25.35,24.83,24.46,24.15,23.84,23.49,23.13,22.82,22.51,22.16,21.78,21.40,21.02,20.69,20.42,20.18,19.89,19.72,19.57,19.43,19.36,19.20,19.06,19.00,19.06,19.00,18.99,18.96,18.93,19.00,19.01,19.01,19.04,19.12,19.21,19.28,19.32,19.34,19.42,19.50,19.53,19.55,19.63,19.63,19.68,19.73,19.73,19.73,19.78,19.81,19.81,19.81,19.81,19.81,19.81,19.82,19.84,19.86,19.91,19.97,19.98,19.99,20.00,20.00,20.00,20.01,20.01,20.00,19.98,19.97,19.96,19.94,19.92,19.90,19.90,19.92,19.99,20.13,20.42,20.67,20.90,21.12,21.25,21.27,21.23,21.16,21.14,21.00,21.03,21.20,21.46,21.77,22.03,22.30,22.58,22.82,23.12,23.34,23.54,23.80,24.18,24.50,24.88,25.35,25.97,26.58,27.16,27.74,28.36,28.91
32.89,32.77,32.65,32.54,32.42,32.30,32.29,32.40,32.64,32.87,33.07,33.27,33.46,33.69,33.90,34.04,34.10,34.10,34.07,34.12,34.24,34.40,34.05,33.62,33.24,32.98,32.78,32.62,32.65,32.83,32.99,32.82,32.36,31.73,31.07,30.49,29.94,29.46,29.02,28.56,28.13,27.68,27.24,26.86,26.47,26.11,25.78,25.47,25.20,25.27,25.53,25.91,26.41,26.95,27.47,27.97,28.47,28.93,29.34,29.72,30.03,29.92,29.03,27.92,26.76,25.72,25.36,25.30,25.37,25.37,25.10,25.05,25.07,25.10,25.10,25.14,25.32,25.61,25.96,26.27,26.61,26.97,27.36,27.79,28.18,28.61,29.05,29.44,29.79,29.98,30.09,30.21,30.33,30.35,30.31,30.23,30.16,30.04,29.93,29.82,29.75,29.79,29.86,29.92,29.96,30.04,30.05,29.99,29.84,29.61,29.26,28.92,28.60,28.33,28.10,27.87,27.65,27.49,27.45,27.45,27.35,27.22,27.15,26.99,26.86,26.72,26.51,26.20,25.89,25.54,25.15,24.77,24.45,24.17,24.10,24.38,24.72,25.31,26.01,26.75,27.52,28.12,28.25,28.05,27.74,27.08,26.34,25.64,25.04,24.62,24.29,23.94,23.56,23.22,22.87,22.50,22.11,21.72,21.34,21.01,20.74,20.50,20.23,19.99,19.78,19.61,19.50,19.34,19.22,19.17,19.19,19.16,19.15,19.13,19.10,19.10,19.10,19.10,19.11,19.15,19.19,19.23,19.23,19.21,19.29,19.37,19.40,19.42,19.50,19.50,19.53,19.57,19.60,19.60,19.66,19.70,19.70,19.70,19.70,19.70,19.71,19.75,19.75,19.75,19.79,19.85,19.85,19.85,19.85,19.85,19.85,19.85,19.85,19.87,19.90,19.90,19.90,19.90,19.90,19.90,19.90,19.90,19.93,20.01,20.20,20.37,20.52,20.68,20.88,20.93,20.93,20.91,20.95,20.99,21.16,21.42,21.73,22.04,22.32,22.61,22.90,23.13,23.43,23.65,23.80,23.96,24.31,24.63,25.03,25.54,26.12,26.70,27.26,27.82,28.44,28.98
33.09,32.93,32.81,32.72,32.57,32.47,32.47,32.60,32.83,33.06,33.29,33.50,33.65,33.89,34.12,34.32,34.46,34.48,34.49,34.59,34.74,34.90,34.59,34.19,33.88,33.71,33.49,33.32,33.28,33.32,33.24,32.65,32.09,31.50,30.83,30.19,29.63,29.18,28.80,28.36,27.92,27.51,27.14,26.83,26.51,26.20,25.89,25.59,25.39,25.54,25.77,26.06,26.60,27.14,27.68,28.22,28.76,29.24,29.66,30.06,30.36,30.14,29.31,28.28,27.22,26.24,25.59,25.35,25.32,25.29,25.07,25.09,25.17,25.23,25.23,25.31,25.49,25.75,26.05,26.28,26.56,26.89,27.27,27.71,28.09,28.47,28.85,29.23,29.62,29.87,30.05,30.20,30.37,30.47,30.48,30.41,30.33,30.19,30.09,30.04,30.04,30.04,30.09,30.13,30.15,30.22,30.22,30.13,29.96,29.74,29.44,29.08,28.75,28.52,28.29,28.07,27.89,27.80,27.88,27.89,27.81,27.68,27.59,27.44,27.33,27.14,26.83,26.52,26.19,25.79,25.34,24.94,24.62,24.26,24.14,24.46,24.87,25.57,26.36,27.14,27.92,28.69,29.11,29.15,28.87,28.19,27.37,26.51,25.70,25.15,24.75,24.36,23.97,23.59,23.20,22.81,22.42,22.03,21.65,21.33,21.06,20.82,20.58,20.27,19.99,19.77,19.61,19.46,19.37,19.33,19.34,19.35,19.35,19.34,19.33,19.26,19.26,19.25,19.24,19.23,19.23,19.23,19.20,19.15,19.21,19.27,19.30,19.32,19.40,19.37,19.37,19.41,19.49,19.49,19.54,19.58,19.59,19.59,19.59,19.59,19.61,19.67,19.68,19.69,19.72,19.77,19.78,19.79,19.79,19.79,19.79,19.80,19.80,19.83,19.90,19.90,19.90,19.91,19.92,19.93,19.94,19.95,19.98,20.06,20.12,20.20,20.27,20.36,20.58,20.68,20.73,20.77,20.85,21.09,21.37,21.68,22.00,22.31,22.61,22.91,23.21,23.45,23.74,23.95,24.08,24.18,24.47,24.77,25.18,25.71,26.24,26.77,27.31,27.87,28.47,29.03
33.28,33.12,33.00,32.91,32.76,32.62,32.63,32.79,33.02,33.25,33.48,33.69,33.85,34.08,34.31,34.53,34.73,34.85,34.92,35.03,35.19,35.34,35.04,34.75,34.51,34.36,34.19,33.98,33.74,33.42,32.94,32.34,31.77,31.21,30.63,29.89,29.35,28.97,28.69,28.34,28.00,27.63,27.27,26.96,26.59,26.26,25.95,25.67,25.62,25.80,26.00,26.25,26.79,27.33,27.87,28.41,28.95,29.48,29.99,30.47,30.76,30.25,29.38,28.49,27.64,26.82,26.02,25.60,25.43,25.36,25.19,25.22,25.29,25.36,25.36,25.48,25.71,25.99,26.24,26.47,26.72,26.97,27.25,27.60,27.92,28.25,28.59,28.98,29.36,29.72,29.98,30.14,30.36,30.51,30.57,30.54,30.46,30.31,30.24,30.23,30.23,30.23,30.25,30.28,30.34,30.35,30.30,30.19,30.03,29.86,29.61,29.27,28.95,28.71,28.48,28.30,28.19,28.18,28.26,28.32,28.29,28.18,28.04,27.89,27.74,27.51,27.15,26.84,26.43,25.98,25.52,25.07,24.70,24.36,24.27,24.59,25.10,25.91,26.77,27.59,28.36,29.14,29.65,29.84,29.70,29.07,28.23,27.32,26.46,25.92,25.22,24.68,24.29,23.91,23.52,23.10,22.67,22.29,21.96,21.65,21.38,21.13,20.84,20.48,20.12,19.83,19.68,19.52,19.47,19.48,19.54,19.60,19.56,19.53,19.53,19.51,19.51,19.47,19.41,19.36,19.36,19.36,19.35,19.33,19.28,19.29,19.30,19.32,19.40,19.22,19.21,19.30,19.42,19.42,19.44,19.48,19.52,19.52,19.52,19.52,19.53,19.55,19.61,19.62,19.63,19.65,19.71,19.72,19.72,19.72,19.72,19.78,19.80,19.83,19.90,19.90,19.90,19.93,19.99,20.05,20.11,20.17,20.24,20.31,20.33,20.39,20.44,20.48,20.66,20.74,20.85,20.97,21.11,21.40,21.66,21.96,22.32,22.63,22.89,23.17,23.47,23.77,24.02,24.21,24.36,24.50,24.68,24.96,25.35,25.83,26.31,26.79,27.31,27.85,28.41,29.01
33.47,33.32,33.18,33.07,32.95,32.80,32.81,32.98,33.21,33.41,33.63,33.85,34.04,34.27,34.50,34.76,35.05,35.30,35.40,35.52,35.64,35.67,35.36,35.06,34.82,34.67,34.51,34.27,33.89,33.38,32.76,32.17,31.61,31.06,30.48,29.81,29.34,29.00,28.73,28.42,28.09,27.74,27.39,27.05,26.69,26.37,26.06,25.79,25.85,26.05,26.26,26.51,26.95,27.48,28.04,28.61,29.15,29.69,30.28,30.80,31.07,30.45,29.62,28.83,28.07,27.27,26.45,25.96,25.71,25.59,25.40,25.35,25.40,25.48,25.48,25.65,25.92,26.20,26.43,26.63,26.83,27.06,27.33,27.64,27.95,28.26,28.57,28.89,29.24,29.60,29.91,30.16,30.36,30.55,30.64,30.63,30.55,30.46,30.40,30.39,30.42,30.42,30.42,30.46,30.52,30.45,30.35,30.21,30.07,29.95,29.69,29.38,29.11,28.91,28.71,28.57,28.52,28.56,28.64,28.72,28.72,28.64,28.49,28.33,28.11,27.80,27.42,27.08,26.61,26.13,25.66,25.16,24.74,24.42,24.37,24.73,25.33,26.16,27.05,27.92,28.72,29.50,30.00,30.21,30.16,29.70,28.98,28.11,27.20,26.43,25.52,24.86,24.45,24.06,23.70,23.30,22.90,22.54,22.20,21.86,21.56,21.28,20.94,20.56,20.19,19.90,19.74,19.62,19.61,19.66,19.73,19.78,19.77,19.77,19.76,19.73,19.72,19.65,19.57,19.52,19.52,19.50,19.47,19.43,19.39,19.38,19.38,19.40,19.44,19.21,19.15,19.23,19.41,19.47,19.48,19.51,19.54,19.54,19.54,19.56,19.58,19.59,19.63,19.64,19.66,19.69,19.74,19.80,19.88,19.96,19.99,20.00,19.96,19.94,19.98,19.98,19.98,20.06,20.18,20.26,20.34,20.42,20.48,20.53,20.56,20.60,20.65,20.73,20.85,20.96,21.10,21.24,21.36,21.67,21.95,22.25,22.60,22.91,23.18,23.47,23.78,24.08,24.32,24.48,24.62,24.77,24.96,25.24,25.60,26.03,26.46,26.92,27.41,27.93,28.47,29.02
33.66,33.51,33.35,33.21,33.13,32.99,33.00,33.17,33.40,33.56,33.77,34.00,34.23,34.46,34.69,34.99,35.39,35.78,35.92,36.04,36.09,35.92,35.61,35.25,34.96,34.80,34.64,34.35,33.87,33.25,32.64,32.09,31.54,30.98,30.37,29.84,29.48,29.17,28.86,28.55,28.17,27.83,27.50,27.12,26.81,26.49,26.19,25.94,26.10,26.31,26.55,26.79,27.10,27.61,28.20,28.79,29.33,29.87,30.53,31.09,31.33,30.71,29.95,29.22,28.49,27.66,26.88,26.37,26.07,25.91,25.68,25.51,25.50,25.61,25.62,25.83,26.10,26.38,26.61,26.77,26.92,27.15,27.46,27.77,28.08,28.38,28.67,28.91,29.21,29.52,29.86,30.21,30.37,30.59,30.71,30.70,30.62,30.61,30.57,30.54,30.61,30.61,30.61,30.64,30.68,30.53,30.37,30.22,30.09,30.01,29.72,29.47,29.27,29.12,28.97,28.87,28.87,28.95,29.03,29.11,29.14,29.09,28.94,28.77,28.44,28.05,27.66,27.27,26.75,26.25,25.76,25.22,24.76,24.45,24.45,24.86,25.56,26.38,27.27,28.18,29.03,29.80,30.25,30.42,30.42,30.18,29.62,28.83,27.87,26.79,25.70,24.95,24.51,24.12,23.81,23.45,23.09,22.77,22.39,22.01,21.66,21.33,20.95,20.56,20.22,19.96,19.81,19.74,19.77,19.85,19.92,19.92,19.99,20.03,20.01,19.93,19.92,19.82,19.72,19.71,19.71,19.65,19.57,19.51,19.51,19.51,19.51,19.51,19.51,19.28,19.16,19.21,19.42,19.57,19.61,19.61,19.61,19.61,19.61,19.66,19.71,19.71,19.71,19.71,19.74,19.81,19.81,19.95,20.15,20.34,20.41,20.33,20.20,20.11,20.11,20.11,20.11,20.23,20.43,20.51,20.59,20.67,20.72,20.73,20.80,20.82,20.89,21.04,21.12,21.26,21.42,21.55,21.63,21.92,22.23,22.54,22.85,23.17,23.47,23.78,24.09,24.40,24.64,24.78,24.88,25.04,25.27,25.56,25.91,26.29,26.67,27.13,27.59,28.07,28.60,29.07
33.85,33.70,33.54,33.39,33.26,33.16,33.19,33.35,33.53,33.73,33.96,34.19,34.42,34.60,34.82,35.14,35.60,36.15,36.47,36.56,36.44,36.18,35.87,35.55,35.24,34.99,34.78,34.36,33.81,33.19,32.57,31.98,31.42,30.87,30.31,29.93,29.61,29.30,28.99,28.68,28.30,27.96,27.63,27.24,26.93,26.59,26.31,26.20,26.41,26.63,26.87,27.10,27.36,27.78,28.29,28.85,29.39,29.93,30.63,31.31,31.70,30.98,30.16,29.44,28.79,28.10,27.28,26.75,26.44,26.23,26.05,25.85,25.72,25.69,25.80,26.02,26.23,26.45,26.67,26.83,27.02,27.28,27.59,27.89,28.20,28.51,28.82,29.10,29.36,29.65,29.95,30.22,30.43,30.65,30.80,30.83,30.81,30.76,30.72,30.72,30.74,30.74,30.78,30.77,30.69,30.58,30.44,30.28,30.15,30.07,29.87,29.72,29.61,29.50,29.35,29.26,29.25,29.34,29.47,29.56,29.59,29.54,29.38,29.12,28.73,28.29,27.84,27.35,26.81,26.29,25.76,25.22,24.76,24.52,24.56,24.93,25.73,26.57,27.46,28.37,29.22,29.90,30.37,30.62,30.67,30.33,29.85,29.09,28.00,26.92,25.79,24.99,24.52,24.19,23.82,23.48,23.14,22.78,22.44,22.07,21.70,21.34,21.01,20.63,20.32,20.09,19.94,19.92,19.96,20.04,20.11,20.17,20.29,20.35,20.32,20.19,20.13,20.01,19.89,19.84,19.78,19.75,19.70,19.64,19.64,19.64,19.64,19.62,19.57,19.39,19.32,19.36,19.48,19.58,19.69,19.74,19.74,19.74,19.74,19.75,19.77,19.77,19.77,19.77,19.81,19.88,19.93,20.12,20.34,20.52,20.54,20.46,20.33,20.22,20.17,20.17,20.21,20.36,20.57,20.70,20.78,20.86,20.93,20.98,21.00,21.05,21.15,21.30,21.43,21.58,21.74,21.87,21.95,22.15,22.42,22.75,23.11,23.48,23.75,24.04,24.34,24.65,24.89,25.09,25.27,25.43,25.66,25.95,26.29,26.67,27.00,27.45,27.88,28.31,28.80,29.26
34.04,33.89,33.74,33.58,33.43,33.32,33.35,33.51,33.69,33.89,34.12,34.34,34.54,34.72,35.00,35.42,35.97,36.59,36.96,36.98,36.75,36.47,36.13,35.82,35.50,35.17,34.89,34.35,33.73,33.09,32.48,31.86,31.29,30.77,30.32,30.04,29.73,29.42,29.11,28.78,28.42,28.07,27.73,27.37,27.04,26.68,26.47,26.49,26.72,26.95,27.19,27.42,27.65,27.93,28.37,28.91,29.42,29.99,30.71,31.49,32.04,31.24,30.40,29.67,29.03,28.41,27.62,27.10,26.78,26.55,26.37,26.15,25.94,25.83,25.96,26.16,26.33,26.51,26.74,26.89,27.12,27.40,27.71,28.02,28.31,28.61,28.92,29.26,29.52,29.79,30.05,30.25,30.49,30.72,30.88,30.97,30.97,30.92,30.90,30.90,30.90,30.90,30.92,30.88,30.76,30.68,30.54,30.38,30.25,30.17,30.02,29.93,29.88,29.82,29.69,29.59,29.57,29.66,29.79,29.85,29.87,29.83,29.73,29.37,28.91,28.42,27.93,27.39,26.84,26.30,25.76,25.22,24.78,24.58,24.66,25.03,25.85,26.70,27.57,28.46,29.31,29.98,30.48,30.81,30.93,30.52,30.03,29.25,28.12,27.02,25.89,25.06,24.55,24.22,23.86,23.51,23.17,22.81,22.48,22.12,21.75,21.38,21.10,20.75,20.46,20.25,20.10,20.13,20.19,20.27,20.34,20.42,20.54,20.57,20.50,20.37,20.27,20.15,20.04,19.96,19.88,19.85,19.81,19.77,19.77,19.77,19.77,19.74,19.67,19.54,19.52,19.55,19.61,19.69,19.78,19.85,19.87,19.87,19.87,19.87,19.86,19.83,19.83,19.83,19.87,19.96,20.08,20.33,20.57,20.73,20.70,20.57,20.44,20.34,20.27,20.27,20.33,20.49,20.71,20.89,21.00,21.08,21.16,21.23,21.23,21.31,21.44,21.59,21.72,21.87,22.02,22.16,22.27,22.42,22.66,22.98,23.34,23.70,24.00,24.32,24.67,24.98,25.21,25.45,25.65,25.81,26.04,26.35,26.70,27.05,27.36,27.78,28.19,28.59,29.02,29.49
34.22,34.08,33.93,33.77,33.62,33.47,33.48,33.65,33.88,34.04,34.24,34.45,34.61,34.84,35.24,35.81,36.48,37.10,37.39,37.31,37.02,36.79,36.40,36.07,35.73,35.35,34.97,34.33,33.64,32.97,32.35,31.73,31.16,30.70,30.39,30.15,29.86,29.55,29.23,28.85,28.53,28.17,27.81,27.50,27.12,26.78,26.65,26.81,27.04,27.27,27.51,27.74,27.97,28.07,28.44,28.95,29.43,30.04,30.77,31.65,32.35,31.50,30.66,29.89,29.22,28.60,27.91,27.42,27.10,26.86,26.63,26.40,26.17,26.01,26.09,26.24,26.39,26.57,26.80,26.96,27.22,27.53,27.84,28.15,28.39,28.67,29.00,29.38,29.69,29.95,30.15,30.32,30.55,30.78,30.97,31.09,31.09,31.09,31.09,31.09,31.09,31.09,31.04,30.96,30.88,30.81,30.66,30.51,30.37,30.30,30.15,30.09,30.09,30.08,30.00,29.87,29.83,29.90,29.98,29.99,29.99,29.99,29.98,29.52,29.00,28.47,27.93,27.39,26.84,26.30,25.76,25.22,24.83,24.65,24.74,25.15,25.93,26.76,27.61,28.46,29.31,30.02,30.58,30.96,31.18,30.72,30.15,29.34,28.24,27.09,25.99,25.16,24.60,24.22,23.90,23.55,23.19,22.87,22.49,22.16,21.81,21.45,21.22,20.92,20.65,20.45,20.29,20.37,20.44,20.52,20.60,20.68,20.75,20.71,20.58,20.50,20.35,20.25,20.17,20.09,20.01,19.94,19.90,19.89,19.89,19.89,19.89,19.87,19.79,19.72,19.74,19.79,19.80,19.88,19.90,19.94,19.99,19.99,19.99,19.99,19.97,19.90,19.90,19.90,19.93,20.04,20.26,20.56,20.82,20.97,20.89,20.67,20.54,20.46,20.39,20.39,20.46,20.61,20.85,21.08,21.23,21.34,21.42,21.49,21.49,21.60,21.76,21.90,21.98,22.12,22.28,22.43,22.58,22.74,22.95,23.21,23.52,23.83,24.20,24.62,25.05,25.36,25.60,25.83,26.04,26.19,26.42,26.77,27.12,27.43,27.74,28.12,28.50,28.89,29.28,29.74
34.36,34.21,34.06,33.90,33.75,33.63,33.67,33.83,34.01,34.17,34.34,34.52,34.68,35.11,35.67,36.31,37.00,37.67,37.79,37.63,37.33,37.05,36.66,36.33,35.97,35.53,35.05,34.32,33.58,32.89,32.22,31.65,31.34,31.06,30.57,30.24,29.96,29.68,29.36,28.97,28.61,28.27,27.92,27.57,27.18,26.91,26.86,27.07,27.35,27.59,27.83,28.06,28.29,28.42,28.66,29.03,29.55,30.17,30.97,31.90,32.63,31.92,31.05,30.22,29.46,28.80,28.10,27.62,27.29,27.06,26.83,26.64,26.43,26.23,26.17,26.30,26.46,26.64,26.87,27.07,27.35,27.64,27.91,28.22,28.50,28.80,29.11,29.45,29.81,30.05,30.24,30.44,30.62,30.81,30.98,31.11,31.16,31.20,31.22,31.22,31.22,31.22,31.17,31.09,31.01,30.93,30.79,30.66,30.55,30.43,30.32,30.25,30.22,30.22,30.14,30.04,30.00,30.03,30.06,30.06,30.06,30.05,29.99,29.53,28.97,28.41,27.87,27.32,26.82,26.30,25.76,25.22,24.88,24.71,24.79,25.16,25.98,26.82,27.67,28.52,29.37,30.08,30.70,31.14,31.32,30.76,30.16,29.34,28.26,27.14,26.06,25.20,24.61,24.22,23.91,23.58,23.23,22.88,22.54,22.26,21.96,21.64,21.41,21.11,20.85,20.65,20.55,20.62,20.70,20.78,20.85,20.93,20.93,20.84,20.69,20.57,20.46,20.34,20.23,20.16,20.13,20.06,20.04,20.08,20.08,20.08,20.11,20.12,20.04,19.92,19.94,20.00,20.05,20.13,20.14,20.16,20.18,20.18,20.18,20.21,20.25,20.26,20.22,20.21,20.24,20.34,20.52,20.77,21.05,21.20,21.02,20.84,20.70,20.57,20.46,20.46,20.56,20.74,20.97,21.21,21.41,21.53,21.61,21.69,21.73,21.86,22.02,22.16,22.29,22.44,22.59,22.75,22.90,23.06,23.20,23.41,23.71,24.02,24.39,24.80,25.20,25.56,25.88,26.15,26.37,26.58,26.81,27.15,27.51,27.82,28.12,28.50,28.86,29.21,29.60,31.03
34.50,34.34,34.18,34.01,33.87,33.82,33.88,34.03,34.17,34.34,34.50,34.74,35.13,35.65,36.31,36.99,37.65,38.21,38.16,37.92,37.61,37.30,36.90,36.52,36.10,35.62,35.07,34.28,33.48,32.76,32.14,31.81,31.77,31.64,31.03,30.59,30.21,29.85,29.46,29.08,28.71,28.36,28.02,27.63,27.26,27.07,27.10,27.36,27.64,27.90,28.15,28.40,28.61,28.77,28.92,29.19,29.68,30.37,31.23,32.17,32.90,32.26,31.37,30.47,29.62,28.89,28.29,27.84,27.51,27.28,27.05,26.86,26.66,26.44,26.29,26.38,26.52,26.70,26.93,27.16,27.45,27.74,28.00,28.31,28.61,28.92,29.23,29.54,29.89,30.12,30.31,30.51,30.67,30.84,30.99,31.12,31.22,31.31,31.35,31.35,31.35,31.33,31.28,31.22,31.14,31.06,30.92,30.81,30.71,30.56,30.48,30.40,30.34,30.32,30.26,30.19,30.14,30.13,30.13,30.13,30.11,30.08,29.99,29.53,28.97,28.38,27.82,27.26,26.77,26.26,25.74,25.22,24.94,24.80,24.89,25.29,26.16,27.01,27.85,28.68,29.51,30.22,30.88,31.36,31.44,30.80,30.17,29.34,28.26,27.18,26.10,25.22,24.61,24.24,23.93,23.62,23.31,22.98,22.69,22.42,22.13,21.83,21.60,21.30,21.04,20.86,20.80,20.86,20.93,21.01,21.08,21.16,21.08,20.94,20.79,20.66,20.56,20.44,20.32,20.25,20.23,20.20,20.21,20.28,20.28,20.29,20.33,20.35,20.28,20.14,20.15,20.23,20.31,20.36,20.38,20.38,20.38,20.40,20.40,20.45,20.53,20.60,20.56,20.55,20.57,20.63,20.78,21.00,21.27,21.41,21.18,21.00,20.84,20.69,20.55,20.55,20.68,20.87,21.10,21.33,21.57,21.72,21.83,21.90,22.00,22.14,22.30,22.45,22.61,22.76,22.91,23.07,23.22,23.38,23.49,23.66,23.93,24.24,24.60,24.97,25.35,25.72,26.11,26.41,26.67,26.94,27.19,27.52,27.86,28.17,28.48,28.84,29.18,29.57,30.19,32.39
34.62,34.47,34.29,34.08,33.99,34.03,34.14,34.28,34.36,34.58,34.76,35.20,36.15,36.62,37.26,37.93,38.48,38.70,38.47,38.18,37.87,37.56,37.10,36.61,36.08,35.55,35.01,34.22,33.34,32.55,32.13,32.37,32.60,32.53,31.92,31.32,30.69,30.08,29.53,29.14,28.81,28.46,28.08,27.69,27.38,27.27,27.38,27.67,27.91,28.20,28.50,28.77,28.93,29.09,29.24,29.46,29.82,30.71,31.58,32.47,33.15,32.46,31.57,30.61,29.66,28.83,28.47,28.09,27.77,27.53,27.30,27.08,26.85,26.63,26.48,26.48,26.59,26.77,27.00,27.23,27.52,27.82,28.12,28.43,28.74,29.05,29.36,29.67,29.92,30.15,30.35,30.51,30.67,30.88,31.03,31.13,31.28,31.42,31.48,31.48,31.48,31.41,31.38,31.34,31.27,31.19,31.05,30.94,30.84,30.68,30.60,30.53,30.45,30.39,30.38,30.32,30.24,30.19,30.19,30.19,30.15,30.08,29.99,29.53,29.00,28.43,27.82,27.21,26.66,26.16,25.69,25.22,25.04,24.93,25.07,25.61,26.53,27.40,28.21,28.99,29.78,30.48,31.17,31.63,31.57,30.88,30.20,29.34,28.26,27.18,26.10,25.22,24.62,24.30,24.00,23.69,23.42,23.24,23.00,22.66,22.32,22.02,21.79,21.49,21.23,21.06,21.06,21.06,21.12,21.20,21.28,21.35,21.19,21.01,20.87,20.78,20.64,20.53,20.45,20.37,20.31,20.34,20.40,20.47,20.47,20.53,20.56,20.54,20.47,20.38,20.41,20.49,20.56,20.57,20.57,20.57,20.58,20.65,20.66,20.71,20.78,20.86,20.92,20.93,20.91,20.88,21.04,21.26,21.50,21.60,21.37,21.15,20.97,20.82,20.68,20.68,20.80,21.00,21.23,21.46,21.69,21.91,22.08,22.16,22.31,22.46,22.62,22.77,22.92,23.08,23.23,23.39,23.54,23.70,23.85,24.00,24.19,24.50,24.81,25.16,25.54,25.85,26.23,26.57,26.89,27.26,27.56,27.87,28.18,28.49,28.80,29.12,29.43,29.99,31.20,33.80
34.70,34.51,34.32,34.15,34.11,34.20,34.34,34.49,34.60,34.91,35.62,36.62,37.70,38.17,38.49,38.82,39.12,39.07,38.79,38.46,38.05,37.50,36.95,36.44,35.94,35.43,34.85,34.08,33.23,32.57,32.67,33.04,33.33,33.30,32.76,32.14,31.19,30.27,29.59,29.20,28.88,28.53,28.16,27.81,27.46,27.44,27.63,27.94,28.21,28.48,28.77,29.06,29.30,29.46,29.64,29.96,30.52,31.41,32.27,32.99,33.32,32.46,31.51,30.52,29.63,29.02,28.71,28.37,28.04,27.74,27.50,27.27,27.04,26.83,26.72,26.64,26.68,26.83,27.06,27.33,27.63,27.94,28.25,28.51,28.82,29.10,29.38,29.69,29.93,30.13,30.31,30.46,30.66,30.85,31.03,31.18,31.34,31.49,31.58,31.61,31.60,31.53,31.48,31.42,31.34,31.26,31.16,31.06,30.97,30.81,30.73,30.65,30.58,30.50,30.46,30.39,30.33,30.30,30.26,30.22,30.15,30.08,29.99,29.53,29.01,28.43,27.82,27.24,26.66,26.10,25.64,25.42,25.50,25.61,25.85,26.30,27.19,28.01,28.80,29.56,30.25,30.95,31.64,31.97,31.48,30.75,30.01,29.18,28.21,27.13,26.08,25.25,24.69,24.42,24.19,23.94,23.71,23.55,23.32,22.93,22.54,22.21,21.94,21.67,21.45,21.31,21.31,21.31,21.37,21.44,21.51,21.46,21.29,21.12,20.98,20.86,20.71,20.60,20.54,20.50,20.47,20.52,20.60,20.66,20.66,20.73,20.76,20.75,20.71,20.63,20.67,20.73,20.76,20.80,20.81,20.81,20.83,20.91,20.95,20.99,21.04,21.12,21.19,21.24,21.25,21.23,21.30,21.51,21.72,21.79,21.56,21.33,21.12,20.94,20.80,20.76,20.91,21.13,21.36,21.59,21.82,22.05,22.26,22.42,22.62,22.78,22.94,23.09,23.24,23.40,23.55,23.71,23.86,24.02,24.17,24.31,24.44,24.75,25.06,25.41,25.78,26.09,26.47,26.83,27.18,27.52,27.83,28.14,28.45,28.76,29.07,29.38,29.83,30.65,32.21,34.77
34.75,34.55,34.37,34.24,34.25,34.37,34.52,34.68,34.87,35.41,36.69,38.15,39.14,39.54,39.58,39.59,39.64,39.40,39.07,38.67,38.13,37.35,36.72,36.20,35.73,35.25,34.64,33.91,33.18,32.76,33.30,33.73,34.03,34.04,33.60,32.89,31.62,30.43,29.64,29.28,28.95,28.59,28.23,27.92,27.57,27.63,27.89,28.20,28.51,28.77,29.04,29.34,29.69,30.09,30.44,30.89,31.58,32.32,33.09,33.56,33.48,32.49,31.49,30.50,29.66,29.28,28.96,28.66,28.32,27.94,27.70,27.46,27.24,27.05,26.96,26.82,26.79,26.90,27.14,27.44,27.74,28.04,28.33,28.57,28.86,29.13,29.38,29.69,29.91,30.09,30.25,30.42,30.64,30.82,31.02,31.23,31.39,31.55,31.67,31.73,31.71,31.64,31.57,31.50,31.42,31.35,31.27,31.19,31.10,30.96,30.86,30.78,30.70,30.61,30.53,30.46,30.41,30.38,30.29,30.21,30.14,30.05,29.96,29.48,28.96,28.38,27.78,27.23,26.63,26.07,25.70,25.78,26.12,26.46,26.78,27.11,27.92,28.70,29.46,30.19,30.82,31.49,32.08,32.20,31.32,30.55,29.78,28.97,28.10,27.06,26.09,25.34,24.84,24.60,24.44,24.23,24.03,23.87,23.62,23.22,22.79,22.41,22.09,21.84,21.67,21.57,21.57,21.57,21.62,21.69,21.71,21.56,21.41,21.24,21.08,20.93,20.78,20.68,20.63,20.63,20.65,20.71,20.79,20.85,20.87,20.92,20.96,20.96,20.95,20.89,20.92,20.97,20.97,21.04,21.06,21.07,21.09,21.16,21.24,21.28,21.31,21.39,21.45,21.53,21.57,21.58,21.58,21.76,21.93,21.97,21.75,21.52,21.29,21.08,20.93,20.86,21.04,21.27,21.50,21.73,21.97,22.20,22.43,22.66,22.88,23.06,23.23,23.39,23.55,23.70,23.86,24.01,24.16,24.33,24.49,24.61,24.71,25.01,25.32,25.66,26.03,26.34,26.72,27.10,27.45,27.76,28.07,28.37,28.68,29.00,29.31,29.66,30.34,31.50,33.28,35.63
34.75,34.62,34.50,34.37,34.43,34.52,34.64,34.84,35.18,36.33,38.00,39.44,39.96,40.11,40.09,40.03,39.95,39.66,39.24,38.65,37.93,37.16,36.48,35.91,35.41,34.93,34.38,33.70,33.27,33.27,33.81,34.38,34.74,34.79,34.48,33.42,31.88,30.51,29.66,29.40,29.04,28.66,28.29,27.98,27.78,27.88,28.15,28.45,28.76,29.06,29.33,29.63,30.13,31.40,32.32,32.90,33.29,33.58,34.06,34.14,33.61,32.67,31.73,30.75,29.92,29.53,29.22,28.91,28.57,28.19,27.90,27.66,27.46,27.29,27.15,27.06,26.95,26.98,27.27,27.52,27.76,28.04,28.33,28.57,28.86,29.13,29.38,29.69,29.86,30.02,30.20,30.42,30.58,30.79,31.02,31.23,31.39,31.60,31.77,31.84,31.78,31.70,31.67,31.63,31.55,31.47,31.40,31.32,31.24,31.15,31.01,30.91,30.81,30.67,30.60,30.52,30.45,30.37,30.23,30.15,30.07,29.98,29.83,29.30,28.77,28.19,27.58,27.04,26.44,26.09,26.10,26.47,26.96,27.42,27.78,28.06,28.72,29.47,30.18,30.84,31.52,32.10,32.33,32.04,31.07,30.29,29.52,28.72,27.86,26.97,26.19,25.61,25.21,24.92,24.76,24.55,24.35,24.18,23.89,23.51,23.09,22.65,22.28,22.04,21.89,21.82,21.82,21.82,21.88,21.90,21.84,21.69,21.53,21.35,21.14,20.99,20.89,20.81,20.76,20.77,20.83,20.90,20.98,21.05,21.12,21.14,21.18,21.20,21.14,21.13,21.18,21.22,21.22,21.24,21.29,21.32,21.34,21.42,21.50,21.56,21.63,21.70,21.72,21.78,21.85,21.90,21.90,22.00,22.10,22.11,21.94,21.71,21.48,21.25,21.06,21.04,21.23,21.46,21.69,21.93,22.16,22.39,22.62,22.85,23.02,23.22,23.44,23.65,23.80,23.96,24.11,24.27,24.42,24.64,24.81,24.93,25.03,25.28,25.57,25.92,26.29,26.60,26.98,27.33,27.65,27.95,28.26,28.53,28.83,29.19,29.50,30.02,31.13,32.72,34.49,36.46
34.43,34.73,34.63,34.49,34.54,34.64,34.75,35.06,35.96,37.35,38.87,39.99,40.30,40.44,40.42,40.31,40.14,39.83,39.23,38.52,37.75,37.02,36.29,35.66,35.13,34.67,34.16,33.72,33.61,33.86,34.37,34.85,35.13,35.14,34.83,33.57,31.92,30.51,29.66,29.39,29.05,28.70,28.36,28.05,27.99,28.14,28.39,28.67,28.97,29.28,29.61,30.14,31.37,32.96,33.85,34.22,34.38,34.43,34.64,34.51,33.88,32.99,32.07,31.16,30.34,29.75,29.43,29.12,28.80,28.45,28.14,27.87,27.66,27.51,27.39,27.28,27.14,27.10,27.31,27.54,27.77,28.04,28.33,28.57,28.86,29.13,29.37,29.65,29.81,29.96,30.14,30.37,30.56,30.76,30.97,31.19,31.38,31.61,31.82,31.93,31.89,31.81,31.76,31.71,31.63,31.56,31.48,31.38,31.26,31.12,30.99,30.90,30.80,30.65,30.57,30.47,30.37,30.29,30.17,30.09,29.97,29.78,29.52,29.05,28.53,27.97,27.39,26.85,26.39,26.30,26.57,27.04,27.54,28.04,28.49,28.88,29.50,30.18,30.86,31.52,32.18,32.61,32.47,31.82,30.86,30.05,29.27,28.48,27.70,27.16,26.69,26.31,25.99,25.68,25.36,25.00,24.69,24.46,24.15,23.78,23.36,22.91,22.52,22.24,22.11,22.07,22.03,22.03,22.09,22.09,21.97,21.78,21.62,21.44,21.25,21.10,20.98,20.92,20.90,20.94,21.02,21.09,21.17,21.25,21.32,21.33,21.38,21.42,21.38,21.38,21.41,21.43,21.44,21.47,21.54,21.60,21.63,21.68,21.75,21.83,21.91,21.98,22.01,22.06,22.11,22.18,22.22,22.29,22.33,22.28,22.09,21.86,21.63,21.40,21.19,21.15,21.36,21.61,21.84,22.07,22.30,22.54,22.77,23.00,23.19,23.41,23.62,23.82,24.01,24.20,24.37,24.53,24.72,24.92,25.11,25.25,25.34,25.54,25.83,26.18,26.55,26.85,27.23,27.57,27.87,28.15,28.45,28.73,29.02,29.34,29.69,30.74,32.17,33.84,35.62,37.47
33.78,34.72,34.75,34.62,34.62,34.74,34.88,35.34,36.87,38.33,39.48,40.19,40.44,40.68,40.67,40.51,40.25,39.94,39.16,38.35,37.60,36.89,36.11,35.45,34.89,34.44,34.00,33.88,34.06,34.46,34.92,35.23,35.38,35.30,34.94,33.55,31.86,30.47,29.65,29.34,29.04,28.73,28.42,28.12,28.20,28.39,28.62,28.87,29.17,29.48,29.93,30.85,32.92,34.46,35.06,35.11,35.11,35.04,35.01,34.78,34.23,33.39,32.44,31.57,30.75,29.92,29.60,29.30,29.00,28.69,28.39,28.08,27.85,27.71,27.63,27.48,27.33,27.25,27.32,27.55,27.78,28.04,28.33,28.57,28.86,29.13,29.36,29.59,29.74,29.90,30.09,30.32,30.55,30.73,30.92,31.16,31.39,31.63,31.86,32.02,32.02,31.94,31.86,31.78,31.70,31.61,31.52,31.39,31.22,30.99,30.91,30.83,30.72,30.58,30.50,30.37,30.25,30.18,30.10,30.01,29.82,29.53,29.14,28.75,28.26,27.73,27.19,26.67,26.44,26.61,27.07,27.54,28.01,28.52,29.06,29.62,30.24,30.86,31.52,32.20,32.82,33.01,32.51,31.59,30.66,29.82,29.04,28.31,27.69,27.55,27.41,27.21,26.95,26.63,26.08,25.54,25.08,24.75,24.40,24.03,23.60,23.15,22.76,22.45,22.33,22.31,22.23,22.23,22.28,22.24,22.08,21.86,21.69,21.53,21.37,21.22,21.07,21.02,21.05,21.13,21.21,21.28,21.36,21.44,21.52,21.53,21.58,21.63,21.63,21.63,21.63,21.64,21.65,21.72,21.80,21.87,21.94,21.94,22.02,22.09,22.16,22.24,22.32,22.34,22.38,22.45,22.52,22.60,22.58,22.45,22.22,21.99,21.76,21.53,21.32,21.23,21.46,21.73,21.97,22.20,22.43,22.66,22.90,23.13,23.36,23.59,23.79,23.96,24.19,24.42,24.61,24.79,25.03,25.19,25.39,25.57,25.67,25.81,26.09,26.43,26.80,27.11,27.48,27.82,28.10,28.34,28.65,28.96,29.23,29.50,29.95,31.62,33.34,34.97,36.73,38.54
31.88,33.80,34.83,34.74,34.74,34.83,35.18,35.95,37.32,38.73,39.70,40.29,40.63,40.92,40.85,40.61,40.31,39.94,39.20,38.39,37.57,36.76,35.99,35.28,34.72,34.33,34.15,34.24,34.51,34.90,35.31,35.57,35.57,35.37,35.00,33.61,31.89,30.47,29.65,29.34,29.08,28.79,28.50,28.25,28.38,28.58,28.83,29.12,29.37,29.67,30.60,32.24,34.27,34.89,35.12,35.17,35.17,35.15,35.10,34.98,34.69,33.95,32.76,31.62,30.65,29.91,29.65,29.40,29.12,28.82,28.57,28.27,28.04,27.90,27.82,27.68,27.52,27.42,27.45,27.63,27.84,28.09,28.33,28.57,28.86,29.13,29.35,29.52,29.68,29.87,30.09,30.32,30.55,30.77,30.99,31.22,31.45,31.73,31.99,32.14,32.14,32.07,31.99,31.89,31.75,31.56,31.41,31.24,31.04,30.86,30.78,30.70,30.60,30.45,30.37,30.28,30.19,30.11,30.03,29.86,29.54,29.14,28.76,28.37,27.91,27.43,26.95,26.52,26.68,27.03,27.47,27.99,28.51,29.00,29.53,30.13,30.80,31.48,32.14,32.78,33.46,33.03,32.29,31.40,30.47,29.68,28.98,28.56,28.47,28.49,28.41,28.20,27.88,27.46,26.82,26.24,25.72,25.24,24.65,24.22,23.80,23.34,22.89,22.67,22.59,22.57,22.49,22.49,22.43,22.31,22.15,21.98,21.82,21.63,21.44,21.28,21.18,21.18,21.24,21.32,21.40,21.48,21.55,21.63,21.71,21.77,21.80,21.82,21.82,21.87,21.89,21.91,21.96,21.99,22.05,22.13,22.20,22.26,22.33,22.38,22.42,22.49,22.57,22.63,22.67,22.70,22.78,22.86,22.78,22.58,22.35,22.12,21.88,21.67,21.50,21.31,21.52,21.82,22.10,22.33,22.56,22.79,23.02,23.26,23.49,23.72,23.94,24.15,24.32,24.55,24.77,25.00,25.29,25.44,25.65,25.86,26.04,26.14,26.37,26.69,27.06,27.37,27.69,28.01,28.29,28.53,28.84,29.15,29.42,29.76,30.71,32.58,34.56,36.40,38.01,39.53
