268.96,270.09,271.20,272.23,273.14,274.38,275.66,276.88,278.05,278.27,278.27,278.06,277.60,277.23,277.08,277.09,277.25,277.81,278.82,280.08,281.47,282.91,283.46,284.16,284.93,285.72,286.65,287.77,288.88,289.88,290.64,290.76,290.26,289.71,289.70,289.70,289.71,289.53,289.08,288.38,287.62,286.75,285.82,284.89,283.96,283.04,282.11,281.17,280.08,279.43,278.96,278.56,278.17,277.64,276.71,275.58,274.51,273.65,272.68,271.38,269.84,268.79,267.77,266.48,264.93,263.22,261.51,259.54,257.27,254.70,251.93,249.10,246.21,243.32,240.51,235.35,229.78,224.05,218.29,212.71,207.21,202.05,197.39,193.39,188.80,183.64,177.47,169.53,163.09,157.73,152.70,147.28,140.88,137.51,134.52,131.46,129.72,128.14,126.54,124.48,121.52,119.81,119.20,119.57,121.01,124.33,126.13,126.47,125.57,123.88,128.90,134.40,140.12,146.17,154.15,160.57,165.60,169.51,172.85,176.02,178.82,180.77,181.31,180.50,175.80,169.47,162.97,156.64,151.76,146.66,141.88,139.22,139.34,141.48,145.23,150.21,157.05,161.55,164.57,166.51,167.60,168.61,169.41,169.84,169.76,169.60,168.95,168.10,167.21,165.99,164.62,163.19,161.69,160.07,158.15,156.81,155.67,154.37,153.34,151.91,150.28,148.60,147.05,145.43,143.76,142.06,140.35,137.67,134.91,132.00,128.77,124.41,120.03,115.60,111.04,106.18,101.30,98.07,95.57,92.64,87.69,84.29,81.18,77.74,73.57,69.36,64.92,61.02,58.81,57.32,55.86,54.36,52.82,51.44,47.91,43.63,39.93,39.02,38.30,37.65,37.00,36.31,35.62,35.21,34.75,34.15,33.60,32.99,32.37,31.76,31.14,30.45,29.91,29.44,28.96,28.42,27.88,27.34,26.82,26.35,25.81,25.22,24.58,23.88,23.19,22.55,21.89,21.20,20.51,20.07,19.81,19.66,19.51,19.35,19.20,19.07,18.98,18.83,18.61,18.42,18.25,18.02,17.85,17.65,17.45,17.29,17.06,16.88,16.69,16.48,16.32,16.17,16.01,15.85,15.70,15.47
264.17,265.59,267.04,268.40,269.42,270.53,271.64,272.76,273.97,274.41,274.55,274.45,274.12,273.69,273.35,273.18,273.26,273.80,274.77,276.01,277.41,278.83,279.70,280.54,281.38,282.24,283.12,284.12,285.12,286.08,286.95,287.21,287.16,286.98,286.85,286.85,286.74,286.45,285.92,285.18,284.41,283.58,282.70,281.82,281.12,280.46,279.81,279.13,278.19,277.42,276.85,276.43,276.04,275.34,274.31,273.11,271.96,271.15,270.30,269.26,268.05,267.00,265.94,265.13,264.34,263.10,261.82,260.09,257.87,255.21,252.43,249.59,246.76,243.97,241.19,236.54,231.28,225.88,220.71,215.01,209.22,204.23,200.30,196.46,191.87,186.81,181.09,174.25,167.39,161.12,155.51,150.42,144.39,139.70,135.81,132.56,129.99,127.51,125.10,122.70,120.26,118.14,117.06,117.00,117.98,120.28,121.75,121.89,121.23,120.96,126.63,132.45,138.24,144.16,151.14,158.29,163.68,167.10,169.95,172.96,175.60,177.40,177.86,176.57,172.64,167.52,162.04,155.75,149.83,143.74,138.38,135.81,136.11,138.14,141.82,146.90,151.95,156.58,160.31,162.91,164.17,165.33,166.15,166.54,166.46,166.31,165.79,165.05,164.13,162.81,161.50,160.21,158.71,156.53,154.50,153.30,152.55,151.84,151.07,149.95,148.61,147.12,145.53,143.95,142.33,140.58,138.60,136.13,133.60,130.56,126.69,121.91,117.10,112.31,107.49,102.48,99.10,96.50,94.18,91.55,86.21,81.71,77.59,73.48,68.72,64.49,61.37,59.20,57.58,56.00,54.44,52.85,51.15,48.88,45.33,41.85,39.22,38.35,37.56,36.88,36.23,35.54,34.84,34.30,33.84,33.38,32.84,32.32,31.74,31.12,30.50,29.95,29.46,28.99,28.52,28.03,27.50,26.96,26.42,25.91,25.42,24.88,24.28,23.63,22.93,22.29,21.64,20.95,20.25,19.94,19.75,19.60,19.44,19.29,19.13,19.01,18.93,18.82,18.61,18.42,18.25,18.02,17.86,17.65,17.45,17.29,17.06,16.88,16.70,16.48,16.32,16.17,16.01,15.86,15.70,15.52
260.07,261.63,263.23,264.72,265.78,266.78,267.77,268.80,269.96,270.48,270.66,270.57,270.30,269.77,269.23,268.89,268.87,269.34,270.34,271.71,273.28,274.84,275.95,276.88,277.77,278.67,279.54,280.52,281.46,282.35,283.24,283.67,283.99,284.13,284.01,284.01,283.80,283.42,282.90,282.20,281.52,280.81,280.06,279.28,278.74,278.25,277.77,277.21,276.36,275.51,274.84,274.36,273.96,273.06,271.90,270.63,269.38,268.57,267.81,267.01,266.11,265.03,264.11,263.67,263.37,262.53,261.64,260.12,257.99,255.37,252.62,249.85,247.15,244.51,241.77,237.53,232.70,227.74,223.03,217.35,211.45,206.62,203.17,199.55,195.14,190.15,184.66,178.78,171.80,164.82,158.61,153.58,148.20,142.82,138.19,134.46,131.41,128.22,125.14,122.21,119.46,116.97,115.23,114.52,114.94,116.36,117.29,117.28,117.17,118.74,124.60,130.58,136.51,142.42,148.59,155.97,161.58,164.83,167.38,170.15,172.43,173.88,174.20,172.71,169.67,165.62,160.78,154.43,147.69,140.71,134.82,132.61,132.98,134.70,138.37,144.14,147.88,152.19,156.12,159.17,160.82,162.05,162.87,163.25,163.17,163.01,162.65,162.04,161.14,159.81,158.57,157.37,155.84,153.19,151.03,149.84,149.29,149.00,148.68,147.95,146.90,145.58,144.00,142.45,140.88,139.14,137.05,134.73,132.34,129.15,124.81,119.83,114.64,109.50,104.49,99.59,97.05,94.76,92.34,89.39,83.77,78.65,73.76,68.98,64.28,60.77,58.84,57.82,56.54,54.86,53.21,51.62,49.93,46.91,43.38,40.60,38.83,37.89,37.00,36.23,35.52,34.77,34.08,33.43,32.92,32.53,32.05,31.60,31.07,30.49,29.91,29.47,29.01,28.54,28.08,27.62,27.11,26.58,26.06,25.52,25.01,24.49,23.93,23.35,22.67,22.04,21.39,20.70,20.06,19.84,19.69,19.53,19.38,19.22,19.08,18.96,18.87,18.77,18.59,18.42,18.25,18.04,17.86,17.67,17.47,17.29,17.08,16.90,16.70,16.50,16.35,16.18,16.01,15.86,15.70,15.55
257.10,258.52,259.96,261.27,262.28,263.23,264.17,265.11,266.07,266.45,266.44,266.21,265.89,265.15,264.42,263.92,263.79,264.06,265.22,266.95,269.01,271.01,272.16,273.15,274.04,274.91,275.83,276.97,277.96,278.75,279.54,280.20,280.67,280.97,281.14,281.14,280.81,280.42,280.06,279.56,279.12,278.68,278.20,277.62,277.08,276.59,276.05,275.36,274.51,273.66,272.94,272.37,271.92,270.78,269.48,268.11,266.75,265.85,265.14,264.55,263.94,262.86,262.36,262.11,261.84,261.25,260.66,259.29,257.32,254.93,252.28,249.69,247.21,244.79,242.14,238.19,233.96,229.56,224.95,219.57,214.01,209.34,205.89,202.52,198.69,193.84,188.33,183.04,176.31,168.98,162.17,156.72,152.23,147.28,142.12,137.35,134.40,130.95,127.51,123.75,119.26,116.53,113.81,112.09,111.80,112.68,112.64,112.50,113.48,117.56,122.89,128.83,135.01,141.11,146.83,153.62,159.14,162.79,165.34,167.75,169.42,170.28,170.31,169.16,166.97,163.64,159.02,152.43,145.28,137.60,131.22,129.70,129.96,131.01,134.68,141.89,145.54,148.82,152.07,155.22,157.56,158.72,159.54,159.99,159.91,159.76,159.57,159.12,158.29,157.10,155.93,154.73,153.09,150.20,147.89,146.52,145.86,145.67,146.14,145.89,145.12,143.94,142.45,140.91,139.40,137.80,135.90,133.58,131.12,127.79,123.29,118.41,112.95,107.49,102.38,98.03,95.10,92.68,89.79,85.48,79.72,74.83,69.64,64.19,60.52,58.87,57.76,56.76,55.58,53.95,52.28,50.78,49.31,45.84,42.40,40.02,38.69,37.70,36.71,35.79,34.90,34.01,33.31,32.62,32.02,31.53,31.20,30.81,30.36,29.88,29.40,29.00,28.56,28.10,27.63,27.17,26.70,26.23,25.74,25.20,24.60,24.04,23.52,23.03,22.40,21.78,21.13,20.47,19.98,19.78,19.62,19.47,19.31,19.16,19.05,18.94,18.80,18.65,18.55,18.42,18.26,18.10,17.88,17.70,17.51,17.29,17.13,16.92,16.73,16.56,16.41,16.20,16.01,15.86,15.70,15.55
254.12,255.41,256.73,257.96,258.84,259.73,260.59,261.44,262.29,262.48,262.33,261.99,261.60,261.11,260.52,260.11,259.95,259.94,260.60,261.84,263.46,265.10,266.74,268.14,269.44,270.79,272.28,273.62,274.68,275.55,276.65,277.59,278.15,278.64,279.37,279.78,279.68,279.30,278.76,278.05,277.45,276.98,276.56,276.06,275.44,274.93,274.33,273.51,272.66,271.81,271.02,270.29,269.63,268.33,266.92,265.51,264.13,263.12,262.47,261.98,261.49,260.65,260.30,260.08,259.77,259.15,258.21,256.86,255.14,253.13,250.98,248.93,246.86,244.66,242.15,238.81,234.98,230.72,226.10,220.93,216.12,211.94,208.42,205.10,201.59,197.23,192.10,186.60,180.77,174.11,167.46,161.61,157.77,153.27,148.66,143.96,138.70,134.37,130.48,126.18,120.60,116.90,113.40,110.63,109.04,109.49,109.30,109.47,110.95,115.03,120.82,126.94,133.26,139.61,145.21,150.99,156.44,161.01,163.60,165.62,167.02,167.76,167.81,166.57,164.67,161.44,156.50,149.73,142.15,134.76,129.09,127.66,127.93,128.68,132.15,139.64,143.75,146.95,149.64,152.03,154.22,155.42,156.27,156.79,156.91,156.76,156.63,156.31,155.64,154.60,153.39,152.05,150.30,147.61,145.20,143.53,142.69,142.71,143.37,143.50,143.12,142.25,140.90,139.45,137.99,136.46,134.81,132.57,129.80,126.43,122.47,117.88,112.19,106.65,101.62,97.13,93.54,90.27,86.78,82.54,77.15,71.85,66.35,61.22,58.99,57.80,56.78,55.75,54.68,53.21,51.84,50.59,49.21,45.77,42.50,40.15,38.73,37.76,36.88,35.91,34.81,33.54,32.60,31.82,31.16,30.63,30.36,30.06,29.73,29.35,28.89,28.50,28.09,27.67,27.24,26.78,26.31,25.85,25.38,24.88,24.27,23.70,23.17,22.66,22.04,21.45,20.84,20.24,19.89,19.71,19.56,19.41,19.25,19.14,19.02,18.89,18.73,18.58,18.49,18.39,18.27,18.11,17.92,17.73,17.54,17.34,17.15,16.96,16.76,16.58,16.42,16.24,16.06,15.90,15.70,15.59
251.16,252.31,253.51,254.66,255.47,256.31,257.13,257.90,258.61,258.70,258.49,258.11,257.70,257.49,257.10,256.79,256.61,256.35,256.44,257.08,258.12,259.29,261.31,263.12,264.97,267.00,268.91,270.43,271.61,272.65,274.04,275.21,275.92,276.63,277.85,278.69,278.91,278.58,277.83,276.90,276.09,275.48,275.00,274.53,273.81,273.24,272.58,271.67,270.84,269.97,269.08,268.16,267.25,265.86,264.41,262.97,261.62,260.46,259.79,259.33,258.89,258.23,257.85,257.54,257.12,256.39,255.14,253.85,252.46,250.91,249.35,247.86,246.20,244.26,241.96,239.17,235.65,231.50,226.89,221.96,217.84,214.12,210.56,207.20,203.87,199.97,195.28,189.66,184.57,178.91,172.85,166.83,163.31,159.24,155.23,150.75,143.60,137.95,133.38,128.68,122.51,117.73,113.41,109.63,106.75,106.54,106.37,107.00,108.83,112.30,118.67,125.01,131.43,138.00,143.56,148.43,153.65,158.86,161.77,163.53,164.75,165.47,165.62,164.33,162.49,159.05,153.56,146.77,138.88,132.07,127.37,125.81,126.11,126.85,130.14,137.31,142.22,145.45,147.67,149.35,151.12,152.22,153.04,153.62,153.94,153.82,153.73,153.50,153.02,152.13,150.90,149.43,147.61,145.12,142.58,140.47,139.27,139.36,140.15,140.63,140.70,140.30,139.24,137.98,136.58,135.12,133.66,131.51,128.51,125.22,121.85,117.45,111.63,106.14,101.24,96.53,92.33,88.32,84.42,80.51,75.45,69.66,63.91,59.24,58.11,57.08,56.06,55.06,54.14,52.90,51.84,50.80,49.46,46.31,43.09,40.55,38.87,37.98,37.20,36.20,34.89,33.28,32.05,31.12,30.39,29.83,29.59,29.36,29.12,28.83,28.38,27.99,27.60,27.22,26.83,26.37,25.91,25.45,24.99,24.52,23.94,23.38,22.83,22.28,21.67,21.11,20.56,20.03,19.81,19.65,19.50,19.34,19.20,19.11,18.98,18.82,18.67,18.51,18.41,18.33,18.24,18.10,17.95,17.75,17.55,17.39,17.16,16.98,16.80,16.58,16.42,16.27,16.11,15.94,15.72,15.64
248.23,249.20,250.25,251.29,252.25,253.12,253.96,254.71,255.17,255.43,255.39,255.16,254.89,254.78,254.50,254.21,253.98,253.62,253.35,253.62,254.33,255.20,256.97,258.99,261.51,264.46,265.98,267.59,269.04,270.35,271.74,272.91,273.96,275.03,276.27,277.41,277.95,277.77,276.93,276.01,275.11,274.26,273.52,273.00,272.18,271.48,270.75,269.89,269.10,268.16,267.10,265.94,264.78,263.51,262.11,260.71,259.43,257.98,257.09,256.49,255.99,255.19,254.40,253.76,253.12,252.24,251.18,250.23,249.31,248.34,247.38,246.25,244.91,243.32,241.42,238.75,235.49,231.62,227.16,222.57,218.65,215.08,211.62,208.12,204.72,200.93,196.61,191.68,186.42,182.01,177.36,171.83,167.82,164.00,160.04,155.51,149.44,141.56,135.67,130.77,125.11,119.38,113.98,109.28,105.64,103.95,103.81,104.95,107.13,109.96,116.54,123.03,129.54,136.15,141.71,146.23,150.74,155.38,159.42,161.34,162.49,163.14,163.40,162.50,160.45,156.29,149.90,143.46,135.66,129.66,125.93,123.97,124.26,125.59,128.87,134.73,141.07,144.08,146.00,147.63,148.76,149.31,149.88,150.45,150.88,150.91,150.82,150.65,150.36,149.62,148.45,147.03,145.23,142.70,139.87,136.94,134.88,134.53,135.72,136.51,137.14,137.56,137.25,136.41,135.18,133.73,132.32,130.21,127.41,124.43,121.37,116.67,111.00,105.78,101.12,96.40,91.93,88.03,84.39,80.57,75.36,69.30,63.49,58.95,57.62,56.83,56.05,55.29,54.72,53.77,52.83,51.78,50.43,47.97,44.39,41.28,39.23,38.48,37.71,36.58,35.13,33.46,31.93,30.74,29.88,29.31,29.02,28.78,28.55,28.27,27.87,27.48,27.09,26.71,26.32,25.92,25.47,25.00,24.54,24.08,23.58,23.06,22.50,21.90,21.34,20.80,20.30,19.91,19.74,19.59,19.43,19.29,19.20,19.06,18.91,18.76,18.60,18.45,18.31,18.20,18.12,18.03,17.93,17.75,17.55,17.39,17.16,16.98,16.80,16.58,16.42,16.27,16.11,15.95,15.78,15.70
245.49,246.38,247.33,248.19,248.96,249.80,250.61,251.30,251.69,252.03,252.18,252.17,252.04,251.89,251.62,251.32,250.99,250.50,250.01,250.03,250.60,251.68,253.81,256.32,259.23,262.27,263.76,265.40,266.97,268.46,269.91,271.25,272.60,273.93,275.20,276.43,277.24,277.17,276.24,275.25,274.29,273.34,272.47,271.73,270.71,269.85,269.02,268.15,267.37,266.36,265.20,263.97,262.73,261.40,260.05,258.72,257.47,255.83,254.56,253.65,252.99,252.21,251.36,250.60,249.92,249.26,248.40,247.48,246.59,245.79,245.09,244.27,243.25,241.96,240.28,237.63,234.73,231.39,227.39,223.21,219.36,215.70,212.11,208.39,205.00,201.38,197.36,192.85,188.16,184.37,180.54,175.96,171.42,167.34,163.35,158.94,153.02,144.77,138.10,132.44,126.54,120.21,114.24,108.82,104.27,101.63,101.63,103.09,105.50,108.29,114.14,120.81,127.47,133.54,139.44,143.78,147.73,151.69,155.55,157.55,159.01,159.98,160.33,159.09,156.28,151.93,146.16,139.46,131.78,126.29,123.35,122.13,122.32,124.24,128.08,133.82,139.98,142.80,144.47,145.79,146.58,146.76,147.08,147.51,147.90,148.08,148.02,147.89,147.74,147.11,146.03,144.66,142.80,139.98,136.73,133.36,130.83,130.01,131.02,132.34,133.68,134.78,135.21,134.60,133.56,132.29,130.93,128.64,125.84,122.84,119.67,115.05,109.62,104.64,100.20,95.82,91.53,87.77,84.26,80.60,75.58,69.42,63.52,59.06,58.07,57.50,56.91,56.33,55.90,55.05,54.05,53.00,51.88,50.04,47.35,44.11,40.94,39.07,38.19,36.92,35.35,33.68,31.92,30.54,29.58,28.99,28.55,28.23,27.99,27.74,27.36,26.97,26.58,26.20,25.81,25.42,25.00,24.57,24.14,23.67,23.21,22.72,22.17,21.56,21.02,20.48,20.07,19.83,19.68,19.52,19.37,19.23,19.16,19.00,18.85,18.70,18.54,18.39,18.26,18.14,18.04,17.96,17.85,17.71,17.55,17.39,17.19,17.00,16.81,16.61,16.43,16.27,16.11,15.97,15.85,15.77
242.83,243.68,244.53,245.19,245.64,246.40,247.15,247.77,248.15,248.54,248.87,249.07,249.04,248.78,248.45,248.09,247.66,247.07,246.49,246.41,247.05,248.63,251.35,254.49,257.67,260.51,262.13,263.75,265.36,266.96,268.50,270.03,271.58,273.07,274.37,275.61,276.63,276.68,275.67,274.60,273.58,272.62,271.66,270.65,269.45,268.43,267.50,266.58,265.79,264.70,263.51,262.29,261.07,259.64,258.27,256.96,255.64,253.85,252.18,250.88,250.03,249.32,248.55,247.78,247.15,246.86,246.18,245.18,244.14,243.28,242.52,241.92,241.18,240.12,238.61,236.01,233.53,230.84,227.42,223.70,219.88,216.04,212.20,208.26,204.90,201.44,197.67,193.47,189.60,186.10,182.75,179.23,174.23,169.71,165.66,161.46,155.38,147.70,140.51,133.82,127.31,120.58,114.30,108.26,102.69,99.57,99.72,101.36,103.90,106.92,111.61,118.45,125.31,130.63,136.85,141.10,144.61,147.88,151.01,153.01,154.83,156.18,156.55,154.77,151.18,146.91,142.26,135.04,127.58,122.52,120.24,120.17,120.28,122.79,127.42,133.55,138.81,141.49,142.98,143.89,144.46,144.38,144.44,144.68,144.98,145.29,145.28,145.20,145.13,144.61,143.63,142.29,140.33,137.19,133.51,129.79,126.93,125.69,126.28,128.11,130.14,131.86,133.00,132.58,131.81,130.82,129.53,126.97,124.11,120.96,117.44,113.04,107.90,103.11,98.88,94.94,91.03,87.42,83.98,80.50,75.82,69.91,64.16,59.81,59.32,58.90,58.35,57.77,57.37,56.53,55.43,54.41,53.56,52.23,50.85,47.79,43.46,39.88,38.68,37.20,35.51,33.85,31.91,30.41,29.39,28.77,28.16,27.72,27.45,27.23,26.84,26.46,26.07,25.69,25.30,24.91,24.53,24.14,23.74,23.28,22.82,22.35,21.84,21.24,20.70,20.17,19.86,19.77,19.61,19.46,19.31,19.18,19.09,18.94,18.79,18.63,18.48,18.32,18.23,18.11,17.97,17.89,17.75,17.64,17.54,17.39,17.24,17.03,16.84,16.66,16.44,16.27,16.11,15.98,15.91,15.83
240.09,240.82,241.47,241.99,242.40,242.90,243.51,244.12,244.45,244.83,245.13,245.28,245.20,244.63,244.01,243.47,243.03,242.64,242.43,243.09,244.71,247.22,250.14,253.79,257.53,260.76,262.39,263.96,265.50,267.02,268.57,269.91,271.14,272.35,273.61,274.84,276.01,276.19,275.23,274.21,273.20,272.21,271.20,270.14,269.18,268.21,267.22,266.24,265.25,264.17,263.05,261.94,260.87,259.58,257.83,255.87,253.97,252.14,250.38,248.88,247.72,246.97,246.06,245.34,244.88,244.68,244.11,243.20,242.15,240.99,239.05,238.06,237.22,236.22,234.95,233.10,231.16,228.94,226.16,222.93,219.31,215.40,211.31,207.37,203.88,200.41,196.83,193.08,189.22,185.65,182.31,178.99,174.25,169.82,165.76,161.71,156.52,149.81,142.30,134.58,127.24,120.41,114.07,107.33,100.61,98.52,98.58,99.92,102.26,105.38,109.13,115.93,123.02,128.12,133.30,137.41,140.90,143.98,146.76,148.33,149.62,150.41,150.30,149.22,146.56,142.63,137.43,129.86,123.38,119.18,117.32,117.30,117.74,120.85,126.01,132.23,136.95,139.63,141.14,141.90,142.08,141.96,141.87,141.92,142.17,142.48,142.57,142.58,142.54,142.22,141.31,139.85,137.77,134.88,131.21,126.56,122.83,121.71,122.11,123.59,125.72,128.06,129.69,129.94,129.74,129.18,128.19,125.53,122.82,119.56,115.53,111.12,106.23,101.56,97.29,93.41,89.73,86.33,83.01,79.49,75.06,71.67,67.93,64.11,63.37,62.75,61.16,59.39,58.84,58.04,57.21,56.35,55.39,53.92,52.47,50.45,47.31,42.15,39.32,37.17,35.30,33.40,31.41,30.08,29.20,28.58,27.96,27.36,26.95,26.66,26.33,25.95,25.56,25.17,24.79,24.40,24.02,23.63,23.24,22.83,22.37,21.91,21.43,20.92,20.38,20.00,19.79,19.70,19.55,19.39,19.27,19.16,19.03,18.88,18.72,18.57,18.41,18.26,18.17,18.05,17.90,17.77,17.67,17.58,17.50,17.39,17.24,17.07,16.88,16.67,16.50,16.29,16.11,15.99,15.97,15.90
237.08,237.84,238.43,238.86,239.25,239.66,240.18,240.71,240.99,241.32,241.56,241.63,241.50,240.86,240.20,239.69,239.37,239.09,239.63,241.11,243.44,246.37,249.33,253.59,257.84,261.05,262.62,264.17,265.67,267.16,268.70,269.93,270.96,271.95,273.08,274.24,275.41,275.70,274.89,273.89,272.91,271.92,270.91,269.91,269.06,268.14,267.20,266.27,265.24,264.19,263.12,262.06,261.06,259.96,258.20,256.01,253.77,251.59,249.55,247.71,246.09,244.72,243.62,242.93,242.60,242.48,241.92,240.81,239.26,237.35,234.69,233.13,232.29,231.83,231.22,230.02,228.48,226.56,224.23,221.30,217.75,213.78,209.59,205.73,202.15,198.63,195.20,191.94,187.94,184.32,180.91,177.43,173.02,168.97,165.16,161.26,156.50,150.28,142.84,134.84,127.11,120.18,113.50,106.36,99.37,97.43,97.19,98.41,100.82,103.99,107.31,113.28,119.99,125.63,130.01,133.65,136.92,139.93,142.47,144.00,145.21,145.85,145.55,144.65,141.99,137.75,132.07,124.97,118.92,115.44,114.33,114.38,115.86,119.63,125.06,131.22,135.35,137.71,139.26,140.25,140.36,140.25,140.05,139.83,139.75,140.03,140.14,140.17,140.14,139.85,138.92,137.42,135.35,132.67,128.22,122.60,118.04,116.44,116.67,117.75,119.94,123.00,125.75,126.76,127.16,127.08,126.47,124.39,121.95,118.56,114.02,109.51,104.90,100.35,95.97,91.92,88.47,85.21,81.98,78.68,75.92,74.87,73.55,71.63,71.00,70.02,67.83,65.28,63.85,62.35,60.69,58.96,57.21,55.42,53.21,51.15,48.48,43.04,39.99,37.72,35.68,33.42,31.14,29.85,29.03,28.39,27.74,27.08,26.55,26.16,25.82,25.44,25.05,24.66,24.28,23.89,23.51,23.12,22.73,22.35,21.94,21.50,21.03,20.57,20.14,19.88,19.72,19.61,19.48,19.33,19.21,19.09,18.97,18.81,18.66,18.50,18.35,18.22,18.12,17.99,17.83,17.68,17.59,17.52,17.43,17.32,17.20,17.07,16.90,16.68,16.52,16.32,16.15,16.04,16.04,15.96
233.86,234.75,235.41,235.80,236.18,236.63,237.10,237.51,237.74,237.97,238.11,238.10,237.93,237.39,236.90,236.62,236.51,236.28,237.86,240.24,243.05,245.99,248.85,253.80,258.51,261.36,262.83,264.36,265.86,267.35,268.89,270.08,270.99,271.82,272.75,273.76,274.83,275.20,274.64,273.63,272.70,271.72,270.76,269.91,269.06,268.21,267.39,266.60,265.67,264.68,263.64,262.57,261.57,260.70,259.21,257.18,254.77,252.00,249.51,247.23,245.03,242.57,241.24,240.56,240.32,240.24,239.63,238.07,235.65,232.59,229.58,227.32,226.57,227.06,227.43,226.82,225.54,223.79,221.75,218.96,215.38,211.35,207.18,203.47,199.83,196.24,192.92,190.20,185.93,182.28,178.73,174.79,170.76,167.35,163.98,160.25,155.54,149.42,142.34,134.69,126.91,119.88,112.64,105.37,98.84,96.30,95.60,96.84,99.54,102.71,106.03,110.52,116.34,123.15,126.95,129.83,132.73,135.74,138.14,139.97,141.46,142.29,142.04,140.88,137.44,132.36,126.28,120.32,114.24,111.38,111.29,111.44,114.53,118.99,124.49,130.47,133.96,135.76,137.33,138.88,139.19,139.15,138.84,138.31,137.64,137.87,137.94,137.94,137.89,137.50,136.47,134.98,133.03,130.56,124.65,118.06,112.68,110.11,110.19,110.81,113.03,116.91,121.29,123.13,124.16,124.60,124.43,123.48,121.45,117.89,112.84,108.13,103.86,99.44,94.87,90.47,87.23,84.06,80.92,78.02,78.13,79.25,80.67,81.79,81.55,80.10,77.67,74.68,71.77,68.94,65.56,62.12,59.01,56.78,53.23,50.24,47.44,42.80,40.68,38.74,36.55,33.84,31.07,29.70,28.88,28.19,27.49,26.86,26.25,25.70,25.31,24.93,24.54,24.15,23.77,23.38,22.99,22.61,22.22,21.84,21.52,21.11,20.65,20.20,19.96,19.79,19.63,19.49,19.41,19.27,19.11,18.98,18.90,18.75,18.59,18.44,18.29,18.22,18.08,17.92,17.77,17.61,17.53,17.45,17.35,17.20,17.12,17.04,16.90,16.68,16.52,16.37,16.21,16.10,16.10,16.02
230.67,231.63,232.38,232.87,233.35,233.86,234.32,234.70,234.98,235.03,235.07,235.05,234.92,234.43,234.18,234.05,234.11,234.80,237.53,240.41,243.19,245.98,248.84,253.98,258.78,261.49,263.01,264.55,266.05,267.54,269.08,270.18,271.06,271.85,272.69,273.69,274.46,274.73,274.41,273.55,272.59,271.62,270.71,269.91,269.06,268.21,267.35,266.46,265.39,264.49,263.67,262.87,262.06,261.13,259.58,257.43,254.78,252.00,249.51,247.07,244.54,241.87,239.00,236.83,235.55,235.18,234.29,232.76,230.31,226.90,223.64,222.53,222.57,223.18,223.71,223.56,222.60,220.77,218.12,215.19,211.90,208.04,203.73,199.93,196.27,192.88,189.70,186.60,182.60,178.55,174.62,170.94,167.89,164.84,161.53,157.85,153.77,148.01,141.29,133.89,126.15,119.03,111.46,104.27,98.30,95.56,94.12,95.26,98.33,101.50,104.86,108.62,113.60,120.02,123.66,126.35,128.59,130.56,132.18,134.33,136.47,137.80,137.44,135.65,132.16,127.52,121.97,115.06,109.56,107.24,107.48,108.17,111.31,117.13,123.90,129.77,132.47,134.39,136.19,137.86,138.50,138.20,137.69,137.09,136.40,136.10,135.98,135.93,135.83,135.34,134.38,132.96,130.76,127.12,120.91,113.90,108.02,104.93,104.28,105.26,107.71,111.44,115.98,119.33,121.35,122.31,122.64,122.00,120.51,117.63,113.35,109.31,104.60,99.79,95.04,90.40,87.38,85.11,83.36,82.06,83.72,85.41,86.60,87.06,86.93,85.48,83.24,80.59,78.00,74.90,71.35,67.66,64.04,60.49,53.58,48.80,46.43,43.44,41.49,39.23,36.55,33.48,30.75,29.49,28.75,28.06,27.42,26.75,26.09,25.45,24.87,24.43,24.03,23.64,23.26,22.92,22.55,22.16,21.77,21.39,21.03,20.63,20.27,20.00,19.82,19.69,19.59,19.48,19.35,19.20,19.05,18.92,18.84,18.69,18.53,18.40,18.29,18.16,18.01,17.86,17.70,17.55,17.47,17.36,17.24,17.13,17.06,16.98,16.88,16.73,16.53,16.37,16.24,16.16,16.16,16.09
227.44,228.46,229.30,229.86,230.44,230.99,231.45,231.80,232.05,231.99,231.94,231.87,231.75,231.53,231.48,231.47,231.73,233.32,237.20,240.62,243.43,246.12,248.93,254.09,258.87,261.52,263.06,264.61,266.12,267.62,269.17,270.23,271.09,271.87,272.67,273.55,274.02,274.17,274.01,273.42,272.49,271.55,270.68,269.91,269.06,268.18,267.25,266.25,265.09,264.18,263.44,262.81,262.14,261.23,259.68,257.46,254.68,251.90,249.28,246.64,243.88,241.03,236.89,233.24,230.71,229.71,228.45,226.83,224.32,220.68,217.16,216.61,217.14,217.95,218.59,218.79,218.12,216.51,214.00,211.07,207.86,204.14,199.99,196.19,192.64,189.40,186.27,182.87,178.60,174.45,170.72,167.58,165.09,162.26,159.03,155.44,151.69,146.30,139.89,132.77,125.27,117.88,110.05,102.94,97.41,94.45,92.49,93.39,96.55,100.01,103.51,106.93,111.17,116.63,120.06,122.42,124.12,125.39,126.51,128.83,131.45,133.25,132.97,130.85,127.41,122.88,117.30,110.08,105.26,103.39,103.81,104.89,108.56,115.62,123.34,129.08,131.47,133.45,135.31,136.96,137.75,137.18,136.52,135.88,135.18,134.50,134.18,134.00,133.77,133.19,132.13,130.45,127.77,123.41,117.37,110.33,104.25,100.85,99.60,100.77,103.28,106.74,111.25,115.42,118.23,119.81,120.61,120.15,119.20,117.17,113.88,110.58,106.01,101.05,96.11,91.53,88.76,87.32,86.72,86.61,88.73,90.14,90.72,90.61,90.49,89.32,87.59,85.38,82.70,79.64,76.26,72.56,68.53,63.84,55.18,49.04,46.18,44.15,42.24,39.81,36.82,33.41,30.52,29.29,28.60,27.91,27.27,26.58,25.89,25.19,24.50,23.99,23.57,23.18,22.80,22.47,22.10,21.71,21.33,20.94,20.55,20.23,20.00,19.87,19.71,19.62,19.53,19.42,19.29,19.14,19.00,18.87,18.77,18.62,18.47,18.34,18.26,18.10,17.95,17.79,17.64,17.49,17.40,17.28,17.15,17.07,16.97,16.89,16.81,16.72,16.53,16.38,16.28,16.22,16.20,16.14
224.17,225.24,226.13,226.74,227.42,227.99,228.45,228.77,228.87,228.80,228.68,228.52,228.33,228.71,228.80,228.86,229.39,231.81,236.84,240.87,243.80,246.44,249.15,254.10,258.75,261.39,262.93,264.48,266.02,267.56,269.10,270.21,271.09,271.89,272.72,273.30,273.48,273.47,273.38,273.24,272.41,271.52,270.68,269.91,269.06,268.11,267.07,265.93,264.77,263.70,262.87,262.25,261.62,260.91,259.42,257.20,254.42,251.64,248.73,245.83,242.96,239.97,234.95,229.90,225.81,223.73,222.01,220.12,217.47,213.76,209.94,209.09,209.67,210.81,211.49,211.88,211.50,210.53,209.22,206.48,203.07,199.45,195.86,192.21,188.94,185.80,182.58,178.98,173.69,169.89,167.16,164.96,162.42,159.62,156.51,153.06,149.21,144.17,138.03,131.22,124.24,116.35,108.31,101.31,96.04,92.83,90.67,91.12,93.99,98.13,101.89,105.50,109.14,112.91,116.04,117.87,119.17,120.26,121.28,123.55,126.42,128.63,128.69,126.67,123.40,118.52,112.09,105.50,101.50,99.95,100.35,101.63,106.53,114.61,122.82,128.41,131.14,133.08,134.77,136.23,136.87,136.06,135.31,134.67,133.97,133.14,132.60,132.17,131.71,131.03,129.67,127.28,123.79,119.32,114.13,107.59,101.69,98.27,96.63,97.74,100.07,103.11,107.32,111.37,114.67,117.01,118.25,117.78,117.40,116.41,114.43,111.92,108.29,103.56,98.40,94.31,91.85,91.09,91.31,91.79,92.87,92.83,92.37,91.87,91.66,91.12,90.34,88.69,85.32,82.70,79.90,76.51,72.20,66.61,58.53,51.61,47.00,44.92,42.92,40.51,37.49,33.77,30.43,29.10,28.41,27.71,27.02,26.33,25.63,24.94,24.24,23.64,23.19,22.80,22.42,22.04,21.65,21.27,20.88,20.49,20.11,19.94,19.89,19.80,19.65,19.55,19.44,19.31,19.22,19.08,18.96,18.86,18.71,18.56,18.40,18.28,18.19,18.04,17.88,17.73,17.58,17.42,17.34,17.21,17.08,17.00,16.86,16.76,16.68,16.60,16.51,16.43,16.35,16.27,16.20,16.19
220.88,221.99,222.88,223.50,224.16,224.65,225.02,225.26,225.30,225.03,224.72,224.41,224.18,224.69,225.26,226.25,228.03,231.38,236.75,240.90,243.87,246.54,249.37,253.77,258.06,261.04,262.59,264.17,265.73,267.28,268.82,270.05,270.98,271.74,272.44,272.64,272.69,272.70,272.70,272.66,272.18,271.48,270.68,269.91,268.94,267.88,266.75,265.55,264.40,263.26,262.36,261.67,261.06,260.17,258.38,255.96,253.30,250.52,247.56,244.56,241.35,236.91,231.02,225.41,220.77,217.69,215.64,213.25,210.28,206.72,203.74,202.99,203.48,204.61,205.68,206.01,205.83,205.10,203.73,201.23,198.25,195.06,191.83,188.62,185.52,182.15,178.32,173.85,170.07,167.07,164.59,162.34,159.70,156.89,153.91,150.63,146.73,141.93,136.01,129.33,122.32,113.39,105.47,99.16,94.66,91.16,88.53,88.90,91.92,95.96,99.75,103.18,106.39,109.45,111.61,112.61,113.19,113.95,115.75,118.73,121.92,124.39,125.12,123.24,119.67,114.46,108.05,102.36,99.31,97.98,98.22,100.04,105.75,113.83,121.88,127.78,130.82,132.61,134.04,135.36,136.27,135.46,134.54,133.67,132.81,132.00,131.14,130.13,128.96,127.85,126.02,123.44,120.12,116.19,110.75,104.63,99.20,95.65,93.87,94.43,96.44,99.59,104.14,108.10,111.40,113.79,115.02,114.85,114.78,114.50,113.74,112.23,109.56,105.71,101.32,97.85,96.02,95.32,95.20,95.12,95.25,94.77,94.07,93.37,92.84,92.26,91.49,90.07,87.39,84.80,82.19,78.91,74.42,68.11,61.18,53.83,47.47,45.26,43.08,40.61,37.34,32.92,29.98,28.78,28.12,27.46,26.77,26.07,25.38,24.68,23.99,23.37,22.85,22.40,21.98,21.64,21.26,20.87,20.50,20.15,19.93,19.85,19.82,19.74,19.58,19.49,19.37,19.23,19.16,19.05,18.93,18.80,18.65,18.49,18.37,18.25,18.13,17.98,17.82,17.67,17.52,17.41,17.29,17.15,17.01,16.89,16.77,16.69,16.59,16.47,16.35,16.23,16.23,16.29,16.26,16.21
217.50,218.44,219.21,219.85,220.52,221.02,221.37,221.58,221.65,221.24,220.79,220.45,220.35,221.03,222.29,224.33,227.29,231.32,236.83,240.98,243.92,246.64,249.56,253.38,257.28,260.52,262.14,263.75,265.32,266.87,268.41,269.75,270.75,271.46,271.99,271.90,271.88,271.91,271.97,272.01,271.85,271.35,270.60,269.80,268.63,267.49,266.34,265.16,264.02,262.87,261.88,261.08,260.36,259.15,257.04,254.43,251.81,248.93,245.91,242.69,238.93,233.22,226.70,220.79,215.85,212.03,209.44,206.61,203.52,200.32,198.12,197.40,197.60,198.47,199.79,200.12,200.13,199.57,198.08,195.92,193.45,190.76,187.93,185.09,181.92,178.22,173.97,169.19,166.79,164.41,162.01,159.60,156.91,154.11,151.18,147.98,144.12,139.40,133.58,126.87,119.54,110.05,102.62,97.17,93.32,89.60,86.49,86.63,89.65,93.65,97.33,100.55,103.36,105.74,106.96,107.35,107.64,108.47,110.92,114.26,117.57,120.20,121.42,119.54,115.74,110.48,104.50,99.93,97.65,96.45,96.57,99.02,105.34,113.13,120.82,127.01,130.39,132.08,133.29,134.48,135.63,134.93,133.92,132.86,131.86,131.00,129.61,127.87,125.99,124.43,122.30,119.69,116.63,113.16,107.71,102.05,96.94,93.03,91.04,91.09,92.76,95.91,100.77,104.80,107.99,110.15,111.07,111.55,112.07,112.46,112.54,111.78,109.98,107.26,104.04,101.22,99.89,99.09,98.47,97.71,97.02,96.24,95.40,94.53,93.70,92.96,92.06,90.76,88.82,86.14,83.58,80.31,75.64,68.85,62.96,55.45,47.88,45.49,43.07,40.37,36.74,31.83,29.52,28.46,27.81,27.16,26.49,25.80,25.11,24.41,23.73,23.11,22.53,22.00,21.56,21.23,20.86,20.49,20.17,19.90,19.81,19.78,19.75,19.66,19.52,19.42,19.31,19.17,19.09,19.00,18.88,18.74,18.58,18.44,18.34,18.22,18.07,17.91,17.76,17.61,17.48,17.39,17.24,17.08,16.93,16.76,16.65,16.56,16.44,16.29,16.16,16.06,16.14,16.30,16.30,16.24
213.88,214.15,214.50,215.21,216.08,216.81,217.33,217.68,218.00,217.64,217.24,217.14,217.63,218.81,221.12,224.12,227.61,231.69,237.21,241.25,244.06,246.83,249.70,253.02,256.47,259.66,261.52,263.13,264.68,266.23,267.77,269.16,270.23,270.95,271.29,271.15,271.11,271.12,271.16,271.35,271.34,270.99,270.32,269.42,267.90,266.76,265.76,264.72,263.69,262.55,261.46,260.43,259.37,257.58,255.28,252.64,249.82,246.59,243.34,239.52,234.80,228.85,222.30,216.33,211.28,207.30,203.60,200.59,197.98,195.54,193.49,192.44,191.98,192.10,193.17,193.75,193.93,193.53,192.35,190.73,188.73,186.58,184.30,181.50,177.71,173.61,169.61,166.21,163.81,161.37,158.96,156.60,153.96,151.25,148.20,144.78,141.22,136.21,130.20,123.16,115.03,106.38,100.25,95.74,92.10,88.33,84.79,84.20,86.64,91.14,94.46,97.52,99.90,101.28,101.91,102.41,103.58,105.58,107.99,110.43,113.36,115.95,117.07,114.85,111.20,106.57,101.65,98.66,96.62,95.34,95.55,98.74,105.32,112.53,119.61,125.83,129.71,131.43,132.54,133.64,134.74,134.35,133.47,132.42,131.41,130.26,127.86,125.15,122.75,120.91,118.93,116.46,113.44,109.96,105.60,100.49,95.21,90.45,87.96,87.78,89.09,91.76,96.62,101.09,104.13,105.62,105.71,107.63,109.47,110.56,110.57,109.86,108.72,107.47,105.99,103.87,102.52,101.52,100.53,99.28,98.04,96.83,95.73,94.75,93.72,92.87,91.87,90.58,88.88,86.01,83.32,79.89,75.00,68.27,62.87,55.74,48.27,45.63,42.88,39.51,35.39,30.66,29.19,28.22,27.44,26.73,26.16,25.48,24.79,24.11,23.48,22.86,22.21,21.62,21.17,20.79,20.41,20.12,19.94,19.83,19.75,19.72,19.67,19.53,19.44,19.36,19.25,19.11,19.03,18.90,18.78,18.67,18.52,18.43,18.30,18.16,18.00,17.85,17.69,17.57,17.47,17.33,17.18,17.02,16.85,16.63,16.42,16.27,16.12,15.99,15.96,16.04,16.18,16.30,16.30,16.29
210.42,210.44,210.61,211.12,211.84,212.51,213.05,213.50,214.07,214.14,214.18,214.67,216.05,218.18,221.03,224.30,227.92,232.19,237.67,241.60,244.32,247.07,249.82,252.90,255.98,258.78,260.78,262.41,263.95,265.49,267.00,268.46,269.61,270.32,270.54,270.35,270.19,270.18,270.35,270.61,270.65,270.25,269.50,268.58,267.14,265.90,264.79,263.73,262.76,261.69,260.52,259.21,257.73,255.73,253.48,250.81,247.54,243.79,239.99,235.77,230.76,224.24,218.14,212.72,208.03,204.05,199.96,196.80,194.18,191.75,189.57,188.50,188.03,188.04,188.72,189.08,189.08,188.60,187.58,186.14,184.34,182.08,179.32,175.90,172.66,169.32,166.03,163.13,160.75,158.39,156.00,153.56,150.89,148.14,145.02,141.55,138.11,133.18,127.53,120.71,112.16,103.78,98.50,94.67,91.15,86.97,83.05,81.64,83.06,86.88,90.79,93.71,95.70,96.87,97.37,98.07,100.01,103.03,105.42,107.51,109.79,111.63,112.14,110.21,106.89,102.85,98.80,96.39,94.30,93.37,94.24,97.78,104.68,111.70,118.34,124.25,128.84,130.83,131.99,133.00,133.91,133.91,133.21,132.15,131.14,129.62,126.61,123.24,120.29,118.04,115.85,113.26,110.17,106.59,102.72,97.40,91.63,86.63,84.58,84.63,85.96,88.35,92.26,96.46,99.13,100.18,99.94,102.54,105.18,106.88,107.17,106.90,106.08,105.35,104.63,103.37,102.33,101.35,100.04,98.13,96.38,95.46,94.80,94.07,92.95,92.16,91.26,89.93,87.84,85.05,82.30,78.20,72.26,67.25,62.64,55.66,47.94,45.17,42.42,39.27,35.42,30.88,29.50,28.55,27.74,26.95,26.23,25.44,24.61,23.84,23.22,22.57,21.91,21.30,20.78,20.40,20.13,19.95,19.84,19.76,19.68,19.65,19.60,19.45,19.37,19.30,19.18,19.04,18.96,18.85,18.74,18.61,18.46,18.38,18.25,18.11,17.98,17.83,17.68,17.54,17.42,17.27,17.11,16.96,16.75,16.45,16.18,15.97,15.85,15.82,15.89,16.03,16.21,16.35,16.35,16.31
207.11,207.09,207.19,207.44,207.89,208.40,208.90,209.44,210.22,210.80,211.47,212.74,215.07,218.23,221.39,224.65,228.22,232.75,238.17,242.00,244.62,247.28,249.86,252.75,255.52,257.87,259.97,261.64,263.19,264.72,266.19,267.73,268.94,269.65,269.76,269.49,269.17,269.11,269.39,269.68,269.69,269.15,268.24,267.30,266.16,264.88,263.63,262.52,261.57,260.53,259.26,257.70,255.86,253.80,251.54,248.69,244.85,240.63,236.24,231.67,226.61,219.80,214.31,209.58,205.37,201.41,197.24,193.92,191.08,188.40,185.98,185.01,184.76,184.89,185.17,185.15,184.79,184.08,183.08,181.64,179.84,177.30,173.92,169.95,167.58,165.28,162.75,160.01,157.69,155.42,153.05,150.48,147.77,144.94,141.79,138.35,134.93,130.29,125.19,118.79,110.14,101.92,97.20,93.83,90.36,85.68,81.44,79.29,79.61,82.32,86.80,89.58,91.28,92.54,93.08,93.95,96.45,100.25,102.87,104.89,106.50,107.39,107.20,105.69,102.80,99.34,95.98,93.66,91.53,91.09,92.72,96.44,103.66,110.66,117.00,122.50,127.69,130.15,131.49,132.42,133.10,133.48,132.98,131.94,130.94,129.04,125.63,121.82,118.38,115.67,113.06,110.18,106.86,102.99,99.07,93.25,87.13,82.51,81.18,81.60,83.06,85.22,87.98,91.55,93.73,94.43,94.12,96.99,100.16,102.41,103.12,103.38,102.75,102.14,101.68,101.14,100.43,99.54,98.10,95.81,93.79,93.38,93.34,92.98,91.87,91.16,90.31,88.85,86.26,83.61,80.57,75.71,68.97,65.97,61.96,55.07,47.28,44.49,41.88,39.23,35.98,31.79,30.17,29.12,28.25,27.37,26.43,25.49,24.51,23.61,22.97,22.26,21.62,21.00,20.41,20.06,19.93,19.85,19.77,19.70,19.62,19.59,19.54,19.39,19.31,19.23,19.12,18.98,18.90,18.82,18.70,18.55,18.40,18.32,18.18,18.06,17.97,17.82,17.67,17.52,17.37,17.21,17.06,16.89,16.65,16.27,15.97,15.72,15.63,15.73,15.89,16.04,16.24,16.40,16.40,16.33
204.29,204.41,204.55,204.74,205.09,205.55,206.03,206.58,207.41,208.12,209.64,211.98,215.03,218.69,221.93,225.07,228.53,233.35,238.72,242.42,244.87,247.29,249.51,252.03,254.52,256.80,259.05,260.87,262.46,263.96,265.49,267.03,268.27,268.96,268.92,268.40,267.87,267.62,267.71,267.84,267.66,266.85,265.66,264.62,264.06,263.24,262.31,261.36,260.26,258.87,257.38,255.81,254.07,252.06,248.98,245.00,240.52,236.44,231.91,226.91,221.61,216.72,211.80,207.28,203.11,199.05,194.83,191.19,188.08,185.38,182.76,181.84,181.66,181.79,181.93,181.63,180.75,179.48,178.09,176.36,174.07,171.59,169.07,166.38,164.16,161.86,159.44,157.00,154.74,152.45,150.01,147.35,144.64,141.77,138.72,135.45,131.88,127.85,123.08,117.04,109.27,101.83,97.11,93.51,89.87,84.89,80.65,78.31,78.09,79.86,82.73,85.28,87.29,88.65,89.19,89.78,91.86,95.56,99.67,101.96,103.29,103.79,103.49,101.74,99.42,96.55,93.29,90.48,89.06,89.05,90.69,94.46,101.92,109.03,115.33,120.62,125.42,128.86,130.87,131.70,132.28,132.82,132.52,131.64,130.68,128.54,125.09,121.33,117.86,114.61,111.30,107.62,103.41,98.50,92.75,86.51,81.53,79.28,78.34,78.89,80.21,82.07,84.68,87.13,88.49,88.92,88.94,91.42,94.69,97.33,98.55,99.01,98.57,97.89,97.09,96.06,95.13,94.34,93.62,92.87,91.73,91.61,91.71,91.57,90.81,89.87,88.41,86.42,84.02,81.23,76.54,71.46,67.13,64.23,59.10,52.52,46.23,43.88,41.49,39.04,36.42,33.55,31.44,29.82,28.57,27.54,26.50,25.46,24.48,23.56,22.71,21.96,21.30,20.68,20.11,19.96,19.86,19.79,19.71,19.63,19.55,19.53,19.47,19.32,19.25,19.17,19.06,18.91,18.84,18.76,18.64,18.50,18.40,18.27,18.12,18.00,17.91,17.76,17.65,17.52,17.37,17.21,17.06,16.83,16.52,16.14,15.89,15.65,15.59,15.73,15.94,16.11,16.27,16.40,16.40,16.38
201.27,201.59,201.81,201.98,202.29,202.70,203.14,203.68,204.59,206.22,208.82,212.05,215.54,219.31,222.57,225.62,229.04,234.48,239.33,242.61,244.82,247.02,249.05,251.21,253.43,255.67,257.93,260.03,261.80,263.31,264.82,266.36,267.60,268.19,267.89,267.28,266.66,266.22,266.00,265.88,265.59,264.71,263.39,262.01,261.40,260.79,260.10,259.30,258.11,256.83,255.42,253.87,252.20,249.62,245.87,241.37,236.66,232.50,227.89,222.89,217.78,213.66,209.09,204.64,200.41,196.32,191.96,188.05,184.73,181.98,179.13,177.66,177.09,177.05,176.89,176.40,175.49,174.27,172.92,171.33,169.22,167.03,164.98,162.91,160.73,158.54,156.31,154.00,151.70,149.31,146.78,144.11,141.50,138.69,135.74,132.59,129.07,125.36,120.48,114.48,107.68,101.24,96.69,92.91,89.01,83.76,79.84,77.36,76.56,77.80,79.84,81.96,83.77,84.97,85.49,85.91,87.57,90.56,93.82,96.72,98.48,99.08,98.67,97.63,96.15,93.97,91.12,88.54,87.14,87.32,89.23,92.90,100.03,107.20,113.61,118.79,123.37,127.23,129.78,130.99,131.53,132.06,131.97,131.34,130.45,127.92,124.71,121.37,118.15,114.44,110.58,105.90,100.40,94.44,88.45,82.77,78.60,76.89,75.97,76.47,77.62,79.12,81.09,82.97,83.94,84.29,84.63,86.83,89.63,91.98,93.22,93.52,93.13,92.38,91.40,90.28,89.43,88.85,88.56,88.52,88.09,88.24,88.44,88.41,87.85,86.85,85.44,83.52,81.00,77.10,72.22,67.83,64.77,62.06,56.93,50.61,44.82,42.80,40.80,38.45,35.97,33.60,31.37,29.86,28.66,27.58,26.53,25.45,24.46,23.53,22.61,21.78,21.01,20.38,19.95,19.88,19.80,19.72,19.65,19.57,19.49,19.46,19.41,19.26,19.18,19.10,18.99,18.85,18.77,18.67,18.55,18.44,18.36,18.21,18.06,17.93,17.85,17.69,17.60,17.48,17.33,17.17,16.99,16.75,16.46,16.17,15.93,15.72,15.66,15.77,15.97,16.13,16.29,16.41,16.44,16.41
198.10,198.65,198.98,199.16,199.47,199.85,200.25,200.79,201.82,204.89,208.72,212.73,216.43,220.05,223.26,226.24,229.68,235.96,239.96,242.62,244.57,246.58,248.51,250.32,252.28,254.50,256.68,259.17,261.20,262.73,264.19,265.73,266.93,267.36,266.74,266.13,265.51,264.89,264.29,263.83,263.49,262.68,261.32,259.45,258.34,257.73,257.26,256.59,255.36,254.51,253.38,251.88,250.24,246.69,242.39,237.75,233.13,228.73,224.11,219.40,214.77,210.60,206.24,201.79,197.41,193.31,188.75,184.61,181.13,178.32,175.23,172.82,171.54,171.17,170.62,170.02,169.41,168.68,167.67,166.51,165.01,163.28,161.42,159.49,157.30,155.28,153.30,150.98,148.59,146.04,143.42,140.81,138.34,135.69,132.83,129.77,126.44,122.81,117.50,111.34,105.58,100.27,96.02,92.09,87.86,82.39,79.02,76.45,75.04,76.02,77.75,79.32,80.57,81.46,81.91,82.25,83.46,85.34,86.18,89.86,92.50,93.56,93.08,93.40,92.95,91.54,89.30,87.45,85.60,85.83,88.17,91.63,98.06,105.22,111.85,116.99,121.47,125.34,128.33,130.26,130.81,131.22,131.33,131.04,130.25,127.25,124.47,121.80,118.99,114.90,110.62,104.83,97.80,90.79,85.67,81.21,77.62,75.15,73.94,74.24,75.18,76.29,77.29,78.96,79.86,80.26,80.89,82.91,84.86,86.44,87.36,87.28,86.82,85.98,84.93,84.01,83.45,83.15,83.08,83.15,83.30,83.68,83.94,83.92,83.45,82.51,81.61,80.18,77.34,71.75,67.71,64.64,62.04,59.55,55.16,49.08,43.12,41.37,39.88,37.58,34.91,32.46,30.39,29.42,28.59,27.53,26.52,25.45,24.46,23.53,22.61,21.68,20.75,20.11,19.89,19.81,19.74,19.66,19.58,19.50,19.43,19.40,19.35,19.19,19.12,19.04,18.93,18.79,18.71,18.56,18.45,18.38,18.30,18.15,17.99,17.87,17.78,17.63,17.54,17.42,17.27,17.11,16.89,16.66,16.45,16.30,16.06,15.89,15.80,15.82,15.98,16.13,16.29,16.42,16.50,16.42
195.03,195.44,195.51,195.69,196.40,197.10,197.73,198.70,200.92,205.73,210.10,213.97,217.56,220.78,223.71,226.51,229.99,236.90,240.20,242.38,244.17,246.13,247.86,249.31,250.90,252.98,255.80,258.73,260.94,262.47,263.94,265.48,266.29,266.31,265.59,264.98,264.36,263.69,262.98,262.32,261.70,260.54,258.71,256.20,254.35,253.45,253.07,252.81,252.18,251.64,250.66,249.07,246.84,243.24,238.69,233.84,229.37,225.27,220.91,216.29,211.61,207.70,203.75,199.33,194.64,190.19,184.94,180.90,177.63,174.69,171.70,169.07,167.22,166.14,165.34,165.03,164.96,164.70,163.84,162.63,160.89,159.11,157.47,155.59,153.70,151.77,149.74,147.47,144.98,142.50,140.10,137.82,135.45,132.77,130.17,127.50,124.03,119.03,113.25,107.38,102.22,97.95,93.98,90.00,85.79,80.96,78.18,75.95,74.29,73.83,75.09,76.31,77.27,77.86,78.07,78.36,78.98,79.85,80.34,82.24,84.34,86.28,87.79,88.45,89.06,88.79,87.35,85.70,83.96,84.69,87.58,90.75,96.69,103.00,109.19,114.88,119.36,122.92,125.88,128.19,129.28,130.11,130.37,130.14,129.55,127.50,125.02,122.42,119.72,115.88,111.89,106.18,99.20,92.68,87.87,83.51,79.69,76.47,73.09,71.87,71.80,72.32,72.87,73.65,74.29,74.91,75.79,77.95,80.05,81.44,81.79,81.62,80.85,79.80,78.66,77.69,77.17,76.77,76.44,76.17,76.02,75.88,75.58,75.08,74.46,73.81,73.13,72.04,69.99,66.57,63.59,60.97,58.52,55.50,50.15,44.57,40.29,39.52,38.14,36.11,33.70,31.29,29.91,29.14,28.43,27.52,26.47,25.43,24.46,23.53,22.61,21.63,20.72,20.09,19.83,19.75,19.67,19.59,19.52,19.44,19.36,19.33,19.28,19.13,19.05,18.94,18.82,18.72,18.64,18.50,18.39,18.31,18.24,18.08,17.96,17.85,17.72,17.56,17.47,17.38,17.28,17.17,17.04,16.85,16.64,16.49,16.26,16.08,15.93,15.82,15.98,16.18,16.35,16.47,16.50,16.42
191.50,191.76,191.78,192.15,193.40,194.63,196.01,197.93,201.22,206.94,211.48,215.19,218.69,221.71,224.48,227.17,230.56,237.48,240.36,242.24,243.87,245.68,247.15,248.43,249.91,251.95,255.19,258.44,260.77,262.25,263.71,265.23,265.67,265.29,264.50,263.84,263.21,262.52,261.72,260.82,259.89,258.45,256.28,253.24,250.44,249.17,248.82,248.82,248.63,248.37,247.60,246.09,243.59,239.91,235.30,230.48,226.23,222.33,218.24,213.82,209.28,205.61,201.94,197.41,192.13,186.64,181.38,177.55,174.45,171.47,168.60,165.86,163.55,161.76,160.54,160.31,160.38,160.21,159.24,157.94,156.24,154.65,153.31,151.66,149.98,148.08,145.95,143.66,141.30,139.05,136.91,134.82,132.53,130.06,127.73,125.32,121.97,115.62,109.43,103.91,99.23,95.55,91.68,87.63,83.44,79.43,77.00,74.89,73.07,71.99,72.65,73.37,73.91,74.15,74.21,74.43,74.71,75.03,75.38,76.29,77.85,80.11,83.00,84.48,85.79,86.14,85.22,83.74,82.23,83.19,86.33,89.82,95.32,101.04,106.84,112.59,117.00,120.42,123.35,125.80,127.15,128.27,128.68,128.57,128.25,127.09,125.28,123.04,120.45,117.06,113.31,108.04,101.53,95.00,90.33,86.00,81.98,78.20,73.44,70.75,69.48,69.20,69.40,69.63,70.06,70.65,71.35,72.98,74.58,75.60,75.74,75.53,74.65,73.57,72.48,71.56,71.10,70.66,70.24,69.87,69.61,69.24,68.72,68.06,67.36,66.83,66.21,65.28,63.84,61.94,59.84,57.64,55.24,51.63,45.83,41.03,38.25,37.77,36.40,34.52,32.40,30.33,29.46,28.84,28.23,27.46,26.40,25.39,24.43,23.51,22.58,21.62,20.75,20.12,19.82,19.72,19.62,19.53,19.45,19.38,19.30,19.26,19.20,19.07,18.99,18.85,18.74,18.66,18.58,18.44,18.33,18.25,18.17,18.02,17.92,17.81,17.66,17.53,17.44,17.36,17.28,17.21,17.15,17.01,16.83,16.65,16.44,16.26,16.06,15.90,16.01,16.21,16.39,16.51,16.53,16.45
187.42,187.55,187.73,188.53,190.46,192.51,195.22,198.73,202.95,208.59,212.89,216.39,219.84,222.86,225.63,228.27,231.45,237.64,240.43,242.21,243.67,245.24,246.36,247.71,249.37,251.52,254.91,258.35,260.69,262.05,263.52,264.99,265.07,264.31,263.47,262.71,262.06,261.37,260.53,259.32,258.06,256.41,254.06,250.63,246.60,244.88,244.50,244.57,244.62,244.61,244.14,242.92,240.51,236.70,232.26,227.77,223.81,220.01,216.19,212.13,207.91,204.49,200.94,196.14,189.96,182.59,178.12,174.65,171.66,168.74,166.02,163.31,160.64,158.18,156.32,155.90,155.67,155.10,153.75,152.29,150.96,149.84,148.90,147.70,146.13,144.17,141.90,139.52,137.53,135.71,133.86,131.83,129.58,127.59,125.55,123.24,120.33,112.63,106.13,101.02,96.68,93.04,89.08,84.90,80.78,77.81,75.41,73.15,71.31,70.58,70.49,70.51,70.48,70.32,70.32,70.45,70.69,71.03,71.48,72.30,73.35,75.27,78.82,81.68,83.26,83.61,82.88,81.55,80.39,81.26,84.29,88.82,93.94,99.37,104.86,110.09,114.35,117.81,120.72,123.04,124.28,125.57,126.12,126.18,126.22,125.89,125.21,123.68,121.18,118.48,114.93,110.50,104.96,97.84,93.09,88.72,84.54,80.41,75.20,71.12,68.40,67.11,67.06,67.14,67.42,67.70,67.70,68.00,68.34,68.74,69.10,68.94,68.20,67.29,66.39,65.68,65.27,64.88,64.56,64.39,64.22,63.99,63.67,63.20,62.51,61.89,61.11,60.16,59.11,57.95,56.53,54.70,52.23,47.97,42.30,38.63,37.17,36.14,34.64,32.80,31.00,29.65,29.07,28.52,27.98,27.34,26.33,25.33,24.37,23.44,22.51,21.65,20.85,20.23,19.88,19.73,19.58,19.47,19.39,19.31,19.24,19.16,19.09,19.00,18.93,18.79,18.67,18.59,18.52,18.37,18.26,18.19,18.11,17.95,17.85,17.75,17.60,17.52,17.44,17.36,17.28,17.21,17.20,17.14,17.00,16.78,16.62,16.41,16.21,16.08,16.09,16.23,16.39,16.52,16.59,16.52
182.86,182.53,183.02,184.98,189.19,192.43,195.75,199.72,205.02,210.29,214.32,217.67,220.99,223.96,226.83,229.73,233.01,237.66,240.34,242.26,243.83,245.42,246.72,248.08,249.69,251.81,255.12,258.42,260.68,262.02,263.45,264.42,264.21,263.35,262.51,261.74,260.98,259.98,258.67,257.30,255.98,254.41,251.97,247.79,242.93,240.58,239.68,239.37,239.84,240.04,239.78,238.81,236.63,233.15,229.30,225.30,221.34,217.95,214.40,210.68,206.89,203.36,199.35,194.27,188.27,181.85,176.70,172.63,169.23,166.16,163.46,160.76,158.05,155.42,153.05,151.52,150.55,149.66,148.33,147.34,146.63,145.94,145.10,143.81,142.05,139.74,137.12,134.68,132.27,130.22,128.58,127.32,126.04,124.97,123.49,121.28,118.03,111.38,105.12,99.66,94.91,90.79,86.44,82.41,79.03,76.35,73.61,71.40,69.99,69.56,69.40,69.32,69.23,69.11,69.15,69.21,69.33,69.51,69.71,70.14,70.66,71.63,73.54,77.57,79.71,80.34,79.85,79.06,78.03,78.70,81.34,85.54,91.52,97.37,102.82,107.68,111.49,114.82,117.66,119.99,121.75,123.00,123.67,123.92,123.95,124.03,123.93,123.27,121.76,119.05,115.83,112.25,107.86,101.69,96.31,91.51,87.17,83.09,78.58,73.49,69.66,67.56,66.21,65.31,64.93,64.81,64.51,64.22,63.99,63.83,63.69,63.36,62.82,62.17,61.50,60.93,60.49,60.21,60.03,59.92,59.76,59.55,59.27,58.89,58.32,57.83,57.31,56.68,55.81,55.04,53.71,51.37,47.79,43.38,39.84,37.54,36.21,34.95,33.43,31.70,30.20,29.34,28.80,28.26,27.70,27.07,26.25,25.30,24.41,23.56,22.68,21.87,21.09,20.42,19.94,19.79,19.63,19.49,19.37,19.25,19.17,19.09,19.02,18.94,18.86,18.73,18.61,18.53,18.45,18.31,18.20,18.11,17.99,17.88,17.79,17.70,17.59,17.51,17.44,17.38,17.34,17.26,17.22,17.18,17.11,16.96,16.81,16.60,16.40,16.25,16.12,16.23,16.41,16.57,16.60,16.57
178.80,178.56,179.66,182.55,188.47,192.80,196.66,200.99,207.19,212.14,215.96,219.22,222.49,225.46,228.43,231.54,234.82,238.17,240.55,242.47,244.13,245.76,247.27,248.68,250.29,252.39,255.46,258.56,260.70,261.99,263.39,263.74,263.28,262.40,261.54,260.63,259.63,258.29,256.63,255.16,253.88,252.35,249.78,245.15,239.88,236.70,234.86,233.81,234.47,234.94,234.98,234.34,232.56,229.55,226.27,222.74,218.97,215.89,212.55,209.10,205.61,202.03,197.77,192.64,187.03,181.69,175.97,171.16,167.09,163.62,161.01,158.34,155.59,152.79,149.95,147.46,145.76,144.47,143.12,142.43,142.13,141.62,140.60,139.09,137.08,134.38,131.40,128.89,126.34,124.19,122.71,122.04,121.84,121.63,120.80,119.01,115.84,110.67,105.01,99.41,94.33,89.36,84.35,80.30,77.54,74.99,72.09,70.04,68.96,68.62,68.46,68.36,68.28,68.22,68.29,68.32,68.35,68.39,68.39,68.51,68.67,68.96,69.59,73.53,75.75,76.65,76.62,76.24,75.52,76.20,78.50,82.09,88.58,94.92,100.60,105.30,108.68,111.71,114.34,116.61,118.69,119.96,120.82,121.36,121.64,122.09,122.40,122.39,121.77,119.38,116.67,113.82,110.45,105.68,99.82,94.58,89.96,85.83,81.89,76.46,71.78,68.58,66.20,64.18,62.97,62.33,61.75,61.00,60.34,59.73,59.18,58.65,58.23,57.74,57.20,56.68,56.19,55.94,55.83,55.72,55.53,55.31,55.05,54.74,54.34,54.00,53.72,53.37,52.72,52.10,50.62,47.79,43.60,39.77,37.96,36.61,35.27,33.90,32.38,30.83,29.63,29.09,28.53,27.99,27.41,26.78,26.10,25.28,24.50,23.74,22.91,22.12,21.34,20.63,20.06,19.86,19.70,19.54,19.39,19.23,19.13,19.04,18.95,18.88,18.80,18.68,18.56,18.48,18.39,18.26,18.16,18.06,17.92,17.83,17.75,17.67,17.59,17.53,17.46,17.41,17.38,17.31,17.24,17.21,17.17,17.10,16.97,16.78,16.59,16.41,16.19,16.27,16.44,16.60,16.60,16.62
175.93,176.97,179.27,182.44,188.51,193.55,198.02,202.78,209.52,214.27,218.00,221.31,224.73,227.80,230.87,233.96,237.01,239.72,241.41,243.01,244.65,246.27,247.93,249.49,251.25,253.42,255.94,258.78,260.75,261.93,263.32,262.94,262.25,261.44,260.56,259.20,257.68,256.06,254.39,252.93,251.82,250.14,247.36,242.98,238.10,233.71,230.13,227.77,228.09,228.97,229.53,229.39,228.29,225.93,223.07,219.96,216.80,213.77,210.56,207.19,203.72,200.28,196.34,191.64,186.58,181.93,176.17,170.57,165.43,161.09,158.78,156.21,153.34,150.21,146.99,144.05,141.72,139.87,138.32,137.44,137.05,136.18,134.48,132.63,130.31,127.23,123.90,121.30,119.41,117.58,116.17,115.55,116.39,116.82,116.79,116.06,114.08,110.63,106.13,101.08,96.01,89.57,83.43,78.91,76.33,73.78,71.21,69.44,68.43,67.74,67.57,67.46,67.39,67.32,67.40,67.47,67.47,67.43,67.43,67.51,67.68,68.02,68.64,69.96,71.18,72.31,73.18,72.79,72.86,73.99,76.12,78.87,84.81,91.62,98.03,102.98,106.07,108.45,110.58,112.60,114.44,115.95,117.14,118.17,119.28,120.18,120.64,120.81,120.65,119.44,117.54,115.19,112.53,109.74,103.83,98.18,93.07,88.57,84.63,80.12,75.06,70.14,67.56,64.33,62.06,60.69,59.77,58.63,57.63,56.84,56.22,55.49,54.99,54.46,53.84,53.18,52.58,52.24,52.03,51.82,51.53,51.29,51.05,50.81,50.61,50.42,50.21,49.97,49.72,48.85,46.81,43.78,40.25,38.45,37.04,35.69,34.32,33.00,31.53,30.29,29.37,28.83,28.22,27.67,27.09,26.47,25.84,25.24,24.65,24.01,23.23,22.39,21.60,20.89,20.30,19.95,19.76,19.60,19.45,19.30,19.15,19.01,18.89,18.81,18.73,18.65,18.56,18.48,18.33,18.24,18.16,18.08,17.99,17.84,17.75,17.67,17.60,17.59,17.52,17.45,17.38,17.31,17.29,17.24,17.17,17.10,17.08,16.95,16.76,16.54,16.38,16.37,16.48,16.60,16.60,16.66
174.07,176.24,179.42,183.18,188.35,193.73,199.19,205.00,211.88,216.44,220.24,223.74,227.27,230.43,233.63,236.58,239.12,241.00,242.25,243.59,245.11,246.73,248.43,250.18,252.09,254.25,256.68,259.10,260.81,261.84,262.66,262.14,261.40,260.45,259.20,257.55,255.86,254.09,252.26,250.49,249.19,247.44,244.74,240.56,236.04,231.05,226.42,223.03,222.89,223.62,224.48,224.99,224.47,222.57,219.99,217.11,214.24,211.34,208.02,204.56,201.15,197.90,194.32,190.25,185.90,181.65,176.32,170.78,165.38,160.60,158.02,155.28,152.33,149.12,145.61,142.31,139.22,136.37,133.84,132.09,130.38,128.45,126.26,124.29,122.27,119.83,117.22,115.04,113.48,111.82,110.38,109.48,109.96,110.66,111.25,111.48,111.02,109.66,106.78,102.83,98.46,91.92,85.37,80.33,77.31,74.88,71.93,69.77,68.42,67.34,66.79,66.57,66.51,66.47,66.51,66.55,66.53,66.47,66.47,66.51,66.69,67.08,67.73,68.28,69.05,69.91,70.64,70.55,70.77,71.81,73.79,76.67,81.38,87.79,94.46,100.01,103.21,105.37,107.12,108.72,110.20,111.33,112.26,113.17,114.30,115.49,116.43,117.24,117.85,117.26,116.49,115.56,114.20,111.92,107.90,102.71,97.20,92.17,87.93,83.74,78.93,73.64,69.25,65.24,61.88,59.43,58.13,56.82,55.51,54.38,53.49,52.49,52.03,51.65,51.25,50.82,50.39,49.89,49.43,49.09,48.90,48.70,48.38,47.97,47.74,47.51,47.25,46.93,46.48,45.18,43.20,40.89,38.63,37.35,36.05,34.71,33.37,32.05,30.74,29.74,29.01,28.43,27.81,27.22,26.64,26.05,25.39,24.77,24.22,23.71,23.16,22.53,21.86,21.18,20.54,20.00,19.77,19.62,19.47,19.31,19.12,18.98,18.87,18.80,18.72,18.61,18.52,18.43,18.32,18.23,18.16,18.07,17.95,17.84,17.77,17.72,17.64,17.61,17.54,17.48,17.43,17.35,17.31,17.25,17.19,17.15,17.11,17.01,16.88,16.72,16.57,16.45,16.51,16.65,16.65,16.72
172.89,176.14,180.04,184.26,188.38,194.05,200.52,207.40,214.23,218.68,222.64,226.36,229.98,233.24,236.42,239.08,241.01,242.16,243.12,244.24,245.59,247.18,248.87,250.79,252.85,254.98,257.36,259.35,260.80,261.65,261.86,261.35,260.53,259.33,257.66,255.80,254.06,252.21,250.17,248.07,246.45,244.61,242.03,238.09,233.82,228.38,223.04,219.01,218.25,218.48,219.36,220.37,220.42,219.00,216.77,214.13,211.46,208.67,205.25,201.73,198.42,195.33,192.07,188.63,184.97,181.02,176.27,171.12,165.91,161.08,158.07,155.09,152.07,148.89,145.29,141.76,138.14,134.42,130.66,127.63,124.24,121.07,118.42,116.27,114.58,112.89,111.16,109.51,108.14,106.59,105.03,103.69,103.48,104.32,105.45,106.56,107.51,108.03,106.89,104.35,100.95,95.09,88.40,82.83,79.28,76.80,73.25,70.46,68.59,67.16,66.12,65.70,65.63,65.63,65.62,65.61,65.58,65.52,65.51,65.51,65.70,66.13,66.80,67.18,67.72,68.23,68.58,68.83,69.01,69.84,71.66,74.82,78.41,84.11,90.67,96.71,100.15,102.21,103.66,104.88,106.04,106.72,107.30,107.96,108.86,110.19,111.57,113.03,114.37,114.33,114.64,115.11,115.06,113.16,111.35,107.19,101.75,96.28,91.60,87.45,82.99,77.84,71.75,66.87,62.26,58.58,56.89,55.32,53.68,52.22,51.05,49.92,49.53,49.34,49.18,49.02,48.76,48.11,47.36,46.86,46.73,46.58,46.15,45.47,45.14,44.81,44.49,44.03,43.28,41.76,40.12,38.67,37.54,36.31,35.01,33.69,32.38,31.11,30.00,29.22,28.60,27.98,27.36,26.74,26.16,25.58,24.89,24.19,23.62,23.18,22.87,22.48,21.95,21.34,20.68,20.02,19.77,19.62,19.46,19.30,19.08,18.94,18.86,18.78,18.71,18.58,18.46,18.39,18.31,18.22,18.14,18.05,17.90,17.83,17.81,17.78,17.70,17.63,17.55,17.51,17.49,17.42,17.34,17.26,17.21,17.20,17.13,17.05,16.98,16.89,16.74,16.53,16.55,16.70,16.71,16.79
173.17,177.57,181.88,185.63,189.51,195.66,202.69,209.90,216.54,221.21,225.45,229.38,233.05,236.41,238.93,240.77,242.09,243.19,244.19,245.16,246.24,247.63,249.26,251.25,253.38,255.50,257.44,259.23,260.48,261.12,261.23,260.57,259.35,257.73,255.87,253.96,252.21,250.31,248.18,246.04,244.02,241.88,239.27,235.72,231.31,225.24,219.71,216.28,214.38,213.44,213.44,214.12,214.81,214.22,212.80,210.75,208.27,205.43,202.25,199.01,195.86,192.77,189.68,186.56,183.28,179.67,175.41,170.99,166.76,162.96,159.55,156.34,153.30,150.35,147.29,143.94,140.96,137.47,132.44,127.34,122.39,118.19,114.92,112.03,109.99,108.19,106.57,105.23,103.95,102.40,100.55,98.55,98.05,98.94,100.54,102.39,103.82,104.84,105.38,104.85,102.60,98.76,92.18,86.22,82.41,79.09,74.96,71.44,68.86,67.23,65.66,64.93,64.73,64.73,64.67,64.66,64.65,64.62,64.56,64.56,64.74,65.14,65.71,66.10,66.57,66.99,67.31,67.60,67.88,68.70,70.34,73.05,76.91,81.75,87.25,92.90,96.53,98.52,99.87,101.05,102.20,102.93,103.56,104.21,104.96,106.00,107.33,108.80,110.22,111.23,111.94,112.61,113.06,112.88,112.19,110.29,106.72,101.35,96.08,91.52,87.08,82.41,77.21,70.59,64.02,58.92,56.89,54.38,52.33,50.71,49.52,48.93,48.64,48.42,48.22,48.06,47.61,46.86,45.96,45.12,44.75,44.54,43.97,43.03,42.60,42.17,41.75,41.25,40.60,40.02,38.97,37.69,36.39,35.21,33.93,32.58,31.28,30.20,29.43,28.77,28.15,27.53,26.92,26.30,25.69,25.07,24.38,23.68,23.02,22.47,22.16,21.78,21.35,20.90,20.45,19.99,19.77,19.62,19.45,19.24,19.06,18.91,18.80,18.72,18.64,18.55,18.46,18.39,18.31,18.18,18.08,18.00,17.90,17.88,17.88,17.85,17.77,17.69,17.61,17.55,17.50,17.48,17.41,17.33,17.26,17.20,17.18,17.12,17.04,16.96,16.87,16.70,16.66,16.72,16.77,16.85
174.45,179.22,183.33,186.79,190.95,197.55,204.94,212.37,219.12,224.06,228.48,232.51,236.16,238.84,240.69,242.06,243.17,244.25,245.26,246.18,247.12,248.27,249.77,251.58,253.55,255.54,257.31,259.00,260.13,260.57,260.33,259.22,257.67,255.87,254.00,252.14,250.16,248.05,245.84,243.67,241.40,239.05,236.43,233.28,228.32,222.54,217.49,214.13,211.01,209.05,208.33,208.62,209.30,209.22,208.51,207.10,204.96,202.13,199.09,196.00,192.92,189.96,187.14,184.26,181.18,177.76,173.90,170.05,166.41,163.08,159.81,156.91,154.18,151.53,148.86,145.82,143.11,139.97,135.41,128.98,123.26,118.41,114.35,110.44,107.07,104.31,102.26,101.02,99.73,97.84,95.55,93.23,92.55,93.40,95.26,97.64,99.72,101.73,103.27,103.88,103.11,100.67,95.33,89.74,85.35,81.75,77.40,73.07,69.46,67.55,65.74,64.47,63.83,63.79,63.75,63.71,63.70,63.68,63.61,63.57,63.76,64.13,64.55,64.96,65.37,65.73,66.04,66.35,66.89,67.87,69.40,71.64,75.74,80.23,84.92,89.52,92.83,94.65,95.77,96.58,97.37,98.21,99.01,99.79,100.58,101.57,102.82,104.17,105.54,106.83,107.90,108.85,109.77,110.82,111.38,111.02,109.01,104.83,99.81,95.47,91.23,86.82,82.11,75.44,67.98,61.40,57.73,54.65,51.90,49.90,48.80,48.13,47.75,47.49,47.29,47.11,46.44,45.60,44.65,43.70,43.02,42.52,41.84,40.98,40.67,40.36,40.06,39.70,39.24,38.98,38.18,37.00,35.59,34.34,32.99,31.62,30.39,29.57,28.94,28.32,27.70,27.09,26.47,25.85,25.23,24.60,23.91,23.21,22.52,21.89,21.42,21.07,20.71,20.39,20.13,19.83,19.68,19.56,19.41,19.18,19.02,18.88,18.77,18.70,18.59,18.50,18.42,18.35,18.27,18.15,18.07,18.02,17.94,17.94,17.94,17.92,17.87,17.80,17.72,17.64,17.57,17.54,17.47,17.39,17.31,17.24,17.21,17.14,17.08,17.03,16.95,16.83,16.75,16.73,16.84,16.92
176.30,180.96,184.52,187.81,192.58,199.60,207.22,214.80,221.85,227.08,231.63,235.67,239.18,240.78,241.99,243.11,244.25,245.34,246.35,247.26,248.14,249.07,250.37,251.88,253.56,255.32,257.09,258.70,259.72,259.94,259.24,257.54,255.71,253.89,252.11,250.32,248.00,245.58,243.29,241.12,238.69,236.18,233.56,230.76,225.11,220.13,215.93,212.35,207.97,205.10,203.74,203.60,203.90,204.13,204.03,203.27,201.54,198.77,195.83,192.79,189.76,186.99,184.47,181.76,178.75,175.43,171.92,168.54,165.26,162.08,159.26,156.98,154.75,152.43,150.05,147.38,144.72,141.97,138.83,131.68,125.73,120.49,115.58,110.55,105.39,101.21,98.38,97.04,95.58,93.16,90.37,87.90,87.09,87.80,89.72,92.48,95.29,98.51,100.67,101.97,102.85,101.45,97.98,93.26,88.16,84.64,80.29,75.16,70.37,68.02,66.12,64.19,62.93,62.84,62.84,62.78,62.74,62.72,62.65,62.57,62.77,63.11,63.33,63.79,64.14,64.45,64.77,65.08,65.97,67.19,68.68,70.45,74.73,79.16,83.18,86.43,89.08,90.66,91.47,91.76,91.99,92.96,93.95,94.90,95.83,96.92,98.05,99.22,100.43,101.61,102.98,104.28,105.66,107.59,109.37,110.12,109.46,107.12,102.97,99.25,95.35,91.09,86.62,80.86,73.21,65.22,59.18,55.70,52.07,49.52,48.56,47.48,46.89,46.57,46.38,46.13,45.24,44.32,43.39,42.46,41.47,40.60,39.84,39.25,39.17,39.09,39.01,38.89,38.66,38.35,37.61,36.46,35.01,33.61,32.16,30.78,29.65,29.11,28.49,27.88,27.26,26.64,26.02,25.40,24.78,24.15,23.45,22.76,22.07,21.38,20.69,20.38,20.07,19.86,19.78,19.62,19.53,19.45,19.34,19.12,18.96,18.85,18.77,18.69,18.54,18.44,18.37,18.29,18.22,18.14,18.11,18.08,18.01,18.01,18.01,18.01,18.00,17.92,17.85,17.77,17.69,17.61,17.54,17.46,17.38,17.30,17.23,17.15,17.11,17.09,17.01,16.94,16.82,16.75,16.90,16.98
177.92,182.12,185.22,188.63,194.44,201.68,209.46,217.29,224.58,230.05,234.73,238.33,240.57,241.87,243.05,244.17,245.28,246.42,247.44,248.35,249.24,250.22,251.32,252.67,254.16,255.69,257.36,258.35,258.65,258.33,257.59,255.88,254.05,252.23,250.44,248.51,245.85,243.18,240.78,238.51,236.11,233.71,231.10,227.95,222.79,218.37,214.48,210.73,205.46,201.81,199.84,199.30,199.50,199.59,199.62,199.12,197.59,195.07,192.30,189.43,186.58,183.91,181.32,178.28,174.93,171.66,168.68,165.57,162.54,159.78,157.60,155.56,153.51,151.40,149.32,146.77,144.09,141.37,138.58,133.20,128.12,123.00,117.73,112.55,107.28,102.48,98.48,95.62,92.86,89.86,86.87,84.20,82.75,82.66,83.84,86.19,89.50,92.99,96.03,98.68,101.02,100.71,98.80,95.35,90.91,87.83,83.33,78.07,72.79,68.72,66.28,63.89,62.26,61.95,61.89,61.82,61.78,61.77,61.69,61.61,61.79,62.04,62.12,62.53,62.87,63.20,63.55,63.86,64.71,66.02,67.64,69.31,73.25,77.30,80.91,83.68,85.44,86.52,87.06,87.23,87.46,87.98,88.30,88.72,89.70,90.99,91.92,92.77,93.76,95.18,96.84,98.70,100.67,102.55,104.33,105.69,106.23,105.65,104.36,101.67,98.29,94.51,90.24,84.80,77.91,70.15,62.43,57.62,52.86,49.61,48.43,47.35,46.43,45.80,45.36,44.87,43.97,43.04,42.13,41.26,40.47,39.83,39.24,38.72,38.48,38.39,38.31,38.20,38.02,37.71,37.01,35.91,34.49,33.05,31.63,30.32,29.26,28.66,28.05,27.43,26.81,26.19,25.57,24.96,24.31,23.64,22.94,22.29,21.65,21.01,20.37,20.11,19.89,19.73,19.65,19.55,19.47,19.36,19.24,19.11,18.96,18.85,18.76,18.63,18.53,18.44,18.39,18.36,18.34,18.27,18.21,18.16,18.14,18.14,18.14,18.14,18.13,18.05,17.97,17.90,17.82,17.74,17.66,17.59,17.51,17.43,17.36,17.28,17.21,17.16,17.08,17.00,16.91,16.86,16.97,17.04
179.24,183.13,185.99,189.45,196.28,203.80,211.59,219.48,227.26,232.66,237.07,240.18,241.71,242.92,244.09,245.22,246.33,247.47,248.51,249.46,250.39,251.40,252.45,253.62,254.88,256.16,257.17,257.43,257.16,256.52,255.80,254.18,252.39,250.54,248.68,246.67,243.83,241.01,238.56,236.22,233.85,231.34,228.51,225.12,220.68,216.70,212.87,208.75,203.21,199.21,196.69,195.47,195.14,195.02,195.08,194.77,193.48,191.18,188.52,185.80,183.13,180.40,177.57,174.43,171.15,168.08,165.39,162.63,159.99,157.64,155.76,153.84,151.88,149.90,147.94,145.53,143.02,140.48,137.96,134.07,129.79,124.99,119.79,114.96,109.57,104.38,99.62,95.45,91.37,87.44,83.97,81.25,79.72,79.24,79.63,80.95,83.64,86.90,90.46,94.03,97.20,97.97,97.58,95.81,92.84,90.05,85.79,80.83,75.50,70.16,66.83,63.83,61.75,61.05,60.97,60.88,60.81,60.78,60.70,60.62,60.74,60.90,60.94,61.32,61.69,62.05,62.39,62.63,63.20,64.32,65.96,67.92,71.54,75.17,78.32,80.61,81.35,82.00,82.35,82.43,82.61,82.55,82.53,82.83,83.79,85.23,86.35,87.25,88.12,89.50,91.25,93.36,95.60,97.53,99.36,101.10,102.47,103.24,103.62,102.18,99.73,96.58,92.55,87.54,81.44,74.27,66.10,59.97,54.42,50.48,48.58,47.45,46.34,45.41,44.63,43.86,42.99,42.13,41.28,40.47,39.82,39.30,38.80,38.31,37.92,37.72,37.61,37.51,37.35,37.07,36.40,35.37,34.05,32.68,31.36,30.15,29.15,28.53,27.92,27.30,26.67,26.03,25.39,24.78,24.16,23.51,22.81,22.19,21.55,20.91,20.27,19.99,19.81,19.71,19.66,19.61,19.55,19.45,19.30,19.17,18.97,18.84,18.72,18.60,18.54,18.49,18.46,18.46,18.43,18.39,18.32,18.26,18.26,18.26,18.25,18.24,18.26,18.18,18.10,18.02,17.95,17.87,17.79,17.71,17.64,17.56,17.48,17.41,17.33,17.25,17.17,17.10,17.02,16.97,17.00,17.10
180.25,183.96,186.82,190.27,198.08,205.94,213.62,221.38,229.90,234.87,238.63,241.22,242.61,243.92,245.11,246.27,247.41,248.50,249.58,250.61,251.61,252.61,253.76,254.72,255.71,256.73,256.50,255.94,255.23,254.50,253.87,252.45,250.73,248.83,246.83,244.82,241.94,239.10,236.64,234.25,231.92,229.09,225.79,222.24,218.78,215.14,211.08,206.43,201.23,197.30,194.29,192.12,190.80,190.43,190.42,190.20,189.21,187.11,184.50,181.89,179.39,176.47,173.23,170.21,167.42,164.69,162.06,159.72,157.61,155.65,153.72,151.79,149.86,147.91,145.90,143.67,141.50,139.32,136.98,134.27,130.73,126.47,121.77,117.77,112.25,106.91,101.82,96.57,91.11,85.90,81.69,79.06,78.02,77.57,77.09,76.76,77.73,80.25,83.96,88.01,91.35,93.21,94.30,94.61,93.95,91.31,87.66,83.44,78.49,72.36,67.76,64.01,61.40,60.16,60.08,59.94,59.83,59.75,59.68,59.60,59.62,59.71,59.79,60.17,60.61,61.00,61.29,61.37,61.42,62.09,63.64,66.30,69.62,72.77,75.41,77.20,76.81,77.10,77.34,77.36,77.45,76.67,76.63,77.25,78.11,79.65,81.32,82.68,83.54,84.57,86.23,88.26,90.47,92.54,94.47,96.34,98.17,99.89,100.71,100.74,99.64,97.27,93.54,89.04,83.78,77.57,70.18,62.77,56.74,52.14,49.02,47.79,46.62,45.40,44.17,43.11,42.32,41.59,40.86,40.09,39.55,39.01,38.50,38.02,37.49,37.10,36.90,36.80,36.65,36.41,35.80,34.86,33.69,32.52,31.35,30.26,29.34,28.73,28.11,27.49,26.85,26.15,25.46,24.88,24.34,23.76,23.07,22.44,21.78,21.09,20.40,20.01,19.84,19.79,19.79,19.79,19.78,19.70,19.53,19.31,19.01,18.80,18.68,18.60,18.60,18.59,18.59,18.58,18.51,18.49,18.45,18.39,18.39,18.39,18.34,18.32,18.38,18.31,18.23,18.15,18.07,18.00,17.92,17.84,17.77,17.69,17.61,17.53,17.46,17.38,17.30,17.22,17.15,17.07,17.00,17.15
181.21,184.68,187.86,191.89,199.91,207.58,215.10,222.71,230.82,236.34,239.76,241.80,243.27,244.63,245.94,247.22,248.44,249.52,250.48,251.51,252.56,253.47,253.89,254.46,254.98,255.28,254.97,254.35,253.59,252.77,251.97,250.63,248.92,246.99,244.98,242.97,240.33,237.63,235.14,232.74,229.97,226.83,223.48,220.20,216.85,213.38,209.50,205.05,200.25,196.13,192.42,189.26,187.22,186.61,186.30,185.81,184.75,182.62,179.97,177.25,174.66,172.00,169.21,166.54,163.98,161.42,159.11,156.96,154.95,153.01,151.03,148.95,146.95,145.06,143.14,141.01,138.67,136.35,134.31,132.19,129.58,126.63,123.42,120.08,114.99,109.76,104.52,98.91,93.26,86.28,80.52,77.87,76.55,75.66,74.66,73.63,73.38,74.79,77.85,81.59,84.78,87.31,89.47,91.05,91.71,90.37,87.62,84.18,79.97,74.57,69.91,65.42,61.79,59.58,59.09,58.87,58.71,58.55,58.48,58.48,58.59,58.78,58.99,59.38,59.69,59.96,60.19,60.22,60.23,60.51,61.34,63.08,66.24,69.36,71.87,73.25,72.42,71.81,71.19,70.48,69.69,69.68,70.54,71.92,73.32,74.72,75.84,76.85,77.85,78.67,80.22,82.15,84.34,86.66,88.96,91.20,93.24,94.91,95.95,96.33,96.25,95.48,93.11,89.08,84.03,78.23,71.95,65.56,59.32,53.76,49.47,48.23,46.98,45.67,44.35,43.13,42.03,41.16,40.44,39.77,39.23,38.72,38.22,37.72,37.22,36.74,36.36,36.11,36.01,35.77,35.39,34.76,33.85,32.74,31.62,30.59,29.71,29.10,28.48,27.83,27.14,26.41,25.85,25.34,24.80,24.21,23.56,22.89,22.24,21.58,20.88,20.31,19.99,19.90,19.99,20.08,20.13,20.03,19.78,19.50,19.19,18.92,18.73,18.66,18.66,18.66,18.66,18.65,18.62,18.62,18.57,18.52,18.52,18.52,18.47,18.43,18.46,18.43,18.36,18.28,18.20,18.12,18.05,17.97,17.89,17.82,17.74,17.66,17.60,17.57,17.49,17.41,17.31,17.20,17.12,17.23
182.09,185.35,188.97,193.82,201.73,209.17,216.54,223.98,231.64,237.53,240.68,242.32,243.84,245.27,246.68,248.05,249.33,250.36,251.25,252.10,252.86,253.46,253.31,253.58,253.81,253.68,253.37,252.76,251.96,251.00,249.93,248.60,246.92,245.01,243.03,241.02,238.66,236.16,233.65,231.17,227.96,224.55,221.19,218.19,215.02,211.66,207.93,203.72,199.16,194.75,190.43,186.49,183.74,182.62,181.90,181.11,179.81,177.63,175.21,172.73,170.28,167.93,165.48,163.11,160.80,158.44,156.35,154.31,152.29,150.23,148.17,145.99,143.93,141.98,139.94,137.83,135.46,133.18,131.42,129.72,127.82,125.84,123.73,121.04,116.62,111.86,106.86,101.22,95.76,88.38,81.62,77.52,75.85,74.26,72.68,71.21,70.22,70.71,72.79,75.67,78.31,81.21,84.00,86.34,87.89,87.73,86.08,83.66,80.47,76.25,71.82,67.01,62.60,59.35,58.58,58.15,57.79,57.46,57.38,57.48,57.66,57.92,58.23,58.58,58.80,58.99,59.17,59.17,59.17,59.24,59.55,60.45,62.93,65.47,67.57,68.77,67.89,66.73,65.49,64.22,62.87,63.29,64.55,66.25,67.98,69.46,70.21,70.95,72.02,72.71,74.15,75.85,77.74,79.91,82.71,85.50,87.89,89.62,90.99,91.77,92.48,92.99,91.99,88.61,83.96,78.63,73.25,67.66,61.26,55.09,50.18,48.68,47.31,45.96,44.60,43.27,41.94,40.87,40.07,39.47,38.93,38.45,37.95,37.42,36.94,36.41,35.91,35.53,35.34,35.13,34.90,34.53,33.89,32.92,31.86,30.89,30.07,29.46,28.80,28.14,27.44,26.74,26.28,25.81,25.28,24.68,24.04,23.37,22.72,22.07,21.42,20.77,20.34,20.20,20.37,20.51,20.48,20.27,19.93,19.62,19.30,18.99,18.78,18.72,18.72,18.72,18.72,18.72,18.72,18.72,18.69,18.65,18.65,18.65,18.59,18.55,18.55,18.55,18.48,18.41,18.33,18.25,18.18,18.10,18.02,17.94,17.89,17.81,17.76,17.73,17.66,17.58,17.46,17.33,17.25,17.29
182.82,185.96,190.17,196.18,203.55,210.74,217.95,225.23,232.49,238.31,241.32,242.82,244.30,245.82,247.29,248.72,250.01,250.89,251.80,252.15,252.09,251.99,251.65,251.82,252.08,252.09,251.78,251.21,250.32,249.13,247.66,246.21,244.58,242.80,240.92,238.92,236.85,234.61,232.14,229.41,225.83,222.22,218.90,216.15,213.36,210.06,206.35,202.31,197.75,192.91,188.17,183.83,180.35,178.21,176.95,175.83,174.06,171.83,170.14,168.48,166.63,164.63,162.22,160.02,158.01,155.94,153.86,151.82,149.66,147.28,145.07,142.94,140.82,138.62,136.09,133.84,131.74,129.88,128.36,126.85,125.27,123.56,121.72,119.73,116.29,112.60,108.51,103.32,98.54,93.23,86.51,78.52,76.50,73.78,71.46,69.88,68.94,68.89,69.53,70.67,72.12,74.92,77.61,79.96,81.75,82.43,82.21,81.21,79.46,77.02,73.17,68.74,64.05,59.67,58.90,58.08,57.25,56.56,56.49,56.67,56.89,57.15,57.46,57.71,57.94,58.14,58.28,58.28,58.28,58.40,58.66,59.06,59.92,60.88,62.07,63.45,63.11,62.07,60.71,59.26,58.00,58.08,58.77,59.96,61.60,63.52,64.40,65.10,66.08,66.77,68.13,69.36,70.45,71.77,75.29,78.86,81.89,83.97,85.94,87.31,88.52,89.58,89.87,87.46,83.61,78.91,74.01,68.58,62.04,55.94,51.37,49.12,47.59,46.24,44.91,43.53,42.15,40.81,39.77,39.22,38.68,38.20,37.70,37.16,36.63,36.09,35.59,35.12,34.64,34.48,34.26,34.01,33.67,33.00,31.99,31.09,30.39,29.78,29.03,28.36,27.75,27.19,26.72,26.26,25.75,25.18,24.50,23.86,23.20,22.55,21.99,21.50,21.04,20.86,21.07,21.16,20.80,20.34,19.93,19.62,19.25,18.96,18.80,18.79,18.79,18.79,18.79,18.79,18.79,18.79,18.78,18.77,18.77,18.77,18.72,18.67,18.67,18.67,18.61,18.53,18.46,18.38,18.30,18.23,18.15,18.07,18.06,18.00,17.93,17.86,17.79,17.71,17.59,17.45,17.38,17.32
183.55,186.78,191.31,197.82,204.96,212.17,219.41,226.67,233.89,238.95,241.65,243.12,244.59,246.05,247.52,248.93,250.17,250.86,251.34,251.33,250.91,250.32,249.74,249.73,249.92,250.01,249.50,248.77,247.78,246.52,245.05,243.59,242.02,240.29,238.37,236.64,234.73,232.64,230.33,227.67,224.16,220.65,217.40,214.61,211.83,208.51,204.85,200.92,196.01,191.10,186.42,181.97,177.63,174.54,171.75,169.60,168.46,167.32,166.17,164.86,163.31,161.54,159.44,157.45,155.57,153.60,151.44,149.11,146.67,144.18,141.94,139.64,137.25,134.79,132.24,130.23,128.44,126.82,125.35,123.84,122.31,120.69,119.00,117.34,114.81,111.96,108.59,104.08,100.26,95.79,89.60,81.60,78.10,74.80,71.89,69.65,68.69,67.99,67.92,68.42,69.37,71.12,72.76,74.35,75.82,76.63,76.85,76.39,75.47,74.53,72.44,69.45,65.66,61.43,59.51,58.35,57.26,56.20,55.69,55.85,56.10,56.37,56.64,56.83,57.05,57.25,57.38,57.38,57.38,57.51,57.76,58.07,58.60,58.91,59.37,60.21,59.58,58.76,57.52,55.96,54.68,54.65,55.23,56.29,57.71,58.93,59.78,60.61,61.64,62.89,64.45,65.72,66.67,67.55,69.99,72.57,75.09,77.49,80.44,82.55,84.25,85.61,86.31,84.75,81.81,77.80,73.05,67.76,61.88,56.32,51.83,49.20,47.43,45.87,44.31,42.72,41.28,40.26,39.57,39.07,38.52,38.04,37.54,37.00,36.46,35.92,35.43,34.92,34.30,33.94,33.68,33.45,33.19,32.73,31.98,31.24,30.56,29.94,29.29,28.71,28.18,27.68,27.18,26.71,26.21,25.65,24.99,24.40,23.82,23.26,22.72,22.25,21.79,21.57,21.66,21.23,20.64,20.15,19.80,19.57,19.19,18.98,18.90,18.90,18.90,18.90,18.90,18.90,18.90,18.90,18.90,18.90,18.90,18.86,18.83,18.80,18.80,18.80,18.74,18.66,18.59,18.51,18.47,18.40,18.33,18.25,18.21,18.14,18.07,17.99,17.91,17.84,17.71,17.58,17.50,17.43
184.22,187.61,192.37,199.15,206.27,213.57,220.87,228.12,235.35,239.54,241.91,243.37,244.84,246.23,247.68,249.02,250.08,250.50,250.50,250.12,249.42,248.47,247.69,247.44,247.48,247.56,246.81,245.90,244.80,243.52,242.16,240.73,239.23,237.55,235.63,234.19,232.44,230.49,228.38,225.88,222.62,219.30,216.13,213.24,210.35,207.00,203.36,199.41,194.22,189.46,184.98,180.45,175.26,171.03,166.71,163.63,163.18,163.18,162.41,161.23,159.87,158.41,156.74,155.00,153.20,151.24,148.94,146.31,143.59,141.02,138.76,136.26,133.66,131.07,128.66,126.87,125.29,123.82,122.36,120.81,119.24,117.63,116.03,114.58,112.85,110.79,108.15,104.58,101.58,97.64,92.20,85.27,80.01,76.23,72.85,69.94,68.75,67.51,66.92,66.98,67.58,68.31,68.95,69.59,70.27,70.80,71.09,70.95,70.68,70.87,70.40,69.00,66.53,63.07,60.08,58.60,57.33,55.95,54.93,55.03,55.29,55.56,55.79,55.95,56.16,56.36,56.49,56.49,56.51,56.63,56.86,57.18,57.69,57.63,57.54,57.76,56.72,55.95,54.76,53.16,51.99,51.92,52.43,53.34,54.47,55.02,55.84,56.80,57.89,59.61,61.38,62.78,63.74,64.34,65.62,67.10,68.97,71.47,74.98,77.68,79.81,81.42,82.34,81.48,79.34,75.95,71.37,66.36,61.21,56.21,51.74,48.89,46.91,45.12,43.36,41.61,40.30,39.70,39.39,38.94,38.40,37.92,37.42,36.87,36.33,35.79,35.29,34.75,34.06,33.49,33.14,32.88,32.63,32.33,31.87,31.27,30.59,29.97,29.42,28.93,28.48,28.03,27.51,27.04,26.55,26.02,25.43,24.91,24.42,23.94,23.42,22.96,22.50,22.21,22.07,21.12,20.38,19.91,19.65,19.47,19.13,19.01,19.02,19.04,19.04,19.04,19.04,19.04,19.04,19.04,19.04,19.03,19.03,18.95,18.93,18.93,18.93,18.93,18.87,18.80,18.73,18.65,18.63,18.58,18.50,18.43,18.35,18.27,18.20,18.12,18.04,17.96,17.84,17.71,17.63,17.55
184.73,188.29,193.22,200.09,207.60,214.97,222.27,229.49,236.57,240.06,242.16,243.63,245.09,246.48,247.93,249.04,249.60,249.48,249.19,248.37,247.22,246.17,245.39,244.79,244.45,244.28,243.34,242.31,241.13,239.84,238.57,237.29,235.88,234.32,232.63,231.35,229.85,228.16,226.24,223.93,221.09,218.07,215.00,211.96,208.92,205.57,201.80,197.52,192.58,188.35,184.12,179.39,173.46,167.44,162.40,159.28,158.85,159.14,158.37,157.08,155.70,154.93,153.91,152.51,150.74,148.69,146.09,143.37,140.56,137.75,135.39,132.83,130.36,128.06,125.89,123.98,122.32,120.83,119.42,117.88,116.15,114.44,112.85,111.44,110.31,108.97,107.29,105.30,102.49,99.03,94.65,89.15,82.21,77.81,74.18,70.99,69.01,67.66,66.56,65.94,66.10,66.69,67.21,66.96,65.85,65.34,65.22,65.39,65.74,66.08,65.80,65.59,64.87,63.14,60.25,58.56,57.14,55.68,54.27,54.29,54.47,54.67,54.90,55.05,55.26,55.46,55.60,55.60,55.70,55.78,55.91,56.28,56.70,56.51,56.23,56.22,55.03,53.69,52.14,50.66,50.07,49.97,50.15,50.60,51.35,52.24,53.16,54.12,55.18,56.65,58.38,59.78,60.72,61.21,62.49,64.03,65.78,67.69,70.01,72.67,75.10,77.01,78.22,77.70,75.84,72.81,68.82,64.50,59.69,54.83,50.40,47.61,45.55,43.72,41.99,40.39,39.84,39.51,39.22,38.81,38.27,37.79,37.29,36.75,36.21,35.67,35.13,34.56,33.86,33.20,32.71,32.35,32.06,31.81,31.48,30.97,30.33,29.65,29.10,28.65,28.24,27.84,27.42,27.02,26.58,26.10,25.67,25.25,24.80,24.35,23.93,23.47,23.05,22.57,21.93,20.88,20.17,19.77,19.56,19.28,19.07,19.04,19.12,19.24,19.24,19.24,19.24,19.24,19.24,19.24,19.20,19.16,19.16,19.08,19.06,19.06,19.06,19.06,19.00,18.95,18.92,18.84,18.78,18.71,18.63,18.55,18.48,18.40,18.32,18.25,18.17,18.09,17.97,17.84,17.76,17.68
185.25,188.98,194.03,200.91,208.89,216.39,223.72,230.86,237.59,240.52,242.42,243.89,245.35,246.74,247.54,247.94,248.00,247.50,247.01,246.03,244.82,243.87,243.10,242.31,241.52,240.69,239.49,238.36,237.18,235.94,234.74,233.56,232.33,230.99,229.55,228.35,227.04,225.57,223.87,221.89,219.33,216.56,213.67,210.64,207.49,204.13,200.31,195.90,191.26,187.30,183.20,178.29,171.62,165.40,160.54,157.26,155.63,155.19,154.14,152.80,151.50,150.96,150.41,149.41,147.93,146.05,143.46,140.57,137.60,134.74,132.25,129.80,127.47,125.25,123.10,121.30,119.63,118.06,116.57,115.09,113.34,111.63,110.18,109.15,108.31,107.28,106.04,104.60,102.40,99.52,95.85,91.19,84.56,79.76,75.79,72.33,69.53,68.12,66.72,65.51,64.84,65.05,65.13,64.34,62.63,61.78,61.49,61.62,61.97,62.23,62.17,62.39,62.40,61.75,59.88,58.33,56.86,55.39,53.87,53.57,53.60,53.78,54.01,54.16,54.35,54.53,54.66,54.66,54.79,54.88,55.01,55.43,55.66,55.35,54.94,54.72,53.38,51.88,50.49,49.44,49.02,48.76,48.71,48.92,49.41,50.19,50.93,51.68,52.51,53.73,55.25,56.55,57.48,58.08,59.39,60.97,62.67,64.38,66.31,68.60,70.79,72.65,73.99,73.74,72.21,69.59,66.10,62.24,57.96,53.54,49.37,46.62,44.30,42.35,40.81,39.83,39.55,39.34,39.08,38.68,38.14,37.66,37.16,36.62,36.08,35.54,34.96,34.33,33.63,32.93,32.36,31.89,31.53,31.30,30.95,30.50,29.95,29.29,28.74,28.30,27.91,27.52,27.10,26.71,26.29,25.83,25.41,25.02,24.61,24.18,23.76,23.33,22.93,22.42,21.67,20.62,20.01,19.66,19.45,19.18,19.11,19.13,19.23,19.34,19.38,19.41,19.43,19.43,19.43,19.40,19.34,19.28,19.24,19.20,19.19,19.19,19.18,19.15,19.11,19.09,19.07,18.99,18.91,18.84,18.76,18.68,18.61,18.53,18.47,18.41,18.30,18.22,18.10,17.96,17.89,17.81
185.74,189.61,194.77,201.65,210.04,217.77,225.16,232.17,238.48,240.93,242.66,244.13,245.59,246.88,246.75,246.28,245.86,245.08,244.41,243.41,242.30,241.50,240.69,239.77,238.52,236.89,235.42,234.22,233.07,231.93,230.78,229.71,228.68,227.61,226.40,225.25,224.10,222.82,221.36,219.75,217.43,214.89,212.19,209.29,206.05,202.70,198.87,194.43,190.13,186.30,182.23,177.17,169.88,164.27,159.99,156.47,153.17,151.42,149.87,148.45,147.23,146.70,146.51,145.96,144.90,143.32,140.87,137.82,134.69,131.89,129.30,127.05,124.85,122.61,120.39,118.79,117.15,115.48,113.85,112.42,110.68,109.05,107.81,107.30,106.57,105.67,104.57,103.19,101.75,99.49,96.33,92.23,86.86,81.82,77.49,73.81,70.27,68.76,67.18,65.47,63.88,63.57,63.02,61.89,60.23,59.35,59.02,58.95,59.02,59.09,59.23,59.49,59.71,59.73,59.19,57.95,56.51,55.05,53.58,52.87,52.71,52.89,53.11,53.27,53.42,53.57,53.71,53.71,53.84,53.95,54.12,54.58,54.58,54.17,53.66,53.24,51.79,50.37,49.39,48.86,48.39,47.92,47.72,47.79,48.09,48.55,49.01,49.47,49.99,50.94,52.14,53.24,54.17,54.93,56.30,57.89,59.57,61.28,63.20,65.02,66.77,68.41,69.76,69.70,68.51,66.32,63.29,59.78,56.12,52.30,48.49,45.77,43.11,41.05,39.83,39.60,39.37,39.18,38.95,38.55,38.01,37.53,37.03,36.49,35.95,35.41,34.77,34.08,33.38,32.69,32.04,31.48,31.04,30.79,30.36,29.94,29.51,28.90,28.35,27.91,27.52,27.13,26.67,26.26,25.83,25.38,24.91,24.52,24.13,23.72,23.26,22.87,22.48,22.00,21.35,20.36,19.87,19.57,19.34,19.12,19.18,19.26,19.34,19.42,19.49,19.57,19.61,19.61,19.61,19.55,19.47,19.39,19.31,19.31,19.31,19.31,19.30,19.23,19.21,19.21,19.19,19.12,19.04,18.96,18.89,18.82,18.74,18.66,18.62,18.59,18.43,18.35,18.23,18.09,18.01,17.94
185.90,189.81,195.13,202.19,210.34,218.76,226.39,233.06,239.07,241.18,242.82,244.33,245.73,245.97,245.37,244.56,243.80,242.98,242.00,240.83,239.60,238.50,237.40,236.00,234.35,232.55,231.08,229.95,228.93,227.93,226.88,225.95,225.01,224.06,223.09,222.04,220.95,219.85,218.69,217.18,215.26,212.94,210.37,207.81,204.63,201.22,197.44,193.24,189.13,185.34,181.17,176.06,169.21,164.46,160.25,156.32,152.51,148.73,146.05,143.99,142.46,142.08,142.04,141.92,141.43,140.24,137.85,134.85,131.87,129.37,127.12,124.94,122.74,120.53,118.46,116.87,115.33,113.71,111.92,110.10,108.29,106.77,105.74,105.53,104.88,104.04,103.01,101.78,100.59,98.74,96.05,92.45,88.11,83.25,78.87,75.18,71.79,69.62,67.94,66.42,64.76,63.65,62.25,60.89,59.75,58.62,58.17,58.03,58.04,58.00,58.10,58.34,58.54,58.52,57.98,57.05,55.86,54.48,53.01,52.16,51.92,52.04,52.22,52.37,52.53,52.68,52.82,52.88,52.97,53.06,53.20,53.56,53.42,52.99,52.40,51.72,50.52,49.58,48.87,48.34,47.82,47.30,46.90,46.73,46.94,47.40,47.83,48.21,48.58,49.04,49.67,50.34,51.01,51.68,53.13,54.66,56.21,57.82,59.70,61.63,63.45,65.01,65.97,65.82,64.73,62.87,60.48,57.37,54.28,51.06,47.70,44.84,41.94,40.22,39.65,39.47,39.24,39.02,38.77,38.43,37.89,37.40,36.90,36.36,35.82,35.23,34.58,33.88,33.19,32.49,31.78,31.16,30.70,30.25,29.83,29.43,29.02,28.51,27.92,27.46,27.07,26.68,26.22,25.77,25.35,24.93,24.46,24.07,23.65,23.22,22.81,22.42,22.00,21.53,20.99,20.15,19.76,19.51,19.30,19.18,19.24,19.35,19.47,19.54,19.62,19.70,19.74,19.74,19.74,19.67,19.60,19.52,19.44,19.44,19.44,19.42,19.37,19.35,19.34,19.31,19.27,19.24,19.17,19.09,19.03,19.01,18.93,18.85,18.79,18.72,18.56,18.47,18.35,18.22,18.14,18.07
186.12,190.08,195.60,202.97,211.11,219.86,227.58,233.98,239.54,241.34,242.90,244.31,245.39,244.84,243.95,242.93,241.86,240.61,239.19,237.77,236.41,235.12,233.70,232.01,230.22,228.49,227.13,226.00,224.99,224.06,223.08,222.17,221.37,220.60,219.77,218.90,217.97,217.05,216.07,214.71,212.98,210.90,208.57,206.21,203.26,199.72,195.79,191.68,187.84,184.20,179.92,174.73,168.59,164.39,160.33,156.28,152.19,147.22,143.36,140.58,138.87,138.51,138.53,138.51,138.13,136.94,134.52,131.85,129.29,127.07,124.98,122.86,120.71,118.58,116.57,114.99,113.49,111.87,109.93,107.79,105.90,104.47,103.66,103.64,103.13,102.37,101.47,100.58,99.71,98.17,95.85,92.72,89.21,84.64,80.32,76.65,73.54,71.08,69.21,67.68,66.23,64.86,62.79,60.85,59.44,58.37,57.72,57.29,57.02,56.92,56.99,57.15,57.29,57.27,56.70,55.93,54.95,53.76,52.42,51.50,51.16,51.19,51.32,51.48,51.63,51.79,51.93,52.01,52.09,52.15,52.25,52.51,52.27,51.81,51.20,50.52,49.62,48.96,48.40,47.85,47.28,46.74,46.23,45.87,45.79,46.12,46.45,46.75,47.00,47.24,47.57,48.03,48.58,49.14,50.39,51.64,52.91,54.30,56.05,58.02,59.88,61.38,62.09,62.06,61.25,59.83,58.05,55.54,52.76,49.67,46.34,43.38,40.97,39.75,39.49,39.31,39.08,38.85,38.60,38.30,37.76,37.28,36.78,36.24,35.70,35.04,34.35,33.66,32.96,32.27,31.54,30.89,30.37,29.86,29.40,28.96,28.52,28.05,27.50,27.03,26.62,26.20,25.77,25.31,24.87,24.45,23.98,23.59,23.17,22.75,22.36,21.95,21.52,21.08,20.63,19.99,19.70,19.48,19.29,19.27,19.34,19.45,19.56,19.64,19.72,19.81,19.90,19.96,19.91,19.79,19.71,19.65,19.57,19.57,19.57,19.54,19.47,19.47,19.47,19.43,19.37,19.37,19.32,19.25,19.19,19.17,19.09,19.01,18.93,18.84,18.69,18.60,18.48,18.35,18.27,18.19
186.39,190.40,196.17,203.95,212.29,221.08,228.74,234.93,239.89,241.43,242.90,244.12,244.66,243.51,242.48,241.37,240.01,238.02,236.03,234.30,232.80,231.42,229.65,227.82,226.12,224.68,223.52,222.30,221.23,220.30,219.37,218.37,217.76,217.23,216.47,215.84,215.16,214.39,213.48,212.32,210.62,208.79,206.80,204.48,201.92,198.20,193.96,189.80,186.31,182.89,178.50,173.21,168.00,164.11,160.27,156.32,152.17,146.70,141.66,138.06,136.30,135.84,135.84,135.66,134.97,133.43,130.91,128.82,126.91,124.96,122.87,120.79,118.74,116.73,114.72,113.14,111.64,109.97,107.88,105.49,103.50,102.16,101.57,101.65,101.32,100.67,99.94,99.54,99.07,97.76,95.70,93.04,90.16,86.00,81.83,78.20,75.48,73.06,70.91,69.23,68.21,67.05,64.49,61.63,59.29,58.51,57.62,56.70,55.99,55.84,55.91,55.94,55.97,55.99,55.37,54.63,53.81,52.91,51.82,50.88,50.43,50.35,50.43,50.58,50.74,50.89,51.04,51.11,51.19,51.23,51.27,51.42,51.14,50.62,50.06,49.59,49.04,48.49,47.95,47.40,46.78,46.23,45.69,45.15,44.63,44.72,44.91,45.11,45.28,45.51,45.81,46.24,46.77,47.23,48.00,48.79,49.66,50.71,52.26,54.22,56.09,57.53,58.15,58.41,58.03,57.13,55.95,54.23,51.54,48.17,44.49,41.47,40.16,39.58,39.35,39.12,38.89,38.66,38.42,38.17,37.63,37.15,36.65,36.11,35.57,34.82,34.10,33.40,32.71,32.01,31.32,30.65,30.06,29.59,29.07,28.53,28.01,27.54,27.08,26.61,26.15,25.69,25.31,24.86,24.40,23.94,23.47,23.08,22.69,22.30,21.92,21.45,21.04,20.66,20.27,19.88,19.68,19.48,19.32,19.39,19.47,19.55,19.62,19.70,19.78,19.91,20.10,20.27,20.11,19.90,19.80,19.77,19.70,19.70,19.70,19.67,19.60,19.60,19.60,19.56,19.50,19.50,19.49,19.45,19.37,19.29,19.22,19.14,19.06,18.97,18.82,18.73,18.61,18.48,18.40,18.32
188.72,192.26,197.47,205.01,213.69,222.54,230.12,236.02,240.20,241.64,242.96,243.79,243.58,242.47,241.37,239.58,237.04,234.70,232.61,230.82,229.20,227.53,225.61,223.90,222.40,221.08,219.78,218.34,217.07,216.06,215.22,214.28,213.81,213.56,213.21,212.74,212.24,211.60,210.74,209.58,207.97,206.27,204.51,202.63,199.75,195.93,191.89,188.21,184.87,181.25,176.82,171.84,167.43,163.60,159.80,155.97,152.06,146.76,141.37,136.93,134.07,133.27,133.18,132.78,131.80,130.11,128.05,126.16,124.30,122.37,120.38,118.50,116.69,114.87,112.87,111.15,109.03,106.86,105.10,102.89,101.05,99.82,99.28,99.36,99.45,99.20,98.76,98.51,98.29,97.36,95.70,93.39,90.97,87.56,84.03,80.90,78.72,77.65,76.79,75.60,73.61,70.29,67.07,63.52,59.93,58.87,57.96,57.06,56.21,55.57,54.98,54.72,54.71,54.77,54.10,53.35,52.54,51.67,50.74,50.20,49.94,49.86,49.84,49.90,50.03,50.14,50.20,50.28,50.32,50.36,50.40,50.41,50.20,49.91,49.57,49.19,48.65,48.07,47.50,46.96,46.39,45.84,45.27,44.70,44.16,43.76,43.47,43.39,43.55,43.73,44.02,44.38,44.81,45.37,46.09,46.88,47.71,48.59,49.65,50.84,52.19,53.54,54.35,55.07,55.19,54.72,53.84,52.34,49.70,46.36,42.85,40.60,39.81,39.45,39.21,38.93,38.70,38.46,38.25,38.04,37.50,37.02,36.52,35.96,35.33,34.61,33.91,33.21,32.51,31.77,31.10,30.48,29.92,29.41,28.99,28.57,28.13,27.71,27.43,27.07,26.65,26.24,25.80,25.38,24.94,24.46,23.85,23.27,22.72,22.20,21.72,21.30,20.87,20.44,20.03,19.78,19.61,19.47,19.38,19.46,19.53,19.61,19.69,19.77,19.84,20.09,20.38,20.58,20.37,20.15,19.97,19.85,19.82,19.82,19.79,19.75,19.72,19.72,19.72,19.68,19.62,19.62,19.62,19.58,19.50,19.42,19.34,19.27,19.17,19.05,18.94,18.86,18.74,18.60,18.53,18.45
191.09,194.31,199.11,206.35,215.05,223.81,231.25,236.88,240.39,241.72,242.82,243.24,242.53,241.49,239.90,237.32,233.96,231.39,229.30,227.42,225.61,223.74,221.79,220.13,218.68,217.34,215.91,214.37,213.02,211.96,211.25,210.45,210.07,209.95,209.86,209.43,209.02,208.44,207.61,206.49,205.09,203.59,201.99,200.23,197.14,193.46,189.79,186.52,183.38,179.72,175.41,170.79,166.81,162.92,159.14,155.42,151.68,146.54,140.99,135.84,131.86,130.54,130.32,129.74,128.54,126.76,124.99,123.25,121.50,119.68,117.77,116.01,114.37,112.71,110.70,108.47,105.97,103.72,102.25,100.48,98.88,97.67,96.99,96.99,97.36,97.53,97.46,97.31,97.21,96.80,95.71,93.77,91.71,89.13,86.40,83.81,81.96,81.69,81.40,80.42,78.16,74.35,70.60,66.39,61.89,59.49,58.41,57.54,56.64,55.72,54.79,54.14,53.75,53.53,52.83,52.12,51.38,50.63,49.94,49.66,49.50,49.39,49.29,49.31,49.42,49.48,49.45,49.53,49.56,49.61,49.66,49.62,49.49,49.33,49.10,48.78,48.24,47.65,47.08,46.54,45.98,45.43,44.86,44.27,43.71,43.01,42.39,42.02,41.98,41.98,42.17,42.45,42.85,43.49,44.20,44.99,45.79,46.51,47.15,47.78,48.73,49.95,50.83,51.77,52.15,51.97,51.35,49.92,47.34,44.25,41.34,39.96,39.53,39.30,39.05,38.76,38.53,38.30,38.09,37.89,37.37,36.89,36.38,35.80,35.08,34.38,33.69,33.00,32.32,31.61,30.98,30.40,29.87,29.41,29.09,28.75,28.38,28.08,27.93,27.64,27.25,26.86,26.40,25.96,25.49,24.94,24.24,23.56,22.91,22.29,21.73,21.27,20.80,20.33,19.89,19.75,19.60,19.49,19.44,19.52,19.60,19.67,19.75,19.83,19.97,20.31,20.67,20.89,20.66,20.45,20.22,20.05,20.03,20.01,19.95,19.91,19.93,19.93,19.90,19.83,19.75,19.73,19.73,19.69,19.63,19.55,19.47,19.39,19.28,19.14,19.06,18.99,18.86,18.73,18.65,18.58
193.40,196.58,201.20,208.08,216.34,224.77,232.00,237.40,240.42,241.63,242.37,242.41,241.51,240.57,237.88,234.37,230.76,228.14,226.17,224.12,222.02,220.10,218.29,216.58,214.94,213.37,211.84,210.40,209.12,208.10,207.53,207.02,206.65,206.44,206.34,205.81,205.34,204.74,203.93,202.91,201.90,200.71,199.15,197.04,193.89,190.75,187.67,184.70,181.80,178.35,174.41,170.20,166.12,161.99,158.21,154.61,150.91,145.88,140.38,134.75,129.69,127.58,127.17,126.47,125.16,123.38,121.60,119.97,118.42,116.87,115.01,113.22,111.63,110.09,108.08,104.76,102.28,100.60,99.34,98.36,97.11,95.81,94.73,94.53,94.95,95.55,95.99,95.84,95.69,96.00,95.73,94.18,92.36,90.74,88.96,87.01,85.15,84.79,83.98,82.73,81.35,79.56,75.48,70.62,65.76,60.50,58.99,58.17,57.35,56.42,55.69,54.51,53.25,52.25,51.55,50.96,50.39,49.87,49.58,49.34,49.12,48.93,48.78,48.85,48.93,48.92,48.81,48.89,48.96,49.03,49.11,49.17,49.09,48.91,48.66,48.33,47.79,47.24,46.70,46.14,45.53,44.99,44.44,43.87,43.26,42.57,41.83,41.17,40.65,40.25,40.21,40.43,40.89,41.57,42.33,43.11,43.84,44.45,44.73,45.18,45.93,46.93,47.71,48.51,48.83,48.71,48.28,46.75,44.21,41.70,39.99,39.60,39.34,39.11,38.87,38.63,38.40,38.17,37.94,37.70,37.23,36.77,36.23,35.60,34.83,34.13,33.43,32.76,32.13,31.57,31.01,30.47,29.96,29.70,29.45,29.14,28.81,28.70,28.62,28.34,27.95,27.56,27.10,26.59,26.00,25.32,24.63,23.99,23.33,22.66,22.05,21.39,20.87,20.38,19.89,19.81,19.66,19.55,19.51,19.58,19.66,19.74,19.82,19.90,20.19,20.60,20.99,21.21,20.98,20.81,20.61,20.42,20.35,20.28,20.21,20.19,20.25,20.25,20.14,19.99,19.86,19.80,19.79,19.78,19.75,19.68,19.60,19.52,19.41,19.27,19.19,19.11,18.99,18.86,18.78,18.70
195.46,199.12,203.50,209.51,217.00,225.05,232.15,237.52,240.37,241.45,241.87,241.69,240.87,239.03,235.60,231.81,228.37,225.74,223.54,221.32,219.10,217.05,215.27,213.54,211.88,210.25,208.63,207.19,205.90,204.84,204.26,203.79,203.37,203.01,202.72,202.18,201.63,200.96,200.12,199.11,198.18,197.05,195.56,193.52,191.03,188.57,185.97,183.10,180.12,176.71,172.95,168.89,164.67,160.62,156.85,153.25,149.59,145.44,140.46,134.86,129.44,127.12,125.41,123.73,122.00,120.26,118.57,117.00,115.51,114.01,112.20,110.22,108.51,107.00,105.03,101.62,99.46,98.19,97.05,96.28,95.30,94.12,92.90,92.17,92.56,93.46,94.29,94.26,94.15,94.70,95.13,94.74,93.08,91.74,90.47,89.21,88.02,87.06,85.76,84.31,82.99,81.48,78.76,74.80,69.78,64.60,60.85,58.88,58.16,57.44,56.66,55.37,53.89,52.53,51.17,50.45,49.97,49.58,49.31,49.04,48.77,48.52,48.33,48.36,48.34,48.28,48.23,48.31,48.38,48.46,48.55,48.67,48.64,48.50,48.26,47.94,47.40,46.82,46.26,45.71,45.14,44.56,44.00,43.45,42.87,42.17,41.42,40.72,40.14,39.84,39.72,39.80,40.07,40.48,40.88,41.25,41.63,42.02,42.26,42.57,43.07,43.68,43.99,44.35,44.49,44.44,44.25,43.00,41.61,40.39,39.56,39.37,39.15,38.92,38.68,38.45,38.22,37.99,37.76,37.51,37.09,36.61,36.03,35.36,34.63,33.96,33.36,32.78,32.21,31.71,31.21,30.71,30.24,30.01,29.81,29.63,29.47,29.39,29.32,29.04,28.66,28.26,27.71,27.08,26.42,25.76,25.06,24.43,23.77,23.10,22.48,21.79,21.17,20.58,20.04,19.88,19.73,19.61,19.56,19.60,19.67,19.78,19.91,20.08,20.43,20.86,21.26,21.48,21.29,21.13,20.96,20.79,20.67,20.55,20.49,20.50,20.57,20.57,20.41,20.24,20.11,20.07,20.03,20.01,19.97,19.86,19.74,19.65,19.54,19.40,19.32,19.24,19.12,18.99,18.91,18.83
197.15,201.36,205.50,210.62,217.37,224.97,231.81,237.10,240.06,241.10,241.32,240.93,240.02,237.18,233.28,229.47,226.26,223.57,221.07,218.64,216.31,214.14,212.31,210.57,208.90,207.26,205.57,204.09,202.76,201.62,200.87,200.33,199.82,199.36,198.97,198.42,197.81,197.10,196.25,195.25,194.37,193.35,192.04,190.28,188.45,186.57,184.33,181.54,178.39,174.98,171.28,167.27,162.95,159.04,155.33,151.72,148.14,144.71,140.36,135.11,129.67,127.13,124.30,121.72,119.51,117.70,116.01,114.45,112.91,111.29,109.26,107.04,105.25,103.79,101.85,98.55,96.77,95.89,94.87,94.21,93.43,92.40,91.12,89.88,90.30,91.44,92.56,92.68,92.63,93.27,94.17,94.81,93.59,92.52,91.62,90.86,90.21,88.86,87.28,85.67,84.22,82.66,81.17,78.35,73.79,69.22,63.95,60.80,59.54,58.57,57.71,56.46,54.92,53.22,51.20,50.23,49.73,49.42,49.11,48.83,48.52,48.21,47.95,47.86,47.72,47.63,47.65,47.73,47.81,47.89,48.00,48.14,48.17,48.07,47.86,47.54,47.00,46.41,45.83,45.29,44.73,44.14,43.56,43.01,42.47,41.79,41.04,40.36,39.84,39.66,39.51,39.49,39.58,39.72,39.80,39.83,39.90,40.09,40.28,40.47,40.73,40.97,40.91,40.90,40.90,40.90,40.88,40.04,39.68,39.49,39.28,39.12,38.91,38.69,38.46,38.24,38.02,37.80,37.57,37.34,36.96,36.44,35.83,35.17,34.51,33.91,33.40,32.91,32.37,31.91,31.44,30.99,30.56,30.33,30.16,30.08,30.06,29.99,29.92,29.67,29.31,28.91,28.26,27.53,26.83,26.19,25.51,24.87,24.21,23.54,22.89,22.18,21.49,20.81,20.21,19.95,19.79,19.68,19.62,19.62,19.69,19.82,20.03,20.31,20.71,21.15,21.54,21.76,21.61,21.45,21.30,21.14,20.99,20.84,20.79,20.82,20.88,20.86,20.67,20.49,20.39,20.39,20.33,20.30,20.25,20.08,19.91,19.79,19.67,19.52,19.45,19.36,19.24,19.11,19.04,18.96
198.02,202.62,206.60,211.01,217.32,224.31,230.51,235.46,239.06,240.37,240.65,240.00,238.44,234.81,230.99,227.50,224.50,221.56,218.76,216.04,213.50,211.33,209.30,207.51,205.81,204.13,202.50,200.91,199.47,198.19,196.94,196.19,195.51,195.06,194.94,194.34,193.73,193.06,192.29,191.29,190.62,189.94,189.08,187.90,186.48,184.79,182.65,179.92,176.58,173.13,169.32,165.16,160.84,157.16,153.57,150.05,146.60,143.08,139.48,135.12,130.23,127.14,124.20,121.34,118.70,116.50,114.56,112.81,111.03,108.97,106.00,103.51,101.80,100.53,98.53,95.41,94.01,93.51,92.63,92.13,91.46,90.53,89.29,87.75,88.39,89.68,90.87,91.14,91.19,91.76,92.63,93.51,93.47,93.04,92.36,91.54,90.80,89.84,88.46,86.82,85.18,83.57,82.06,80.24,77.70,73.61,69.68,65.84,62.39,59.83,58.93,57.90,56.40,54.21,51.90,50.44,49.67,49.36,49.05,48.85,48.55,48.17,47.75,47.37,47.11,47.01,47.08,47.16,47.23,47.34,47.47,47.56,47.69,47.63,47.42,47.09,46.55,46.00,45.45,44.90,44.29,43.73,43.15,42.56,42.02,41.39,40.66,40.06,39.70,39.42,39.30,39.30,39.38,39.47,39.55,39.57,39.59,39.63,39.68,39.72,39.78,39.83,39.82,39.82,39.82,39.80,39.73,39.48,39.26,39.06,38.89,38.74,38.57,38.37,38.15,37.98,37.82,37.61,37.40,37.21,36.83,36.27,35.69,35.13,34.62,34.13,33.65,33.17,32.63,32.16,31.70,31.26,30.88,30.65,30.48,30.37,30.32,30.31,30.23,30.08,29.82,29.41,28.67,27.95,27.25,26.58,25.95,25.27,24.62,23.96,23.21,22.46,21.74,21.03,20.32,19.97,19.83,19.74,19.68,19.68,19.75,19.92,20.21,20.63,21.08,21.54,21.90,22.08,21.93,21.77,21.62,21.46,21.31,21.15,21.11,21.14,21.19,21.07,20.86,20.73,20.71,20.71,20.69,20.69,20.62,20.40,20.18,19.97,19.79,19.65,19.57,19.44,19.33,19.24,19.16,19.09
197.52,202.34,206.35,210.46,216.40,222.80,228.38,232.83,236.30,237.84,238.17,237.36,235.48,232.11,228.82,225.71,222.71,219.38,216.34,213.49,210.84,208.43,206.21,204.25,202.51,200.92,199.33,197.66,196.04,194.48,192.91,192.12,191.54,191.22,191.20,190.65,190.10,189.61,189.15,188.46,187.90,187.34,186.64,185.67,184.44,182.92,180.85,178.04,174.61,171.03,167.16,163.06,158.94,155.41,151.79,148.12,144.48,141.03,137.81,134.20,130.17,127.00,124.12,121.27,118.46,115.79,113.53,111.39,109.19,106.68,103.15,100.48,98.60,97.00,94.40,92.18,91.22,90.87,90.26,89.77,89.07,88.18,87.06,85.58,86.32,87.62,88.80,89.28,89.44,90.27,91.34,92.22,92.46,92.42,92.06,91.47,90.95,90.16,89.04,87.65,86.09,84.43,82.94,81.51,79.92,77.28,74.31,70.97,67.63,65.07,63.49,61.49,59.15,56.64,54.42,52.31,50.61,49.53,49.25,49.05,48.75,48.34,47.87,47.37,46.94,46.64,46.50,46.58,46.69,46.80,46.91,46.99,47.14,47.16,47.01,46.69,46.15,45.58,45.02,44.47,43.89,43.31,42.73,42.15,41.58,40.96,40.33,39.85,39.57,39.26,39.09,39.06,39.15,39.26,39.30,39.30,39.27,39.28,39.31,39.32,39.32,39.32,39.32,39.29,39.25,39.19,39.08,39.01,38.84,38.66,38.51,38.32,38.16,37.98,37.79,37.64,37.48,37.28,37.07,36.91,36.63,36.28,35.83,35.30,34.84,34.37,33.91,33.42,32.88,32.42,31.95,31.54,31.20,31.01,30.79,30.64,30.58,30.58,30.51,30.36,30.11,29.74,29.04,28.34,27.65,26.95,26.27,25.54,24.86,24.17,23.40,22.62,21.88,21.13,20.40,20.02,19.88,19.79,19.71,19.74,19.85,20.10,20.48,20.95,21.37,21.83,22.19,22.36,22.20,22.05,21.89,21.74,21.58,21.46,21.43,21.44,21.46,21.27,21.11,21.03,21.03,21.03,21.03,20.98,20.85,20.58,20.31,20.05,19.83,19.69,19.61,19.50,19.42,19.37,19.29,19.21
196.30,201.37,205.51,209.48,215.00,220.83,225.84,229.78,232.80,234.43,234.76,233.86,231.86,229.16,226.60,223.89,220.82,217.10,213.86,210.96,208.26,205.56,203.15,201.02,199.22,197.70,196.15,194.41,192.60,190.79,189.06,188.28,187.87,187.70,187.64,187.18,186.74,186.48,186.37,186.07,185.58,185.06,184.42,183.50,182.33,180.90,178.86,175.96,172.54,168.85,164.97,161.02,157.20,153.79,150.04,146.09,142.18,138.92,135.91,132.89,129.80,126.82,124.10,121.37,118.50,115.40,112.78,110.18,107.52,104.65,100.90,98.06,95.84,93.71,90.46,89.22,88.53,88.12,87.77,87.23,86.47,85.59,84.62,83.36,84.16,85.38,86.52,87.27,87.62,88.81,90.13,90.93,91.12,91.34,91.31,91.04,90.82,90.13,89.30,88.25,86.91,85.27,83.81,82.53,81.40,80.33,78.19,75.85,73.57,71.54,69.14,65.91,62.57,59.77,57.68,55.01,52.30,50.12,49.64,49.34,49.00,48.59,48.12,47.56,46.96,46.39,45.97,46.03,46.16,46.27,46.35,46.42,46.57,46.67,46.62,46.30,45.76,45.16,44.58,44.03,43.49,42.88,42.31,41.75,41.14,40.53,40.03,39.67,39.43,39.12,38.88,38.81,38.91,39.05,39.05,39.00,38.96,38.97,39.04,39.05,39.05,39.05,39.05,38.98,38.90,38.79,38.64,38.56,38.43,38.28,38.11,37.88,37.72,37.56,37.41,37.25,37.09,36.89,36.69,36.54,36.38,36.29,36.01,35.52,35.09,34.63,34.16,33.68,33.15,32.68,32.21,31.81,31.53,31.37,31.08,30.90,30.83,30.83,30.75,30.56,30.30,29.98,29.37,28.69,27.99,27.28,26.51,25.74,25.01,24.29,23.52,22.75,21.98,21.21,20.48,20.08,19.94,19.82,19.73,19.80,19.98,20.34,20.79,21.25,21.65,22.09,22.44,22.61,22.46,22.31,22.16,22.00,21.85,21.77,21.75,21.74,21.71,21.49,21.38,21.35,21.35,21.35,21.34,21.23,21.02,20.71,20.40,20.09,19.85,19.70,19.63,19.56,19.53,19.51,19.43,19.35
194.22,200.03,204.47,208.16,212.85,218.24,222.99,226.66,229.19,230.23,230.26,229.38,227.74,225.63,223.78,221.48,218.44,214.62,211.32,208.40,205.72,203.07,200.56,198.40,196.48,194.69,193.09,191.30,189.55,187.93,186.55,185.65,185.15,184.87,184.57,184.11,183.86,183.75,183.70,183.51,183.16,182.72,182.14,181.33,180.01,178.23,176.00,173.32,170.30,166.84,163.13,159.37,155.90,152.60,148.49,144.11,140.22,137.41,134.50,131.67,129.02,126.78,124.33,121.71,118.86,115.66,112.60,109.66,106.83,104.09,101.13,98.09,95.18,92.41,89.65,88.09,86.61,85.43,84.90,84.36,83.63,82.80,81.93,81.07,81.79,82.84,83.94,85.09,86.17,87.50,88.76,89.68,90.12,90.30,90.35,90.29,90.11,89.70,89.07,88.25,87.30,86.06,84.74,83.54,82.49,81.47,80.22,79.08,77.75,75.57,73.02,70.11,66.88,63.49,60.86,58.70,55.95,52.71,50.45,49.71,49.26,48.83,48.31,47.65,46.98,46.30,45.70,45.60,45.67,45.76,45.84,45.91,46.01,46.13,46.12,45.85,45.31,44.75,44.17,43.59,43.05,42.44,41.86,41.32,40.75,40.19,39.78,39.48,39.24,38.93,38.69,38.62,38.69,38.73,38.74,38.68,38.66,38.71,38.73,38.74,38.74,38.72,38.67,38.59,38.48,38.36,38.26,38.13,38.02,37.87,37.67,37.49,37.33,37.18,37.01,36.80,36.64,36.48,36.31,36.15,36.00,35.90,35.74,35.49,35.31,34.88,34.42,33.95,33.47,32.95,32.47,32.09,31.84,31.63,31.34,31.15,31.08,31.02,30.89,30.66,30.37,30.04,29.48,28.82,28.10,27.34,26.57,25.85,25.11,24.35,23.58,22.86,22.11,21.34,20.60,20.16,19.96,19.85,19.79,19.87,20.23,20.62,21.05,21.51,21.95,22.37,22.70,22.88,22.78,22.63,22.48,22.32,22.17,22.09,22.06,22.04,21.97,21.80,21.70,21.66,21.66,21.66,21.61,21.42,21.14,20.83,20.52,20.22,19.95,19.77,19.75,19.73,19.72,19.70,19.62,19.54
