15.01,15.15,15.25,15.30,15.33,15.36,15.39,15.45,15.57,15.58,15.58,15.60,15.68,15.72,15.76,15.78,15.80,15.92,16.03,16.15,16.26,16.33,16.44,16.56,16.67,16.75,16.87,17.03,17.22,17.42,17.65,17.89,18.15,18.42,18.68,18.83,18.93,19.02,19.14,19.31,19.67,19.96,20.18,20.41,20.61,20.84,21.04,21.19,21.35,21.56,21.76,21.93,22.16,22.35,22.54,22.75,22.98,23.17,23.43,23.80,24.26,24.68,25.11,25.53,25.96,26.43,26.83,27.07,27.20,27.28,27.39,27.51,27.62,27.74,27.86,28.00,28.20,28.41,28.60,28.77,28.87,28.95,29.01,29.01,29.00,29.10,29.33,29.66,30.32,31.38,32.61,33.83,34.92,35.97,37.03,38.10,39.13,39.93,40.42,40.64,40.72,41.60,43.00,44.70,46.56,48.50,50.60,52.94,55.14,56.43,54.12,51.95,50.60,50.55,52.38,55.03,58.09,61.39,64.84,68.17,70.77,72.88,74.93,74.31,72.71,70.49,67.97,65.70,63.71,61.52,59.10,56.65,56.06,58.08,61.73,65.99,70.17,72.99,75.31,77.23,78.00,76.44,74.37,71.91,68.90,64.28,60.96,58.76,57.50,57.12,58.14,60.43,63.78,67.81,71.01,75.34,80.27,84.98,87.53,88.40,88.09,86.81,84.52,82.01,79.49,77.01,74.59,72.44,71.97,72.43,73.24,74.20,75.13,76.08,76.97,77.59,77.91,78.27,78.65,79.04,79.59,80.17,80.55,80.78,81.26,81.98,83.07,84.38,85.69,86.16,87.05,87.33,86.61,86.77,86.89,87.00,87.04,86.83,86.23,85.74,85.33,84.93,84.58,84.67,85.04,85.58,86.12,86.51,86.70,86.71,86.64,86.51,86.75,87.20,87.70,88.12,88.39,88.56,88.64,88.63,88.56,88.48,88.38,88.23,87.90,87.78,87.65,87.47,87.47,87.91,88.54,89.18,89.64,91.77,94.28,96.83,99.10,100.43,101.60,102.42,102.92,103.28,103.68,104.17,104.53,104.49,103.60,102.94,101.72,99.69,97.52,95.26,93.41,92.11,91.41,94.88
15.37,15.44,15.52,15.59,15.59,15.59,15.59,15.62,15.74,15.76,15.77,15.79,15.87,15.95,15.97,15.98,16.01,16.15,16.25,16.37,16.50,16.59,16.67,16.79,16.91,17.01,17.16,17.37,17.61,17.87,18.14,18.39,18.68,18.96,19.19,19.34,19.44,19.52,19.59,19.67,19.94,20.16,20.33,20.56,20.78,21.01,21.21,21.38,21.54,21.74,21.93,22.12,22.35,22.51,22.71,22.94,23.15,23.34,23.69,24.11,24.55,24.96,25.40,25.82,26.24,26.70,27.18,27.51,27.69,27.77,27.86,27.99,28.07,28.14,28.36,28.47,28.63,28.80,28.94,29.18,29.32,29.41,29.46,29.46,29.39,29.35,29.38,29.54,29.85,30.66,31.74,32.85,33.80,34.78,35.80,36.85,37.84,38.65,39.17,39.43,39.49,40.22,41.75,43.66,45.72,47.88,50.22,52.71,55.21,57.45,55.46,53.41,52.14,52.26,54.29,56.52,58.85,61.36,64.33,67.54,70.23,72.52,74.68,75.18,73.94,71.93,69.79,67.82,65.92,64.09,62.18,59.90,57.61,58.96,62.44,66.43,70.22,73.28,76.02,78.29,78.99,77.44,75.18,72.58,69.86,64.85,61.15,58.88,58.00,58.16,59.49,62.66,67.13,71.44,74.75,79.11,83.75,87.76,90.01,90.75,90.39,89.02,86.36,83.57,80.84,78.25,75.88,73.42,72.80,73.26,74.20,75.12,76.02,76.96,77.85,78.48,78.87,79.47,80.18,80.84,81.34,81.79,82.09,82.24,82.38,82.76,83.47,84.44,85.53,86.28,87.20,87.53,86.98,86.98,87.04,87.12,87.16,87.06,86.61,86.19,85.79,85.36,84.97,85.20,85.68,86.21,86.72,86.97,87.02,86.95,86.87,86.77,87.06,87.52,87.95,88.23,88.32,88.30,88.22,88.15,88.07,87.99,87.92,87.82,87.36,87.12,86.98,86.95,87.30,88.05,88.83,89.66,90.61,93.88,97.22,99.75,100.95,101.46,102.33,102.78,102.62,101.97,101.68,101.66,101.73,101.70,100.92,100.06,98.60,96.40,94.07,92.05,90.55,89.82,90.21,95.82
15.62,15.70,15.78,15.85,15.85,15.85,15.85,15.85,15.87,15.94,15.96,15.99,16.06,16.14,16.16,16.19,16.26,16.35,16.49,16.60,16.70,16.85,16.92,17.01,17.12,17.26,17.42,17.58,17.85,18.22,18.58,18.88,19.19,19.47,19.70,19.85,19.95,20.03,20.10,20.18,20.24,20.35,20.52,20.76,20.92,21.13,21.36,21.58,21.73,21.89,22.09,22.31,22.54,22.70,22.91,23.11,23.28,23.57,23.98,24.41,24.82,25.27,25.67,26.10,26.56,27.02,27.55,27.92,28.14,28.22,28.36,28.46,28.44,28.44,28.86,29.02,29.14,29.23,29.33,29.56,29.77,29.90,29.91,29.91,29.84,29.77,29.71,29.67,29.79,30.17,30.80,31.65,32.64,33.59,34.56,35.56,36.50,37.35,37.98,38.46,38.86,39.69,41.31,43.32,45.46,47.63,50.09,52.70,55.39,58.07,57.00,55.56,54.68,55.06,56.95,58.86,60.49,61.93,63.92,66.81,69.43,71.78,74.08,76.21,75.48,73.61,71.69,70.07,68.30,66.76,65.10,62.47,59.41,59.80,62.45,65.96,69.56,73.08,76.58,79.53,80.03,78.20,75.79,73.17,70.50,65.74,61.62,59.09,58.57,59.17,61.36,65.39,70.22,73.59,77.33,81.40,85.57,89.43,90.84,91.35,90.96,89.62,87.11,84.08,81.14,78.46,76.13,73.73,73.37,74.13,75.28,76.21,77.03,77.86,78.69,79.37,79.95,81.23,82.91,84.53,84.68,84.33,84.02,83.92,83.81,84.03,84.27,84.77,85.92,86.81,87.42,87.64,87.49,87.49,87.56,87.63,87.66,87.51,87.01,86.57,86.20,85.87,85.49,85.79,86.32,86.83,87.24,87.27,87.21,87.14,87.06,87.11,87.44,87.80,87.98,87.97,87.92,87.85,87.78,87.70,87.62,87.55,87.47,87.37,86.91,86.49,86.28,86.47,87.36,88.26,89.09,90.30,92.63,95.68,98.53,100.59,101.47,101.43,101.41,101.10,100.30,98.72,98.27,98.14,98.16,98.14,97.75,96.78,95.13,92.91,90.79,89.81,89.35,89.73,91.65,99.02
15.89,15.96,16.02,16.05,16.05,16.05,16.05,16.05,16.05,16.12,16.18,16.21,16.26,16.33,16.35,16.41,16.51,16.59,16.70,16.82,16.93,17.05,17.17,17.26,17.36,17.52,17.67,17.86,18.07,18.35,18.77,19.16,19.55,19.88,20.11,20.31,20.41,20.47,20.51,20.55,20.55,20.60,20.71,20.90,21.09,21.31,21.54,21.77,21.92,22.08,22.27,22.49,22.69,22.88,23.10,23.30,23.47,23.85,24.27,24.69,25.12,25.54,25.97,26.42,26.87,27.29,27.83,28.27,28.56,28.71,28.83,28.85,28.81,28.85,29.31,29.64,29.75,29.78,29.86,30.05,30.30,30.49,30.56,30.60,30.51,30.41,30.32,30.21,30.20,30.36,30.80,31.58,32.43,33.27,34.14,35.03,35.92,36.70,37.38,38.03,38.78,39.86,41.48,43.42,45.51,47.67,50.20,53.00,55.93,58.71,58.55,57.79,57.30,57.73,59.12,60.50,61.72,62.84,64.27,66.35,68.68,71.09,73.45,75.88,76.41,75.58,73.91,72.40,70.93,69.72,68.38,66.07,62.45,61.55,63.07,66.36,69.76,74.09,78.02,80.69,81.11,79.50,77.13,74.30,71.14,66.43,62.27,59.81,59.56,60.76,63.71,67.65,71.86,75.15,78.91,82.92,86.84,90.24,91.60,91.96,91.39,89.87,87.24,83.79,80.69,78.10,75.94,73.89,73.85,74.82,76.04,77.12,78.14,79.16,80.29,81.69,83.34,85.18,87.02,88.54,87.96,86.81,85.95,85.62,85.39,85.32,85.38,85.64,86.25,87.29,87.82,88.03,88.10,88.10,88.14,88.15,88.11,87.91,87.47,87.03,86.62,86.24,86.09,86.43,86.95,87.43,87.58,87.50,87.41,87.33,87.25,87.29,87.43,87.56,87.59,87.51,87.43,87.36,87.29,87.25,87.18,87.10,87.02,86.93,86.50,86.05,86.06,86.69,87.54,88.46,89.38,90.77,93.36,96.25,98.80,100.46,100.91,100.56,99.36,97.91,96.36,94.70,94.33,94.25,94.34,94.51,94.09,93.17,91.96,90.58,89.28,88.93,89.11,90.50,94.33,101.51
16.15,16.20,16.24,16.24,16.26,16.26,16.26,16.26,16.26,16.32,16.39,16.44,16.45,16.52,16.55,16.62,16.76,16.85,16.92,17.05,17.18,17.26,17.41,17.52,17.63,17.77,17.93,18.15,18.30,18.45,18.89,19.35,19.80,20.18,20.41,20.65,20.80,20.87,20.89,20.89,20.89,20.89,20.92,21.06,21.27,21.50,21.72,21.95,22.11,22.27,22.46,22.66,22.83,23.06,23.28,23.49,23.69,24.14,24.55,24.98,25.42,25.82,26.27,26.73,27.17,27.56,28.09,28.58,28.97,29.21,29.28,29.25,29.21,29.29,29.71,30.19,30.37,30.39,30.46,30.61,30.86,31.10,31.27,31.35,31.23,31.13,31.03,30.88,30.77,30.78,31.09,31.82,32.53,33.29,34.06,34.84,35.68,36.42,37.14,37.94,38.92,40.28,41.90,43.72,45.72,47.82,50.37,53.35,56.49,59.33,60.06,59.95,59.75,60.09,60.88,61.78,62.76,63.81,64.92,66.27,68.21,70.54,72.93,75.35,77.14,77.48,76.22,74.78,73.64,72.74,71.72,69.86,66.00,63.87,64.13,66.98,70.36,75.48,79.63,81.81,82.25,80.86,78.52,75.43,71.71,67.13,63.11,60.83,60.87,62.53,65.79,69.36,72.95,76.70,80.35,84.27,87.94,90.82,92.34,92.57,91.76,89.98,87.00,83.08,79.93,77.54,75.54,74.22,74.56,75.67,76.91,78.18,79.50,80.78,82.23,84.33,87.09,89.51,91.40,92.57,91.56,89.89,88.35,87.33,86.98,86.67,86.61,86.71,86.77,87.77,88.27,88.53,88.74,88.72,88.71,88.67,88.56,88.32,87.93,87.50,87.03,86.59,86.71,87.10,87.57,87.93,87.85,87.72,87.61,87.51,87.40,87.37,87.28,87.18,87.09,87.01,86.94,86.86,86.80,86.79,86.71,86.64,86.56,86.47,86.10,85.68,85.95,87.00,87.76,88.65,89.69,91.20,93.68,96.44,98.57,99.69,99.61,98.81,96.62,94.30,92.32,90.92,90.69,90.71,90.89,91.19,90.70,89.95,89.26,88.79,88.49,88.65,89.47,91.89,97.40,103.75
16.40,16.42,16.43,16.44,16.50,16.51,16.51,16.51,16.51,16.53,16.58,16.63,16.64,16.72,16.78,16.86,16.96,17.10,17.18,17.30,17.44,17.51,17.67,17.81,17.93,18.03,18.18,18.40,18.55,18.68,18.96,19.41,19.84,20.18,20.41,20.71,20.97,21.17,21.27,21.27,21.27,21.27,21.28,21.31,21.48,21.65,21.85,22.08,22.29,22.46,22.62,22.80,23.02,23.25,23.44,23.67,24.01,24.41,24.85,25.27,25.68,26.13,26.59,27.02,27.44,27.88,28.36,28.87,29.33,29.65,29.73,29.73,29.69,29.69,29.92,30.47,30.91,31.14,31.16,31.26,31.42,31.67,31.97,32.05,31.98,31.89,31.80,31.64,31.45,31.35,31.53,32.08,32.84,33.60,34.38,35.15,35.94,36.81,37.65,38.47,39.31,40.87,42.57,44.36,46.19,48.05,50.56,53.57,56.81,59.90,61.44,61.77,61.59,61.51,61.65,62.46,63.51,64.67,65.93,67.20,68.65,70.48,72.87,75.39,77.70,78.89,78.54,77.25,76.38,75.69,74.87,73.36,70.13,67.36,66.22,67.60,71.57,77.02,81.05,82.88,83.57,81.93,79.39,76.09,72.04,68.05,64.37,62.45,62.89,64.35,66.55,69.52,73.47,78.80,82.24,85.73,88.91,91.35,93.11,93.13,92.05,89.94,86.08,81.66,78.74,76.84,74.84,75.26,76.13,77.27,78.53,79.94,81.61,83.11,84.60,86.75,89.94,93.12,95.48,96.34,96.37,95.13,92.39,89.02,88.53,88.20,88.03,87.97,87.99,88.30,88.72,89.12,89.37,89.25,89.23,89.18,89.06,88.77,88.33,87.91,87.47,86.99,87.30,87.78,88.09,88.12,88.04,87.95,87.83,87.66,87.40,87.22,86.99,86.78,86.64,86.57,86.49,86.41,86.34,86.28,86.20,86.13,86.05,85.96,85.70,85.37,85.74,86.92,87.97,88.86,90.03,91.62,93.74,96.46,97.58,97.56,96.74,94.81,92.48,90.64,89.46,88.70,88.61,88.72,88.90,89.03,88.73,88.32,87.95,87.81,88.53,89.18,91.01,94.64,100.65,105.80
16.54,16.63,16.67,16.67,16.72,16.73,16.73,16.73,16.73,16.73,16.78,16.83,16.83,16.91,16.99,17.08,17.19,17.31,17.42,17.56,17.69,17.77,17.92,18.08,18.21,18.33,18.48,18.70,18.85,18.94,19.08,19.46,19.85,20.19,20.46,20.77,21.08,21.34,21.54,21.60,21.64,21.65,21.65,21.65,21.74,21.85,22.02,22.25,22.45,22.64,22.81,22.98,23.21,23.41,23.62,23.90,24.29,24.70,25.16,25.59,25.98,26.45,26.88,27.31,27.74,28.20,28.63,29.14,29.64,30.07,30.21,30.21,30.16,30.11,30.16,30.71,31.28,31.72,31.91,31.95,32.05,32.26,32.57,32.78,32.74,32.64,32.52,32.37,32.17,32.03,32.07,32.38,33.12,33.91,34.70,35.47,36.24,37.13,37.99,38.85,39.74,41.39,43.11,44.87,46.65,48.39,50.94,53.92,57.12,60.22,62.23,63.17,63.32,63.04,62.83,63.37,64.35,65.59,66.90,68.15,69.59,71.42,73.82,76.27,78.48,79.87,80.17,79.52,78.97,78.48,77.85,76.65,73.61,70.55,68.59,68.81,73.37,78.48,82.21,84.02,84.63,82.66,79.92,76.36,71.65,68.32,65.07,63.65,64.72,66.18,67.98,71.15,75.66,80.81,84.12,87.35,90.26,92.55,94.05,93.38,91.68,89.04,84.16,80.33,77.89,76.45,75.36,76.53,77.68,78.98,80.49,82.12,83.88,85.43,87.06,89.58,93.36,96.97,99.53,100.38,100.51,99.61,96.78,92.63,90.66,89.76,89.41,89.50,89.96,89.90,90.13,90.52,90.88,90.70,90.61,90.23,89.62,89.18,88.72,88.28,87.86,87.46,87.91,88.28,88.42,88.31,88.24,88.07,87.89,87.67,87.36,87.13,86.84,86.57,86.36,86.22,86.07,85.97,85.89,85.81,85.73,85.66,85.58,85.49,85.26,85.10,85.58,86.81,88.04,89.05,90.38,92.09,94.06,95.67,95.84,95.04,93.65,91.66,89.82,88.43,87.55,86.98,86.87,87.03,87.24,87.25,87.41,87.61,87.84,88.25,89.46,91.10,93.72,97.29,101.55,105.74
16.63,16.81,16.91,16.92,16.92,16.92,16.92,16.92,16.92,16.92,16.97,17.02,17.02,17.10,17.18,17.30,17.44,17.52,17.66,17.81,17.95,18.03,18.18,18.33,18.49,18.64,18.80,19.01,19.17,19.23,19.24,19.52,19.87,20.22,20.52,20.83,21.14,21.45,21.73,21.90,21.99,22.03,22.03,22.04,22.04,22.09,22.22,22.43,22.59,22.81,23.00,23.17,23.40,23.56,23.82,24.16,24.55,25.01,25.47,25.90,26.30,26.76,27.16,27.59,28.06,28.51,28.91,29.40,29.94,30.45,30.69,30.68,30.60,30.53,30.45,30.90,31.53,32.17,32.64,32.66,32.72,32.86,33.11,33.50,33.50,33.38,33.23,33.07,32.92,32.76,32.67,32.72,33.40,34.21,35.02,35.79,36.56,37.40,38.25,39.15,40.18,41.88,43.58,45.32,47.09,48.80,51.40,54.34,57.41,60.41,62.69,64.32,65.00,64.63,64.25,64.41,65.21,66.53,67.86,69.13,70.82,72.91,75.31,77.61,79.39,80.66,81.43,81.63,81.40,81.10,80.65,79.75,76.70,73.56,71.14,70.42,75.41,79.84,83.19,85.17,85.52,83.17,80.21,76.33,70.89,68.22,65.51,64.70,66.45,68.04,69.87,73.59,78.60,82.72,85.94,89.00,91.79,94.10,94.96,93.41,90.89,87.55,81.81,79.11,77.29,76.32,76.54,77.94,79.26,80.78,82.65,84.51,86.25,87.82,89.65,92.64,97.02,100.85,103.51,104.55,104.24,103.44,101.00,96.93,93.07,91.33,90.81,91.25,92.38,92.26,92.33,92.66,93.16,92.91,92.66,91.74,90.40,89.65,89.13,88.64,88.23,87.99,88.50,88.68,88.64,88.50,88.41,88.12,87.86,87.61,87.30,87.06,86.78,86.47,86.17,85.93,85.70,85.54,85.45,85.36,85.28,85.21,85.13,85.05,84.82,84.83,85.45,86.70,88.01,89.21,90.73,92.51,94.36,94.41,93.70,92.36,90.58,89.06,87.96,86.99,86.15,85.60,85.49,85.70,85.95,85.96,86.66,87.52,88.46,89.48,90.87,93.63,96.82,99.70,101.32,104.62
16.56,16.78,16.97,17.11,17.11,17.11,17.14,17.18,17.18,17.18,17.19,17.21,17.22,17.35,17.44,17.55,17.70,17.83,17.94,18.07,18.22,18.35,18.45,18.59,18.74,18.90,19.05,19.27,19.45,19.56,19.62,19.86,20.09,20.33,20.58,20.89,21.20,21.51,21.81,22.08,22.22,22.31,22.36,22.42,22.42,22.44,22.48,22.56,22.77,23.00,23.19,23.36,23.59,23.75,24.04,24.43,24.87,25.33,25.76,26.18,26.61,27.02,27.46,27.91,28.36,28.77,29.21,29.68,30.21,30.78,31.12,31.13,31.05,30.97,30.90,30.99,31.53,32.31,33.03,33.30,33.43,33.52,33.69,34.07,34.20,34.15,33.98,33.77,33.62,33.50,33.40,33.34,33.82,34.55,35.34,36.11,36.88,37.72,38.54,39.42,40.50,42.25,44.00,45.79,47.61,49.36,51.76,54.59,57.65,60.61,62.98,65.27,66.59,66.36,66.03,65.50,65.90,67.32,68.74,70.39,72.35,74.59,77.03,79.13,80.61,81.71,82.58,83.28,83.13,82.91,82.64,82.04,79.24,76.34,74.01,73.02,76.82,80.53,83.83,86.18,86.13,83.44,79.86,75.45,70.06,67.74,66.19,66.23,68.05,70.13,72.91,76.49,80.50,84.03,87.26,90.31,93.14,95.53,94.81,92.74,89.25,84.68,80.38,78.44,77.38,77.14,77.95,79.44,81.14,83.04,85.09,87.00,88.82,90.84,93.17,95.91,100.09,104.02,107.01,108.46,107.26,104.85,101.73,98.29,95.27,92.97,92.59,93.71,95.38,96.45,97.42,98.12,98.38,97.93,96.75,95.03,92.96,90.89,89.77,89.06,88.69,88.61,88.88,88.93,88.81,88.60,88.36,88.06,87.80,87.54,87.23,86.95,86.68,86.41,86.10,85.81,85.57,85.34,85.10,84.86,84.82,84.76,84.68,84.60,84.42,84.56,85.28,86.57,87.89,89.30,90.80,92.20,93.16,92.61,91.48,90.13,88.82,87.60,86.51,85.55,84.90,85.10,85.81,86.34,86.79,87.37,88.12,88.92,89.93,91.21,92.66,95.08,97.82,100.32,101.89,103.85
16.50,16.75,17.00,17.21,17.29,17.32,17.36,17.40,17.40,17.40,17.40,17.41,17.44,17.57,17.68,17.81,17.96,18.12,18.20,18.33,18.48,18.63,18.71,18.84,19.00,19.16,19.34,19.56,19.75,19.89,19.96,20.16,20.33,20.51,20.75,21.00,21.28,21.58,21.88,22.19,22.41,22.56,22.66,22.73,22.76,22.77,22.78,22.82,22.97,23.17,23.36,23.55,23.75,23.96,24.30,24.72,25.19,25.62,26.04,26.47,26.90,27.31,27.77,28.22,28.64,29.03,29.44,29.90,30.44,31.05,31.51,31.58,31.50,31.39,31.31,31.23,31.59,32.29,33.15,33.72,34.04,34.19,34.29,34.62,34.89,34.93,34.78,34.58,34.42,34.32,34.20,34.05,34.18,34.86,35.68,36.50,37.30,38.12,38.91,39.85,41.15,42.90,44.67,46.47,48.31,50.22,52.56,55.23,58.09,60.97,63.73,66.39,68.03,68.05,67.74,66.83,66.82,67.99,69.46,71.35,73.47,75.76,78.14,80.05,81.43,82.56,83.61,84.59,84.85,84.96,84.91,84.47,81.56,78.61,76.34,75.47,78.48,82.02,85.47,87.94,87.34,83.99,79.73,74.88,69.68,67.75,66.98,67.52,69.28,71.68,74.80,78.20,81.65,84.94,88.29,91.47,94.41,96.77,94.73,92.15,87.72,82.08,79.33,78.02,77.68,78.14,79.25,80.98,83.00,85.15,87.31,89.42,91.40,93.68,96.34,99.36,103.64,107.42,110.10,111.13,108.76,105.24,101.69,98.62,96.12,94.18,94.29,95.95,98.01,100.00,101.51,102.37,102.48,101.81,100.12,97.93,95.40,92.59,90.70,89.56,89.09,89.14,89.16,89.05,88.85,88.58,88.30,88.00,87.72,87.45,87.17,86.86,86.59,86.32,86.03,85.72,85.48,85.21,84.90,84.59,84.49,84.37,84.23,84.12,84.00,84.29,85.14,86.47,87.73,89.08,90.38,91.38,91.72,90.83,89.58,88.29,87.18,86.10,85.04,84.48,84.58,85.38,86.56,87.37,88.01,88.81,89.55,90.38,91.49,92.95,94.50,96.48,98.49,100.31,101.70,103.19
16.43,16.72,17.00,17.23,17.45,17.56,17.59,17.59,17.59,17.59,17.59,17.62,17.70,17.77,17.91,18.06,18.22,18.37,18.46,18.58,18.74,18.89,18.97,19.10,19.25,19.42,19.65,19.88,20.07,20.21,20.28,20.43,20.59,20.77,21.00,21.16,21.37,21.64,21.95,22.26,22.56,22.78,22.91,22.99,23.07,23.09,23.12,23.19,23.19,23.32,23.51,23.73,23.88,24.18,24.58,25.04,25.50,25.89,26.34,26.76,27.16,27.63,28.09,28.51,28.90,29.28,29.60,30.06,30.63,31.25,31.86,32.05,31.97,31.77,31.69,31.62,31.69,32.11,33.04,33.95,34.58,34.88,34.91,35.15,35.57,35.73,35.63,35.47,35.32,35.21,35.08,34.84,34.47,35.13,36.05,36.96,37.81,38.59,39.36,40.43,42.11,43.81,45.57,47.35,49.18,51.33,53.76,56.19,58.70,61.49,64.91,67.66,69.33,69.71,69.41,68.37,67.95,68.57,70.04,72.06,74.24,76.48,78.71,80.42,81.89,83.24,84.51,85.59,86.58,87.23,87.41,87.02,83.69,80.43,78.20,77.81,80.37,84.23,87.98,90.36,89.07,84.81,79.79,74.59,69.68,68.20,67.88,68.58,70.20,72.74,75.68,78.83,82.12,85.51,89.05,92.49,95.61,97.85,94.72,91.63,86.28,79.70,78.64,77.82,78.17,79.31,80.47,82.54,84.84,87.13,89.33,91.79,94.00,96.36,99.20,102.96,107.60,111.02,112.83,112.71,108.90,104.71,100.97,98.03,95.78,94.99,95.92,98.00,100.31,102.99,104.71,105.55,105.58,104.66,102.85,100.48,97.72,94.71,91.88,90.13,89.44,89.57,89.35,89.06,88.76,88.47,88.23,87.93,87.62,87.34,87.10,86.80,86.49,86.21,85.97,85.66,85.41,85.14,84.83,84.52,84.29,84.02,83.76,83.61,83.54,84.03,85.04,86.39,87.55,88.59,89.52,90.12,90.06,89.08,87.96,86.80,85.65,84.57,83.54,83.74,85.07,86.36,87.67,88.73,89.57,90.27,90.97,91.89,93.14,94.70,96.39,97.85,98.88,99.72,100.81,102.63
16.36,16.62,16.89,17.17,17.40,17.58,17.71,17.78,17.78,17.78,17.82,17.86,17.89,17.92,18.08,18.26,18.41,18.57,18.69,18.84,18.99,19.15,19.27,19.38,19.51,19.67,19.90,20.14,20.33,20.46,20.54,20.69,20.88,21.07,21.25,21.41,21.59,21.78,22.01,22.32,22.63,22.91,23.12,23.24,23.32,23.35,23.38,23.45,23.50,23.59,23.74,23.92,24.07,24.46,24.90,25.35,25.76,26.15,26.56,26.96,27.35,27.77,28.18,28.58,28.97,29.35,29.71,30.19,30.76,31.38,32.00,32.49,32.62,32.43,32.21,32.03,31.98,32.21,32.91,33.84,34.69,35.29,35.60,35.73,36.11,36.41,36.52,36.37,36.21,36.11,35.95,35.66,35.18,35.51,36.25,37.17,38.07,38.98,40.04,41.37,43.07,44.72,46.39,48.10,49.91,52.21,54.54,56.88,59.44,62.60,66.39,69.28,71.21,72.20,72.18,70.90,69.57,69.03,70.55,72.58,74.70,76.84,78.98,80.58,82.00,83.35,84.70,85.97,87.26,88.36,89.20,89.67,87.22,84.03,81.33,80.33,83.40,87.24,90.88,92.97,90.38,85.48,80.48,75.81,71.71,69.67,69.00,69.53,71.08,73.53,76.22,79.20,82.44,85.84,89.43,93.59,97.13,98.74,95.38,92.08,86.67,80.13,78.94,78.50,78.91,80.02,81.56,83.50,85.56,87.83,90.40,93.44,96.11,99.13,102.74,107.00,111.24,114.23,114.98,112.76,108.70,103.71,99.76,97.41,95.65,96.18,97.79,100.34,103.84,106.64,108.13,108.66,108.53,107.60,105.51,102.78,99.65,96.35,93.55,91.15,89.68,89.59,89.31,89.00,88.72,88.45,88.17,87.87,87.59,87.32,87.04,86.73,86.46,86.19,85.91,85.60,85.35,85.08,84.78,84.52,84.24,83.94,83.67,83.46,83.20,83.62,84.50,85.63,86.64,87.65,88.43,88.82,88.65,87.84,86.83,85.66,84.42,83.29,83.45,84.41,85.82,87.14,88.67,89.77,90.63,91.56,92.35,93.37,94.31,95.03,95.69,96.32,97.09,97.94,98.69,100.15
16.26,16.51,16.78,17.08,17.31,17.56,17.77,17.92,18.00,18.00,18.04,18.08,18.08,18.08,18.24,18.42,18.58,18.73,18.89,19.04,19.20,19.35,19.50,19.62,19.75,19.93,20.16,20.37,20.56,20.70,20.80,20.96,21.16,21.35,21.51,21.66,21.82,21.97,22.15,22.44,22.71,23.00,23.28,23.47,23.57,23.62,23.65,23.71,23.79,23.86,23.97,24.11,24.29,24.71,25.16,25.58,25.97,26.35,26.72,27.10,27.49,27.87,28.26,28.65,29.03,29.42,29.80,30.31,30.89,31.51,32.13,32.81,33.17,33.14,32.83,32.57,32.41,32.44,32.78,33.75,34.76,35.63,36.22,36.34,36.63,37.01,37.29,37.26,37.13,37.02,36.83,36.48,35.94,35.92,36.43,37.35,38.32,39.35,40.72,42.29,43.87,45.43,47.03,48.70,50.56,53.03,55.34,57.65,60.31,63.89,67.78,70.74,72.92,74.46,74.98,74.02,72.29,70.74,71.42,73.19,75.19,77.26,79.33,80.74,82.08,83.42,84.82,86.23,87.67,89.10,90.53,92.00,90.69,88.19,85.79,84.81,87.92,91.30,94.33,95.68,91.95,86.72,81.98,78.00,74.75,72.46,71.32,71.27,72.27,74.47,76.90,79.77,83.04,86.44,90.27,94.91,98.60,99.57,96.41,92.94,87.64,81.40,79.38,79.12,79.68,80.89,82.67,84.50,86.36,88.54,91.25,94.73,97.92,101.72,106.21,111.06,114.94,117.11,116.63,112.91,108.44,102.95,98.95,97.15,96.18,97.47,99.76,102.94,107.11,109.80,111.15,111.56,111.30,110.30,108.09,105.14,101.68,97.97,95.19,92.34,90.22,89.63,89.33,89.02,88.74,88.50,88.19,87.88,87.62,87.36,87.05,86.74,86.49,86.23,85.92,85.63,85.37,85.09,84.80,84.57,84.26,83.97,83.65,83.28,82.85,83.08,83.77,84.75,85.69,86.67,87.32,87.54,87.24,86.56,85.66,84.56,83.34,82.53,83.51,84.94,86.37,87.70,89.32,90.41,91.21,92.07,92.83,93.72,94.32,94.46,94.44,94.55,95.10,95.84,96.22,97.15
16.13,16.39,16.65,16.95,17.18,17.47,17.73,17.96,18.24,18.26,18.26,18.27,18.27,18.27,18.39,18.55,18.71,18.86,19.01,19.17,19.32,19.48,19.63,19.78,19.96,20.18,20.41,20.59,20.75,20.90,21.05,21.27,21.45,21.61,21.76,21.92,22.07,22.23,22.40,22.64,22.82,23.07,23.37,23.66,23.81,23.91,23.95,23.97,24.04,24.12,24.20,24.32,24.54,24.92,25.32,25.71,26.09,26.48,26.82,27.16,27.55,27.94,28.32,28.71,29.10,29.48,29.87,30.41,31.02,31.64,32.26,32.94,33.55,33.91,33.60,33.30,33.05,32.83,32.66,33.72,34.79,35.85,36.75,36.96,37.15,37.48,37.88,38.14,38.07,37.94,37.71,37.31,36.77,36.36,36.60,37.50,38.56,39.70,41.38,43.15,44.44,45.86,47.37,49.08,51.10,53.77,56.19,58.57,61.39,65.41,69.02,71.96,74.35,76.32,77.79,78.00,76.68,74.33,72.84,73.96,75.73,77.77,79.84,80.90,82.14,83.49,84.89,86.35,87.76,89.30,91.21,93.87,93.97,93.07,92.17,92.23,94.60,96.90,98.57,98.53,93.95,88.81,84.65,81.54,79.23,77.18,75.44,74.25,73.93,75.64,77.82,80.68,84.07,87.46,91.81,96.57,99.94,100.32,97.95,94.36,89.40,83.75,79.96,79.59,80.49,82.04,83.82,85.60,87.35,89.33,91.85,95.53,99.33,104.02,109.51,115.11,118.75,119.50,117.54,113.31,108.10,102.55,98.77,97.43,97.69,98.92,101.89,105.95,109.93,112.17,113.56,114.11,113.84,112.63,110.55,107.62,103.91,99.61,96.74,93.78,91.24,89.76,89.45,89.14,88.87,88.63,88.32,88.01,87.74,87.49,87.18,86.87,86.62,86.35,86.05,85.81,85.52,85.22,84.93,84.70,84.39,84.13,83.72,83.02,82.49,82.36,82.79,83.73,84.73,85.67,86.22,86.28,85.84,85.15,84.43,83.52,82.47,82.55,83.74,85.17,86.57,87.95,89.43,90.47,91.10,91.43,91.93,92.36,92.59,92.60,92.53,92.59,92.92,93.30,93.29,93.49
16.00,16.29,16.56,16.83,17.10,17.40,17.69,17.96,18.23,18.36,18.43,18.46,18.46,18.46,18.55,18.68,18.83,18.99,19.14,19.30,19.45,19.61,19.76,19.94,20.15,20.39,20.62,20.82,20.99,21.16,21.35,21.54,21.71,21.87,22.02,22.18,22.33,22.50,22.70,22.89,23.05,23.24,23.48,23.75,23.99,24.14,24.23,24.27,24.31,24.38,24.45,24.55,24.70,24.99,25.34,25.73,26.12,26.50,26.86,27.23,27.61,27.95,28.33,28.72,29.11,29.49,29.88,30.45,31.09,31.72,32.38,33.06,33.72,34.24,34.38,34.11,33.80,33.47,33.15,33.66,34.74,35.92,36.90,37.54,37.76,38.05,38.43,38.82,38.92,38.84,38.57,38.09,37.60,37.03,37.08,37.83,38.87,40.32,42.41,44.46,45.65,46.96,48.29,50.27,52.93,54.82,57.06,59.67,62.78,66.63,70.07,73.10,75.67,77.77,79.60,80.69,80.24,78.35,76.24,75.78,76.66,78.35,80.13,81.05,82.23,83.55,84.94,86.33,87.72,89.19,91.06,93.91,95.91,97.03,97.49,97.65,98.91,100.04,100.78,100.27,96.10,91.80,88.03,85.06,83.07,81.47,79.54,77.87,76.92,77.22,78.83,81.66,85.32,89.00,93.72,97.98,100.70,101.00,98.96,95.43,90.92,85.86,80.94,80.39,81.26,82.77,84.38,85.99,87.61,89.55,92.13,95.96,100.25,105.47,111.51,117.92,120.67,120.43,117.77,113.38,108.05,102.45,98.97,98.24,98.79,100.95,104.31,108.13,111.41,113.74,115.51,116.47,116.41,114.93,112.69,109.79,106.20,101.80,98.41,95.21,92.31,89.94,89.59,89.27,89.00,88.75,88.45,88.17,87.90,87.62,87.31,87.04,86.77,86.50,86.23,85.96,85.69,85.42,85.15,84.88,84.34,83.81,83.22,82.50,82.08,81.92,82.13,82.76,83.72,84.69,85.14,85.04,84.49,83.80,83.10,82.35,81.67,82.27,83.44,84.72,86.00,87.31,88.65,89.50,89.96,90.19,90.49,90.71,90.81,90.80,90.72,90.78,90.84,90.87,90.83,91.03
15.91,16.22,16.50,16.75,17.05,17.35,17.66,17.95,18.19,18.43,18.58,18.64,18.65,18.65,18.71,18.82,18.96,19.12,19.28,19.44,19.60,19.75,19.91,20.11,20.35,20.58,20.81,21.04,21.24,21.42,21.64,21.81,21.97,22.12,22.28,22.43,22.60,22.79,22.99,23.15,23.30,23.46,23.63,23.85,24.14,24.35,24.49,24.57,24.58,24.65,24.73,24.80,24.88,25.08,25.37,25.73,26.12,26.50,26.89,27.27,27.63,27.96,28.33,28.72,29.11,29.49,29.88,30.48,31.15,31.78,32.48,33.16,33.82,34.44,35.00,34.87,34.54,34.14,33.77,33.69,34.63,35.84,36.94,37.98,38.36,38.63,38.96,39.42,39.70,39.67,39.37,38.86,38.34,37.67,37.60,38.25,39.20,41.01,43.45,45.75,47.01,48.38,50.01,52.45,55.48,56.55,58.36,60.96,64.20,67.80,71.09,74.20,76.90,79.09,81.08,82.84,83.27,82.12,79.86,78.12,78.10,79.30,80.78,81.71,82.69,83.75,84.93,86.24,87.62,89.00,90.76,93.65,97.15,99.88,101.47,101.77,102.15,102.42,102.37,101.41,97.87,94.42,91.17,88.52,86.93,85.70,83.79,81.89,80.41,79.35,80.41,83.13,86.92,90.79,95.63,99.24,101.30,101.63,99.79,96.24,92.01,87.39,82.02,81.42,82.17,83.49,84.95,86.39,87.89,89.81,92.48,96.38,101.06,106.68,113.13,120.07,122.02,121.02,117.92,113.57,108.56,102.95,99.66,99.40,100.29,103.34,106.83,110.15,112.81,115.24,117.39,118.77,118.97,117.08,114.62,111.76,108.39,104.11,100.20,96.75,93.56,90.53,89.81,89.41,89.14,88.88,88.59,88.34,88.05,87.75,87.45,87.22,86.94,86.66,86.42,86.12,85.87,85.58,85.24,84.86,84.11,83.34,82.61,81.98,81.67,81.54,81.58,81.87,82.73,83.68,84.02,83.77,83.15,82.46,81.82,81.30,81.02,81.85,82.88,84.00,85.18,86.41,87.49,88.11,88.43,88.68,88.86,88.98,89.05,89.08,89.04,89.12,89.12,89.17,89.50,89.98
15.91,16.22,16.52,16.81,17.06,17.35,17.66,17.95,18.19,18.48,18.67,18.78,18.84,18.84,18.90,18.99,19.09,19.24,19.45,19.63,19.79,19.94,20.10,20.31,20.54,20.77,21.00,21.23,21.46,21.66,21.83,22.05,22.22,22.38,22.53,22.69,22.89,23.08,23.25,23.40,23.56,23.71,23.87,24.04,24.29,24.51,24.70,24.83,24.89,24.97,25.05,25.12,25.20,25.30,25.47,25.73,26.12,26.50,26.89,27.25,27.58,27.95,28.33,28.72,29.11,29.49,29.88,30.48,31.17,31.85,32.54,33.19,33.85,34.52,35.19,35.42,35.21,34.78,34.40,34.02,34.41,35.44,36.90,38.09,38.82,39.21,39.47,39.94,40.36,40.34,40.05,39.61,38.90,38.15,38.10,38.78,39.54,41.74,44.35,46.77,48.43,50.30,53.57,56.87,59.27,59.99,60.83,62.66,65.51,69.02,72.17,75.22,77.98,80.30,82.25,84.18,85.27,85.04,82.97,81.29,80.73,81.22,82.51,83.74,84.15,84.33,84.74,86.05,87.43,88.78,90.53,93.51,97.21,100.24,102.35,103.43,103.76,104.06,103.39,101.47,98.57,95.54,93.25,91.82,91.21,89.98,88.46,86.64,84.59,82.74,83.46,85.88,89.35,92.98,97.34,100.23,101.78,102.21,100.42,96.58,92.07,87.51,83.13,82.85,83.44,84.44,85.84,87.19,88.58,90.49,93.23,96.98,101.80,107.75,114.46,121.05,122.84,121.50,118.24,114.28,110.45,104.94,101.44,101.24,103.11,106.37,109.46,112.21,114.73,117.01,119.36,121.07,121.45,118.87,116.16,113.36,110.28,106.44,102.24,98.58,95.29,92.18,90.23,89.58,89.31,89.02,88.77,88.49,88.18,87.89,87.65,87.41,87.13,86.85,86.62,86.37,86.08,85.60,84.92,84.24,83.47,82.70,82.04,81.60,81.29,81.16,81.11,81.19,81.80,82.59,82.79,82.43,81.81,81.11,80.72,80.60,80.72,81.21,81.94,82.91,84.09,85.33,85.81,86.13,86.40,86.70,86.98,87.20,87.40,87.57,87.68,87.82,88.38,89.44,91.01,92.14
15.95,16.24,16.53,16.83,17.10,17.37,17.66,17.95,18.19,18.49,18.72,18.88,18.99,19.06,19.11,19.17,19.26,19.42,19.61,19.78,19.94,20.13,20.29,20.50,20.73,20.96,21.19,21.42,21.67,21.91,22.07,22.26,22.43,22.60,22.79,22.94,23.13,23.31,23.47,23.66,23.81,23.97,24.12,24.28,24.51,24.72,24.90,25.05,25.16,25.24,25.32,25.40,25.47,25.55,25.68,25.86,26.11,26.47,26.84,27.21,27.56,27.95,28.33,28.72,29.11,29.49,29.88,30.45,31.13,31.82,32.48,33.11,33.78,34.51,35.24,35.77,35.85,35.56,35.03,34.57,34.48,35.11,36.46,37.83,38.99,39.64,40.00,40.53,41.03,41.01,40.65,40.10,39.33,38.67,38.68,39.45,40.67,42.97,45.52,48.08,50.51,53.73,57.33,60.40,62.40,63.22,63.69,64.87,67.13,70.64,73.91,77.00,79.69,81.83,83.80,85.77,87.39,88.27,87.55,86.73,86.06,85.51,85.04,86.01,86.01,85.62,85.38,86.20,87.42,88.68,90.40,93.52,96.97,99.99,102.48,104.42,105.32,105.27,103.97,101.59,98.99,96.84,95.65,95.23,95.18,94.19,92.81,90.88,88.50,86.51,86.89,88.87,91.89,95.17,98.84,101.37,102.62,102.56,100.71,96.44,91.80,87.70,84.44,84.54,85.02,85.68,86.83,88.14,89.71,91.80,94.57,97.86,102.68,108.96,115.93,121.86,123.65,122.14,118.84,115.31,112.04,107.80,105.09,104.89,106.85,109.50,112.05,114.45,116.78,119.19,121.77,123.58,123.74,120.44,117.48,114.70,111.87,108.51,104.44,100.65,97.18,94.00,91.27,90.01,89.46,89.19,88.92,88.65,88.38,88.10,87.84,87.61,87.34,87.07,86.78,86.31,85.80,85.15,84.38,83.60,82.83,82.13,81.57,81.22,80.94,80.79,80.69,80.68,80.98,81.51,81.53,81.13,80.69,80.30,80.13,80.17,80.42,80.84,81.37,82.07,82.92,83.78,84.28,84.80,85.30,85.71,86.16,86.55,86.91,87.25,87.61,88.03,89.07,90.79,93.07,95.35
16.02,16.27,16.53,16.84,17.15,17.40,17.67,17.96,18.19,18.49,18.75,18.96,19.13,19.27,19.32,19.36,19.44,19.60,19.75,19.91,20.09,20.33,20.48,20.69,20.92,21.15,21.38,21.62,21.89,22.16,22.32,22.47,22.63,22.81,23.03,23.19,23.35,23.51,23.67,23.90,24.06,24.22,24.37,24.53,24.76,24.93,25.09,25.24,25.40,25.49,25.58,25.66,25.74,25.82,25.94,26.06,26.15,26.44,26.79,27.17,27.56,27.95,28.33,28.72,29.11,29.49,29.87,30.41,31.05,31.73,32.37,33.00,33.70,34.46,35.24,36.01,36.43,36.37,35.73,35.24,34.76,34.88,35.85,37.39,38.95,39.92,40.48,41.11,41.68,41.65,41.19,40.48,39.71,39.20,39.32,40.27,42.17,44.46,46.89,49.62,52.86,57.44,60.82,63.33,65.16,66.34,66.68,67.34,69.04,72.66,76.09,79.16,81.67,83.55,85.55,87.52,89.58,91.52,92.49,92.75,92.16,90.62,88.11,88.37,87.94,87.16,86.40,86.60,87.55,88.65,90.31,93.50,96.59,99.47,102.30,105.12,106.82,106.36,104.52,101.92,99.51,98.40,98.26,98.62,98.93,98.25,96.91,94.86,92.27,90.42,90.48,91.99,94.52,97.43,100.42,102.58,103.41,102.59,100.58,95.95,91.35,87.92,85.92,86.39,86.77,87.09,87.87,89.19,91.02,93.35,96.10,98.90,103.69,110.26,117.40,122.55,124.52,122.98,119.70,116.51,113.56,110.95,109.36,109.19,110.84,112.65,114.66,116.82,119.03,121.74,124.59,126.44,126.27,122.32,118.90,115.96,113.28,110.32,106.53,102.73,99.14,95.92,92.67,90.67,89.68,89.38,89.07,88.83,88.60,88.35,88.04,87.80,87.53,87.22,86.83,86.06,85.28,84.51,83.74,82.97,82.20,81.59,81.14,80.84,80.60,80.43,80.30,80.24,80.23,80.47,80.34,79.97,79.75,79.75,79.77,79.87,80.12,80.58,81.03,81.51,82.02,82.49,83.27,84.15,84.95,85.50,86.11,86.65,87.14,87.62,88.31,89.23,90.75,92.84,95.32,98.60
16.10,16.34,16.58,16.84,17.15,17.44,17.71,17.97,18.26,18.51,18.75,18.99,19.25,19.35,19.46,19.53,19.57,19.73,19.88,20.07,20.29,20.52,20.67,20.88,21.11,21.34,21.58,21.81,22.08,22.35,22.51,22.66,22.85,23.05,23.23,23.38,23.58,23.76,23.92,24.10,24.25,24.41,24.58,24.79,24.96,25.13,25.28,25.43,25.59,25.73,25.86,25.98,26.06,26.14,26.23,26.32,26.40,26.54,26.82,27.17,27.56,27.95,28.33,28.72,29.11,29.49,29.82,30.31,30.90,31.55,32.28,33.01,33.74,34.46,35.24,36.01,36.71,37.07,36.81,36.12,35.48,35.10,35.27,36.76,38.39,39.66,40.57,41.30,42.06,42.10,41.60,40.80,40.08,39.66,40.13,41.62,43.86,46.23,48.80,51.76,55.26,58.91,62.07,64.89,67.37,69.24,69.48,70.11,72.04,76.16,79.22,81.64,83.67,85.59,87.54,89.65,91.87,94.06,95.92,96.39,95.90,94.53,92.41,90.65,89.31,88.31,87.65,87.60,88.05,88.80,90.22,93.07,96.04,98.93,102.14,105.87,108.11,107.80,105.94,103.34,101.32,101.10,101.32,101.72,102.13,101.55,100.38,98.48,95.98,94.13,94.07,95.26,97.41,100.12,103.01,103.78,102.96,101.27,98.72,94.47,90.60,88.18,87.90,88.56,88.80,88.78,89.02,90.44,92.40,94.72,97.26,100.16,105.17,111.70,118.43,122.84,125.84,124.71,121.32,117.88,115.43,113.58,112.61,112.71,114.01,115.60,117.45,119.61,122.16,125.46,128.73,130.84,130.80,126.75,121.57,117.41,114.39,111.29,107.63,104.26,101.11,98.02,94.72,92.00,90.28,89.58,89.32,89.09,88.86,88.60,88.29,88.01,87.48,86.85,86.19,85.42,84.64,83.87,83.10,82.33,81.61,81.11,80.76,80.45,80.22,80.01,79.86,79.78,79.73,79.74,79.65,79.48,79.37,79.42,79.51,79.67,79.92,80.33,81.13,82.03,82.98,84.04,85.09,86.06,86.88,87.48,88.04,88.46,88.80,89.24,90.47,92.57,94.73,96.49,97.34,99.32
16.10,16.35,16.61,16.87,17.15,17.45,17.72,17.97,18.28,18.52,18.75,19.01,19.31,19.44,19.57,19.66,19.74,19.89,20.05,20.25,20.48,20.71,20.86,21.07,21.30,21.54,21.77,22.00,22.24,22.48,22.70,22.88,23.08,23.26,23.42,23.57,23.76,23.96,24.14,24.29,24.44,24.60,24.77,24.97,25.15,25.32,25.47,25.63,25.78,25.93,26.09,26.23,26.34,26.42,26.50,26.58,26.69,26.76,26.95,27.22,27.56,27.95,28.33,28.72,29.10,29.46,29.77,30.23,30.83,31.51,32.25,33.02,33.77,34.50,35.27,36.05,36.87,37.51,37.72,37.12,36.42,35.78,35.43,36.19,37.80,39.32,40.54,41.48,42.39,42.67,42.32,41.49,40.76,40.32,40.98,42.81,45.21,47.58,50.18,53.12,56.43,59.62,62.72,65.75,68.64,71.06,72.21,73.60,75.79,79.19,81.71,83.79,85.69,87.60,89.65,91.89,94.20,96.47,98.57,99.22,98.91,97.79,96.01,93.35,91.29,89.78,88.85,88.78,88.98,89.58,90.79,92.98,95.75,98.51,102.07,106.87,109.62,109.16,107.13,104.76,103.90,104.23,104.60,104.90,105.18,104.47,103.18,101.34,99.16,97.79,97.71,98.69,100.56,103.07,104.49,103.60,101.55,99.50,97.17,93.61,90.76,89.50,90.19,91.00,91.20,90.98,90.79,91.95,93.87,96.18,98.70,102.15,106.90,112.81,118.88,122.97,126.62,126.73,124.55,121.65,118.17,116.54,116.05,116.34,117.36,118.67,120.37,122.51,125.07,129.22,133.08,135.46,135.36,131.18,124.77,119.74,116.38,112.93,109.10,105.78,102.81,99.92,96.77,93.72,91.44,90.16,89.61,89.34,89.08,88.74,88.26,87.78,87.10,86.32,85.55,84.78,84.01,83.23,82.46,81.69,81.09,80.68,80.37,80.03,79.74,79.47,79.30,79.22,79.14,79.07,79.05,79.11,79.20,79.36,79.52,79.78,80.23,80.90,82.02,83.07,84.00,85.08,86.55,87.76,88.67,89.31,89.85,90.54,91.02,91.24,91.75,92.63,93.72,94.95,96.26,98.64
16.03,16.32,16.63,16.93,17.16,17.45,17.72,17.97,18.28,18.52,18.75,19.01,19.31,19.54,19.66,19.77,19.93,20.08,20.24,20.44,20.67,20.90,21.05,21.26,21.49,21.73,21.96,22.19,22.38,22.57,22.88,23.12,23.30,23.45,23.61,23.76,23.92,24.11,24.33,24.48,24.64,24.79,24.95,25.10,25.33,25.51,25.66,25.82,25.97,26.13,26.28,26.44,26.59,26.67,26.75,26.85,27.01,27.08,27.16,27.31,27.56,27.95,28.33,28.72,29.08,29.39,29.70,30.17,30.80,31.57,32.26,33.02,33.79,34.56,35.34,36.11,36.93,37.75,38.49,38.19,37.54,36.80,36.14,35.67,37.19,38.91,40.43,41.66,42.67,43.32,43.28,42.44,41.67,41.14,41.87,43.90,46.29,48.61,51.17,53.90,56.68,59.77,62.92,66.09,69.21,72.07,74.86,77.60,80.06,81.84,83.70,85.71,87.71,89.59,91.83,94.19,96.55,98.77,100.63,101.44,101.38,100.55,99.06,96.36,93.71,91.48,90.02,90.10,90.25,90.84,91.86,93.17,95.65,98.20,102.09,108.06,111.30,110.44,108.14,106.19,107.04,107.68,108.02,108.13,108.12,107.10,105.49,103.63,101.95,101.42,101.40,102.22,103.89,106.19,105.12,102.41,99.44,97.40,95.85,93.24,91.60,91.62,92.70,93.65,93.89,93.56,93.03,93.64,95.41,97.71,100.34,104.67,108.80,113.67,118.88,122.97,127.00,128.97,128.98,127.20,121.59,119.79,119.63,120.07,120.84,121.81,123.40,125.51,127.84,133.01,137.57,140.22,139.92,135.60,128.36,122.72,119.01,115.07,110.84,107.28,104.30,101.66,98.80,95.71,93.01,91.03,89.95,89.60,89.27,88.77,88.00,87.23,86.46,85.68,84.91,84.14,83.37,82.59,81.82,81.05,80.64,80.30,79.96,79.58,79.19,78.86,78.66,78.58,78.51,78.43,78.54,78.81,79.20,79.51,79.73,80.13,80.94,82.10,83.50,84.49,85.06,85.75,87.72,89.27,90.33,91.02,91.56,92.78,93.61,93.49,92.33,90.25,89.03,89.60,92.92,96.92
15.89,16.15,16.43,16.74,17.02,17.37,17.71,18.03,18.28,18.52,18.78,19.06,19.31,19.54,19.73,19.88,19.99,20.15,20.30,20.50,20.73,20.96,21.17,21.39,21.60,21.78,21.91,22.08,22.23,22.38,22.69,23.02,23.30,23.55,23.80,23.96,24.11,24.28,24.46,24.67,24.83,24.98,25.14,25.29,25.47,25.67,25.85,26.01,26.16,26.32,26.47,26.63,26.78,26.91,27.01,27.11,27.26,27.34,27.42,27.52,27.67,27.96,28.33,28.72,29.07,29.33,29.64,30.11,30.76,31.57,32.32,33.08,33.86,34.63,35.40,36.17,36.96,37.77,38.57,38.86,38.55,38.06,37.51,36.35,37.00,38.36,39.94,41.28,42.39,43.53,44.01,43.41,42.79,42.25,42.74,44.40,46.74,49.02,51.55,54.19,56.67,59.26,62.46,65.81,69.02,71.93,74.86,77.64,80.13,82.15,84.35,86.61,88.82,90.92,92.96,95.12,97.31,99.38,101.09,102.33,102.62,102.02,100.73,98.58,95.93,93.40,91.61,92.09,93.00,94.10,95.16,95.88,96.92,98.57,102.56,109.72,112.96,111.60,109.64,108.85,109.95,110.71,111.27,111.55,111.43,109.48,107.52,105.72,104.37,104.78,105.16,105.91,106.76,106.94,104.44,101.72,99.24,97.33,95.84,94.12,93.40,94.04,95.42,96.35,96.63,96.37,95.83,95.66,96.84,99.09,102.14,106.02,110.00,114.37,119.01,123.41,127.91,130.73,131.97,131.85,129.25,127.33,125.62,124.30,124.78,124.93,126.15,128.75,132.76,137.48,140.91,142.59,142.12,138.54,131.63,125.79,121.54,117.20,112.81,109.07,105.94,103.26,100.45,97.52,95.00,93.02,91.19,89.93,88.95,88.13,87.36,86.59,85.82,85.04,84.27,83.50,82.77,82.02,81.27,80.60,80.24,79.82,79.37,78.94,78.55,78.26,78.08,78.06,78.34,78.56,78.85,79.18,79.52,80.56,81.99,83.32,84.17,84.39,85.29,85.88,86.07,86.42,87.50,89.01,90.36,90.95,91.29,91.40,91.11,90.35,89.15,88.08,88.21,89.75,92.68,96.23
15.72,15.98,16.24,16.56,16.91,17.29,17.68,18.03,18.28,18.54,18.83,19.11,19.34,19.57,19.80,19.97,20.08,20.21,20.36,20.56,20.79,21.00,21.23,21.43,21.60,21.72,21.80,21.92,22.04,22.19,22.52,22.88,23.21,23.53,23.85,24.05,24.25,24.44,24.62,24.83,25.01,25.17,25.33,25.48,25.64,25.83,26.03,26.20,26.36,26.51,26.66,26.82,26.97,27.13,27.25,27.36,27.49,27.59,27.67,27.75,27.85,28.06,28.34,28.69,29.04,29.29,29.62,30.13,30.80,31.60,32.35,33.12,33.89,34.67,35.46,36.24,37.01,37.81,38.65,39.31,39.38,39.13,38.58,37.06,36.96,37.93,39.51,40.92,42.17,43.62,44.55,44.43,43.89,43.35,43.54,44.73,47.02,49.19,51.60,54.08,56.38,58.70,61.82,65.24,68.59,71.59,74.44,77.09,79.50,81.62,83.98,86.34,88.77,91.30,93.29,95.41,97.60,99.76,101.58,103.20,103.85,103.47,102.17,100.39,97.91,95.26,93.18,93.92,95.46,97.08,98.45,99.18,99.29,100.19,103.77,110.91,114.35,113.32,111.85,111.57,112.74,113.61,114.36,114.85,114.89,112.66,110.19,108.14,107.08,108.01,108.54,108.88,108.66,107.07,104.23,101.80,99.74,97.95,96.46,95.36,95.36,96.53,98.11,99.12,99.47,99.24,98.61,97.80,98.41,100.41,103.61,107.13,110.91,114.92,119.18,123.76,128.51,132.10,134.52,135.84,135.48,134.01,131.60,129.01,128.71,128.31,129.74,133.05,137.82,141.75,144.28,145.12,144.04,140.35,133.91,128.09,123.37,118.71,114.21,110.38,107.19,104.52,101.79,99.01,96.55,94.45,92.17,90.24,88.82,87.79,86.98,86.16,85.36,84.56,83.74,82.90,82.16,81.42,80.69,80.11,79.75,79.29,78.78,78.30,77.91,77.77,77.79,77.95,78.43,78.83,79.30,80.08,81.55,83.30,85.29,86.84,87.40,86.94,87.20,87.34,87.24,87.33,87.42,88.35,89.51,90.14,90.26,89.59,88.78,88.17,87.74,87.75,88.67,90.51,93.11,96.35
15.53,15.79,16.05,16.38,16.83,17.23,17.61,17.98,18.28,18.58,18.89,19.17,19.41,19.64,19.87,20.06,20.20,20.28,20.43,20.63,20.84,21.00,21.23,21.36,21.45,21.53,21.61,21.69,21.81,22.01,22.39,22.71,23.02,23.35,23.73,24.03,24.32,24.59,24.80,24.96,25.18,25.37,25.52,25.67,25.83,25.99,26.17,26.39,26.55,26.70,26.86,27.01,27.17,27.32,27.47,27.60,27.68,27.83,27.93,28.00,28.09,28.25,28.36,28.63,28.99,29.29,29.67,30.26,30.95,31.66,32.36,33.12,33.89,34.68,35.52,36.30,37.07,37.87,38.72,39.48,39.97,39.96,39.29,37.82,37.09,37.66,39.14,40.60,42.04,43.56,44.82,45.52,44.98,44.44,44.25,44.85,47.09,49.07,51.23,53.49,55.74,58.06,60.97,64.30,67.85,70.99,73.48,75.80,78.00,80.02,82.34,84.61,87.26,90.48,92.62,94.89,97.33,99.85,102.11,104.04,105.08,104.91,103.33,101.69,99.57,97.05,94.73,95.57,97.53,99.71,101.71,103.24,103.05,103.37,105.90,111.52,115.41,115.74,114.94,114.35,115.38,116.37,117.26,118.01,118.54,116.85,113.65,111.00,110.15,111.07,111.44,110.94,109.36,106.43,104.61,102.86,101.12,99.42,97.88,97.07,97.51,99.10,100.79,101.98,102.44,102.19,101.36,100.10,100.12,101.67,104.67,107.94,111.47,115.26,119.38,124.01,128.72,133.00,136.52,138.98,139.91,139.61,137.56,134.33,132.64,132.04,134.37,138.68,143.06,145.76,147.68,147.85,145.63,140.75,134.96,129.42,124.34,119.42,114.92,111.08,107.92,105.36,102.72,100.08,97.57,95.20,92.82,90.54,88.92,87.83,86.92,86.00,85.14,84.26,83.34,82.35,81.55,80.78,80.07,79.60,79.14,78.68,78.19,77.66,77.27,77.43,77.84,78.34,78.88,79.28,79.91,81.64,85.72,88.14,89.90,90.76,90.62,89.82,89.25,88.86,88.62,88.56,87.55,87.19,87.55,88.40,88.28,87.25,86.66,87.17,88.57,89.72,90.73,92.04,94.39,97.48
15.34,15.63,15.93,16.30,16.76,17.20,17.60,17.97,18.28,18.59,18.90,19.20,19.47,19.75,19.96,20.11,20.22,20.34,20.49,20.67,20.84,21.00,21.10,21.19,21.26,21.34,21.42,21.49,21.63,21.87,22.21,22.52,22.86,23.21,23.55,23.86,24.20,24.51,24.78,25.02,25.30,25.53,25.71,25.87,26.02,26.18,26.34,26.53,26.73,26.89,27.05,27.20,27.36,27.51,27.67,27.81,27.93,28.04,28.16,28.26,28.35,28.50,28.59,28.79,29.10,29.41,29.83,30.47,31.20,31.90,32.63,33.37,34.12,34.89,35.65,36.38,37.11,37.87,38.67,39.49,40.17,40.34,39.79,38.45,37.41,37.65,38.88,40.17,41.63,43.18,44.70,45.98,45.91,45.50,45.16,45.38,47.14,48.90,50.88,53.03,55.27,57.45,59.79,62.67,66.11,69.19,71.55,73.65,75.68,77.86,80.09,82.35,85.17,88.79,91.47,94.01,96.74,99.60,102.00,104.13,105.95,106.60,105.15,103.57,101.20,98.50,96.18,96.42,98.53,101.34,104.23,106.46,107.71,108.71,110.65,114.34,117.50,118.51,118.32,117.79,118.58,119.72,120.88,121.76,122.01,120.21,116.94,113.80,112.05,113.06,112.88,111.65,109.68,107.54,106.06,104.42,102.67,100.94,99.40,98.90,99.74,101.71,103.72,105.05,105.55,105.27,104.33,102.84,102.74,103.68,105.42,108.23,111.58,115.14,118.96,123.38,128.57,133.14,137.09,140.49,142.48,142.30,140.75,138.48,136.45,136.76,139.55,143.80,147.91,149.89,151.17,150.00,145.62,140.29,134.81,129.51,124.49,119.67,115.58,111.79,108.49,105.85,103.14,100.46,97.89,95.43,92.86,90.52,88.87,87.74,86.68,85.63,84.56,83.57,82.68,81.77,80.93,80.18,79.53,78.98,78.47,77.96,77.46,76.99,77.21,77.66,78.20,78.77,79.27,80.84,83.53,86.82,89.79,91.76,93.14,93.65,93.15,92.30,91.60,91.16,90.97,90.90,89.75,88.61,87.77,87.42,87.48,87.27,87.58,88.70,90.06,91.27,92.37,93.66,95.68,97.98
15.16,15.48,15.85,16.25,16.70,17.16,17.59,17.97,18.28,18.59,18.89,19.19,19.50,19.81,20.00,20.11,20.19,20.34,20.48,20.63,20.78,20.94,20.94,20.98,21.05,21.13,21.21,21.30,21.46,21.71,22.02,22.34,22.70,23.05,23.36,23.68,24.04,24.38,24.69,25.00,25.32,25.60,25.83,26.02,26.20,26.37,26.52,26.68,26.90,27.08,27.24,27.39,27.55,27.70,27.86,28.01,28.16,28.26,28.38,28.50,28.60,28.74,28.84,29.02,29.28,29.57,30.06,30.75,31.49,32.19,32.97,33.68,34.41,35.17,35.86,36.57,37.27,37.98,38.73,39.56,40.35,40.65,40.22,39.00,37.80,37.75,38.66,39.77,41.21,42.79,44.48,46.14,46.77,46.56,46.15,46.08,47.22,48.76,50.52,52.51,54.70,56.77,58.62,60.93,63.90,66.87,69.18,71.25,73.33,75.66,77.98,80.39,83.37,87.18,90.38,93.21,96.20,99.31,101.85,104.39,106.90,108.25,107.13,105.41,102.80,99.97,97.60,97.15,99.30,102.61,106.26,109.26,112.02,113.96,115.76,118.05,120.54,121.98,122.32,122.08,122.90,123.94,124.94,125.43,124.85,122.49,119.17,115.96,113.87,114.88,114.34,112.78,110.73,109.14,107.66,106.02,104.26,102.46,100.91,100.84,102.13,104.43,106.67,108.21,108.83,108.50,107.27,105.70,105.47,105.89,106.66,108.96,111.91,115.04,118.44,122.55,128.34,133.22,137.50,141.58,144.46,144.83,144.16,143.04,141.18,142.33,145.33,149.30,153.10,154.31,154.56,151.89,145.62,139.75,134.47,129.37,124.41,119.70,116.03,112.45,109.17,106.43,103.60,100.82,98.15,95.56,92.86,90.48,88.79,87.59,86.43,85.27,84.07,82.97,82.06,81.15,80.33,79.63,79.02,78.40,77.83,77.28,76.84,76.63,77.33,77.98,78.61,79.32,80.42,83.37,87.53,91.61,93.65,95.20,96.15,96.29,95.58,94.74,94.07,93.67,93.49,93.33,92.15,90.50,88.72,87.21,86.98,87.41,88.50,90.04,91.23,92.41,93.59,94.90,96.58,98.17
15.01,15.36,15.80,16.25,16.65,17.10,17.55,17.97,18.28,18.59,18.86,19.12,19.43,19.74,19.93,20.02,20.06,20.21,20.31,20.44,20.59,20.75,20.75,20.76,20.80,20.87,20.95,21.08,21.27,21.52,21.83,22.20,22.54,22.85,23.17,23.54,23.87,24.19,24.50,24.81,25.17,25.50,25.80,26.08,26.36,26.56,26.71,26.87,27.04,27.25,27.43,27.59,27.74,27.89,28.05,28.20,28.36,28.50,28.60,28.72,28.85,28.94,29.07,29.30,29.59,29.83,30.42,31.13,31.88,32.58,33.35,34.06,34.80,35.55,36.25,37.00,37.72,38.40,39.05,39.83,40.61,40.93,40.54,39.37,38.31,38.02,38.49,39.45,40.84,42.44,44.14,45.85,47.52,47.59,47.23,47.00,47.35,48.68,50.15,51.82,53.86,55.88,57.55,59.13,60.94,63.76,66.13,68.61,71.17,73.55,76.34,79.22,82.39,86.00,89.54,92.72,95.88,99.03,101.83,105.24,108.14,109.73,109.22,106.97,104.35,101.57,98.98,97.84,99.92,103.39,107.45,111.39,115.28,118.39,120.88,123.02,125.31,126.86,127.62,128.02,129.48,129.88,129.73,128.72,126.37,122.62,119.12,116.72,115.88,116.64,116.32,115.23,113.51,111.28,109.30,107.59,105.87,103.93,102.38,102.99,104.87,107.37,109.61,111.55,112.43,111.99,110.09,108.66,108.16,108.34,109.09,110.85,112.84,115.12,117.89,121.55,128.06,133.41,137.95,142.25,145.73,147.90,148.89,148.83,147.97,149.45,152.29,155.81,159.17,159.29,157.70,153.36,146.15,139.29,134.07,129.09,124.09,119.38,116.03,113.02,110.16,107.32,104.34,101.38,98.46,95.63,92.92,90.50,88.68,87.33,86.17,85.02,83.85,82.70,81.59,80.48,79.74,79.14,78.57,77.96,77.29,76.70,76.50,76.95,77.65,78.33,79.02,80.09,83.22,87.68,91.46,94.46,97.09,98.65,99.06,98.71,98.01,97.23,96.72,96.36,96.05,95.65,94.36,92.61,90.58,88.50,86.78,87.13,88.53,90.25,91.54,92.77,94.00,95.26,96.65,97.90
14.98,15.30,15.74,16.20,16.63,17.08,17.53,17.92,18.23,18.54,18.83,19.10,19.37,19.60,19.75,19.83,19.88,20.04,20.16,20.29,20.44,20.56,20.56,20.56,20.59,20.67,20.74,20.88,21.08,21.33,21.68,22.03,22.35,22.68,23.02,23.37,23.69,24.00,24.31,24.66,25.01,25.36,25.69,26.00,26.35,26.61,26.84,27.06,27.21,27.40,27.59,27.78,27.93,28.09,28.24,28.40,28.55,28.70,28.83,28.94,29.06,29.18,29.32,29.55,29.85,30.23,30.80,31.44,32.14,32.91,33.69,34.43,35.18,35.93,36.63,37.36,38.12,38.85,39.51,40.24,40.98,41.27,40.87,39.75,38.79,38.24,38.32,39.32,40.31,41.78,43.55,45.47,47.81,48.37,48.24,47.97,47.97,48.84,50.03,51.49,53.17,54.92,56.41,57.78,59.24,61.32,63.91,66.79,69.85,72.95,76.46,79.84,83.25,86.81,90.00,92.85,95.76,98.83,101.94,105.66,108.83,110.77,110.86,108.83,106.29,103.31,100.27,98.88,101.28,105.11,109.35,113.00,117.22,121.19,124.55,127.14,130.08,132.19,133.64,134.57,135.12,134.35,132.87,130.58,127.27,122.99,119.67,117.87,117.75,118.22,118.16,117.63,116.47,114.29,111.82,109.56,107.39,105.26,104.49,105.45,107.49,110.13,112.71,115.01,116.28,116.09,114.04,111.47,110.72,111.26,112.64,114.45,115.98,117.54,119.40,122.07,128.18,133.46,138.06,142.45,146.60,150.34,152.79,153.82,154.20,156.30,159.22,162.13,164.05,162.57,159.44,153.86,145.94,139.57,134.62,129.85,124.95,119.98,116.84,114.05,111.35,108.59,105.62,102.56,99.51,96.53,93.67,90.93,88.91,87.47,86.16,84.89,83.59,82.29,81.01,79.96,79.26,78.68,78.12,77.46,76.81,76.39,76.44,77.13,77.86,78.59,79.61,81.47,85.92,90.03,93.25,95.85,98.49,100.01,100.37,100.13,99.76,99.40,99.16,98.95,98.64,98.06,96.53,94.25,91.59,88.96,86.88,86.85,87.96,89.54,90.85,92.07,93.29,94.56,95.95,96.97
14.99,15.28,15.70,16.15,16.61,17.07,17.50,17.87,18.18,18.49,18.79,19.06,19.27,19.42,19.50,19.58,19.67,19.81,19.98,20.15,20.29,20.38,20.37,20.36,20.40,20.47,20.55,20.69,20.89,21.16,21.54,21.85,22.17,22.51,22.88,23.19,23.50,23.82,24.14,24.53,24.85,25.21,25.57,25.88,26.26,26.59,26.90,27.19,27.37,27.54,27.74,27.96,28.11,28.27,28.43,28.59,28.74,28.90,29.05,29.17,29.27,29.42,29.58,29.79,30.13,30.67,31.21,31.75,32.40,33.21,33.97,34.75,35.53,36.29,37.00,37.71,38.49,39.29,39.99,40.71,41.39,41.64,41.22,40.12,39.24,38.49,38.25,39.23,39.78,41.07,42.92,45.14,47.92,49.04,49.25,49.00,48.84,49.24,50.18,51.44,52.73,54.18,55.53,56.88,58.25,59.56,62.41,65.64,69.09,72.94,77.13,80.97,84.63,88.21,90.89,93.27,95.81,98.72,102.09,105.94,109.30,111.62,112.36,110.74,108.35,105.24,101.86,100.40,103.07,107.15,111.36,114.45,118.69,123.34,127.59,130.87,134.64,137.34,139.40,140.65,139.99,137.92,135.18,131.86,128.02,123.68,120.80,119.65,120.04,120.31,120.40,120.25,119.52,117.56,114.70,111.78,108.96,106.50,106.72,107.95,110.05,112.79,115.72,118.28,119.95,120.09,118.01,114.23,113.32,114.35,116.43,118.46,119.82,120.90,122.03,123.69,128.76,133.63,138.23,142.75,147.58,152.64,156.40,158.52,160.22,162.94,165.87,168.01,168.16,164.98,160.49,154.00,145.77,140.21,135.59,131.10,126.40,121.22,118.08,115.31,112.66,109.99,107.05,103.93,100.80,97.71,94.70,91.61,89.36,87.77,86.28,84.86,83.40,81.91,80.46,79.54,78.85,78.25,77.65,76.97,76.33,76.16,76.48,77.26,78.03,78.81,80.26,83.01,88.30,91.53,94.15,96.53,98.88,100.28,100.77,100.86,100.96,101.05,101.08,101.02,100.79,100.15,98.41,95.58,92.25,89.18,87.17,86.64,87.19,88.46,89.78,90.98,92.22,93.57,95.06,95.72
15.04,15.35,15.74,16.15,16.55,17.01,17.46,17.87,18.18,18.49,18.76,18.96,19.08,19.17,19.21,19.26,19.34,19.43,19.68,19.92,20.11,20.25,20.19,20.17,20.20,20.28,20.36,20.50,20.72,21.02,21.35,21.66,22.01,22.36,22.69,23.00,23.35,23.69,24.01,24.40,24.77,25.11,25.45,25.82,26.15,26.46,26.77,27.08,27.35,27.62,27.87,28.09,28.24,28.45,28.62,28.78,28.93,29.09,29.24,29.39,29.52,29.61,29.81,30.13,30.58,31.12,31.66,32.20,32.77,33.40,34.11,34.92,35.72,36.50,37.31,38.07,38.85,39.63,40.38,41.19,41.83,42.04,41.65,40.45,39.60,38.93,38.61,38.99,39.52,40.65,42.50,45.07,47.85,49.64,50.37,50.27,50.06,50.41,51.12,52.10,53.24,54.59,55.92,57.24,58.57,59.88,62.90,66.19,69.58,73.32,77.71,81.71,85.52,89.22,91.81,94.05,96.34,98.94,102.17,106.18,109.65,112.30,113.96,112.34,110.34,107.79,104.93,103.46,105.68,109.16,112.90,115.99,120.04,125.04,130.00,134.09,138.21,140.98,142.85,143.73,142.82,139.67,136.22,132.67,128.99,125.38,123.67,123.54,124.48,124.94,124.61,123.92,122.74,120.63,117.91,114.56,110.90,107.57,108.53,110.24,112.52,115.21,118.15,120.53,122.38,122.74,120.38,117.04,116.37,117.50,119.64,121.77,123.43,124.99,126.52,127.99,130.76,134.56,139.12,144.19,149.67,155.33,159.93,163.21,166.14,169.06,171.37,172.23,170.65,166.14,160.56,154.01,146.92,141.36,137.02,132.93,128.66,123.88,120.02,116.90,114.14,111.33,108.34,105.21,102.05,98.93,95.91,92.78,90.23,88.25,86.67,85.10,83.52,81.89,80.27,79.35,78.58,77.85,77.15,76.52,75.84,75.93,76.56,77.39,78.16,78.98,80.86,84.32,89.41,92.14,94.30,96.21,97.86,98.82,99.51,100.12,100.71,100.85,100.97,101.03,100.99,100.70,99.08,96.19,92.72,89.52,87.90,86.77,86.48,87.12,88.50,89.79,91.24,92.84,94.48,94.04
15.09,15.41,15.80,16.18,16.57,16.97,17.41,17.84,18.18,18.46,18.65,18.77,18.84,18.89,18.93,18.98,19.05,19.10,19.32,19.58,19.82,20.00,19.99,19.98,20.00,20.05,20.13,20.29,20.54,20.85,21.16,21.50,21.85,22.20,22.54,22.88,23.23,23.58,23.92,24.27,24.66,25.00,25.33,25.72,26.03,26.36,26.68,26.99,27.30,27.61,27.88,28.11,28.32,28.58,28.80,28.97,29.13,29.28,29.43,29.59,29.74,29.88,30.12,30.47,30.91,31.49,32.06,32.65,33.22,33.74,34.37,35.11,35.87,36.66,37.51,38.29,39.08,39.90,40.77,41.65,42.34,42.47,41.87,40.76,39.88,39.25,38.91,38.94,39.44,40.26,41.96,44.82,47.76,50.03,51.49,52.13,52.09,52.43,53.02,53.81,54.77,55.59,56.55,57.66,59.02,61.01,64.61,68.09,71.29,74.63,78.72,82.54,86.27,89.96,92.51,94.75,96.90,99.28,102.51,106.59,110.04,112.80,114.98,114.24,112.64,110.53,108.33,106.95,108.52,111.31,114.56,117.53,122.29,127.45,132.38,136.67,140.98,144.01,146.00,146.80,145.55,141.49,137.47,133.80,130.39,127.40,126.76,127.62,129.13,129.64,128.79,127.31,125.39,123.08,120.39,116.86,112.88,109.25,110.55,112.60,115.01,117.64,120.54,122.88,124.78,125.27,123.10,119.93,119.17,120.24,122.49,124.65,126.53,128.57,130.75,132.75,134.74,137.34,141.11,146.48,152.78,158.76,163.67,167.44,171.03,173.96,175.63,175.29,172.04,166.69,160.71,154.39,148.08,142.95,138.77,134.80,130.71,126.23,121.88,118.35,115.33,112.43,109.39,106.32,103.23,100.13,97.06,94.01,91.28,89.01,87.33,85.71,84.00,82.24,80.54,79.49,78.69,77.95,77.20,76.43,75.65,75.69,76.32,77.20,77.97,78.87,80.89,84.44,89.30,91.85,93.81,95.43,96.57,97.53,98.32,99.05,99.76,100.10,100.44,100.69,100.83,100.86,99.32,96.65,93.47,90.51,88.95,87.64,86.77,86.53,87.37,88.91,90.59,92.18,93.48,92.48
15.14,15.48,15.86,16.25,16.64,16.96,17.35,17.79,18.17,18.40,18.48,18.51,18.58,18.59,18.65,18.72,18.78,18.79,18.92,19.16,19.45,19.68,19.76,19.78,19.78,19.80,19.88,20.08,20.35,20.66,20.98,21.35,21.69,22.03,22.41,22.80,23.13,23.47,23.84,24.15,24.53,24.87,25.20,25.59,25.90,26.26,26.62,26.93,27.23,27.54,27.81,28.06,28.37,28.68,28.94,29.15,29.31,29.47,29.63,29.79,29.96,30.19,30.49,30.80,31.19,31.80,32.42,33.09,33.69,34.17,34.72,35.32,36.01,36.79,37.64,38.42,39.24,40.14,41.14,42.07,42.89,42.91,41.99,41.07,40.13,39.50,39.17,39.02,39.45,39.91,41.37,44.46,47.61,50.22,52.50,54.22,54.52,54.95,55.51,56.17,56.90,56.98,57.39,58.22,59.72,62.79,67.12,70.81,73.75,76.53,80.01,83.43,86.93,90.53,93.08,95.39,97.49,99.72,103.05,107.12,110.48,113.21,115.65,116.33,115.18,113.47,111.98,110.70,111.50,113.55,116.33,119.19,125.12,130.26,134.73,138.85,143.26,146.64,148.95,149.82,148.18,143.37,138.88,135.14,132.08,129.68,130.03,131.83,133.90,134.34,132.90,130.47,127.63,125.06,122.34,118.77,114.84,111.37,112.76,115.04,117.57,120.15,123.01,125.37,127.19,127.75,126.07,122.96,121.91,122.77,125.11,127.27,129.30,131.80,134.76,137.74,139.92,141.33,143.90,149.39,156.55,162.66,167.55,171.43,175.23,177.99,178.99,177.48,172.65,166.79,160.88,154.96,149.21,144.74,140.64,136.62,132.54,128.30,123.62,119.64,116.30,113.35,110.26,107.29,104.33,101.30,98.15,95.26,92.45,89.95,88.16,86.53,84.69,82.82,81.11,79.87,79.06,78.36,77.60,76.60,75.66,75.44,75.88,76.80,77.58,78.59,80.53,83.75,88.38,90.97,92.92,94.36,95.15,96.35,97.16,97.78,98.41,99.02,99.64,100.11,100.44,100.75,99.28,97.02,94.41,91.92,90.21,88.96,87.69,86.43,86.40,88.25,90.13,91.54,92.21,90.96
15.25,15.61,15.97,16.31,16.70,17.06,17.45,17.82,18.05,18.14,18.20,18.24,18.27,18.32,18.39,18.44,18.47,18.52,18.57,18.78,19.06,19.29,19.37,19.43,19.51,19.61,19.74,19.95,20.23,20.55,20.91,21.24,21.60,21.95,22.28,22.67,23.00,23.34,23.72,24.03,24.40,24.74,25.07,25.46,25.77,26.13,26.49,26.80,27.11,27.42,27.71,28.00,28.31,28.62,28.91,29.19,29.44,29.65,29.86,30.09,30.35,30.63,30.94,31.22,31.53,31.99,32.61,33.28,33.94,34.56,35.15,35.77,36.38,37.03,37.77,38.59,39.40,40.27,41.27,42.25,43.15,43.27,42.46,41.68,40.65,39.84,39.37,39.27,39.47,39.78,41.10,43.98,46.84,49.43,51.71,53.65,55.23,56.86,57.87,58.39,58.69,58.82,59.10,60.38,63.13,67.29,70.53,73.42,76.15,78.83,81.45,84.35,87.56,90.98,93.47,95.93,98.28,100.80,104.43,108.08,111.19,113.87,116.38,118.09,118.51,117.95,116.60,114.53,114.46,115.86,118.67,122.96,128.24,132.78,136.90,141.03,145.65,149.11,151.44,152.24,150.20,145.44,140.69,136.76,134.21,133.14,134.29,136.39,138.33,138.43,136.31,132.69,128.59,125.78,122.48,118.97,116.09,114.69,116.03,118.22,121.06,124.26,127.28,129.21,130.42,130.69,129.66,127.48,126.00,126.02,127.78,129.84,131.81,134.40,137.69,141.46,144.53,146.51,149.16,154.16,160.87,166.72,171.79,175.97,178.74,179.94,179.69,177.27,171.70,165.88,160.26,154.84,149.68,145.41,141.30,137.21,133.07,128.87,124.19,120.16,116.70,113.60,110.51,107.62,104.78,101.93,99.13,96.37,93.66,91.12,88.93,87.20,85.29,83.47,81.93,80.59,79.61,78.81,78.06,77.11,76.08,75.32,75.24,76.17,77.10,78.14,79.56,81.81,86.29,89.68,91.88,93.24,94.37,95.20,95.88,96.60,97.43,97.84,98.54,99.27,99.86,100.17,98.94,97.32,95.48,93.51,91.71,90.25,88.69,87.04,86.36,87.95,89.52,90.53,90.81,88.59
15.37,15.72,16.07,16.41,16.79,17.16,17.48,17.74,17.87,17.88,17.92,17.98,18.01,18.06,18.13,18.18,18.19,18.27,18.36,18.57,18.82,19.01,19.16,19.29,19.43,19.58,19.73,19.95,20.22,20.55,20.94,21.25,21.59,21.94,22.25,22.61,22.95,23.30,23.65,23.96,24.32,24.65,24.97,25.33,25.64,26.00,26.36,26.67,27.01,27.32,27.63,27.94,28.25,28.55,28.86,29.17,29.48,29.79,30.09,30.41,30.74,31.07,31.39,31.65,31.91,32.25,32.84,33.48,34.17,34.85,35.47,36.11,36.71,37.30,38.00,38.77,39.56,40.42,41.40,42.35,43.27,43.62,43.24,42.61,41.45,40.35,39.61,39.56,39.75,40.15,41.41,43.87,46.31,48.65,50.84,52.98,55.34,57.70,59.36,60.33,60.76,60.99,61.59,63.37,66.60,70.49,73.17,75.74,78.32,80.70,82.83,85.39,88.32,91.42,93.89,96.39,98.87,101.55,105.07,108.35,111.31,114.06,116.75,119.23,120.98,121.41,120.29,118.16,117.69,118.84,121.74,126.64,131.01,135.02,139.10,143.63,148.46,151.73,153.82,154.39,151.88,147.64,143.01,139.01,136.77,136.79,138.29,140.15,141.42,140.74,138.19,134.05,129.35,126.13,122.40,119.21,117.52,118.00,119.63,121.94,125.03,128.59,131.56,133.12,133.82,133.72,132.80,131.18,129.79,129.43,130.50,132.34,134.27,137.02,140.65,144.92,148.51,151.11,154.08,158.76,164.99,170.50,175.29,179.07,180.73,180.98,179.83,176.72,170.90,164.91,159.44,154.35,149.59,145.51,141.44,137.27,133.01,128.79,124.22,120.25,116.81,113.74,110.72,107.92,105.19,102.47,99.85,97.15,94.52,91.98,89.54,87.73,85.92,84.26,82.82,81.43,80.25,79.33,78.54,77.59,76.49,75.42,74.93,75.57,76.59,77.68,78.84,80.49,84.41,88.40,90.92,92.30,93.51,94.26,94.91,95.68,96.61,97.14,97.94,98.70,99.29,99.59,98.63,97.32,95.82,94.24,92.51,90.97,89.23,87.29,86.14,87.56,88.70,89.11,88.95,85.90
15.50,15.81,16.15,16.54,16.92,17.25,17.44,17.53,17.61,17.62,17.67,17.75,17.81,17.82,17.88,17.92,17.93,18.01,18.28,18.54,18.73,18.81,19.11,19.36,19.55,19.71,19.86,20.08,20.35,20.68,21.06,21.38,21.69,22.00,22.31,22.62,22.99,23.34,23.65,23.96,24.27,24.58,24.89,25.21,25.51,25.88,26.23,26.55,26.93,27.25,27.56,27.87,28.18,28.49,28.80,29.11,29.42,29.88,30.33,30.75,31.13,31.51,31.83,32.10,32.33,32.57,33.11,33.71,34.36,35.04,35.66,36.34,36.99,37.62,38.32,38.95,39.72,40.59,41.52,42.38,43.23,43.95,44.35,43.87,42.56,41.04,39.88,39.88,40.31,41.06,42.31,44.14,46.04,47.87,49.89,52.20,54.81,57.41,59.93,61.97,63.13,63.51,64.91,67.23,70.13,72.34,75.02,77.75,80.24,82.13,84.14,86.57,89.22,91.87,94.34,96.76,99.26,101.95,104.93,107.89,110.83,113.77,116.76,119.73,122.55,123.82,123.00,121.56,121.20,122.52,125.58,130.23,133.40,136.96,141.33,146.65,151.73,154.52,156.08,156.27,153.22,149.98,145.85,141.91,139.78,140.65,142.03,143.08,143.11,141.20,138.49,134.53,129.91,126.09,122.10,119.51,119.12,121.30,123.57,126.22,129.51,133.15,135.87,137.09,137.39,136.84,135.49,134.01,133.26,133.03,133.27,134.76,136.68,139.66,143.64,148.11,151.85,155.10,158.64,163.20,168.88,173.96,178.01,180.65,181.12,181.06,179.40,175.84,170.26,163.88,158.39,153.47,148.91,145.03,141.04,136.78,132.35,128.03,123.69,119.89,116.62,113.75,110.88,108.19,105.55,102.92,100.29,97.60,95.03,92.53,89.99,88.13,86.58,85.17,83.78,82.39,81.01,79.91,79.04,78.04,76.89,75.74,74.97,74.99,76.07,77.21,78.37,79.82,82.75,87.12,90.04,91.54,92.56,93.54,94.27,95.02,95.95,96.92,97.85,98.44,98.71,99.02,98.38,97.01,95.39,94.06,92.57,91.10,89.29,87.18,85.74,87.07,87.66,87.25,86.60,82.86
15.63,15.94,16.28,16.65,16.90,17.08,17.20,17.28,17.36,17.36,17.41,17.49,17.56,17.56,17.62,17.75,17.93,18.10,18.39,18.65,18.85,18.98,19.28,19.57,19.82,20.01,20.17,20.42,20.72,21.04,21.43,21.74,22.05,22.36,22.67,22.98,23.35,23.68,23.95,24.26,24.56,24.90,25.25,25.61,25.92,26.22,26.52,26.83,27.17,27.52,27.85,28.15,28.42,28.72,29.00,29.39,30.00,30.33,30.73,31.13,31.52,31.90,32.26,32.55,32.79,33.07,33.42,33.87,34.41,35.06,35.68,36.32,36.95,37.58,38.23,38.81,39.67,40.63,41.47,42.32,43.00,43.48,43.79,44.14,43.80,42.96,42.09,41.91,42.05,42.63,43.78,45.52,47.38,48.66,49.90,51.54,54.39,57.29,59.94,62.16,63.75,64.95,66.73,68.93,71.35,73.48,76.05,78.47,80.64,82.59,84.42,86.69,89.09,91.36,93.74,95.96,98.24,100.71,103.46,106.21,109.30,112.68,116.24,119.57,122.82,125.26,126.41,125.98,126.43,127.96,130.40,133.35,135.71,139.27,143.98,149.57,155.08,157.56,158.56,158.27,155.31,152.21,148.57,145.36,143.91,144.70,144.98,144.39,142.82,140.77,138.19,134.48,130.07,126.21,122.63,121.29,122.03,124.39,126.76,129.87,133.41,136.94,139.41,140.54,140.71,139.94,138.23,137.27,136.81,136.68,136.82,137.60,139.63,142.87,146.86,150.52,154.14,157.74,161.71,166.39,171.25,175.87,179.12,180.65,181.04,180.62,178.27,174.04,168.44,161.98,156.74,152.01,147.41,143.77,139.52,134.78,129.98,126.11,122.07,118.77,115.90,113.05,110.37,107.98,105.56,103.03,100.49,97.89,95.39,92.89,90.20,88.56,87.13,85.79,84.44,83.05,81.70,80.51,79.46,78.32,77.12,75.91,74.94,74.48,75.65,76.85,78.06,79.48,82.07,86.39,89.51,91.24,92.25,93.25,94.15,95.04,96.01,96.87,97.46,97.83,98.08,98.39,98.19,97.10,95.45,93.69,92.22,90.55,88.95,87.54,86.16,86.56,86.64,86.24,85.82,83.28
15.74,16.05,16.38,16.67,16.79,16.87,16.95,17.03,17.10,17.12,17.17,17.24,17.31,17.38,17.49,17.69,17.99,18.22,18.52,18.78,19.00,19.17,19.48,19.80,20.10,20.35,20.51,20.79,21.10,21.42,21.79,22.12,22.43,22.74,23.05,23.36,23.70,24.01,24.27,24.57,24.90,25.26,25.65,26.03,26.36,26.63,26.90,27.19,27.50,27.87,28.23,28.54,28.79,29.09,29.41,29.91,30.73,30.96,31.22,31.53,31.90,32.28,32.67,32.98,33.21,33.40,33.52,33.74,34.14,34.76,35.36,35.97,36.59,37.21,37.83,38.47,39.39,40.38,41.15,41.89,42.36,42.60,42.79,43.74,44.27,44.32,44.11,44.08,44.07,44.40,45.32,46.94,48.46,49.26,49.90,51.02,54.02,57.07,59.73,61.93,63.66,65.53,67.35,69.40,71.72,73.76,76.06,78.22,80.23,82.26,83.88,86.00,88.25,90.34,92.63,94.67,96.73,98.97,101.56,104.16,107.32,110.97,114.96,118.76,122.49,126.04,129.04,129.95,131.29,133.20,135.34,136.94,138.58,141.94,146.76,152.54,157.84,159.82,160.32,159.79,157.34,154.32,151.17,148.68,147.82,148.00,147.05,145.08,142.38,140.19,137.68,134.27,130.19,126.31,123.63,123.38,124.87,127.23,129.98,133.46,137.01,140.18,142.43,143.66,144.01,143.40,141.74,141.23,141.05,141.08,141.25,141.58,143.44,146.43,149.91,152.77,156.12,159.90,164.15,168.84,173.04,177.08,179.62,180.31,179.86,179.05,176.29,171.77,166.22,160.03,155.00,150.33,145.62,141.95,137.23,132.25,127.58,124.07,120.47,117.64,115.10,112.31,109.82,107.66,105.45,103.05,100.69,98.22,95.73,93.14,90.32,88.86,87.53,86.25,84.95,83.59,82.28,81.03,79.81,78.54,77.26,75.98,74.85,74.14,75.41,76.68,77.94,79.41,81.96,86.16,89.28,91.10,92.11,93.11,94.10,95.07,95.97,96.62,96.95,97.20,97.46,97.77,97.90,97.14,95.62,93.62,92.01,89.89,88.40,87.82,86.83,86.64,86.46,86.22,86.05,84.68
15.84,16.15,16.42,16.53,16.55,16.62,16.69,16.77,16.85,16.92,16.95,16.98,17.07,17.34,17.56,17.82,18.11,18.35,18.64,18.91,19.14,19.36,19.67,20.02,20.40,20.74,20.89,21.17,21.48,21.79,22.11,22.48,22.82,23.13,23.44,23.75,24.01,24.28,24.59,24.89,25.26,25.64,26.03,26.42,26.79,27.11,27.39,27.64,27.95,28.32,28.70,29.06,29.36,29.67,30.14,30.80,31.63,31.86,31.85,31.95,32.28,32.67,33.05,33.39,33.56,33.40,33.23,33.12,33.31,33.92,34.48,35.08,35.70,36.32,36.93,37.85,38.76,39.61,40.37,40.82,41.03,41.11,41.27,42.26,43.35,44.45,45.47,46.23,46.44,46.43,46.91,48.26,48.84,49.30,49.76,50.76,53.70,56.66,59.19,61.18,62.58,64.69,66.00,67.95,70.90,72.59,74.39,76.41,78.58,80.66,82.05,84.01,86.28,88.55,90.73,92.67,94.56,96.58,99.07,101.63,104.67,108.27,112.42,116.91,121.30,125.78,130.20,132.98,135.24,137.84,140.33,141.43,142.48,145.19,149.68,155.63,159.55,160.65,160.77,160.46,159.14,156.23,153.56,151.73,151.19,149.94,147.67,144.87,141.96,139.47,136.87,133.84,130.31,126.38,125.33,125.81,127.37,129.67,133.40,137.06,140.16,142.58,144.63,146.27,147.32,147.52,146.60,146.38,146.50,146.78,147.13,147.51,148.73,150.51,152.64,154.85,157.70,161.40,165.68,170.16,174.01,177.25,179.30,179.58,176.81,175.51,172.91,168.78,163.47,158.12,153.20,148.35,143.45,139.24,133.69,128.98,125.37,121.95,119.06,116.62,114.26,111.62,109.27,107.22,105.16,102.98,100.91,98.65,96.07,93.24,90.32,88.91,87.67,86.46,85.21,83.96,82.71,81.40,80.04,78.67,77.30,75.89,74.70,74.08,75.45,76.82,78.16,79.73,82.73,86.74,89.56,91.17,92.17,93.18,94.13,94.99,95.68,95.99,96.29,96.58,96.89,97.19,97.41,97.03,95.94,94.12,92.11,89.11,87.50,87.90,87.79,87.77,87.81,87.86,87.83,87.28
15.83,16.06,16.23,16.30,16.34,16.38,16.44,16.52,16.59,16.67,16.77,16.92,17.12,17.39,17.66,17.93,18.20,18.47,18.74,19.01,19.27,19.50,19.81,20.20,20.62,21.03,21.31,21.58,21.87,22.17,22.48,22.83,23.15,23.46,23.77,24.04,24.31,24.60,24.90,25.21,25.59,25.98,26.36,26.75,27.17,27.55,27.85,28.09,28.40,28.80,29.20,29.61,30.07,30.54,31.10,31.77,32.52,32.75,32.67,32.59,32.72,33.10,33.45,33.53,33.36,33.05,32.78,32.59,32.64,33.05,33.63,34.20,34.80,35.45,36.18,36.95,37.77,38.51,39.05,39.43,39.62,39.72,39.90,40.67,41.91,43.11,44.22,45.30,46.05,46.64,47.38,48.44,48.86,49.26,49.66,50.55,53.21,55.90,58.22,59.97,61.01,62.20,63.02,64.75,67.71,70.20,72.15,74.04,75.97,77.90,79.72,81.75,83.84,85.88,87.89,89.93,92.00,94.16,96.63,99.14,102.05,105.54,109.77,114.56,118.98,123.57,128.41,132.40,135.84,139.09,142.00,144.14,146.05,148.64,152.38,157.32,160.09,160.79,160.81,160.61,159.88,157.67,155.28,153.12,151.52,149.54,147.27,144.67,141.80,139.14,136.37,133.43,130.47,127.90,127.44,128.24,129.97,132.38,136.00,139.45,142.37,144.69,146.70,148.61,150.21,151.24,151.41,151.72,152.31,152.80,153.00,153.22,153.83,154.70,155.89,157.59,160.05,163.56,167.49,171.11,173.56,174.91,175.06,173.92,171.38,170.09,168.10,164.94,160.47,155.81,151.16,146.39,141.45,136.85,131.37,126.71,123.13,120.12,117.84,115.60,113.28,110.84,108.87,107.17,105.72,104.41,102.87,100.62,97.99,95.05,91.80,89.58,88.07,86.86,85.61,84.30,82.95,81.58,80.17,78.70,77.27,75.82,74.56,73.81,75.24,76.67,78.10,79.85,83.26,87.26,89.89,91.28,92.29,93.21,94.00,94.64,95.12,95.39,95.69,95.98,96.26,96.57,96.84,96.70,96.20,95.39,93.30,90.79,89.77,90.65,91.04,91.23,91.43,91.58,91.50,90.78
15.75,15.90,15.99,16.06,16.13,16.15,16.20,16.28,16.37,16.46,16.65,16.91,17.21,17.44,17.74,18.01,18.27,18.56,18.81,19.09,19.37,19.61,19.92,20.35,20.82,21.29,21.69,21.97,22.24,22.54,22.85,23.16,23.47,23.78,24.07,24.31,24.61,24.92,25.22,25.53,25.92,26.31,26.70,27.08,27.53,27.94,28.27,28.53,28.84,29.30,29.77,30.26,30.89,31.51,32.12,32.76,33.41,33.65,33.53,33.33,33.24,33.50,33.71,33.50,33.02,32.63,32.30,32.08,32.02,32.17,32.77,33.34,33.91,34.55,35.36,35.92,36.62,37.27,37.58,37.97,38.28,38.57,38.94,39.51,40.67,41.70,42.66,43.89,45.13,46.36,47.46,48.28,48.75,49.17,49.57,50.35,52.62,55.03,57.12,58.65,59.41,59.65,60.07,61.43,63.97,66.94,69.30,71.22,72.92,74.78,77.08,79.19,81.10,82.85,84.71,86.92,89.26,91.67,94.21,96.85,99.71,103.15,107.57,112.56,116.95,121.45,126.35,131.14,135.50,139.27,142.62,145.99,148.96,151.63,154.69,158.45,160.26,160.70,160.64,160.39,159.85,158.20,155.98,153.39,150.63,148.13,146.40,144.42,141.71,139.00,136.12,133.40,131.22,130.16,129.97,130.86,132.65,135.14,138.44,141.55,144.34,146.78,148.91,151.12,153.14,154.82,156.01,156.94,158.04,158.78,158.93,159.12,159.24,159.43,159.89,161.02,163.08,166.23,169.54,172.03,172.69,171.89,169.87,167.17,165.30,164.18,162.80,160.64,157.15,153.22,149.01,144.47,139.64,134.94,129.76,124.98,121.07,118.53,116.68,114.58,112.40,110.41,108.95,107.72,106.93,106.44,105.34,103.02,100.33,97.27,93.64,90.41,88.53,87.25,85.96,84.57,83.12,81.69,80.27,78.72,77.23,75.74,74.41,73.51,74.99,76.48,77.99,79.89,83.61,87.71,90.21,91.39,92.37,93.17,93.76,94.19,94.50,94.80,95.10,95.38,95.64,95.94,96.28,96.39,96.45,96.66,94.82,93.06,92.74,94.08,94.91,95.34,95.64,95.78,95.58,94.32
15.50,15.68,15.80,15.87,15.88,15.94,16.01,16.10,16.23,16.43,16.65,16.91,17.21,17.44,17.74,18.04,18.32,18.57,18.86,19.12,19.38,19.68,19.99,20.45,20.97,21.48,21.93,22.30,22.60,22.86,23.17,23.48,23.79,24.08,24.33,24.62,24.93,25.23,25.54,25.85,26.28,26.69,27.08,27.47,27.87,28.26,28.63,28.98,29.29,29.82,30.49,31.23,31.91,32.53,33.15,33.75,34.31,34.54,34.43,34.23,34.05,33.70,33.45,33.11,32.70,32.32,31.89,31.60,31.41,31.33,31.89,32.48,33.03,33.55,34.16,34.70,35.29,35.80,36.11,36.56,37.24,38.16,39.21,39.88,40.59,41.38,42.34,43.57,44.81,46.05,47.16,48.03,48.49,48.99,49.47,50.18,51.90,54.09,55.95,57.32,58.14,58.37,58.65,59.29,60.42,61.86,64.92,67.38,69.24,71.44,73.75,75.86,77.72,79.34,81.25,83.66,86.27,88.99,91.82,95.15,98.27,101.90,107.00,112.18,116.89,121.39,125.90,130.69,134.89,138.81,142.63,146.54,149.91,152.92,155.88,158.92,160.19,160.43,160.10,159.36,158.13,156.10,153.86,151.32,148.26,145.32,144.77,143.97,141.56,139.20,136.41,134.65,133.96,133.63,133.53,134.11,135.52,137.81,141.01,143.72,146.33,148.98,151.66,154.46,156.60,158.29,159.98,161.60,163.14,164.35,165.12,165.81,165.85,165.81,165.90,166.24,167.75,170.03,172.17,173.18,171.67,168.77,164.96,161.02,159.11,158.20,157.13,155.49,153.00,150.10,146.69,142.72,138.32,134.36,129.48,124.27,119.68,117.48,115.57,113.55,111.96,111.28,110.51,109.97,109.60,109.17,107.97,105.55,102.71,99.41,95.43,91.27,88.93,87.44,86.03,84.64,83.18,81.76,80.33,78.79,77.20,75.61,74.20,73.26,74.78,76.36,77.93,79.83,83.60,87.97,90.45,91.42,92.31,92.86,93.28,93.62,93.92,94.17,94.46,94.76,95.06,95.37,95.85,96.31,96.79,97.28,96.53,95.15,95.29,97.43,98.85,99.57,99.88,99.82,99.42,97.29
15.26,15.46,15.59,15.63,15.67,15.76,15.86,15.96,16.15,16.41,16.65,16.91,17.21,17.44,17.74,18.04,18.34,18.57,18.87,19.14,19.39,19.70,20.01,20.46,20.95,21.42,21.85,22.22,22.61,23.04,23.48,23.80,24.09,24.36,24.63,24.94,25.25,25.55,25.87,26.21,26.63,27.03,27.42,27.81,28.19,28.60,29.01,29.40,29.88,30.60,31.40,32.20,32.96,33.56,34.17,34.75,35.25,35.48,35.36,35.14,34.81,33.95,33.21,32.68,32.31,31.95,31.52,31.18,30.91,30.73,31.04,31.47,31.95,32.46,33.03,33.70,34.45,35.20,35.84,36.53,37.42,38.54,39.76,40.39,40.89,41.54,42.39,43.43,44.53,45.73,46.86,47.77,48.27,48.78,49.28,49.96,51.38,53.20,54.71,55.84,56.65,57.05,57.37,57.84,58.54,59.37,61.75,64.03,66.10,68.45,70.71,72.88,75.16,77.63,79.89,82.44,85.18,88.07,91.13,95.03,98.78,102.93,108.29,113.61,118.31,122.54,126.54,131.16,135.19,138.98,142.72,146.65,150.15,153.20,155.95,158.33,157.91,157.39,157.01,156.64,155.60,153.69,151.24,148.15,144.25,142.24,142.49,142.80,141.82,139.68,137.57,136.63,136.73,136.91,137.19,137.82,138.99,140.90,143.84,146.41,149.03,151.88,154.90,157.91,160.27,162.21,164.20,166.12,167.59,168.79,169.83,170.61,171.27,171.70,171.98,172.39,173.42,174.40,174.55,173.17,170.05,165.56,160.78,156.51,153.92,152.60,151.46,150.21,148.67,146.62,143.96,140.67,136.87,133.33,128.82,123.76,119.12,116.81,115.07,113.97,113.42,113.27,112.73,112.07,111.58,111.16,109.95,107.48,104.36,100.72,96.63,92.22,89.50,87.72,86.26,84.80,83.28,81.75,80.23,78.68,77.09,75.48,74.01,72.96,74.54,76.15,77.75,79.65,83.21,87.89,90.49,91.34,91.99,92.39,92.71,93.02,93.40,93.76,94.16,94.57,94.97,95.38,95.94,96.52,97.12,97.71,97.79,97.00,97.55,99.91,101.27,102.17,102.44,102.07,101.15,99.06
15.04,15.24,15.38,15.40,15.47,15.61,15.73,15.85,16.09,16.39,16.65,16.91,17.21,17.45,17.74,18.04,18.34,18.57,18.87,19.14,19.39,19.69,19.99,20.40,20.82,21.20,21.59,21.91,22.42,23.09,23.71,24.07,24.35,24.63,24.95,25.26,25.56,25.87,26.20,26.58,26.97,27.35,27.74,28.13,28.51,28.94,29.37,29.80,30.55,31.50,32.40,33.20,34.04,34.62,35.20,35.76,36.20,36.43,36.32,36.03,35.52,34.21,33.02,32.27,31.88,31.56,31.18,30.79,30.47,30.27,30.26,30.45,30.85,31.42,32.05,32.89,33.93,35.05,36.13,37.15,38.17,39.28,40.40,40.96,41.38,41.94,42.64,43.42,44.33,45.44,46.56,47.52,48.06,48.54,49.04,49.71,50.90,52.30,53.42,54.30,55.07,55.70,56.16,56.75,57.57,58.32,59.55,61.41,63.73,66.10,68.24,70.52,73.41,77.10,79.81,82.45,85.22,88.21,91.48,95.82,100.27,105.02,110.41,115.80,120.35,124.20,127.70,132.08,135.96,139.50,142.91,146.57,150.03,152.96,155.31,156.80,154.23,152.78,152.50,152.93,152.52,150.99,148.28,144.45,139.70,139.13,139.91,141.19,142.05,140.32,139.22,139.03,139.53,140.07,140.86,141.73,142.82,144.31,146.91,149.47,152.20,155.19,158.39,161.41,164.01,166.28,168.42,170.38,171.56,172.56,173.70,174.45,176.00,177.17,177.89,178.68,179.23,178.75,176.65,172.56,168.20,162.53,157.26,153.04,149.47,147.38,145.93,144.92,144.23,142.84,140.88,138.32,135.22,131.93,127.82,123.24,118.94,116.37,115.06,115.23,115.85,115.83,115.29,114.16,113.25,112.68,111.46,108.95,105.53,101.55,97.46,93.16,90.11,88.02,86.52,84.96,83.34,81.68,80.02,78.47,76.93,75.34,73.83,72.66,74.28,75.90,77.52,79.40,82.61,87.60,90.39,91.18,91.57,91.90,92.17,92.51,92.99,93.53,94.07,94.61,95.16,95.70,96.30,96.87,97.44,98.05,98.75,98.70,99.71,102.06,103.03,103.96,104.09,103.31,101.76,100.14
14.93,15.05,15.16,15.27,15.35,15.49,15.63,15.80,16.08,16.39,16.65,16.91,17.22,17.50,17.76,18.04,18.34,18.57,18.87,19.14,19.37,19.63,19.83,20.10,20.44,20.82,21.15,21.50,21.98,22.59,23.26,23.85,24.41,24.91,25.27,25.58,25.84,26.15,26.51,26.90,27.29,27.67,28.06,28.45,28.78,29.16,29.56,30.04,31.34,32.44,33.43,34.33,35.07,35.77,36.32,36.76,37.16,37.34,37.21,36.72,35.84,34.53,33.21,32.17,31.48,31.12,30.73,30.34,30.06,29.94,29.89,30.11,30.61,31.33,32.11,33.00,34.00,35.04,36.07,37.29,38.47,39.60,40.62,41.38,41.87,42.39,43.03,43.80,44.56,45.43,46.35,47.27,47.81,48.29,48.74,49.24,50.05,50.91,51.85,52.76,53.54,54.32,54.97,55.91,57.26,58.56,60.54,63.11,65.84,67.96,69.76,72.19,75.29,78.89,81.65,84.30,86.98,89.85,93.37,97.51,101.69,106.18,111.43,116.62,121.01,124.93,128.69,132.82,136.75,140.33,143.61,146.78,150.03,152.60,153.39,151.62,148.06,146.54,146.80,148.05,148.18,147.06,144.54,141.17,137.78,136.92,137.58,138.85,140.12,141.26,141.45,141.82,142.48,143.07,144.14,145.47,147.00,148.70,151.06,153.52,156.23,159.13,161.89,164.73,167.32,169.61,171.55,172.96,174.13,175.37,176.84,178.18,180.00,181.24,181.78,182.04,181.71,180.32,177.14,171.77,167.07,161.54,156.24,151.53,147.02,143.77,141.49,140.09,139.50,138.11,136.43,134.47,132.19,129.25,125.48,121.67,118.37,116.39,116.70,117.56,118.33,118.45,117.91,116.70,115.17,113.48,111.67,109.12,105.72,101.76,97.72,93.61,90.45,88.11,86.38,84.67,82.94,81.25,79.63,78.09,76.54,75.02,73.59,72.46,74.09,75.71,77.31,79.09,82.01,87.05,89.96,90.89,91.38,91.85,92.31,92.79,93.31,93.85,94.39,94.96,95.54,96.08,96.64,97.19,97.74,98.31,99.00,100.21,102.36,105.08,105.76,105.97,105.16,103.62,102.02,100.40
14.85,14.92,15.02,15.14,15.25,15.39,15.56,15.77,16.08,16.39,16.65,16.91,17.22,17.53,17.78,18.04,18.34,18.57,18.85,19.09,19.30,19.53,19.69,19.88,20.12,20.43,20.74,21.11,21.55,22.08,22.78,23.48,24.17,24.80,25.28,25.70,26.07,26.45,26.83,27.19,27.57,27.94,28.31,28.70,29.01,29.37,29.86,30.60,32.15,33.40,34.47,35.38,36.12,36.87,37.42,37.84,38.22,38.27,38.03,37.33,36.16,34.82,33.46,32.22,31.24,30.67,30.31,29.98,29.76,29.66,29.67,29.93,30.51,31.32,32.20,33.14,34.13,35.12,36.11,37.32,38.51,39.63,40.66,41.51,42.14,42.75,43.41,44.18,44.80,45.44,46.10,46.77,47.28,47.74,48.15,48.58,49.17,49.76,50.56,51.45,52.28,53.29,54.42,55.85,57.62,59.30,61.94,65.01,67.97,70.06,71.95,74.42,77.41,80.75,83.53,86.21,88.89,91.74,95.16,99.09,102.94,106.86,111.19,116.47,120.97,125.07,129.05,133.06,136.90,140.37,143.53,146.57,149.73,151.44,150.80,147.32,143.33,141.61,141.90,143.42,143.96,143.31,141.04,137.99,135.39,134.38,135.01,136.37,137.96,140.22,141.49,142.94,144.60,145.90,147.39,149.35,151.49,153.51,155.64,157.94,160.50,163.26,165.84,168.62,170.85,172.70,174.58,175.71,176.88,178.59,180.97,182.93,184.52,185.23,185.01,184.03,182.80,180.46,176.46,170.56,165.80,160.65,155.53,150.55,145.39,141.21,138.08,135.99,134.84,133.51,131.93,130.25,128.46,126.00,122.95,120.25,118.31,117.48,118.53,119.65,120.45,120.67,119.71,118.06,115.96,113.63,111.46,108.83,105.53,101.77,97.97,94.06,90.79,88.27,86.44,84.61,82.65,80.85,79.27,77.83,76.30,74.78,73.37,72.24,73.83,75.45,77.04,78.72,81.13,86.05,89.30,90.69,91.26,91.85,92.43,93.00,93.59,94.16,94.73,95.31,95.89,96.43,96.97,97.51,98.05,98.60,99.29,101.81,104.99,107.78,108.08,107.33,105.74,103.72,101.94,100.08
14.80,14.86,14.93,15.02,15.17,15.33,15.52,15.77,16.08,16.39,16.65,16.91,17.22,17.53,17.78,18.04,18.34,18.57,18.80,18.99,19.17,19.40,19.56,19.71,19.87,20.05,20.35,20.73,21.11,21.57,22.27,22.96,23.66,24.35,25.04,25.65,26.26,26.77,27.14,27.45,27.83,28.17,28.50,28.89,29.20,29.56,30.25,31.43,32.98,34.39,35.50,36.36,37.20,37.91,38.51,38.99,39.36,39.21,38.77,37.85,36.47,35.08,33.76,32.40,31.15,30.23,29.91,29.70,29.55,29.42,29.57,29.91,30.53,31.39,32.32,33.32,34.32,35.30,36.23,37.24,38.31,39.42,40.53,41.38,42.23,43.03,43.79,44.57,45.04,45.46,45.80,46.06,46.53,46.93,47.32,47.74,48.28,48.82,49.51,50.33,51.27,52.57,54.43,56.49,58.55,60.47,63.70,67.08,70.12,72.35,74.73,77.12,79.73,82.67,85.45,88.17,90.95,93.83,96.86,100.57,104.04,107.12,109.85,115.48,120.33,124.71,128.85,132.87,136.50,139.73,142.74,145.98,149.15,149.59,147.60,143.81,139.87,137.81,137.70,139.00,139.84,139.70,137.74,134.88,132.57,131.57,132.23,133.77,135.61,137.48,139.63,142.61,146.00,148.59,150.61,153.36,156.25,158.67,160.61,162.67,164.98,167.55,170.18,173.01,174.55,175.59,177.52,178.60,179.79,182.16,185.97,188.57,189.49,189.16,187.64,184.84,182.66,179.37,174.77,168.97,164.41,159.83,155.08,150.03,144.48,139.56,135.58,132.53,130.25,129.00,127.39,125.71,124.12,122.25,120.24,118.96,118.68,119.48,120.55,121.54,122.28,122.55,120.80,118.40,115.79,113.22,110.91,108.12,104.99,101.63,98.22,94.51,91.13,88.48,86.68,84.76,82.46,80.47,78.93,77.69,76.17,74.62,73.16,71.98,73.53,75.13,76.72,78.29,80.01,84.67,88.42,90.58,91.19,91.88,92.52,93.17,93.85,94.47,95.09,95.67,96.21,96.75,97.29,97.83,98.37,98.92,99.61,103.49,107.61,110.20,110.06,108.15,105.88,103.64,101.56,99.26
14.79,14.82,14.87,14.96,15.11,15.30,15.55,15.82,16.08,16.39,16.65,16.91,17.22,17.53,17.78,18.02,18.28,18.51,18.70,18.87,19.03,19.21,19.37,19.56,19.72,19.84,20.05,20.37,20.70,21.11,21.76,22.45,23.15,23.84,24.53,25.05,25.72,26.46,27.17,27.63,28.02,28.36,28.69,29.08,29.39,29.92,30.85,32.26,33.81,35.31,36.52,37.44,38.29,39.04,39.57,39.89,40.08,39.97,39.40,38.24,36.57,34.99,33.48,31.96,30.64,29.91,29.63,29.45,29.33,29.30,29.55,29.95,30.59,31.47,32.44,33.45,34.45,35.44,36.42,37.38,38.35,39.33,40.28,41.13,41.98,42.79,43.47,43.91,44.28,44.59,44.86,45.11,45.58,46.02,46.43,46.85,47.44,48.12,48.86,49.69,50.69,52.48,54.49,56.70,59.10,61.65,65.11,68.35,71.14,73.47,75.96,78.45,81.09,83.97,86.75,89.43,92.07,94.73,97.55,100.51,103.41,106.18,108.81,113.63,118.92,123.95,128.33,132.21,135.61,138.77,141.77,144.68,147.70,147.16,144.49,141.24,137.44,134.96,134.33,135.23,135.84,135.13,133.42,131.38,129.89,129.41,130.09,131.46,133.22,135.31,138.17,141.73,145.68,149.36,152.45,155.65,158.80,161.72,164.27,166.87,169.29,171.75,175.29,178.01,179.64,180.61,181.64,183.82,185.80,187.87,190.06,191.49,191.20,189.43,186.47,182.80,180.37,175.99,171.01,166.92,163.03,158.67,154.02,149.03,143.13,138.90,135.00,131.53,128.93,128.17,127.70,127.16,126.39,126.02,125.01,124.36,124.34,124.95,124.70,124.08,123.23,122.22,120.26,117.72,114.99,112.32,109.85,107.38,104.66,101.63,98.23,94.67,91.22,88.29,86.04,83.77,81.48,79.75,78.56,77.37,76.03,74.59,73.10,71.78,73.18,74.71,76.27,77.82,79.38,83.18,87.25,90.32,90.94,91.64,92.28,92.93,93.61,94.23,94.89,95.54,96.17,96.75,97.39,97.99,98.60,99.27,100.88,105.52,109.46,110.99,111.02,109.10,106.71,104.21,101.74,98.39
14.75,14.79,14.83,14.92,15.05,15.28,15.55,15.83,16.08,16.39,16.65,16.91,17.22,17.53,17.76,17.97,18.18,18.40,18.56,18.72,18.89,19.05,19.20,19.40,19.56,19.67,19.82,20.05,20.32,20.68,21.25,21.94,22.61,23.27,23.91,24.40,25.13,26.03,26.98,27.64,28.15,28.54,28.89,29.27,29.58,30.35,31.55,33.10,34.64,36.19,37.49,38.51,39.30,40.04,40.47,40.64,40.65,40.45,39.74,38.36,36.40,34.56,32.77,31.24,30.13,29.61,29.37,29.19,29.13,29.23,29.54,29.97,30.64,31.54,32.52,33.50,34.48,35.44,36.40,37.25,38.20,39.13,40.00,40.85,41.68,42.41,42.94,43.13,43.42,43.67,43.90,44.15,44.62,45.08,45.54,46.03,46.68,47.46,48.29,49.21,50.31,52.60,54.82,57.18,59.79,62.79,66.27,69.34,71.91,74.25,76.75,79.18,81.72,84.49,87.15,89.73,92.19,94.60,97.25,99.86,102.50,105.12,107.74,111.65,117.18,122.74,127.42,131.41,134.69,137.80,140.80,143.52,146.11,145.00,142.00,138.90,135.17,132.17,130.92,131.32,131.84,130.99,129.71,128.43,127.58,127.48,128.18,129.41,131.08,133.64,137.15,141.15,145.41,149.64,153.43,156.98,160.36,163.61,166.66,169.70,172.44,175.11,178.94,181.34,183.28,184.81,185.85,188.42,190.76,192.57,193.63,193.55,192.03,188.83,184.35,179.70,176.64,172.01,167.44,164.55,161.10,157.01,152.58,147.75,141.81,138.20,134.72,131.50,129.24,129.07,129.47,129.72,129.48,129.96,129.61,129.16,128.82,128.53,126.95,125.13,123.26,121.43,118.96,116.30,113.57,110.89,108.48,106.23,103.91,101.22,97.84,94.31,90.94,87.94,85.39,82.86,80.67,79.15,78.17,77.05,75.80,74.45,73.01,71.63,72.82,74.27,75.79,77.30,78.75,81.61,85.65,89.42,90.65,91.36,92.02,92.71,93.41,94.07,94.76,95.47,96.17,96.83,97.54,98.22,98.92,99.80,102.66,107.35,110.70,111.49,111.59,109.91,107.48,104.67,101.76,97.71
14.69,14.76,14.83,14.91,15.00,15.26,15.53,15.78,16.08,16.39,16.65,16.91,17.22,17.53,17.72,17.89,18.05,18.21,18.37,18.56,18.77,18.92,19.07,19.23,19.39,19.54,19.69,19.80,19.98,20.27,20.75,21.43,22.04,22.59,23.15,23.68,24.50,25.45,26.45,27.41,28.17,28.70,29.08,29.46,29.77,30.88,32.38,33.93,35.47,37.02,38.43,39.57,40.21,40.84,41.14,41.16,41.02,40.52,39.66,38.09,35.84,33.65,31.47,30.17,29.62,29.35,29.11,28.94,28.95,29.23,29.54,29.97,30.67,31.59,32.52,33.46,34.35,35.22,36.07,36.72,37.73,38.77,39.68,40.53,41.32,41.86,42.15,42.24,42.48,42.71,42.94,43.20,43.66,44.12,44.65,45.28,46.04,46.87,47.84,48.94,50.20,52.98,55.55,58.07,60.71,63.85,67.06,69.92,72.39,74.57,76.98,79.11,81.32,83.89,86.25,88.66,90.90,93.04,95.54,98.45,101.25,103.94,106.63,109.50,114.96,120.87,125.96,130.44,133.75,136.85,139.86,142.63,144.36,143.29,140.41,136.85,133.07,129.45,127.40,127.20,127.87,127.51,126.92,126.30,125.79,125.84,126.58,127.73,129.33,132.68,136.77,141.05,145.29,149.27,153.19,156.99,160.57,163.89,167.24,170.53,173.87,177.23,180.42,182.17,184.73,187.72,190.12,192.01,194.01,195.68,196.46,194.45,191.75,187.12,181.00,175.17,170.87,167.26,164.26,161.75,158.34,154.64,150.61,146.10,140.55,137.38,134.77,132.77,131.79,132.36,133.16,133.61,133.49,133.82,133.60,132.79,131.33,129.15,126.31,123.95,121.96,120.03,116.63,113.86,111.25,108.71,106.65,104.49,102.50,100.21,96.88,93.20,90.10,87.37,84.80,82.12,80.14,78.74,77.74,76.72,75.44,74.16,72.85,71.55,72.45,73.78,75.26,76.72,78.12,79.94,83.42,87.54,90.31,91.04,91.77,92.53,93.30,94.05,94.76,95.49,96.25,97.01,97.77,98.53,99.39,100.57,105.15,108.86,111.06,111.66,111.61,110.51,108.15,104.92,101.52,97.31
14.69,14.75,14.83,14.91,14.99,15.25,15.52,15.77,16.08,16.39,16.68,16.93,17.16,17.39,17.59,17.76,17.92,18.07,18.23,18.40,18.60,18.79,18.95,19.10,19.24,19.36,19.51,19.64,19.79,20.00,20.25,20.80,21.33,21.84,22.39,23.01,23.86,24.83,25.83,26.83,27.74,28.54,29.17,29.60,30.24,31.59,33.26,34.93,36.55,38.15,39.47,40.45,41.15,41.66,41.66,41.31,40.86,40.32,38.91,36.83,34.35,32.11,30.59,29.74,29.36,29.09,28.86,28.76,28.87,29.18,29.49,29.85,30.49,31.37,32.26,33.11,33.90,34.67,35.44,36.35,37.44,38.48,39.35,40.16,40.87,41.30,41.45,41.40,41.59,41.75,41.95,42.24,42.70,43.30,43.96,44.71,45.65,46.66,47.74,48.92,50.29,53.23,56.06,58.83,61.59,64.63,67.60,70.15,72.20,73.79,75.59,77.54,79.66,81.95,84.02,86.41,88.69,90.91,93.63,96.61,99.39,102.14,105.18,108.55,113.88,119.63,124.88,129.56,132.94,136.05,139.00,141.53,142.60,141.38,138.43,134.46,130.43,126.32,123.68,122.98,123.88,124.22,124.06,123.73,123.68,124.05,124.90,126.47,128.92,132.65,137.05,141.31,145.27,149.00,152.78,156.37,159.71,162.82,166.42,170.00,173.52,176.93,180.06,182.27,184.64,187.32,190.27,192.18,194.04,195.58,196.24,193.68,190.26,184.84,177.90,171.25,167.20,163.84,161.19,159.22,156.16,152.66,148.82,144.82,141.20,139.12,137.74,136.90,136.54,136.82,137.21,137.40,137.24,137.05,136.05,134.20,131.63,128.75,125.36,122.72,120.36,117.67,114.11,111.23,108.61,106.13,103.91,102.10,100.34,98.19,95.12,91.95,89.28,86.92,84.67,82.09,80.09,78.55,77.35,76.35,75.10,73.85,72.59,71.37,71.97,73.19,74.63,76.09,77.48,79.10,82.18,86.21,89.97,91.00,91.98,92.96,93.92,94.69,95.40,96.12,96.85,97.58,98.31,99.04,100.36,102.93,107.42,109.91,111.11,111.49,111.49,110.74,108.79,105.71,101.86,97.66
14.70,14.75,14.83,14.91,14.99,15.25,15.53,15.79,16.08,16.38,16.67,16.92,17.07,17.23,17.43,17.62,17.78,17.94,18.10,18.26,18.43,18.65,18.80,18.96,19.08,19.18,19.34,19.48,19.63,19.76,19.84,20.23,20.63,21.08,21.66,22.34,23.22,24.19,25.19,26.19,27.20,28.20,29.09,29.69,30.75,32.31,34.10,35.87,37.58,39.18,40.38,41.20,41.83,42.10,41.78,41.07,40.23,39.46,37.61,35.23,32.73,30.72,29.90,29.45,29.15,28.85,28.61,28.59,28.77,29.08,29.40,29.71,30.25,31.03,31.86,32.61,33.34,34.08,34.87,36.03,37.19,38.20,39.02,39.77,40.37,40.72,40.80,40.65,40.74,40.82,40.98,41.32,41.84,42.61,43.44,44.33,45.44,46.59,47.77,49.07,50.59,53.59,56.58,59.50,62.32,65.11,67.66,69.78,71.40,72.45,73.68,75.43,77.47,79.57,81.52,83.96,86.42,88.89,91.96,95.00,97.73,100.56,104.07,108.29,113.55,119.02,124.18,128.92,132.26,135.33,138.14,140.22,140.62,138.97,135.75,131.52,127.26,123.12,120.26,119.22,120.26,121.08,121.28,121.24,121.58,122.23,123.28,125.36,128.70,132.70,137.34,141.57,145.29,148.86,152.31,155.51,158.50,161.39,165.27,169.04,172.53,175.68,178.63,181.10,182.97,184.87,187.69,189.78,191.95,193.83,194.79,192.30,188.35,182.43,175.17,168.26,164.55,161.28,158.69,157.02,154.39,151.28,147.93,144.76,142.90,141.83,141.42,141.38,141.35,141.23,141.17,141.07,140.80,140.01,138.15,135.32,131.84,128.40,124.64,121.60,118.76,115.48,112.05,109.15,106.50,103.98,101.50,99.97,98.40,96.46,93.91,91.52,89.29,87.22,85.23,82.74,80.56,78.72,77.22,76.06,74.78,73.53,72.30,71.14,71.43,72.56,74.00,75.46,76.89,78.49,81.19,84.96,89.38,90.93,92.20,93.35,94.46,95.28,96.05,96.81,97.58,98.34,99.19,100.06,101.84,105.44,109.12,110.55,111.02,111.24,111.32,110.90,109.42,106.63,102.36,98.21
14.70,14.75,14.83,14.91,14.99,15.25,15.56,15.84,16.09,16.33,16.58,16.79,16.95,17.10,17.27,17.43,17.59,17.81,17.97,18.13,18.29,18.45,18.61,18.76,18.91,19.05,19.21,19.31,19.44,19.57,19.65,19.85,20.03,20.35,21.02,21.65,22.55,23.55,24.55,25.56,26.56,27.56,28.59,29.69,31.24,32.99,34.80,36.58,38.34,39.79,40.92,41.66,41.81,41.54,40.95,39.99,38.60,36.99,35.22,33.24,31.20,30.03,29.54,29.20,28.91,28.66,28.37,28.37,28.58,28.89,29.26,29.58,29.98,30.50,31.23,31.88,32.63,33.54,34.61,35.77,36.93,37.92,38.69,39.34,39.80,40.11,40.23,40.07,39.97,39.95,40.10,40.51,41.22,42.23,43.29,44.35,45.56,46.72,47.99,49.50,51.36,54.31,57.21,60.03,62.69,64.94,66.57,68.00,69.26,70.22,71.15,72.61,74.51,76.72,79.02,81.61,84.41,87.45,91.02,94.20,96.90,99.86,104.02,109.28,114.65,119.70,124.28,128.82,131.89,134.74,137.22,138.47,138.07,135.38,131.44,127.30,122.99,119.87,117.72,116.70,117.59,118.22,118.75,119.23,119.67,120.41,121.85,124.44,128.28,132.53,137.38,141.67,145.37,148.99,151.78,154.36,156.91,159.69,163.91,167.65,170.70,173.10,175.26,176.94,177.91,178.66,179.96,182.35,185.90,189.38,191.60,190.20,185.94,179.99,173.30,167.37,163.58,160.32,157.62,155.52,153.43,151.28,149.34,147.73,146.41,145.81,145.48,145.31,145.19,144.92,144.71,144.46,143.99,142.55,140.09,136.80,132.89,128.77,124.68,120.84,117.36,114.29,111.31,108.62,105.97,103.22,100.39,98.82,97.42,96.02,94.61,93.35,91.46,89.39,87.39,84.86,82.15,79.74,77.73,76.04,74.54,73.21,71.99,70.87,70.82,71.90,73.36,74.84,76.42,78.04,80.35,83.64,88.10,90.63,92.20,93.33,94.42,95.38,96.38,97.39,98.40,99.41,100.82,102.31,104.39,107.54,109.45,110.31,110.73,110.99,111.06,111.03,110.08,107.61,102.94,98.88
14.70,14.75,14.83,14.91,14.99,15.25,15.56,15.85,16.04,16.24,16.44,16.62,16.77,16.96,17.13,17.28,17.44,17.64,17.83,18.00,18.15,18.31,18.46,18.62,18.77,18.92,19.04,19.16,19.27,19.38,19.46,19.61,19.71,19.93,20.42,21.00,21.96,23.05,24.16,25.27,26.38,27.48,28.66,30.00,31.73,33.50,35.28,37.05,38.79,39.91,40.58,40.64,39.48,38.26,37.27,36.27,34.97,33.50,32.38,31.30,30.21,29.60,29.25,28.94,28.66,28.42,28.15,28.19,28.42,28.70,29.09,29.38,29.68,30.03,30.52,31.28,32.20,33.23,34.36,35.52,36.65,37.56,38.16,38.64,39.04,39.32,39.44,39.36,39.27,39.27,39.48,40.00,40.85,41.88,43.04,44.28,45.58,46.82,48.17,49.81,51.93,54.55,57.19,59.73,61.96,63.28,64.23,65.37,66.61,67.57,68.73,70.20,72.10,74.46,77.07,79.89,83.20,86.95,90.69,94.39,97.40,100.86,106.27,111.45,116.43,120.94,124.93,128.99,131.85,133.94,135.14,135.06,133.82,130.75,126.85,123.07,119.72,117.17,115.21,114.06,114.66,115.18,115.99,116.89,117.57,118.77,121.01,124.36,128.59,132.43,136.96,140.72,143.61,146.26,149.55,152.21,154.94,158.46,162.76,166.07,168.10,169.02,169.83,170.91,171.54,172.07,173.13,175.19,179.00,183.08,186.10,185.82,182.49,177.85,172.66,167.58,163.96,160.93,158.48,156.64,154.99,153.56,152.28,151.13,150.22,149.77,149.45,149.19,148.93,148.59,148.30,147.85,147.02,145.23,142.70,139.60,135.75,130.69,126.23,122.25,118.79,115.84,112.77,109.86,107.15,104.66,102.39,100.58,98.94,97.54,96.53,95.78,93.99,91.81,89.65,86.99,84.05,81.22,78.71,76.68,74.81,73.10,71.66,70.61,70.38,71.33,72.73,74.27,75.96,77.71,79.89,82.76,86.61,89.54,91.63,93.34,94.98,96.30,97.42,98.56,99.80,101.23,102.90,104.64,106.43,108.23,109.13,109.68,110.13,110.57,110.79,110.89,110.23,108.14,103.73,99.78
14.70,14.75,14.83,14.91,14.98,15.25,15.55,15.81,15.96,16.12,16.28,16.44,16.59,16.82,16.99,17.15,17.31,17.46,17.68,17.86,18.02,18.18,18.34,18.48,18.63,18.78,18.86,19.00,19.11,19.19,19.27,19.42,19.52,19.65,19.89,20.41,21.38,22.55,23.79,25.06,26.33,27.60,28.93,30.43,32.21,33.87,35.46,37.04,38.58,39.11,39.10,38.36,36.02,34.02,32.75,31.88,30.96,30.03,29.69,29.58,29.48,29.27,28.98,28.68,28.39,28.16,27.94,28.03,28.27,28.52,28.90,29.17,29.41,29.64,29.89,30.83,31.93,33.06,34.14,35.28,36.33,37.10,37.53,37.84,38.20,38.45,38.56,38.55,38.59,38.69,39.01,39.65,40.56,41.57,42.77,44.16,45.54,46.86,48.26,49.97,52.22,54.40,56.72,58.90,60.61,61.00,61.46,62.51,63.89,64.97,66.53,68.15,70.09,72.57,75.46,78.50,82.35,86.83,90.77,95.04,98.58,102.75,109.35,114.07,118.44,122.31,125.71,129.20,131.75,132.85,132.52,131.05,129.00,125.90,122.38,119.12,116.95,114.73,112.77,111.47,111.71,112.19,113.26,114.62,115.83,117.65,120.75,124.78,129.22,132.43,136.35,139.24,141.01,142.36,146.34,149.39,152.63,157.20,161.58,164.29,165.14,164.50,163.89,164.41,164.90,165.54,166.84,168.44,172.00,176.19,179.77,180.60,179.01,176.24,172.67,168.41,165.14,162.47,160.46,159.13,157.82,156.93,155.93,154.77,154.13,153.72,153.38,153.04,152.66,152.29,151.98,151.35,150.13,148.09,145.63,142.88,139.31,133.64,128.66,124.66,121.41,118.51,115.23,112.04,109.33,107.26,105.76,103.77,101.86,100.25,99.14,98.50,96.68,94.32,91.88,89.06,85.99,82.82,79.81,77.51,75.24,73.08,71.34,70.32,70.03,70.80,72.15,73.80,75.64,77.60,79.82,82.39,85.38,88.39,90.99,93.41,95.73,97.50,98.77,100.04,101.51,103.32,104.92,106.53,107.72,108.05,108.36,108.73,109.30,110.04,110.51,110.64,110.14,108.41,104.53,100.73
14.68,14.75,14.83,14.90,14.92,15.18,15.43,15.62,15.77,15.98,16.15,16.31,16.46,16.64,16.80,16.98,17.18,17.33,17.51,17.67,17.84,18.05,18.21,18.32,18.44,18.59,18.67,18.81,18.92,19.00,19.08,19.22,19.33,19.44,19.63,20.00,20.75,21.76,23.00,24.52,26.04,27.52,29.05,30.74,32.63,33.80,34.42,34.69,35.14,34.07,32.99,32.23,31.37,30.72,30.25,29.90,29.58,29.19,29.06,29.01,28.92,28.80,28.62,28.36,28.07,27.84,27.72,27.84,28.09,28.39,28.78,29.08,29.34,29.60,29.94,30.90,31.96,33.06,34.14,35.18,35.88,36.35,36.70,37.00,37.33,37.53,37.59,37.53,37.86,38.29,38.82,39.45,40.21,41.34,42.62,43.95,45.29,46.60,47.94,49.44,51.25,52.98,55.08,56.93,58.18,58.63,59.18,60.38,62.04,63.61,65.37,67.16,69.12,71.44,74.52,77.61,81.67,86.72,91.69,95.98,100.56,105.76,111.78,116.60,120.14,123.08,125.91,128.95,130.39,130.53,129.51,127.56,125.01,122.17,119.37,116.88,114.72,112.54,110.70,109.47,109.27,109.97,111.33,113.47,116.54,119.26,122.43,126.04,129.89,132.85,135.66,137.27,137.87,138.44,141.49,144.99,149.24,154.51,159.78,161.78,161.91,161.02,159.92,159.73,159.83,160.34,161.54,163.48,166.55,170.31,174.13,175.90,177.94,177.00,173.48,170.20,167.74,165.73,164.26,163.35,162.09,161.25,160.16,158.77,157.98,157.60,157.25,156.89,156.56,156.29,156.11,155.47,154.00,151.77,148.83,145.82,142.70,138.95,132.61,127.77,124.18,121.21,118.17,115.49,113.28,111.50,109.75,108.38,106.95,105.18,102.79,101.50,99.38,96.74,93.83,90.71,87.43,83.99,80.61,77.86,75.37,73.11,71.22,69.88,69.68,70.34,71.78,73.87,76.16,78.43,81.15,83.99,86.29,88.70,91.29,93.84,96.16,98.37,100.17,101.90,103.62,105.13,105.48,105.57,105.74,106.26,106.57,106.98,107.84,109.18,110.30,110.47,109.92,108.28,104.84,101.49
14.65,14.72,14.79,14.87,14.89,15.11,15.31,15.46,15.62,15.82,15.99,16.15,16.33,16.49,16.64,16.82,17.02,17.20,17.36,17.52,17.68,17.89,18.04,18.16,18.28,18.40,18.51,18.63,18.73,18.81,18.92,19.04,19.14,19.26,19.48,19.73,20.22,21.14,22.52,24.18,25.83,27.45,29.08,30.77,32.36,32.98,32.87,32.35,32.18,30.93,29.84,29.24,29.01,28.89,28.78,28.66,28.55,28.45,28.43,28.41,28.35,28.28,28.16,27.98,27.74,27.48,27.49,27.67,27.95,28.27,28.68,29.08,29.41,29.72,30.22,31.15,32.14,33.10,33.98,34.78,35.24,35.56,35.87,36.17,36.43,36.60,36.73,36.91,37.42,38.01,38.63,39.25,39.91,40.96,42.19,43.50,44.81,46.13,47.44,48.79,50.20,51.46,53.13,54.65,55.72,56.41,57.48,59.03,60.90,62.70,64.56,66.45,68.47,70.78,74.49,78.10,82.75,88.27,92.79,97.10,102.24,107.96,113.75,118.34,121.36,123.70,125.84,127.61,128.03,127.46,126.02,123.80,121.64,119.45,117.30,115.28,113.17,111.04,109.13,107.71,107.35,108.53,110.56,113.53,117.58,120.64,123.69,126.88,130.17,132.77,134.12,134.48,134.36,134.67,137.33,141.27,146.08,151.35,156.53,158.13,157.99,157.11,156.20,155.91,155.93,156.37,157.42,159.34,161.82,165.00,168.77,171.88,176.39,177.43,175.17,172.85,170.97,169.52,168.69,168.52,167.62,166.88,165.84,164.55,163.84,163.46,162.69,161.61,160.50,159.98,159.57,158.85,157.46,154.91,151.52,148.17,145.04,141.90,135.94,130.89,126.97,124.06,121.38,119.06,117.21,115.68,113.74,112.52,111.11,109.17,106.43,104.28,101.72,98.78,95.55,92.08,88.41,84.55,80.79,77.86,75.31,72.92,70.91,69.51,69.32,70.13,71.90,74.43,76.99,79.63,82.72,85.73,87.74,90.30,92.85,95.32,97.65,99.75,101.70,103.15,104.05,104.55,104.26,103.81,103.70,104.37,104.76,105.42,106.60,108.28,109.82,110.18,109.46,107.65,104.74,101.72
14.60,14.65,14.73,14.81,14.89,15.03,15.18,15.33,15.49,15.64,15.80,15.98,16.21,16.36,16.52,16.67,16.84,17.07,17.23,17.39,17.54,17.70,17.85,18.01,18.13,18.21,18.37,18.46,18.54,18.63,18.79,18.87,18.95,19.11,19.41,19.56,19.78,20.65,22.28,23.98,25.68,27.38,29.03,30.57,31.57,31.61,30.99,30.04,29.58,29.18,28.83,28.54,28.31,28.15,28.04,27.94,27.79,27.79,27.79,27.79,27.78,27.70,27.63,27.55,27.41,27.10,27.25,27.51,27.82,28.14,28.61,29.13,29.56,29.95,30.64,31.55,32.42,33.17,33.71,34.17,34.46,34.73,35.03,35.34,35.52,35.68,35.96,36.58,37.20,37.82,38.44,39.05,39.67,40.47,41.55,42.86,44.17,45.49,46.80,48.04,49.11,49.88,50.99,52.15,53.23,54.33,56.20,58.25,60.28,62.14,64.00,65.96,68.06,70.51,75.15,79.62,85.12,91.02,94.03,98.35,103.67,109.53,115.36,119.47,122.22,124.18,125.56,125.47,124.94,123.85,122.16,119.84,118.73,117.45,115.92,114.13,112.12,110.05,107.92,106.12,105.82,107.66,110.64,114.46,118.85,121.85,124.64,127.40,130.17,132.31,131.94,131.08,130.56,131.03,133.70,138.06,143.09,147.85,152.24,153.65,153.56,152.89,152.66,152.71,152.88,153.31,154.16,155.79,157.64,160.16,163.66,168.40,174.53,177.67,177.55,176.18,174.70,173.73,173.58,174.36,174.05,173.44,172.56,171.58,171.10,170.70,169.22,166.91,164.45,163.43,162.53,161.67,160.58,157.64,153.80,150.06,146.58,143.10,138.78,134.00,129.77,127.03,124.79,122.72,121.10,119.78,117.70,116.28,114.56,112.43,110.04,106.88,103.76,100.54,97.09,93.22,89.04,84.67,80.53,77.60,75.10,72.58,70.45,69.19,68.96,70.12,72.38,75.34,78.05,81.10,84.47,87.59,89.62,92.84,95.33,97.58,99.88,101.50,103.29,103.90,103.25,102.23,101.72,101.45,101.61,102.39,102.94,104.00,105.52,107.36,109.13,109.77,108.79,106.64,104.33,101.56
14.59,14.65,14.73,14.80,14.83,14.92,15.03,15.15,15.36,15.52,15.67,15.83,16.02,16.22,16.39,16.54,16.70,16.88,17.04,17.22,17.41,17.57,17.72,17.84,17.94,18.02,18.12,18.24,18.35,18.43,18.53,18.71,18.92,19.17,19.47,19.63,19.92,20.84,22.48,24.17,25.87,27.23,28.37,29.61,30.27,30.31,29.93,29.34,28.93,28.54,28.17,27.84,27.60,27.44,27.31,27.19,27.09,27.09,27.12,27.15,27.16,27.18,27.11,27.01,26.91,26.91,27.11,27.38,27.71,28.08,28.54,29.07,29.52,29.93,30.52,31.24,31.88,32.46,33.00,33.36,33.63,33.89,34.20,34.46,34.84,35.30,35.84,36.45,37.07,37.69,38.31,38.93,39.54,40.31,41.21,42.28,43.54,44.85,46.16,47.34,48.21,48.88,49.64,50.51,51.66,53.79,55.86,57.85,59.88,62.19,64.39,66.67,69.37,72.81,77.34,83.19,88.45,92.48,95.44,98.73,103.15,108.43,114.04,119.24,121.75,122.84,123.27,122.79,121.90,120.38,118.36,116.20,116.12,115.51,114.31,112.67,110.76,108.32,106.01,104.48,104.97,107.30,110.72,114.95,119.67,121.98,124.36,126.87,129.28,129.99,128.60,127.21,126.73,127.99,130.60,135.05,140.18,144.77,147.92,148.93,148.77,148.15,148.22,148.47,149.05,149.91,150.97,152.99,155.52,158.54,162.38,169.25,176.03,180.99,183.44,182.90,180.68,179.45,179.32,180.03,179.32,178.46,177.20,175.60,174.38,173.24,171.54,169.46,167.38,165.78,164.39,163.09,161.56,158.33,153.55,149.21,145.58,141.90,138.81,135.46,132.37,130.09,127.90,125.66,123.71,122.07,120.34,118.62,116.36,113.70,111.06,107.95,104.74,101.40,97.80,93.33,88.72,84.00,79.74,77.25,74.92,72.58,70.50,69.00,68.92,70.16,72.44,75.50,78.81,82.66,86.38,89.83,92.99,96.03,98.02,99.56,101.12,102.40,102.68,102.23,101.09,99.23,98.11,97.80,98.42,99.99,101.28,102.72,104.30,106.03,107.91,107.92,106.67,104.66,102.60,100.17
