101.81,98.49,94.21,89.62,85.94,82.47,79.74,77.60,75.31,73.48,74.29,76.91,80.23,83.11,85.89,88.23,89.92,90.73,91.00,90.88,90.47,89.86,86.97,84.11,81.43,78.79,74.93,70.84,68.41,67.94,68.81,69.08,68.49,67.39,66.39,68.24,71.30,75.57,80.12,81.19,81.58,81.67,81.71,82.00,81.33,81.16,80.70,79.50,78.92,78.62,78.28,77.60,76.04,74.70,73.05,70.93,68.50,70.76,73.09,75.10,76.44,76.53,74.88,73.18,72.38,73.45,76.41,79.40,82.21,84.71,86.56,87.23,86.19,83.86,81.77,79.62,77.50,75.25,72.70,70.44,69.14,68.33,67.70,67.14,67.41,67.65,67.81,68.13,69.03,70.14,71.15,71.80,71.83,71.23,69.89,67.75,64.63,61.24,58.15,55.46,53.25,52.68,52.53,52.39,52.06,51.74,51.23,50.42,49.61,49.34,49.09,49.08,49.42,50.17,51.32,52.16,52.70,53.05,53.45,53.91,54.30,54.59,54.74,54.38,53.79,53.00,52.08,51.22,50.40,48.72,46.59,45.30,45.65,45.95,46.09,46.04,45.90,45.88,45.68,45.39,45.64,46.60,47.82,48.95,49.56,49.93,50.27,50.57,50.85,51.20,51.46,51.49,51.27,50.89,50.43,49.98,49.43,48.72,48.22,47.88,47.97,48.53,49.26,49.81,50.20,50.50,50.78,51.00,51.17,51.23,51.14,50.99,50.83,50.68,50.53,50.41,49.71,48.62,47.38,46.20,45.29,44.97,44.90,44.90,44.90,44.90,44.90,44.90,44.90,44.90,45.11,45.62,46.40,47.12,47.00,46.57,46.04,45.55,45.07,44.90,44.90,44.90,44.90,44.90,44.92,45.00,45.30,45.95,46.64,47.31,47.92,48.50,48.96,49.73,51.06,52.61,53.95,55.23,56.48,57.67,57.86,58.05,58.41,59.05,59.95,60.26,60.38,60.48,60.54,60.62,60.54,60.20,59.49,58.66,58.05,57.59,57.22,56.99,57.07,57.34,57.67,57.84,57.89,57.94,58.06,58.26,58.75,59.20,59.57,59.89,60.36,60.78,61.01,61.13,61.32,61.75
102.06,98.47,93.73,88.30,84.78,81.68,79.96,79.23,78.00,75.75,76.65,79.60,83.03,86.06,88.73,90.42,91.08,91.54,91.64,91.22,90.45,89.64,86.50,83.38,80.29,77.11,73.26,69.66,68.33,69.11,70.16,70.07,69.03,67.58,66.42,68.21,71.20,75.46,80.13,81.74,82.68,83.16,83.65,84.80,83.89,84.01,83.49,81.43,80.57,80.26,79.84,79.00,77.57,76.50,74.68,72.32,69.97,72.08,74.62,77.14,79.19,79.87,78.01,76.02,74.73,74.71,77.49,80.38,83.24,85.90,87.51,88.75,88.14,85.72,82.89,79.79,77.83,76.42,74.66,71.55,69.58,68.31,67.35,65.86,65.72,65.80,65.93,66.15,67.12,68.45,69.59,70.13,70.23,69.83,68.34,65.96,63.81,61.01,57.91,55.00,52.87,52.70,53.38,54.05,54.23,54.00,53.22,51.70,50.10,49.69,49.16,48.85,48.90,49.36,50.18,50.86,51.43,51.93,52.53,53.01,53.37,53.63,53.78,53.86,53.58,52.97,52.10,51.34,50.57,48.93,46.80,45.37,45.76,46.22,46.50,46.45,46.12,45.75,45.39,45.34,46.45,47.86,49.18,50.14,50.45,50.61,50.82,51.05,51.29,51.60,51.73,51.53,51.08,50.69,50.22,49.65,48.99,48.31,48.13,48.34,48.69,49.13,49.86,50.21,50.51,50.80,51.04,51.34,51.55,51.61,51.52,51.37,51.22,51.06,50.93,50.85,50.55,50.24,49.51,47.99,45.96,45.18,44.94,44.90,44.90,44.90,44.90,44.90,44.90,44.90,44.90,45.02,45.35,46.06,45.96,45.56,45.13,44.91,44.90,44.90,44.90,44.90,44.90,44.91,44.98,45.21,45.89,46.59,47.29,47.98,48.68,49.34,49.96,51.20,53.44,55.94,56.68,57.44,58.46,59.13,57.67,56.57,56.32,57.14,58.96,59.62,59.89,60.18,60.50,60.88,60.98,60.85,60.66,60.36,60.22,60.16,60.10,59.90,59.69,59.68,59.81,59.82,59.88,60.00,60.15,60.32,60.62,60.93,61.30,61.73,62.08,62.28,62.36,62.43,62.65,62.95
101.72,98.19,93.64,88.54,85.96,84.08,82.81,81.71,79.89,77.65,78.79,81.91,85.21,88.33,90.17,91.26,91.90,92.31,91.72,91.00,90.00,88.31,85.20,82.11,78.97,75.72,72.02,69.53,69.20,70.46,71.26,71.02,70.02,68.45,66.65,67.89,70.72,74.72,79.07,81.22,82.70,83.76,84.66,85.76,86.65,87.65,88.02,87.43,87.11,86.79,85.10,82.38,80.60,78.59,76.28,73.81,71.52,73.82,76.30,78.69,80.64,81.22,79.73,77.97,76.48,75.62,78.82,81.75,84.50,87.16,89.26,90.56,89.96,87.49,84.27,82.04,80.73,79.78,78.49,75.29,72.12,69.60,67.90,66.26,65.04,64.28,63.98,64.10,64.98,65.97,66.73,67.02,67.31,66.48,65.14,63.48,61.43,59.23,56.71,54.74,54.37,55.28,56.26,56.97,57.24,57.07,56.04,54.33,52.44,51.19,50.01,49.33,48.87,48.44,49.02,49.84,50.58,51.14,51.65,52.07,52.41,52.66,52.76,52.89,52.91,52.69,52.17,51.46,50.74,48.90,46.55,45.42,45.87,46.35,46.52,46.18,45.76,45.37,45.54,46.41,47.76,49.07,49.95,50.47,50.83,51.10,51.30,51.48,51.67,51.98,51.74,51.33,50.88,50.43,49.92,49.30,48.77,48.53,48.80,49.18,49.53,49.83,50.22,50.48,50.77,51.07,51.36,51.61,51.84,51.93,51.85,51.75,51.60,51.45,51.31,51.23,50.89,50.56,49.99,48.91,47.38,46.10,45.26,44.90,44.90,44.90,44.90,44.90,44.90,44.90,44.90,44.94,45.04,45.26,45.23,45.10,44.97,44.90,44.90,44.90,44.90,44.90,44.90,44.98,45.34,45.96,46.54,47.27,47.99,48.69,49.38,50.39,51.90,53.96,56.46,58.51,58.89,58.38,57.42,56.55,54.98,53.79,53.00,52.59,54.16,55.99,57.60,58.83,59.95,60.43,60.76,61.00,61.10,60.91,60.83,60.92,61.15,61.20,61.20,61.33,61.55,61.60,61.63,61.70,61.83,62.04,62.24,62.56,62.90,63.16,63.21,63.49,63.70,63.81,63.93,64.18
101.07,97.70,93.81,89.79,87.95,86.59,85.20,83.53,81.30,79.63,81.01,84.10,87.29,90.02,91.44,92.25,92.71,92.57,91.61,90.58,89.18,86.79,83.73,80.61,77.54,74.54,71.35,70.02,70.35,71.65,72.46,71.84,70.73,69.09,67.01,67.61,70.07,73.72,77.79,80.46,82.09,83.22,84.12,85.12,86.76,88.31,89.48,90.06,90.07,89.85,88.16,85.31,83.10,80.58,77.95,75.34,73.01,75.15,77.52,79.85,81.85,82.83,81.52,79.74,78.11,77.12,80.48,83.38,86.03,88.64,90.87,92.16,91.42,88.82,85.81,84.13,83.03,82.10,80.88,78.16,74.47,71.04,68.50,66.80,65.05,63.63,62.67,62.25,62.64,63.16,63.56,63.69,63.83,62.86,61.64,60.40,58.91,57.17,55.71,55.17,56.18,57.71,58.77,59.44,59.75,59.57,58.52,56.87,54.97,53.32,51.68,50.52,49.56,48.60,48.54,48.82,49.37,50.08,50.71,51.12,51.45,51.70,51.81,51.96,52.09,52.07,51.81,51.33,50.72,48.61,46.02,45.56,46.06,46.46,46.46,45.92,45.46,45.42,46.10,47.44,48.88,49.87,50.44,50.80,51.18,51.52,51.76,51.93,52.02,52.08,51.66,51.16,50.67,50.18,49.64,49.11,48.82,48.99,49.42,49.81,50.11,50.32,50.55,50.81,51.10,51.40,51.68,51.91,52.16,52.28,52.20,52.13,51.99,51.83,51.66,51.45,50.99,50.61,50.09,49.22,47.93,46.53,45.45,44.90,44.90,44.90,44.90,44.89,44.86,44.89,44.90,44.90,44.90,44.90,44.90,44.90,44.90,44.90,44.90,44.90,44.90,44.90,44.99,45.42,46.14,47.01,47.58,48.23,48.89,49.61,50.44,51.70,53.48,55.77,58.35,59.74,59.90,58.61,56.29,54.17,52.56,51.53,50.84,50.32,51.76,53.84,55.83,57.43,58.95,59.89,60.52,60.95,61.29,61.26,61.26,61.34,61.49,61.48,61.43,61.49,61.65,61.75,61.81,61.91,62.07,62.27,62.40,62.62,62.83,62.99,63.05,63.34,63.65,63.92,64.14,64.42
100.16,97.02,94.18,91.84,90.60,89.17,87.22,84.81,82.34,81.68,83.28,86.19,89.29,91.23,92.57,93.37,93.51,92.43,91.35,90.00,88.06,85.13,82.12,78.94,76.01,73.54,71.14,71.01,71.71,72.72,73.72,72.57,71.21,69.55,67.49,67.34,69.29,72.52,76.33,79.50,80.98,81.78,82.35,83.20,84.74,86.60,88.48,90.02,90.17,90.14,89.45,87.89,85.19,82.48,79.68,76.90,74.46,76.16,78.38,80.71,82.87,84.64,83.35,81.36,79.64,79.10,82.41,85.23,87.78,90.29,92.37,93.59,92.60,89.80,87.48,86.08,84.86,83.61,82.13,80.34,76.68,72.60,69.14,67.44,65.61,63.67,61.86,60.55,60.14,60.08,60.16,60.20,59.89,59.03,57.91,56.82,56.27,54.88,54.88,56.16,58.23,60.01,60.99,61.55,61.85,61.62,60.73,59.34,57.64,55.94,54.02,52.30,50.82,49.61,48.61,47.80,47.87,48.79,49.72,50.16,50.50,50.76,50.91,51.06,51.16,51.17,51.10,51.01,50.55,48.11,45.24,45.78,46.32,46.55,46.34,45.67,45.20,45.82,47.01,48.46,49.85,50.34,50.73,51.12,51.50,51.89,52.22,52.40,52.35,51.96,51.51,51.01,50.47,49.93,49.39,49.05,49.09,49.62,50.01,50.28,50.47,50.64,50.87,51.17,51.48,51.77,52.00,52.23,52.52,52.66,52.59,52.51,52.37,52.21,51.99,51.53,50.92,50.45,49.90,49.03,47.79,46.55,45.54,44.90,44.90,44.90,44.90,44.88,44.80,44.88,44.90,44.90,44.90,44.90,44.90,44.90,44.90,44.90,44.90,44.90,44.90,44.91,45.14,46.13,47.29,48.29,48.91,49.40,49.95,50.70,51.78,53.24,54.77,56.81,59.35,59.90,59.94,58.26,55.10,51.94,50.35,49.67,49.59,49.87,51.26,52.88,54.48,55.98,57.60,59.28,60.27,60.75,61.29,61.45,61.55,61.51,61.27,60.96,60.66,60.47,60.44,60.60,60.75,60.95,61.16,61.31,61.39,61.41,61.45,61.56,61.87,62.11,62.52,63.03,63.49,63.88
100.42,98.03,96.47,94.90,93.18,91.06,88.73,86.31,83.99,84.08,85.74,88.21,90.69,92.32,93.71,93.90,92.80,91.62,90.40,88.78,86.74,84.29,81.18,78.46,76.03,73.85,71.99,72.25,73.09,73.95,74.46,73.04,71.53,69.84,67.84,67.00,68.44,71.09,74.24,77.06,78.80,79.88,80.56,81.16,82.74,84.62,86.80,89.08,89.97,90.23,89.98,89.17,87.59,83.97,80.56,77.80,76.04,77.35,79.21,81.37,83.64,85.81,85.54,84.34,83.07,82.72,85.71,88.25,90.48,92.57,94.56,95.45,94.33,91.58,88.97,87.28,85.65,84.03,82.46,80.78,77.61,73.80,70.10,68.01,66.04,64.05,62.10,60.30,59.25,58.64,58.27,57.99,58.07,58.26,58.32,58.15,57.76,56.83,57.12,58.38,60.01,61.40,62.46,63.20,63.56,63.18,62.19,60.78,59.08,57.23,55.45,53.87,52.47,51.19,49.99,48.85,48.02,47.66,48.05,48.57,49.06,49.46,49.76,49.97,50.08,50.11,50.07,50.00,49.12,47.20,45.38,45.97,46.60,46.64,46.23,45.62,45.45,46.41,47.75,49.10,50.15,50.60,51.02,51.44,51.82,52.21,52.43,52.40,52.10,51.71,51.30,50.82,50.28,49.74,49.34,49.34,49.61,50.00,50.34,50.60,50.79,50.97,51.25,51.56,51.86,52.15,52.38,52.66,52.93,53.05,52.97,52.89,52.75,52.49,52.06,51.35,50.63,50.00,49.28,48.26,47.03,45.87,45.13,44.90,44.90,44.90,44.90,44.89,44.86,44.84,44.84,44.86,44.90,44.90,44.90,44.90,44.90,44.90,44.90,44.90,44.93,45.08,45.99,47.15,48.38,49.54,50.36,50.95,51.57,52.36,53.44,55.00,56.42,58.01,59.77,59.96,59.22,57.04,53.79,50.77,49.69,49.43,49.71,50.37,51.81,53.30,54.81,56.34,57.91,59.17,60.03,60.54,60.79,60.90,60.91,60.79,60.44,59.44,58.88,58.60,58.54,58.75,58.95,59.20,59.47,59.71,59.69,59.76,59.96,60.31,60.82,61.25,61.80,62.42,62.98,63.56
102.62,100.79,99.59,97.85,95.69,92.99,90.31,87.88,85.83,86.26,87.81,89.91,91.98,93.58,94.47,93.92,92.07,90.73,89.24,87.40,85.32,83.24,80.41,78.06,75.95,73.98,73.01,73.57,74.47,75.17,75.17,73.55,71.88,70.13,68.17,66.72,67.66,69.69,72.11,74.59,76.36,77.64,78.52,79.09,80.89,83.07,85.66,88.46,89.84,90.30,90.33,90.02,89.26,85.36,81.69,78.96,77.64,78.39,80.04,82.19,84.58,87.04,87.67,87.28,86.58,86.50,88.82,90.96,92.94,94.84,96.77,97.45,96.35,93.63,90.13,88.06,86.15,84.32,82.62,80.99,78.19,74.63,70.87,68.36,66.17,64.10,62.07,60.05,58.72,58.04,57.72,57.58,58.25,58.92,59.49,59.78,59.45,58.88,59.19,60.19,61.50,62.66,63.68,64.43,64.76,64.39,63.51,62.14,60.42,58.59,56.93,55.46,54.12,52.83,51.56,50.21,48.78,47.54,47.24,47.33,47.62,47.99,48.31,48.44,48.54,48.60,48.58,48.41,47.51,46.38,45.62,46.24,46.83,46.68,46.11,45.54,45.77,47.01,48.45,49.66,50.41,50.85,51.29,51.73,52.14,52.53,52.60,52.38,51.92,51.51,51.11,50.64,50.13,49.65,49.47,49.68,50.05,50.36,50.67,50.92,51.12,51.32,51.63,51.94,52.25,52.53,52.77,53.07,53.33,53.43,53.35,53.25,53.09,52.69,52.04,51.19,50.32,49.52,48.65,47.58,46.39,45.43,44.93,44.90,44.90,44.90,44.90,44.90,44.90,44.84,44.81,44.82,44.87,44.87,44.87,44.87,44.88,44.90,44.90,44.90,45.03,45.47,46.78,48.07,49.36,50.60,51.59,52.40,53.19,54.08,55.18,56.72,57.96,59.06,60.03,60.00,58.51,55.87,52.63,49.95,49.19,49.25,49.88,50.86,52.30,53.72,55.18,56.65,57.94,58.73,59.37,59.84,60.01,59.92,59.68,59.32,58.81,57.35,56.89,56.71,56.67,56.94,57.12,57.41,57.78,58.13,58.43,58.80,59.24,59.74,60.26,60.76,61.37,62.04,62.66,63.21
107.39,105.88,103.79,100.62,98.12,94.99,92.00,89.51,87.91,88.13,89.38,91.20,93.15,95.04,94.72,93.25,91.32,89.73,87.83,85.80,83.78,81.89,79.86,77.78,75.69,73.87,74.23,75.00,75.85,76.39,75.85,74.10,72.26,70.40,68.46,66.52,66.97,68.33,69.94,72.07,73.59,74.97,76.16,76.98,79.22,82.08,85.25,88.28,89.81,90.34,90.44,90.29,89.93,86.61,83.16,80.48,79.27,79.22,80.86,83.21,85.75,88.36,89.69,90.15,90.19,90.45,91.67,93.25,95.09,97.08,99.01,99.65,98.75,96.02,90.85,88.27,86.28,84.45,82.55,80.93,78.31,75.00,71.38,68.42,65.92,63.68,61.66,59.79,58.66,58.55,58.97,59.57,61.08,61.45,61.62,61.75,61.37,61.03,61.00,61.47,62.58,63.74,64.59,65.11,65.30,65.12,64.65,63.40,61.63,60.05,58.49,57.10,55.81,54.57,53.40,51.95,50.35,48.77,47.58,46.56,46.19,46.28,46.45,46.33,46.40,46.49,46.44,46.08,45.69,45.65,46.00,46.62,46.98,46.64,45.96,45.38,46.16,47.64,49.08,50.13,50.62,51.08,51.54,52.01,52.46,52.85,52.71,52.31,51.85,51.39,50.94,50.47,50.04,49.71,49.87,50.10,50.37,50.68,50.99,51.24,51.46,51.70,52.01,52.32,52.63,52.92,53.15,53.46,53.71,53.82,53.73,53.58,53.37,52.79,51.91,51.07,49.96,48.97,48.03,47.01,45.92,45.32,45.02,44.90,44.90,44.90,44.90,44.90,44.90,44.89,44.84,44.80,44.81,44.81,44.81,44.81,44.83,44.90,44.90,44.90,45.22,46.17,47.49,48.85,50.16,51.39,52.53,53.70,54.81,55.88,57.04,58.38,59.35,59.91,60.08,60.01,57.83,54.79,51.68,49.59,48.87,49.15,50.09,51.30,52.70,54.15,55.58,56.87,57.57,57.85,58.15,58.49,58.85,58.38,57.64,56.86,56.11,54.50,54.61,54.82,54.83,55.21,55.25,55.59,56.09,56.56,57.76,58.75,59.54,60.09,60.35,60.74,61.30,61.98,62.59,62.81
111.74,109.73,107.00,103.40,100.12,96.92,94.01,91.64,90.23,90.43,91.78,93.47,94.75,95.83,94.76,92.83,90.77,89.11,87.40,85.57,83.69,81.88,79.95,77.76,75.91,74.93,75.64,76.50,77.32,77.59,76.16,74.06,72.12,70.24,68.24,66.53,66.28,67.02,68.39,69.88,71.28,72.64,74.08,75.74,78.39,81.36,84.53,87.65,89.66,90.26,90.46,90.49,90.14,88.12,85.61,83.49,82.58,82.34,83.03,84.71,87.20,89.57,90.92,91.65,92.10,92.75,94.03,95.43,97.03,98.79,99.87,100.16,99.45,97.01,91.10,88.33,86.19,84.22,82.21,80.63,77.89,74.53,70.97,67.75,65.13,62.83,60.87,59.36,58.97,59.80,61.30,62.87,63.72,63.69,63.53,63.39,62.96,62.60,62.44,62.68,63.55,64.50,65.14,65.51,65.64,65.40,65.08,64.19,62.79,61.25,59.91,58.73,57.60,56.41,55.34,53.83,52.12,50.40,48.91,47.72,46.72,46.00,45.65,45.71,45.77,45.81,45.80,45.67,45.71,46.00,46.48,47.01,47.00,46.50,45.78,45.23,46.55,48.23,49.57,50.35,50.82,51.28,51.74,52.21,52.67,53.06,52.89,52.47,52.00,51.49,51.02,50.54,50.11,49.93,50.14,50.40,50.69,50.99,51.26,51.53,51.81,52.09,52.40,52.71,53.01,53.31,53.59,53.85,54.07,54.16,54.11,53.96,53.56,52.86,51.95,51.10,50.08,48.95,47.82,46.83,46.73,46.83,46.89,46.80,46.63,46.20,45.50,44.90,44.90,44.90,44.88,44.84,44.80,44.80,44.80,44.80,44.82,44.90,44.90,44.98,45.47,46.66,48.01,49.33,50.57,51.70,52.78,54.03,55.34,56.70,58.12,59.22,59.82,60.05,59.94,58.97,56.49,53.50,50.70,49.07,48.74,49.28,50.33,51.53,52.96,54.30,55.25,55.70,55.72,55.86,56.08,56.21,56.00,54.96,53.96,53.14,52.53,51.93,52.35,52.93,53.51,54.28,54.85,55.56,56.38,57.29,58.60,59.50,60.03,60.33,60.78,61.06,61.45,61.88,62.15,62.23
115.25,112.68,109.51,105.78,102.04,98.92,96.32,94.31,93.06,93.32,94.49,95.71,96.16,96.29,94.68,92.48,90.33,88.63,87.14,85.51,83.78,82.05,80.15,77.84,76.28,76.22,77.08,77.98,78.71,78.65,76.53,74.12,72.01,69.98,67.77,66.16,65.37,65.66,66.84,67.80,69.12,70.50,72.16,74.57,77.67,80.69,83.74,86.80,89.17,90.01,90.42,90.62,90.32,89.45,87.98,86.61,86.06,85.75,85.62,86.54,88.66,90.71,91.86,92.63,93.29,94.14,95.28,96.45,97.96,99.84,100.26,100.28,99.59,97.26,91.06,88.04,85.73,83.65,81.58,79.86,77.06,73.76,70.32,66.95,64.20,61.90,60.16,59.24,59.98,61.87,64.22,66.29,66.43,65.99,65.48,65.05,64.56,64.12,63.85,63.91,64.50,65.16,65.61,65.82,65.80,65.47,65.25,64.72,63.75,62.26,61.18,60.19,59.21,58.18,57.28,55.75,53.99,52.19,50.57,49.27,47.75,46.25,45.17,45.43,45.57,45.65,45.70,45.76,46.08,46.50,46.93,47.30,46.95,46.33,45.64,45.23,47.00,48.78,49.97,50.52,50.97,51.43,51.90,52.36,52.82,53.21,53.06,52.66,52.19,51.66,51.19,50.72,50.36,50.29,50.53,50.80,51.10,51.41,51.64,51.91,52.18,52.45,52.76,53.07,53.38,53.69,54.00,54.24,54.42,54.51,54.49,54.32,53.74,52.94,52.04,51.15,50.18,48.97,47.85,47.22,47.92,48.51,48.81,48.77,48.51,47.73,46.40,45.15,44.90,44.90,44.90,44.87,44.80,44.80,44.80,44.81,44.83,44.90,44.90,45.11,45.76,47.05,48.39,49.63,50.77,51.83,52.90,54.23,55.68,57.22,58.79,59.72,60.03,59.94,59.46,57.63,55.04,52.28,49.84,48.54,48.64,49.42,50.55,51.76,53.08,54.09,54.50,54.29,53.84,53.79,53.85,53.74,53.05,51.84,50.88,50.23,49.94,50.38,51.12,52.06,53.11,54.19,55.14,56.10,57.16,58.35,59.56,60.26,60.59,60.73,61.13,61.42,61.63,61.74,61.67,61.61
116.94,113.97,110.74,107.23,103.88,101.12,99.24,98.07,97.01,97.42,97.66,97.52,96.94,96.24,94.42,92.22,90.08,88.38,86.88,85.34,83.76,82.18,80.37,78.06,76.85,77.63,78.54,79.41,79.85,79.39,77.18,74.62,72.14,69.61,66.92,64.81,63.98,64.18,65.09,65.90,67.16,68.63,70.52,73.22,76.91,80.05,82.90,85.64,87.91,89.41,90.28,90.62,90.62,90.27,89.82,89.45,89.32,89.01,88.70,88.97,90.07,91.72,92.39,92.89,93.42,94.02,94.09,94.78,96.62,99.53,100.05,100.09,99.05,96.26,90.51,86.99,84.48,82.44,80.34,78.03,75.44,72.57,69.44,66.17,63.14,60.93,59.80,59.91,62.51,65.57,68.16,69.52,69.37,68.51,67.61,66.89,66.29,65.71,65.32,65.21,65.45,65.71,66.02,66.01,65.60,65.22,65.08,64.84,64.25,62.96,62.17,61.25,60.39,59.75,59.19,57.74,55.99,54.24,52.61,51.00,49.23,47.24,45.04,45.40,45.83,46.16,46.33,46.35,46.62,46.98,47.30,47.38,46.78,46.14,45.64,45.57,47.59,49.23,50.22,50.64,51.04,51.50,51.96,52.43,52.89,53.27,53.20,52.85,52.39,51.91,51.45,51.11,50.94,50.93,51.21,51.47,51.74,52.05,52.28,52.47,52.62,52.77,53.08,53.39,53.70,54.01,54.32,54.61,54.81,54.90,54.87,54.65,53.89,53.06,52.20,51.16,50.04,48.87,48.29,48.82,49.51,49.95,50.17,50.21,50.09,49.33,47.77,45.99,44.90,44.90,44.90,44.87,44.80,44.80,44.80,44.83,44.89,44.90,44.90,45.30,46.11,47.30,48.49,49.62,50.66,51.68,53.00,54.48,55.97,57.42,58.79,59.72,59.96,59.49,58.26,55.98,53.60,51.28,49.27,48.02,48.54,49.51,50.73,52.05,52.88,53.14,53.07,52.83,52.43,51.95,51.58,51.18,50.49,50.11,49.78,49.69,50.01,51.14,52.34,53.54,54.71,55.79,56.51,57.35,58.33,59.36,60.23,60.80,61.24,61.51,61.16,61.69,61.83,61.55,61.23,60.97
116.51,113.79,110.95,108.07,105.08,102.93,101.49,100.44,99.11,98.86,98.38,97.66,96.77,95.81,94.18,92.21,90.18,88.66,87.09,85.47,83.82,82.16,80.42,78.62,77.96,78.98,79.79,80.46,80.50,79.52,76.95,74.23,71.47,68.59,65.53,63.62,62.67,62.54,63.10,63.98,65.20,66.82,69.07,72.25,76.21,79.54,82.46,85.15,87.46,89.21,90.24,90.63,90.78,90.71,90.68,90.68,90.71,90.58,90.48,90.69,91.29,91.93,91.81,91.87,92.18,92.54,92.21,92.12,92.96,95.02,96.40,96.81,95.97,93.59,89.23,85.71,82.89,80.49,78.18,75.67,73.22,70.75,68.16,65.10,63.56,62.57,62.27,63.31,66.10,68.49,70.19,71.00,70.37,69.38,68.39,67.61,67.21,66.74,66.41,66.22,66.12,66.21,66.22,65.95,65.37,64.73,64.29,64.06,63.85,63.31,62.76,61.93,61.13,60.63,60.17,59.22,57.88,56.25,54.48,52.71,50.84,48.74,46.30,45.49,45.66,46.14,46.54,46.83,47.11,47.40,47.56,47.27,46.59,45.92,45.59,45.94,48.02,49.54,50.43,50.81,51.20,51.62,52.07,52.54,53.00,53.35,53.36,53.09,52.63,52.21,51.90,51.71,51.62,51.62,51.88,52.15,52.42,52.69,52.92,53.03,53.10,53.17,53.41,53.71,54.02,54.33,54.64,54.98,55.19,55.27,55.20,54.89,54.01,53.06,52.10,51.02,49.87,49.15,49.13,49.89,50.48,50.80,51.01,51.14,50.99,50.22,48.77,46.94,45.23,44.98,44.90,44.88,44.84,44.81,44.80,44.84,44.90,44.90,44.90,45.35,46.17,47.22,48.34,49.43,50.49,51.58,52.89,54.32,55.64,56.88,58.09,59.01,59.01,58.24,56.86,54.86,52.63,50.55,48.80,47.60,48.37,49.44,50.62,51.79,52.16,52.08,51.80,51.45,51.06,50.54,50.13,49.78,49.34,49.43,49.53,49.86,50.62,52.15,53.65,55.01,56.23,57.38,58.04,58.74,59.47,60.14,60.81,61.32,61.78,62.11,61.72,61.89,61.73,61.26,60.87,60.53
115.26,112.96,110.59,108.39,105.80,104.22,103.02,101.83,100.17,99.13,98.14,97.17,96.25,95.24,93.92,92.26,90.41,89.05,87.38,85.62,83.83,82.03,80.37,79.30,79.25,80.26,80.97,81.28,80.82,79.31,76.35,73.48,70.48,67.29,63.93,62.38,61.33,60.90,61.14,62.07,63.29,65.11,67.73,71.34,75.41,79.05,82.26,85.10,87.57,89.28,90.25,90.61,90.81,90.89,91.03,91.17,91.26,91.29,91.44,91.72,91.97,91.46,90.59,90.18,90.20,90.30,89.69,88.76,88.36,89.18,91.56,92.60,92.27,90.60,87.69,84.37,81.25,78.41,75.83,73.33,71.05,69.03,67.12,64.55,64.86,65.27,65.79,67.42,69.70,70.91,71.48,71.71,70.57,69.48,68.46,67.65,67.42,67.08,66.88,66.70,66.42,66.46,66.24,65.80,65.12,64.11,63.27,62.95,63.08,63.32,63.05,62.40,61.71,61.23,60.76,60.35,59.52,58.11,56.19,54.31,52.38,50.30,47.94,45.77,45.44,45.93,46.55,47.18,47.52,47.74,47.71,47.08,46.39,45.70,45.53,46.35,48.40,49.79,50.61,51.02,51.39,51.78,52.21,52.66,53.10,53.42,53.53,53.36,52.93,52.58,52.45,52.37,52.31,52.31,52.54,52.82,53.10,53.33,53.54,53.59,53.59,53.61,53.74,54.02,54.33,54.64,54.96,55.34,55.57,55.62,55.47,55.09,54.14,53.06,51.96,50.86,49.76,49.61,50.10,50.80,51.25,51.47,51.69,51.88,51.62,50.83,49.62,47.97,45.85,45.13,44.90,44.90,44.89,44.81,44.80,44.84,44.89,44.90,44.90,45.30,46.04,46.98,48.05,49.13,50.24,51.40,52.62,53.89,55.01,56.03,57.11,58.00,57.72,56.73,55.40,53.86,51.80,49.91,48.39,47.23,48.11,49.22,50.30,51.24,51.23,51.00,50.63,50.18,49.78,49.37,49.12,48.99,48.89,49.29,49.72,50.39,51.47,53.23,54.96,56.45,57.72,58.98,59.63,60.19,60.62,60.86,61.37,61.85,62.26,62.51,62.24,61.99,61.57,61.03,60.55,59.98
113.75,111.53,109.34,107.26,105.36,103.66,102.16,100.80,99.39,98.41,97.47,96.55,95.67,94.67,93.57,92.23,90.62,89.02,87.23,85.37,83.48,81.59,80.12,79.90,80.46,81.35,82.11,81.67,80.50,78.57,75.46,72.53,69.34,65.84,62.20,60.60,59.77,59.54,59.79,60.34,61.58,63.70,66.60,70.06,74.09,78.50,82.61,85.97,88.89,89.93,90.28,90.38,90.38,90.39,90.61,90.87,90.99,90.78,90.64,90.58,90.38,89.13,88.16,87.47,87.04,86.79,85.26,83.76,83.20,84.23,86.95,89.25,90.03,88.97,86.21,83.12,79.98,76.94,74.18,71.98,70.25,68.95,68.01,67.12,67.80,68.64,69.40,70.19,71.44,72.32,72.49,71.74,70.26,68.74,67.40,66.34,65.67,65.11,64.95,65.09,65.34,65.63,65.80,65.60,64.86,63.35,62.23,61.83,62.00,62.29,62.60,62.54,62.18,61.61,61.15,60.65,60.11,59.28,57.40,55.39,53.31,51.19,49.03,46.81,45.75,45.69,46.37,47.04,47.64,47.80,47.50,46.83,46.13,45.48,45.56,46.91,48.77,49.96,50.75,51.26,51.59,51.97,52.37,52.76,53.10,53.47,53.70,53.68,53.40,53.25,53.11,53.01,52.95,52.95,53.22,53.53,53.81,54.03,54.09,54.10,54.10,54.09,54.08,54.30,54.58,54.91,55.28,55.66,55.93,55.92,55.60,55.22,54.35,53.26,52.06,50.87,50.09,50.25,50.98,51.82,52.17,52.37,52.54,52.62,52.15,51.30,50.36,49.14,47.32,45.51,44.93,44.90,44.89,44.81,44.80,44.81,44.84,44.90,44.90,45.05,45.54,46.53,47.55,48.62,49.69,50.74,51.86,52.95,53.99,55.00,56.02,56.72,56.31,55.30,54.06,52.52,50.78,49.29,48.07,46.91,47.56,48.51,49.49,50.28,50.22,50.01,49.69,49.27,48.77,48.65,48.86,49.20,49.40,49.95,50.63,51.49,52.61,54.27,56.06,57.73,59.21,60.57,61.19,61.66,61.88,61.68,61.99,62.46,62.59,62.22,61.70,61.76,61.70,61.26,60.18,58.53
112.67,110.93,109.32,107.66,105.38,102.87,100.91,99.49,98.15,97.14,96.16,95.21,94.33,93.44,92.63,91.64,90.34,88.55,86.63,84.69,82.93,81.56,80.86,81.06,81.72,82.43,82.69,81.69,80.02,77.73,74.50,71.52,68.30,64.74,60.92,59.69,58.99,58.77,58.96,59.38,60.35,62.41,65.39,68.82,73.27,78.18,82.75,86.43,89.43,90.11,90.00,89.62,89.15,89.31,89.91,90.52,90.66,90.38,89.22,87.75,86.31,85.00,84.36,83.89,83.35,82.51,80.13,78.72,78.71,80.34,83.20,86.09,87.94,87.98,85.09,82.15,79.31,76.87,75.10,73.70,72.79,72.05,71.31,70.60,70.82,71.54,72.32,72.57,73.20,73.45,72.94,71.46,69.54,67.67,66.09,64.83,63.86,63.24,62.98,63.14,63.76,64.66,65.25,65.25,64.42,62.51,61.18,60.76,61.02,61.42,61.96,62.16,62.02,61.62,61.27,60.82,60.38,59.69,57.84,55.78,53.66,51.54,49.46,47.31,45.90,45.56,46.26,46.99,47.71,47.84,47.38,46.65,45.96,45.47,45.81,47.40,49.12,50.12,50.81,51.32,51.63,51.95,52.28,52.64,53.07,53.51,53.83,53.94,53.87,53.85,53.77,53.68,53.62,53.59,53.91,54.21,54.45,54.61,54.61,54.61,54.60,54.56,54.48,54.62,54.90,55.25,55.63,56.02,56.23,56.14,55.72,55.28,54.48,53.47,52.31,51.10,50.87,51.26,51.99,52.80,53.08,53.28,53.41,53.36,52.76,51.92,51.11,50.18,48.87,46.81,45.51,44.93,44.89,44.85,44.81,44.80,44.81,44.86,44.89,44.93,45.18,45.81,46.78,47.82,48.89,49.98,51.06,52.08,53.08,54.08,55.05,55.43,54.86,53.83,52.69,51.24,49.82,48.57,47.54,46.65,47.04,47.74,48.53,49.23,49.04,48.88,48.71,48.53,48.50,48.77,49.34,50.13,50.98,51.93,52.77,53.58,54.42,55.30,56.96,58.82,60.61,62.15,62.77,63.12,63.15,62.77,62.74,62.77,62.51,61.87,61.25,61.18,60.87,60.06,58.60,56.53
111.98,110.95,110.18,109.11,105.82,102.09,99.52,98.08,96.67,95.54,94.44,93.40,92.49,91.81,91.30,90.68,89.70,87.78,85.73,83.78,82.32,81.88,82.26,82.59,83.00,83.44,82.89,81.46,79.43,76.81,73.48,70.45,67.33,63.86,59.96,59.35,58.73,58.39,58.46,58.93,59.46,61.22,64.12,67.60,72.73,77.99,82.74,86.54,89.36,89.88,89.40,88.44,87.37,87.81,89.00,90.09,90.25,89.98,87.37,83.90,80.78,79.83,79.76,79.77,79.32,77.71,74.63,73.73,74.76,77.21,80.08,83.12,85.97,87.38,84.29,81.43,79.12,77.77,77.70,77.39,77.42,77.09,76.10,74.66,73.92,74.15,74.76,74.64,74.90,74.35,72.99,70.95,68.55,66.39,64.60,63.18,62.03,61.43,61.00,61.02,61.90,63.60,64.63,64.76,63.82,61.59,60.14,59.73,60.10,60.65,61.19,61.42,61.45,61.36,61.21,60.88,60.41,59.60,57.75,55.69,53.61,51.52,49.43,47.41,45.94,45.51,46.21,46.99,47.76,47.85,47.31,46.53,45.83,45.60,46.20,47.82,49.45,50.28,50.82,51.25,51.55,51.79,52.02,52.38,53.00,53.54,53.92,54.17,54.32,54.39,54.41,54.37,54.30,54.23,54.59,54.88,55.05,55.12,55.12,55.12,55.09,55.01,54.94,55.00,55.26,55.64,56.02,56.41,56.51,56.31,55.84,55.30,54.56,53.67,52.64,51.51,51.96,52.51,53.10,53.75,53.98,54.21,54.29,54.10,53.41,52.65,51.87,51.12,50.42,48.67,46.48,45.03,44.91,44.90,44.84,44.80,44.80,44.80,44.87,44.90,44.90,44.95,45.85,46.83,47.93,49.14,50.23,51.24,52.25,53.23,54.15,54.15,53.40,52.34,51.30,50.01,48.89,47.81,46.87,46.42,46.54,46.93,47.51,48.15,47.79,47.71,47.76,47.97,48.75,49.49,50.39,51.61,53.31,54.77,55.70,56.30,56.67,56.35,57.75,59.78,61.93,63.73,64.36,64.56,64.42,64.02,63.53,62.87,62.17,61.49,60.87,60.30,59.31,57.89,56.20,54.15
114.02,113.32,112.57,111.50,109.00,104.60,100.78,98.10,96.25,94.44,92.91,91.68,90.78,90.39,90.07,89.37,88.14,86.41,84.78,83.84,83.58,83.73,84.11,84.41,84.27,83.53,82.58,81.12,78.88,75.89,72.47,69.38,66.25,63.03,59.84,59.22,58.52,58.06,58.03,58.59,59.18,60.40,62.62,66.25,70.80,76.73,81.97,85.11,87.15,87.08,86.33,85.45,84.72,85.65,87.11,88.55,89.38,88.18,85.10,81.74,79.03,77.54,77.23,76.76,75.43,72.50,70.50,70.84,72.82,75.69,78.70,81.74,84.57,86.36,85.04,82.64,80.93,80.17,80.38,80.02,79.93,79.63,78.96,78.26,77.63,77.16,76.62,75.56,74.88,73.72,72.10,70.04,67.49,65.03,62.89,61.24,60.29,59.66,59.39,59.67,60.75,62.55,63.79,63.84,62.50,60.42,59.16,58.73,59.01,59.81,60.41,60.72,60.82,60.79,60.69,60.44,59.86,58.78,56.97,55.01,53.03,50.96,48.72,46.35,45.68,45.88,46.41,47.18,47.95,47.99,47.37,46.60,45.85,45.60,46.22,47.89,49.51,50.23,50.64,50.97,51.18,51.36,51.67,52.12,52.74,53.28,53.80,54.21,54.44,54.52,54.58,54.64,54.73,54.86,55.18,55.45,55.63,55.70,55.70,55.70,55.69,55.65,55.57,55.68,55.87,56.15,56.53,56.92,56.85,56.46,55.90,55.36,54.63,53.79,53.02,52.68,53.27,53.85,54.34,54.71,54.84,54.92,54.91,54.70,54.16,53.37,52.52,51.67,50.87,49.81,48.10,46.39,45.20,44.95,44.88,44.84,44.80,44.80,44.82,44.87,44.90,44.92,45.23,45.95,46.98,48.19,49.33,50.39,51.39,52.32,53.19,53.00,52.18,51.09,50.00,49.05,48.07,47.07,46.26,46.20,46.34,46.58,46.90,47.29,47.67,48.04,48.43,48.96,49.94,51.47,53.12,54.80,56.50,57.82,58.67,59.08,59.08,58.56,59.00,60.53,62.89,65.28,65.92,65.97,65.62,64.95,63.82,62.67,61.74,61.10,60.43,57.77,55.73,54.38,52.94,51.52
116.18,115.71,114.89,113.63,111.42,106.92,102.23,98.34,96.21,94.03,92.12,90.60,89.57,89.18,88.76,88.02,86.92,85.79,84.89,84.70,85.05,85.49,85.29,84.96,84.25,83.05,81.89,80.19,77.73,74.60,71.17,68.14,65.08,62.16,59.65,58.98,58.23,57.69,57.56,58.18,58.77,59.61,61.28,64.61,68.85,74.98,80.44,83.41,84.63,84.08,83.11,82.32,82.15,83.42,84.99,86.58,87.87,86.36,83.32,80.05,77.31,75.63,74.83,73.81,71.99,68.76,67.54,68.81,71.45,74.50,77.54,80.54,83.31,85.29,85.14,83.71,82.59,82.05,82.18,81.80,81.50,81.12,80.63,80.25,79.44,78.23,76.70,75.01,74.00,72.69,71.05,69.05,66.40,63.75,61.45,59.71,58.75,58.08,58.08,58.76,60.03,61.91,63.14,62.99,61.35,59.50,58.29,57.79,57.99,58.82,59.40,59.78,59.96,59.97,59.87,59.56,58.87,57.72,56.02,54.15,52.25,50.34,48.42,46.22,46.05,46.55,46.98,47.63,48.23,48.13,47.44,46.66,45.87,45.55,46.11,47.74,49.39,50.09,50.42,50.64,50.77,50.93,51.29,51.84,52.46,53.04,53.69,54.22,54.54,54.64,54.73,54.88,55.13,55.46,55.77,56.03,56.20,56.27,56.27,56.29,56.29,56.26,56.21,56.34,56.50,56.71,57.08,57.32,57.08,56.58,56.00,55.48,54.81,54.14,53.69,53.81,54.34,54.86,55.26,55.48,55.56,55.54,55.42,55.17,54.71,53.92,53.05,52.16,51.31,50.57,49.23,47.52,45.78,45.14,44.94,44.86,44.80,44.80,44.80,44.83,44.87,44.87,44.89,45.31,46.10,47.20,48.34,49.45,50.46,51.35,52.08,51.76,50.91,49.78,48.65,47.93,47.13,46.39,45.92,46.15,46.37,46.63,46.94,47.35,48.08,48.70,49.45,50.47,51.86,53.85,55.89,57.83,59.58,60.87,61.72,62.08,61.91,61.20,61.16,62.33,64.53,66.85,67.42,67.18,66.45,65.47,64.01,62.58,61.43,60.39,58.26,54.71,52.53,51.58,50.64,49.84
118.46,118.11,117.14,115.45,113.00,109.02,103.87,98.83,96.60,94.37,92.15,90.24,88.91,88.17,87.37,86.63,86.07,85.98,86.16,86.43,86.76,87.15,85.73,84.13,82.81,81.97,80.81,78.62,75.93,72.90,69.56,66.73,63.84,61.24,59.39,58.62,57.85,57.26,57.05,57.66,58.22,58.87,60.10,62.64,66.87,72.69,78.08,81.41,81.79,80.88,79.74,79.04,79.67,81.13,82.63,84.16,85.65,84.53,82.07,78.86,75.62,74.13,72.59,70.94,69.02,66.63,65.86,67.71,70.71,73.66,76.60,79.54,82.21,84.18,84.52,84.63,84.09,83.36,83.01,82.63,82.04,81.46,80.99,80.46,79.17,77.16,74.83,72.84,72.16,71.20,69.83,67.95,65.26,62.56,60.31,58.64,57.43,56.69,57.10,58.31,59.77,61.70,62.69,62.22,60.37,58.88,57.55,56.93,57.04,57.68,58.16,58.56,58.83,58.88,58.73,58.17,57.41,56.41,54.85,53.09,51.26,49.64,48.56,47.10,47.10,47.58,47.97,48.37,48.60,48.27,47.50,46.73,45.88,45.45,45.86,47.36,49.06,49.84,50.16,50.25,50.33,50.48,50.91,51.52,52.14,52.82,53.57,54.20,54.61,54.76,54.85,55.09,55.50,56.02,56.34,56.60,56.78,56.85,56.85,56.91,56.91,56.85,56.84,56.98,57.14,57.34,57.65,57.60,57.20,56.67,56.13,55.66,55.13,54.76,54.67,54.89,55.15,55.50,55.83,56.05,56.13,56.04,55.82,55.49,55.03,54.29,53.46,52.61,51.76,50.92,49.83,48.40,46.68,45.49,45.04,44.86,44.80,44.80,44.80,44.80,44.81,44.81,44.88,44.93,45.33,46.17,47.26,48.41,49.47,50.32,50.81,50.43,49.56,48.42,47.26,46.63,46.05,45.79,45.89,46.26,46.64,47.10,47.70,48.43,49.06,49.73,50.85,52.56,54.59,56.66,58.71,60.67,62.51,63.90,64.86,65.32,65.22,64.31,64.31,65.27,66.91,68.45,68.86,68.19,66.90,65.54,64.07,62.61,61.23,59.35,54.21,51.09,49.75,49.56,49.41,49.20
121.57,120.86,119.38,117.12,114.06,110.06,104.68,99.24,97.04,94.89,92.74,90.78,89.21,88.48,88.18,87.98,87.81,87.81,87.80,87.77,87.35,86.02,84.30,82.54,80.97,79.62,77.65,75.16,72.62,70.09,67.40,64.79,62.24,60.19,59.07,58.30,57.53,56.85,56.45,56.94,57.51,58.21,59.20,60.73,64.81,70.16,75.14,78.37,78.68,77.85,76.81,76.28,77.43,79.28,80.99,82.57,84.01,83.20,80.96,77.70,74.15,72.46,70.67,68.60,66.26,63.77,63.96,66.50,69.87,72.88,75.77,78.69,81.13,82.60,82.31,82.08,81.76,81.45,81.29,81.12,80.87,80.52,80.04,79.23,77.16,74.73,72.40,70.66,70.06,69.48,68.49,66.77,64.29,61.99,59.98,58.26,56.75,55.86,56.45,57.97,59.58,61.42,62.39,61.94,60.11,58.65,57.27,56.17,55.65,56.18,56.65,57.03,57.25,57.27,57.12,56.57,55.78,54.79,53.61,51.89,50.56,49.70,49.23,48.42,48.36,48.54,48.66,48.77,48.77,48.34,47.55,46.73,45.89,45.42,45.70,46.97,48.53,49.16,49.40,49.54,49.75,50.20,50.78,51.47,52.23,52.97,53.76,54.39,54.74,54.89,55.21,55.62,56.11,56.60,56.88,57.15,57.35,57.43,57.43,57.48,57.49,57.43,57.48,57.62,57.78,57.95,58.17,57.86,57.45,57.00,56.56,56.14,55.73,55.48,55.44,55.63,55.86,56.13,56.41,56.61,56.42,56.12,55.80,55.44,54.89,53.87,52.86,51.95,51.10,50.25,49.09,47.74,46.37,45.31,44.98,44.88,44.85,44.80,44.80,44.80,44.80,44.80,44.83,44.84,45.01,45.42,46.00,47.05,48.05,48.78,49.06,48.46,47.58,46.64,45.84,45.62,45.88,46.30,46.77,47.20,47.68,48.22,48.86,49.60,50.67,51.90,53.45,55.34,57.24,59.15,61.06,62.76,63.89,63.99,64.27,64.87,65.78,66.38,67.12,67.96,68.80,69.41,68.83,67.33,65.51,64.02,62.51,60.66,58.36,55.47,51.60,49.89,49.12,48.84,48.72,48.65
124.67,123.25,121.13,118.36,114.82,110.83,105.47,99.94,97.59,95.50,93.49,91.57,89.82,89.14,89.27,89.51,89.59,89.57,89.24,88.61,87.27,84.67,82.57,80.56,78.60,76.61,74.05,71.58,69.37,67.32,65.08,62.77,60.73,59.29,58.66,57.93,57.19,56.48,55.97,56.18,56.76,57.50,58.34,59.24,62.57,67.48,72.20,75.28,75.56,74.80,73.87,73.52,74.99,77.16,79.18,80.94,82.35,81.68,79.55,76.34,72.72,70.59,68.54,66.19,63.65,61.27,62.33,65.47,69.16,72.23,74.97,77.85,79.98,80.87,79.99,79.41,79.11,79.00,78.95,78.95,78.97,78.87,78.55,77.68,75.14,72.46,70.14,68.51,67.84,67.51,66.96,65.74,63.56,61.58,59.71,57.91,56.09,55.04,55.73,57.51,59.38,61.11,62.11,61.77,60.06,58.63,57.19,55.70,54.60,54.66,55.10,55.44,55.61,55.59,55.45,54.95,54.16,53.18,52.23,50.83,50.03,49.73,49.65,49.31,49.21,49.16,49.06,48.97,48.77,48.27,47.53,46.73,45.90,45.41,45.57,46.59,47.88,48.48,48.85,49.18,49.56,50.22,50.93,51.68,52.53,53.25,54.02,54.62,54.96,55.19,55.66,56.19,56.71,57.18,57.44,57.71,57.93,58.00,58.02,58.07,58.07,58.03,58.09,58.25,58.39,58.51,58.63,58.25,57.87,57.48,57.10,56.71,56.40,56.22,56.18,56.34,56.56,56.78,56.94,56.97,56.52,56.06,55.66,55.26,54.52,53.29,52.13,51.13,50.24,49.36,48.13,46.87,45.83,45.11,44.93,44.89,44.86,44.80,44.80,44.80,44.80,44.80,44.80,44.79,44.81,44.91,45.11,45.87,46.60,47.11,47.23,46.64,45.95,45.33,44.93,45.18,46.07,46.99,47.72,48.22,48.78,49.39,50.11,50.99,52.41,54.06,55.90,57.85,59.57,61.25,62.65,63.55,63.74,62.91,62.66,63.36,65.14,67.16,68.82,69.75,69.94,69.66,68.25,66.09,63.82,62.08,60.17,57.82,55.03,52.02,49.76,49.11,48.68,48.30,48.13,48.14
127.59,124.90,121.95,118.85,115.11,111.29,106.38,101.22,98.32,96.25,94.45,92.68,90.84,90.22,90.50,90.88,90.98,90.92,90.24,88.58,86.14,83.39,80.61,77.97,75.32,72.58,69.96,68.09,66.50,64.83,62.59,60.69,59.48,58.71,58.09,57.45,56.81,56.21,55.70,55.42,55.98,56.68,57.49,58.54,60.02,64.55,69.37,72.27,72.44,71.66,70.84,70.64,72.11,74.47,76.90,79.05,80.55,79.73,77.57,74.61,71.32,68.40,65.98,63.56,61.29,59.59,61.25,64.81,68.73,71.81,74.20,76.98,78.71,78.95,77.78,77.13,76.56,76.14,75.95,75.95,76.00,76.13,76.24,75.77,73.37,70.70,68.28,66.41,65.44,65.12,65.12,65.01,63.22,61.32,59.43,57.52,55.36,54.14,54.84,56.84,59.18,60.76,61.84,61.70,60.27,58.93,57.38,55.75,54.24,53.17,53.51,53.81,53.93,53.87,53.78,53.32,52.58,51.63,50.64,50.08,49.76,49.60,49.52,49.34,49.24,49.14,48.99,48.85,48.47,47.97,47.38,46.73,45.95,45.44,45.48,46.23,47.03,47.91,48.77,49.54,50.12,50.80,51.53,52.32,53.17,53.74,54.32,54.87,55.37,55.79,56.26,56.77,57.29,57.75,58.06,58.32,58.50,58.58,58.65,58.67,58.67,58.66,58.67,58.87,58.97,59.00,59.02,58.89,58.57,58.19,57.80,57.41,57.15,56.96,56.89,57.04,57.27,57.46,57.41,56.96,56.31,55.80,55.38,54.88,53.79,52.57,51.34,50.21,49.22,48.24,47.02,45.87,45.06,44.94,44.91,44.86,44.81,44.80,44.80,44.80,44.80,44.80,44.80,44.75,44.75,44.83,44.93,45.07,45.20,45.29,45.31,45.21,45.09,44.98,44.98,45.72,46.79,47.80,48.64,49.24,49.84,50.54,51.48,52.78,54.31,56.01,57.86,59.74,61.32,62.72,62.88,62.06,61.01,60.16,59.81,60.56,62.74,65.70,68.50,69.91,69.77,68.70,66.91,64.50,61.91,59.61,56.67,53.64,51.29,49.89,49.11,48.66,48.23,47.84,47.62,47.68
128.50,125.28,121.95,118.61,114.86,111.08,106.73,102.37,99.67,97.76,96.06,94.45,92.93,92.42,92.39,92.45,92.32,91.55,90.53,88.34,85.27,82.07,78.82,75.77,72.81,69.90,67.24,65.42,63.94,62.54,60.95,59.84,59.15,58.69,58.23,57.72,57.22,56.72,56.18,55.45,55.32,55.79,56.69,57.73,58.78,61.55,65.14,68.51,69.67,69.27,68.64,68.63,70.37,72.86,75.26,77.42,79.15,77.91,75.75,73.07,70.07,66.75,64.06,61.76,59.92,58.72,60.67,64.37,68.38,71.56,73.76,75.87,76.80,76.39,75.19,74.67,74.21,73.73,73.24,73.00,73.06,73.40,73.92,74.07,72.18,69.75,67.18,64.67,63.24,62.69,62.77,63.12,62.31,60.61,58.55,56.35,54.14,53.24,54.35,56.70,59.14,60.69,61.69,61.61,60.38,59.18,57.66,55.99,54.26,52.56,52.12,52.13,52.23,52.19,52.07,51.62,51.10,50.58,50.01,49.78,49.61,49.48,49.40,49.24,49.12,49.00,48.85,48.50,48.06,47.57,47.05,46.47,45.86,45.42,45.46,46.19,47.39,48.50,49.41,50.16,50.97,51.64,52.41,53.25,54.06,54.56,55.01,55.46,55.97,56.47,56.94,57.40,57.87,58.38,58.70,58.93,59.08,59.16,59.23,59.25,59.25,59.26,59.30,59.37,59.38,59.35,59.35,59.31,59.16,58.89,58.51,58.16,57.88,57.69,57.63,57.74,57.86,57.72,57.32,56.66,56.04,55.51,54.76,53.67,52.40,51.19,50.11,49.14,48.25,47.21,46.36,45.68,45.17,44.94,44.90,44.88,44.85,44.85,44.85,44.83,44.81,44.85,44.85,44.79,44.75,44.76,44.79,44.83,44.85,44.85,44.85,44.85,44.88,45.06,45.51,46.56,47.66,48.70,49.63,50.40,51.10,51.89,52.95,54.42,55.89,57.68,59.39,60.80,61.73,61.98,61.38,60.35,59.66,58.93,58.62,59.34,61.45,64.42,67.30,68.60,68.18,66.94,65.10,62.82,60.04,56.71,53.35,51.14,49.77,48.98,48.56,48.17,47.78,47.53,47.65,47.88
128.81,125.27,121.72,118.21,114.55,110.91,107.19,103.73,101.38,99.55,97.86,96.35,95.09,94.50,93.99,93.58,93.08,91.70,90.30,87.75,84.30,80.71,77.16,73.80,70.69,67.88,65.54,64.02,62.74,61.60,60.86,60.12,59.52,59.05,58.68,58.30,57.90,57.46,56.87,55.78,54.88,54.96,55.81,56.83,57.87,58.98,61.14,64.67,67.05,67.10,66.75,67.05,69.08,71.61,73.88,75.95,77.83,76.29,74.19,71.74,68.97,65.38,62.45,60.32,58.93,58.09,60.22,63.99,68.04,71.31,73.33,74.60,74.68,73.71,72.51,72.12,71.80,71.35,70.59,70.03,70.07,70.62,71.51,72.20,70.94,68.85,66.22,63.19,61.32,60.48,60.47,61.00,60.97,59.48,57.30,54.86,52.67,52.22,53.81,56.51,59.04,60.60,61.53,61.48,60.48,59.47,57.95,56.22,54.33,52.24,50.98,50.64,50.70,50.69,50.55,50.14,49.87,49.79,49.64,49.56,49.44,49.32,49.25,49.11,48.96,48.82,48.63,48.11,47.65,47.20,46.72,46.19,45.74,45.37,45.47,46.36,48.10,49.35,50.18,50.80,51.81,52.52,53.35,54.21,54.93,55.40,55.76,56.14,56.61,57.15,57.64,58.07,58.51,59.03,59.38,59.61,59.76,59.87,59.95,59.99,60.01,60.02,60.07,59.98,59.87,59.78,59.77,59.76,59.75,59.59,59.24,58.91,58.61,58.43,58.37,58.36,58.26,57.77,57.05,56.30,55.72,55.06,53.90,52.27,50.93,49.82,48.91,48.15,47.50,46.61,46.27,46.12,45.92,45.52,45.41,45.28,45.07,44.91,44.90,44.86,44.84,44.90,44.93,44.87,44.78,44.73,44.72,44.76,44.79,44.79,44.79,44.81,44.88,45.28,46.17,47.41,48.55,49.61,50.61,51.58,52.39,53.30,54.46,56.00,57.38,59.11,60.55,61.38,61.53,60.63,59.54,58.73,58.70,58.22,58.03,58.68,60.55,63.27,65.74,66.68,66.07,64.90,63.16,60.93,57.87,53.72,50.58,49.43,48.94,48.43,48.03,47.69,47.44,47.42,47.89,48.28
128.96,125.20,121.51,117.98,114.51,111.48,108.61,105.95,103.79,101.56,99.71,98.10,96.51,94.98,93.91,92.92,91.87,90.88,88.89,86.05,82.69,79.30,75.75,72.29,69.21,66.85,66.19,66.35,66.02,65.31,65.41,63.20,61.41,60.23,59.58,59.25,58.79,58.25,57.57,56.43,55.14,54.43,54.56,55.68,56.87,57.99,59.35,61.26,64.63,64.98,65.16,66.18,68.31,70.62,72.83,74.83,76.44,75.30,73.37,70.98,68.17,64.44,61.32,59.36,58.30,57.51,59.79,63.60,67.66,70.90,72.62,73.00,72.44,71.24,69.84,69.39,69.05,68.61,67.89,66.89,66.88,67.65,68.82,69.46,68.95,67.42,65.07,62.28,60.19,59.06,58.82,59.17,58.65,57.29,55.35,53.05,50.76,50.70,52.65,55.68,58.60,60.20,61.14,61.27,60.65,59.93,58.21,56.24,54.20,52.12,50.52,49.90,49.81,49.80,49.71,49.55,49.45,49.41,49.32,49.24,49.15,49.08,49.06,48.97,48.83,48.58,48.20,47.78,47.37,46.97,46.54,46.06,45.66,45.28,45.55,46.95,48.89,50.03,50.74,51.32,52.32,53.30,54.21,54.98,55.51,55.97,56.37,56.78,57.25,57.79,58.32,58.83,59.32,59.74,60.22,60.57,60.84,61.09,61.16,61.32,61.42,61.41,61.36,61.13,60.84,60.60,60.54,60.48,60.41,60.29,60.06,59.63,59.35,59.19,59.04,58.63,58.10,57.42,56.68,55.97,55.25,54.02,52.51,50.97,49.88,49.10,48.27,47.61,47.50,47.50,47.76,48.01,48.06,47.96,47.74,47.00,45.86,44.96,44.90,44.89,44.88,44.91,45.09,44.98,44.87,44.85,44.79,44.74,44.72,44.72,44.72,44.84,45.02,45.61,46.81,48.05,49.31,50.47,51.55,52.72,53.63,54.70,56.00,57.53,58.86,60.02,60.82,61.07,60.48,59.26,58.18,57.58,57.80,57.91,57.93,58.46,59.95,62.43,63.73,64.02,63.51,62.64,61.19,58.36,54.63,50.79,49.52,48.85,48.38,47.91,47.46,47.33,47.49,47.87,48.34,48.72
129.25,125.21,121.53,118.14,115.04,112.47,110.02,107.52,104.95,102.39,100.08,97.92,95.77,93.65,92.35,91.28,90.14,88.71,86.12,83.26,80.25,77.06,73.48,70.49,68.46,67.65,68.19,69.23,69.81,69.94,70.33,68.64,66.97,65.52,64.30,62.53,60.74,59.30,58.26,57.04,55.63,54.35,53.76,54.66,55.89,57.02,58.10,59.34,61.91,62.73,63.71,65.39,67.61,69.85,71.88,73.67,75.14,74.52,72.92,70.67,67.76,63.36,60.43,58.68,57.71,56.94,59.40,63.04,66.76,69.66,71.25,71.11,70.03,68.42,66.76,66.30,65.97,65.52,64.78,63.66,63.51,64.19,65.43,66.37,66.76,65.82,63.77,61.30,59.35,57.98,57.32,57.26,56.30,54.92,53.21,51.40,49.98,50.26,52.24,55.15,57.99,59.84,60.75,60.96,60.68,60.13,58.45,56.38,54.17,51.95,50.33,49.60,49.36,49.20,49.16,49.09,49.03,49.00,48.95,48.88,48.80,48.74,48.71,48.66,48.56,48.39,48.14,47.78,47.37,46.97,46.57,46.14,45.76,45.37,45.62,47.05,49.35,50.49,51.18,51.83,52.83,53.88,54.75,55.44,56.00,56.53,56.98,57.42,57.89,58.43,58.97,59.60,60.26,60.81,61.38,61.80,62.16,62.51,62.62,62.85,63.00,63.03,63.02,62.77,62.39,61.99,61.72,61.64,61.57,61.43,61.18,60.72,60.15,59.66,59.18,58.45,57.66,56.90,56.16,55.43,54.52,53.10,51.55,50.17,49.29,48.70,48.20,47.94,48.21,48.65,49.23,49.70,49.90,49.96,49.75,49.06,48.04,47.18,46.39,45.95,45.78,45.79,45.92,45.58,45.17,44.89,44.85,44.77,44.72,44.70,44.70,44.85,45.13,45.87,47.20,48.47,49.86,51.11,52.23,53.37,54.34,55.38,56.57,57.97,59.22,60.10,60.45,60.17,59.09,57.72,56.75,56.39,56.70,57.26,57.42,57.81,58.94,60.85,61.63,61.63,61.07,60.23,58.70,55.51,51.90,49.44,48.82,48.27,47.77,47.36,47.22,47.39,47.80,48.33,48.82,49.21
129.59,125.27,121.63,118.40,115.68,113.46,111.15,108.49,105.26,102.43,99.53,96.62,93.83,91.40,90.01,89.04,87.95,85.70,82.65,79.95,77.40,74.40,70.95,68.86,68.41,69.55,70.95,72.41,73.81,74.91,75.29,75.01,74.02,72.49,70.57,66.84,63.24,60.56,58.98,57.63,56.22,54.51,53.25,53.71,54.93,56.06,57.14,58.20,59.21,60.50,62.29,64.50,66.80,69.09,70.94,72.49,73.88,73.85,72.63,70.57,67.54,62.31,59.72,58.15,57.14,56.40,59.03,62.37,65.59,68.04,69.59,69.11,67.55,65.47,63.52,63.06,62.77,62.33,61.58,60.54,60.21,60.66,61.82,63.18,64.42,64.09,62.39,60.27,58.64,57.07,55.93,55.34,54.04,52.56,51.10,49.95,49.81,50.39,52.23,54.79,57.28,59.43,60.32,60.60,60.60,60.15,58.64,56.55,54.17,51.80,50.29,49.54,49.15,48.79,48.77,48.70,48.63,48.57,48.57,48.50,48.42,48.34,48.27,48.27,48.21,48.20,48.23,47.94,47.52,47.11,46.72,46.33,45.95,45.56,45.68,46.81,49.58,50.79,51.52,52.27,53.26,54.26,55.04,55.68,56.36,56.98,57.50,57.98,58.48,59.04,59.61,60.38,61.29,62.07,62.70,63.18,63.60,64.04,64.20,64.49,64.69,64.77,64.86,64.67,64.25,63.70,63.16,63.06,62.97,62.79,62.43,61.91,60.91,59.94,59.04,58.03,57.09,56.30,55.56,54.75,53.67,52.24,50.83,49.67,49.00,48.54,48.46,48.74,49.31,49.96,50.70,51.27,51.55,51.70,51.53,51.23,50.84,50.39,48.67,47.62,47.19,47.14,47.09,46.43,45.61,44.95,44.91,44.84,44.76,44.70,44.70,44.85,45.20,46.02,47.40,48.71,50.20,51.54,52.66,53.66,54.65,55.53,56.49,57.72,58.88,59.60,59.63,58.89,57.53,56.08,55.29,55.18,55.55,56.51,56.80,57.07,57.83,58.94,59.49,59.36,58.65,57.71,55.94,52.64,49.63,48.93,48.31,47.69,47.16,46.87,47.20,47.71,48.25,48.80,49.35,49.78
129.64,125.26,121.33,117.55,114.63,112.09,109.56,106.87,103.78,100.73,97.55,94.32,91.24,89.36,87.49,85.70,83.91,81.62,79.29,77.11,74.83,72.04,70.55,70.47,71.36,72.82,74.32,75.88,77.35,78.47,78.75,78.33,76.84,74.67,72.26,69.12,65.63,62.48,60.01,58.32,56.56,54.70,53.20,52.83,53.94,55.03,56.09,57.12,58.12,59.18,60.49,62.16,64.32,67.05,69.49,71.41,72.62,73.03,72.04,70.10,67.20,62.27,59.55,57.75,56.65,56.20,58.79,61.61,64.37,66.83,68.49,67.47,65.44,63.11,60.86,60.29,60.11,59.97,59.62,59.02,58.73,58.95,59.73,60.80,61.82,61.90,60.98,59.30,57.73,56.21,54.87,53.75,52.60,51.35,50.33,49.72,49.73,50.73,52.41,54.44,56.45,58.39,59.59,60.17,60.24,59.94,58.45,56.36,54.05,51.98,50.39,49.57,49.13,48.71,48.44,48.32,48.24,48.18,48.18,48.11,48.03,47.96,47.88,47.88,47.83,47.81,47.88,47.84,47.62,47.30,46.91,46.53,46.14,45.72,45.46,45.78,49.29,50.66,51.37,52.05,52.89,53.83,54.68,55.35,55.78,56.45,57.09,57.78,58.57,59.38,60.24,61.25,62.33,63.21,63.95,64.52,65.00,65.45,65.71,66.10,66.38,66.52,66.70,66.56,66.11,65.49,64.95,64.55,64.34,64.05,63.44,62.22,60.98,59.86,58.84,57.78,56.74,55.79,54.85,53.86,52.78,51.38,50.23,49.53,49.22,49.10,49.19,49.61,50.52,51.57,52.39,52.87,53.02,53.12,52.90,52.65,52.40,52.10,51.00,50.05,49.29,48.64,48.05,47.22,46.33,45.51,44.97,44.88,44.79,44.70,44.70,44.80,44.97,45.60,46.88,48.20,49.61,50.88,51.95,52.90,53.70,54.32,55.07,56.25,57.41,57.80,57.56,56.84,55.88,54.48,53.83,54.07,55.03,56.48,57.33,57.77,57.95,57.62,57.50,56.95,55.93,54.85,53.20,51.04,49.16,48.42,47.74,47.11,46.85,47.09,47.62,48.20,48.76,49.33,49.98,50.95
129.38,124.90,120.72,116.52,113.10,109.94,107.00,104.25,101.68,98.84,95.58,92.26,89.30,87.57,85.59,83.45,81.18,78.81,77.01,75.59,74.31,72.83,72.62,73.36,74.68,76.20,77.54,78.85,80.01,80.83,80.93,80.24,78.46,75.97,73.23,70.34,67.07,63.84,60.95,58.81,56.79,54.78,53.03,51.98,52.90,53.92,54.96,55.95,56.85,57.80,58.85,60.14,61.86,64.53,67.27,69.67,71.35,72.02,71.39,69.54,66.44,61.68,59.01,57.10,55.99,56.10,58.60,61.09,63.55,65.89,67.26,65.89,63.66,61.33,59.30,58.39,58.14,58.13,57.91,57.58,57.30,57.43,58.08,58.88,59.65,59.85,59.32,58.06,56.67,55.21,53.78,52.47,51.44,50.47,49.83,49.59,49.72,50.98,52.56,54.27,55.95,57.64,58.81,59.26,59.01,58.67,57.53,55.92,54.05,52.17,50.48,49.61,49.13,48.66,48.23,47.99,47.86,47.80,47.80,47.73,47.65,47.57,47.50,47.50,47.44,47.43,47.51,47.59,47.53,47.37,47.10,46.68,46.30,45.88,45.45,45.30,48.35,49.99,50.88,51.43,52.12,52.82,53.59,54.32,54.87,55.78,56.55,57.36,58.31,59.42,60.65,61.99,63.29,64.32,65.13,65.81,66.38,66.87,67.23,67.69,68.05,68.28,68.49,68.37,67.93,67.30,66.71,66.09,65.56,64.86,63.81,62.24,60.84,59.61,58.50,57.39,56.31,55.24,54.17,53.07,52.15,51.17,50.41,49.98,49.82,49.99,50.33,50.98,52.14,53.20,53.89,54.23,54.28,54.30,54.12,53.94,53.80,53.62,52.96,52.03,50.98,49.95,48.97,48.03,47.10,46.16,45.34,45.01,44.83,44.73,44.70,44.75,44.82,45.23,46.17,47.48,48.84,50.08,51.16,52.03,52.69,53.12,53.69,54.77,55.67,55.79,55.42,54.73,53.99,52.86,52.66,53.41,54.78,56.45,57.77,58.60,58.83,58.06,57.20,56.06,54.61,52.96,51.28,49.82,48.67,47.90,47.18,46.79,46.89,47.47,48.11,48.71,49.32,50.01,50.89,52.22
128.83,124.22,119.85,115.34,111.13,107.10,103.56,100.73,99.00,96.77,93.63,90.40,87.94,86.02,84.26,82.16,79.63,77.16,75.70,75.25,75.62,76.46,76.90,77.43,78.33,79.67,80.61,81.37,81.89,82.12,81.97,80.90,79.00,76.47,73.55,70.61,67.66,64.72,61.82,59.14,56.91,54.75,52.75,51.15,51.83,52.74,53.75,54.72,55.42,56.37,57.37,58.39,59.42,61.58,64.36,67.35,70.08,70.85,70.68,68.89,65.30,60.58,58.13,56.22,55.18,56.08,58.45,60.80,63.09,65.19,65.91,64.38,62.18,60.07,58.73,57.29,56.80,56.75,56.45,56.21,55.92,56.09,56.83,57.38,57.86,57.90,57.44,56.58,55.49,54.09,52.67,51.46,50.53,49.89,49.57,49.55,49.78,51.13,52.69,54.27,55.75,57.15,57.98,57.91,57.00,56.46,55.97,55.25,54.13,52.35,50.58,49.64,49.13,48.66,48.12,47.71,47.48,47.41,47.41,47.34,47.27,47.19,47.11,47.11,47.06,47.05,47.13,47.20,47.27,47.34,47.28,46.81,46.43,46.04,45.62,45.31,46.83,48.83,50.08,50.44,50.99,51.27,51.83,52.67,53.66,54.96,55.88,56.72,57.71,59.17,60.87,62.60,64.17,65.40,66.27,67.06,67.74,68.28,68.74,69.26,69.72,70.06,70.22,70.10,69.71,69.12,68.43,67.66,66.64,65.28,63.61,61.99,60.50,59.20,58.04,56.88,55.80,54.67,53.51,52.39,51.76,51.53,51.28,50.94,50.78,51.16,51.84,52.82,54.12,54.83,55.21,55.36,55.35,55.28,55.20,55.12,55.04,54.95,54.58,53.60,52.32,51.09,49.86,48.87,47.90,46.91,45.99,45.22,44.85,44.78,44.70,44.70,44.76,44.91,45.28,46.59,47.90,49.18,50.31,51.08,51.64,51.94,52.37,53.27,53.68,53.61,53.20,52.57,51.87,51.23,51.73,53.16,54.77,56.40,58.11,59.56,60.41,60.08,58.43,56.53,54.53,51.94,50.11,48.95,48.16,47.39,46.62,46.69,47.23,47.99,48.68,49.25,49.91,50.81,52.03,53.56
128.55,124.28,120.03,115.40,110.91,105.79,101.64,98.86,97.35,95.02,92.39,89.75,87.38,85.17,83.13,80.95,78.82,78.06,77.86,78.25,79.04,79.92,80.15,80.46,80.98,81.76,82.54,83.29,83.21,82.39,81.62,80.62,78.65,76.02,73.13,70.24,67.32,64.38,61.45,58.56,56.22,53.96,51.98,50.69,50.89,51.58,52.44,53.21,54.00,54.96,55.99,57.04,58.09,59.54,61.34,63.68,66.62,68.30,68.52,66.94,63.65,59.70,57.32,55.31,54.34,55.88,58.26,60.60,62.72,64.39,64.71,63.17,61.26,59.49,57.99,56.51,55.68,55.30,55.04,54.81,54.55,54.56,54.94,55.48,55.91,55.92,55.49,54.74,53.85,52.77,51.62,50.53,49.98,49.67,49.52,49.59,50.01,51.77,53.38,54.81,56.23,57.52,57.45,56.48,55.08,54.16,53.71,53.39,52.86,51.61,50.31,49.51,49.00,48.54,48.04,47.60,47.25,47.03,47.03,46.96,46.88,46.81,46.73,46.73,46.67,46.66,46.74,46.82,46.90,47.03,47.11,46.93,46.55,46.17,45.77,45.41,45.79,47.00,48.04,48.66,49.39,49.58,49.99,50.63,51.41,53.20,54.77,56.22,57.65,59.26,61.05,62.83,64.53,66.10,67.26,68.18,68.97,69.69,70.30,70.75,71.07,71.26,71.23,71.00,70.55,69.93,69.23,68.22,67.01,65.56,63.90,62.23,60.73,59.10,57.46,56.25,55.25,54.22,53.36,52.89,52.84,52.92,52.84,52.57,52.42,52.77,53.47,54.33,55.12,55.53,55.82,55.93,55.88,55.81,55.69,55.59,55.49,55.32,55.03,54.54,53.61,52.05,50.67,49.53,48.53,47.63,46.75,45.88,45.25,44.89,44.76,44.67,44.66,44.75,44.98,45.58,46.76,48.03,49.19,50.05,50.57,50.85,51.14,51.66,51.62,51.40,51.05,50.61,50.11,50.58,51.94,53.78,55.45,57.17,58.93,60.36,61.11,60.47,58.19,55.62,53.16,50.72,49.42,48.42,47.59,46.83,46.49,46.90,47.62,48.39,49.18,49.96,50.90,52.00,53.24,54.59
128.22,124.35,120.47,116.18,111.62,106.03,101.31,98.05,96.45,94.03,91.68,89.39,87.09,84.72,82.62,80.73,79.36,79.88,80.68,81.58,82.45,83.14,83.07,83.18,83.45,83.85,84.37,84.56,83.78,82.26,81.10,79.86,77.76,75.12,72.35,69.43,66.41,63.40,60.42,57.47,54.95,52.76,51.08,50.23,50.17,50.60,51.18,51.70,52.55,53.53,54.56,55.62,56.68,57.69,58.84,60.52,63.07,65.23,65.72,64.46,61.74,58.77,56.59,54.54,53.60,55.53,57.96,60.24,62.18,63.56,63.69,62.27,60.59,59.03,57.41,55.84,54.64,53.90,53.63,53.40,53.17,53.07,53.18,53.58,53.95,53.93,53.51,52.85,52.14,51.40,50.63,49.88,49.67,49.60,49.65,49.95,50.79,52.80,54.49,55.89,57.19,58.19,57.29,55.52,53.58,52.11,51.68,51.60,51.45,50.74,49.90,49.26,48.75,48.28,47.82,47.37,46.98,46.69,46.65,46.58,46.50,46.42,46.35,46.35,46.29,46.27,46.33,46.41,46.50,46.65,46.80,46.82,46.58,46.30,45.96,45.58,45.27,45.76,46.38,46.95,47.66,47.98,48.45,49.08,49.77,51.84,53.95,55.94,57.73,59.49,61.36,63.20,64.99,66.74,68.19,69.32,70.26,71.16,71.83,72.21,72.39,72.39,72.18,71.81,71.26,70.58,69.82,68.64,67.30,65.81,64.20,62.58,61.12,59.31,57.29,55.66,54.83,54.09,53.64,53.68,54.03,54.29,54.31,54.11,53.98,54.23,54.81,55.48,55.93,56.18,56.40,56.48,56.36,56.23,56.04,55.89,55.75,55.51,55.26,55.04,54.35,52.78,51.33,50.10,49.07,48.21,47.34,46.43,45.66,45.10,44.83,44.67,44.60,44.63,44.77,44.92,45.76,46.85,47.96,48.85,49.29,49.54,49.71,49.90,49.63,49.37,49.21,49.14,49.08,50.33,52.23,54.35,56.23,58.01,59.75,61.09,61.65,60.64,57.93,54.77,51.84,49.76,48.81,47.91,47.05,46.35,46.53,47.21,48.03,48.84,49.69,50.69,51.85,53.13,54.40,55.66
127.82,124.41,121.26,117.99,113.63,108.53,103.27,98.76,96.61,94.16,91.74,89.41,87.16,84.83,83.05,82.01,81.88,82.95,84.29,85.21,85.72,86.02,85.55,85.47,85.68,86.04,86.11,84.90,83.22,81.55,80.40,78.42,76.10,73.60,71.06,68.00,64.72,61.50,58.47,55.66,52.86,50.97,50.03,49.78,49.77,49.87,50.02,50.23,51.08,52.06,53.07,54.08,55.09,56.10,57.12,58.22,59.48,61.44,62.03,61.26,59.45,57.77,55.97,54.00,53.03,54.96,57.48,59.63,61.38,62.68,62.96,61.80,60.27,58.71,57.09,55.29,53.69,52.59,52.23,51.99,51.76,51.64,51.65,51.71,51.99,51.92,51.49,50.93,50.37,49.98,49.75,49.65,49.68,49.74,50.04,50.81,52.38,54.37,56.21,57.74,58.83,59.24,57.68,55.26,52.70,50.44,50.01,49.97,49.93,49.77,49.32,48.81,48.30,47.84,47.37,46.96,46.64,46.42,46.28,46.19,46.12,46.04,45.96,45.96,45.91,45.87,45.89,45.96,46.10,46.22,46.30,46.37,46.47,46.43,46.21,45.83,45.53,45.43,45.39,45.41,45.78,46.51,47.38,48.29,49.13,51.15,53.60,55.98,58.00,59.91,61.89,63.80,65.61,67.32,69.05,70.47,71.66,72.69,73.31,73.64,73.67,73.45,73.09,72.53,71.84,71.04,70.14,68.91,67.52,66.02,64.48,63.06,61.71,59.98,57.76,55.14,54.58,54.44,54.56,54.84,55.28,55.56,55.61,55.46,55.38,55.46,55.73,56.11,56.50,56.80,57.01,57.02,56.79,56.51,56.22,55.97,55.75,55.51,55.22,54.88,54.26,53.16,51.76,50.55,49.50,48.58,47.66,46.80,46.07,45.46,44.89,44.74,44.59,44.55,44.64,44.79,44.99,45.63,46.60,47.39,47.68,47.87,47.96,47.92,47.75,47.63,47.81,48.38,49.16,50.65,52.58,54.79,57.11,58.90,60.58,61.74,61.99,60.59,57.72,54.11,50.69,49.20,48.30,47.40,46.57,46.00,46.82,47.66,48.50,49.35,50.20,51.41,52.74,54.11,55.49,56.79
128.48,125.41,122.59,119.71,115.67,110.63,105.36,100.62,97.64,95.06,92.50,90.14,88.19,86.94,86.44,86.46,86.86,87.61,88.16,88.45,88.50,88.37,87.87,87.71,87.30,86.29,85.26,83.85,82.30,80.69,79.03,76.67,74.20,71.61,68.88,65.74,62.47,59.36,56.49,53.71,51.43,50.11,49.59,49.44,49.47,49.51,49.55,49.63,50.11,50.65,51.20,51.84,52.80,53.80,54.81,55.81,56.84,58.49,59.02,58.65,57.59,56.20,54.66,53.01,52.28,54.17,56.79,59.13,60.93,61.98,62.13,61.18,59.75,58.10,56.35,54.47,52.74,51.49,51.03,50.76,50.49,50.33,50.33,50.33,50.46,50.42,50.21,49.92,49.62,49.45,49.43,49.56,49.77,50.39,51.36,52.66,54.40,56.28,58.07,59.54,60.42,60.07,57.92,54.98,52.02,50.00,49.42,49.25,49.20,49.12,48.83,48.36,47.85,47.39,46.97,46.61,46.32,46.10,45.95,45.83,45.73,45.67,45.63,45.59,45.52,45.48,45.49,45.57,45.68,45.77,45.85,45.92,46.04,46.10,46.10,45.98,45.67,45.42,45.20,45.20,46.00,47.22,48.27,49.15,49.93,52.15,54.66,57.14,59.34,60.94,62.75,64.68,66.66,68.53,70.15,71.57,72.84,73.99,74.41,74.58,74.55,74.28,73.69,72.97,72.13,71.22,70.25,69.01,67.67,66.20,64.59,62.83,61.37,59.65,57.71,55.96,55.57,55.57,55.79,56.14,56.48,56.67,56.66,56.49,56.41,56.43,56.60,56.88,57.19,57.29,57.14,56.82,56.44,56.13,55.85,55.63,55.43,55.19,54.78,54.32,53.75,52.98,52.00,50.92,49.87,48.92,48.03,47.18,46.46,45.83,45.17,44.89,44.67,44.53,44.51,44.66,44.79,45.11,45.59,45.95,46.08,46.16,46.20,46.19,46.86,47.53,48.28,49.20,50.42,52.27,54.27,56.34,58.49,60.27,61.86,62.45,61.49,59.24,55.69,52.28,49.70,48.56,47.65,46.78,46.21,46.20,47.13,48.03,48.92,49.82,50.75,52.01,53.34,54.70,56.09,57.49
129.70,126.80,124.10,121.36,117.61,112.51,107.29,102.54,98.79,96.34,93.77,91.48,90.02,89.94,90.11,90.45,90.86,91.17,91.06,90.87,90.62,90.21,89.75,89.36,88.03,85.40,83.68,82.37,80.82,78.99,77.18,74.74,72.16,69.43,66.48,63.35,60.29,57.46,54.86,52.21,50.48,49.61,49.31,49.13,49.19,49.21,49.21,49.21,49.35,49.50,49.66,49.96,50.76,51.62,52.48,53.38,54.40,55.74,56.21,56.15,55.68,54.50,53.15,51.88,51.48,53.12,55.35,57.55,59.37,60.49,60.77,60.09,58.91,57.38,55.53,53.60,51.82,50.52,50.02,49.75,49.49,49.35,49.37,49.38,49.38,49.38,49.34,49.25,49.17,49.18,49.35,49.72,50.31,51.48,52.98,54.70,56.48,58.26,59.96,61.24,61.74,60.68,58.09,54.80,51.59,49.86,49.14,48.82,48.68,48.55,48.35,47.92,47.42,46.98,46.61,46.29,46.02,45.80,45.65,45.48,45.42,45.51,45.74,45.77,45.84,45.93,46.02,46.01,45.98,45.84,45.65,45.57,45.58,45.69,45.87,46.03,45.72,45.44,45.32,45.59,46.85,48.43,49.65,50.53,51.30,53.68,56.20,58.65,60.81,62.13,63.71,65.59,67.66,69.66,71.15,72.53,73.85,75.03,75.24,75.24,75.14,74.86,74.09,73.23,72.29,71.28,70.28,69.11,67.84,66.40,64.69,62.57,60.94,59.34,57.90,57.19,56.95,56.97,57.19,57.52,57.70,57.77,57.68,57.48,57.39,57.38,57.46,57.60,57.68,57.51,57.04,56.46,55.96,55.62,55.33,55.09,54.89,54.66,54.15,53.61,53.08,52.55,51.98,51.11,50.12,49.16,48.32,47.47,46.77,46.14,45.44,45.03,44.75,44.56,44.43,44.56,44.70,44.81,44.87,44.87,44.87,44.88,44.99,45.29,46.71,48.10,49.39,50.63,52.12,54.25,56.30,58.20,60.04,61.74,62.82,62.48,60.30,57.25,53.35,50.43,48.81,47.90,46.97,46.23,46.00,46.56,47.47,48.40,49.34,50.28,51.33,52.59,53.90,55.22,56.56,58.01
131.89,128.71,125.79,122.84,119.25,113.96,108.71,103.97,99.77,98.23,96.04,94.09,93.52,94.28,92.96,91.51,90.81,90.89,91.17,91.28,91.19,90.97,90.51,89.40,86.70,82.48,81.56,80.43,78.03,75.13,74.36,72.45,69.90,66.99,63.99,61.01,58.59,56.37,54.17,52.02,50.43,49.55,49.16,48.88,48.89,48.89,48.87,48.82,48.91,49.06,49.21,49.41,49.77,50.09,50.41,50.95,51.96,53.10,53.60,53.66,53.39,52.70,51.46,50.67,50.62,51.47,51.99,52.94,54.55,56.76,58.07,57.83,57.30,56.55,54.70,52.77,51.02,49.79,49.38,49.26,49.19,49.18,49.25,49.31,49.32,49.28,49.20,49.06,48.98,49.13,49.59,50.46,52.08,53.46,54.96,56.68,58.46,60.29,61.85,62.70,62.37,60.82,58.13,54.89,51.70,49.88,49.14,48.68,48.31,47.98,47.87,47.47,47.00,46.67,46.34,46.03,45.76,45.54,45.39,45.18,45.31,45.92,47.03,47.46,48.06,48.66,49.05,48.68,48.27,47.33,46.14,45.47,45.21,45.28,45.54,45.83,45.52,45.36,45.80,46.88,48.24,49.84,51.26,52.44,53.41,55.74,58.32,60.53,62.09,63.41,64.78,66.42,68.29,70.24,71.73,73.17,74.48,75.48,75.58,75.41,75.18,74.86,74.09,73.19,72.22,71.22,70.21,69.29,68.14,66.68,64.87,62.59,60.78,59.61,59.05,58.82,58.71,58.73,58.86,59.05,59.03,58.94,58.77,58.55,58.41,58.40,58.31,58.08,57.62,57.10,56.56,56.04,55.56,55.13,54.66,54.25,53.93,53.70,53.24,52.72,52.20,51.73,51.36,50.83,50.08,49.17,48.38,47.54,46.86,46.26,45.57,45.06,44.78,44.62,44.48,44.51,44.59,44.68,44.74,44.74,44.74,44.82,45.31,46.51,48.03,49.63,51.23,52.82,54.41,56.51,58.51,60.27,61.77,63.17,62.66,60.68,57.70,54.20,51.14,49.14,48.12,47.26,46.33,45.94,46.16,47.00,47.87,48.82,49.79,50.75,51.95,53.19,54.47,55.74,56.88,58.28
134.05,130.44,127.11,123.91,120.36,115.05,109.75,104.90,100.43,99.14,97.04,95.02,94.18,93.23,91.11,89.21,88.13,87.82,88.22,88.67,89.17,89.89,89.47,87.08,83.07,78.24,75.91,74.34,72.14,69.72,69.08,67.99,66.29,64.08,61.54,59.40,57.63,55.83,53.88,51.91,50.38,49.49,49.05,48.67,48.56,48.53,48.50,48.43,48.48,48.61,48.78,48.97,49.17,49.33,49.50,49.84,50.46,51.13,51.45,51.52,51.40,51.06,50.37,49.97,49.97,50.27,50.21,50.56,51.46,52.90,53.93,54.34,54.76,54.92,53.56,51.89,50.46,49.49,49.15,49.04,49.04,49.09,49.17,49.28,49.33,49.32,49.26,49.14,49.09,49.60,50.68,52.30,54.34,55.69,57.06,58.67,60.48,62.36,63.53,63.65,62.46,60.76,58.10,54.93,51.77,49.89,49.17,48.67,48.19,47.77,47.48,47.07,46.66,46.35,46.04,45.73,45.48,45.37,45.59,46.48,47.26,48.03,49.03,49.50,50.05,50.53,50.79,50.33,49.95,49.18,48.12,47.24,46.04,45.41,45.33,45.60,45.36,45.52,46.42,47.97,49.54,51.22,52.77,54.17,55.42,57.57,59.86,61.80,63.15,64.46,65.83,67.35,69.02,70.77,72.26,73.70,74.88,75.56,75.60,75.40,75.11,74.70,73.83,72.91,71.97,71.03,70.06,69.32,68.37,67.04,65.31,63.62,62.12,61.21,60.84,60.66,60.51,60.40,60.33,60.29,59.93,59.55,59.16,58.81,58.55,58.34,58.07,57.70,57.15,56.53,55.99,55.43,54.80,54.20,53.67,53.21,52.83,52.56,52.24,51.80,51.33,50.94,50.63,49.94,49.18,48.47,47.84,47.14,46.46,45.85,45.29,44.96,44.77,44.64,44.49,44.42,44.47,44.55,44.63,44.70,44.76,45.18,46.17,47.91,49.45,51.06,52.72,54.44,56.27,58.27,60.08,61.49,62.29,62.39,60.94,58.38,55.16,51.85,49.53,48.07,47.19,46.34,45.74,45.77,46.33,47.22,48.04,48.97,49.98,51.03,52.03,52.81,53.66,54.54,55.27,56.31
136.08,131.99,128.18,124.72,121.15,115.88,110.53,105.55,100.94,99.48,97.25,94.92,93.28,89.99,87.44,85.60,84.39,83.60,83.87,84.57,85.72,87.50,87.37,83.69,78.45,73.27,68.97,66.88,65.36,64.04,63.27,63.03,62.42,61.21,59.34,58.16,56.92,55.45,53.69,51.78,50.30,49.42,48.95,48.50,48.25,48.16,48.12,48.05,48.05,48.17,48.36,48.57,48.73,48.89,49.09,49.30,49.44,49.60,49.70,49.75,49.73,49.66,49.59,49.51,49.42,49.35,49.20,49.27,49.41,49.54,49.91,51.01,52.31,53.20,52.50,51.16,50.09,49.41,49.10,48.96,48.98,49.06,49.16,49.41,49.56,49.63,49.61,49.54,49.59,50.57,52.38,54.77,56.87,58.09,59.27,60.73,62.56,64.41,65.02,64.28,62.35,60.64,58.02,54.91,51.80,49.89,49.21,48.70,48.18,47.71,47.18,46.74,46.37,46.05,45.73,45.45,45.35,45.57,46.36,48.43,49.83,50.61,51.16,51.56,51.84,52.00,52.01,51.54,51.30,50.97,50.40,49.45,47.25,45.80,45.20,45.37,45.22,45.76,47.05,48.90,50.73,52.56,54.23,55.78,57.33,59.22,61.14,62.80,64.11,65.43,66.86,68.32,69.78,71.32,72.79,74.17,75.15,75.49,75.47,75.27,74.95,74.43,73.45,72.51,71.63,70.76,69.85,69.19,68.43,67.27,65.72,64.85,63.87,63.13,62.66,62.32,62.06,61.74,61.42,61.13,60.44,59.75,59.12,58.60,58.22,57.78,57.37,56.96,56.50,55.88,55.34,54.68,53.82,53.06,52.55,52.09,51.66,51.35,51.16,50.81,50.39,50.06,49.72,48.73,47.87,47.41,46.96,46.47,45.85,45.24,44.89,44.81,44.73,44.62,44.48,44.33,44.36,44.44,44.54,44.70,44.85,45.71,47.26,49.31,50.86,52.41,54.04,55.80,57.86,59.67,61.19,62.14,62.13,60.71,58.61,55.89,52.70,49.91,48.24,47.09,46.19,45.41,45.25,45.69,46.49,47.34,48.10,48.97,49.99,51.08,51.74,51.96,52.25,52.62,52.90,53.44
137.35,132.90,128.76,125.03,121.30,116.00,110.68,105.79,101.38,98.77,95.82,92.83,90.23,87.13,84.63,82.58,80.89,79.46,78.87,79.08,80.10,81.87,83.52,79.85,73.61,67.21,63.06,61.69,61.10,60.71,60.48,60.51,60.33,59.75,58.63,57.25,55.89,54.53,53.08,51.32,50.11,49.33,48.84,48.43,48.09,47.86,47.73,47.66,47.66,47.79,47.95,48.12,48.28,48.48,48.71,48.90,49.00,49.15,49.29,49.36,49.35,49.27,49.24,49.16,49.04,48.96,48.87,49.02,49.30,49.65,50.41,51.82,52.74,52.93,52.78,51.38,50.25,49.53,49.17,49.07,49.14,49.25,49.45,50.34,50.97,51.25,51.29,51.27,51.65,53.28,55.65,58.18,59.84,60.84,61.90,63.25,64.88,66.22,65.85,64.28,62.35,60.54,57.78,54.63,51.63,49.87,49.21,48.70,48.16,47.65,47.16,46.70,46.27,45.85,45.49,45.43,46.29,47.93,49.36,50.29,50.99,51.60,52.25,52.75,53.05,53.22,53.21,52.69,52.25,51.59,50.67,49.52,47.79,46.24,45.30,45.24,45.09,45.90,47.36,49.29,51.52,53.74,55.63,57.25,58.80,60.39,62.19,63.82,65.14,66.45,67.84,69.20,70.53,71.96,73.43,74.55,75.22,75.42,75.25,74.94,74.47,73.82,72.98,72.07,71.18,70.35,69.53,68.57,67.55,66.41,65.26,64.78,64.32,63.67,62.92,62.33,61.87,61.32,60.76,60.24,59.60,58.88,58.20,57.65,57.32,56.97,56.60,56.21,55.80,55.18,54.39,53.47,52.49,51.77,51.31,50.87,50.44,50.13,49.81,49.43,48.98,48.45,47.91,47.06,46.33,45.89,45.54,45.32,45.11,44.92,44.76,44.68,44.60,44.51,44.42,44.32,44.36,44.47,44.61,44.76,44.86,46.24,48.31,50.27,51.87,53.47,55.17,56.98,58.78,60.14,61.17,61.58,60.92,59.10,56.54,53.56,50.57,48.76,47.29,46.10,45.28,45.05,45.20,45.76,46.56,47.40,48.12,48.82,49.54,50.21,50.56,50.70,50.75,50.77,50.79,50.85
138.13,133.52,129.17,125.15,120.99,115.76,110.56,105.76,101.52,98.11,94.62,91.18,88.00,84.79,82.17,80.04,78.20,76.10,74.50,74.09,74.75,76.10,78.21,75.12,69.26,63.01,60.11,59.19,58.98,59.01,59.04,59.16,59.17,58.86,58.00,56.56,55.14,53.76,52.40,50.84,49.92,49.30,48.86,48.48,48.09,47.77,47.51,47.31,47.28,47.38,47.52,47.69,47.90,48.10,48.31,48.48,48.59,48.74,48.87,48.96,48.97,48.92,48.89,48.79,48.66,48.58,48.59,48.82,49.17,49.56,50.29,51.47,52.23,52.48,52.90,51.88,50.87,50.07,49.53,49.54,49.87,50.27,50.76,51.94,52.80,53.23,53.31,53.25,53.78,55.62,58.19,60.83,62.53,63.65,64.72,65.93,67.25,67.60,66.36,64.22,62.13,60.16,57.29,54.12,51.22,49.78,49.17,48.68,48.16,47.62,47.15,46.69,46.21,45.73,45.31,45.95,47.54,49.68,51.21,51.63,52.02,52.53,53.23,53.80,54.18,54.18,53.70,52.96,52.31,51.53,50.54,49.36,47.86,46.43,45.51,45.41,45.19,46.07,47.49,49.27,51.43,54.03,56.44,58.50,60.16,61.62,63.29,64.85,66.16,67.47,68.80,70.05,71.28,72.64,74.02,74.83,75.19,75.23,74.88,74.37,73.78,73.12,72.34,71.48,70.59,69.65,68.62,67.37,66.20,65.06,63.96,63.40,63.06,62.52,61.82,61.26,60.80,60.25,59.64,59.06,58.52,57.92,57.28,56.70,56.42,56.14,55.78,55.31,54.73,53.94,53.00,52.01,51.07,50.35,49.85,49.38,48.92,48.55,48.17,47.75,47.26,46.71,46.32,45.80,45.35,45.04,44.82,44.72,44.69,44.67,44.59,44.54,44.47,44.40,44.32,44.27,44.35,44.48,44.63,44.79,45.06,46.78,49.13,51.04,52.70,54.32,56.03,57.79,59.41,60.39,60.91,60.72,59.43,57.20,54.34,51.46,49.11,47.72,46.37,45.38,44.87,44.90,45.13,45.68,46.41,47.17,47.86,48.48,48.97,49.31,49.49,49.55,49.50,49.39,49.31,49.19
138.55,133.92,129.44,125.13,120.34,115.23,110.22,105.54,101.45,97.50,93.61,89.88,86.40,82.85,80.00,77.87,76.11,73.33,70.62,69.49,69.65,70.26,71.87,69.77,65.29,60.20,59.35,58.69,58.43,58.51,58.59,58.67,58.70,58.38,57.43,56.04,54.59,53.12,51.68,50.37,49.73,49.32,48.99,48.61,48.22,47.83,47.42,46.99,46.91,46.96,47.08,47.26,47.57,47.74,47.89,48.05,48.20,48.36,48.45,48.53,48.60,48.60,48.53,48.41,48.28,48.20,48.35,48.66,49.02,49.33,49.72,50.29,51.02,51.90,52.90,52.57,51.83,50.93,50.12,50.28,51.00,51.90,52.81,54.05,54.95,55.46,55.59,55.43,55.95,57.70,60.19,62.91,65.00,66.47,67.66,68.71,69.63,68.65,66.63,64.13,61.74,59.56,56.60,53.43,50.65,49.65,49.10,48.64,48.16,47.62,47.15,46.69,46.20,45.66,45.20,46.86,49.03,50.94,52.18,52.59,52.95,53.43,54.12,54.74,55.25,54.94,53.66,52.57,51.74,50.97,50.12,49.04,47.60,46.45,45.82,45.80,45.49,46.25,47.47,48.93,50.71,53.66,56.80,59.56,61.42,62.89,64.41,65.86,67.18,68.49,69.74,70.89,72.03,73.34,74.57,75.04,75.06,74.94,74.41,73.63,72.93,72.35,71.58,70.80,69.89,68.75,67.28,65.74,64.52,63.34,62.06,61.05,60.56,60.13,59.70,59.40,59.09,58.68,58.19,57.66,57.27,56.89,56.36,55.75,55.51,55.28,54.91,54.31,53.38,52.30,51.28,50.37,49.59,48.82,48.24,47.70,47.18,46.72,46.33,45.84,45.33,44.90,44.90,44.84,44.76,44.68,44.61,44.53,44.50,44.48,44.40,44.40,44.34,44.27,44.20,44.20,44.32,44.48,44.63,44.79,45.38,47.32,49.76,51.68,53.38,55.02,56.68,58.34,59.80,60.46,60.46,59.64,57.70,55.09,52.04,49.54,48.15,46.76,45.50,44.86,44.82,44.89,45.04,45.49,46.10,46.72,47.42,47.99,48.32,48.40,48.48,48.49,48.45,48.37,48.30,48.23
137.86,133.25,128.72,124.23,119.39,114.11,109.37,105.24,101.25,97.30,93.51,89.90,86.48,83.12,80.06,77.52,75.35,72.62,70.13,68.44,67.61,67.58,68.40,66.75,63.49,59.76,59.01,58.21,57.81,57.83,58.01,58.18,58.28,57.96,56.91,55.52,54.23,52.98,51.76,50.55,49.88,49.42,49.06,48.67,48.28,47.86,47.44,47.03,46.70,46.62,46.72,46.93,47.19,47.31,47.44,47.60,47.75,47.91,48.04,48.17,48.27,48.22,48.15,48.05,47.97,47.94,48.14,48.44,48.76,49.07,49.41,49.77,50.18,50.76,51.81,52.30,52.42,52.12,51.40,51.55,52.50,53.69,54.84,55.98,57.08,57.69,57.81,57.60,58.17,59.80,62.10,64.65,66.99,68.67,69.69,70.18,70.51,69.21,67.02,64.29,61.39,58.23,55.04,52.18,49.99,49.28,48.83,48.38,47.93,47.49,47.02,46.59,46.15,45.66,45.20,46.82,48.94,50.85,52.23,53.28,53.88,54.32,55.02,55.59,56.04,55.58,53.97,52.39,51.15,50.15,49.27,48.39,47.90,47.68,47.59,47.52,47.11,46.89,47.26,48.30,49.78,52.57,55.94,59.13,61.23,62.74,64.50,66.28,67.96,69.37,70.51,71.62,72.73,73.74,74.11,74.18,73.90,73.30,72.95,72.49,71.95,71.36,70.79,69.99,69.00,67.83,66.51,64.87,63.45,62.04,60.57,59.42,58.73,58.27,57.90,57.54,57.28,56.95,56.58,56.19,55.80,55.49,55.16,54.75,54.32,54.02,53.55,52.80,51.72,50.69,49.78,48.90,47.99,47.17,46.45,45.97,45.71,45.55,45.36,45.17,44.97,44.77,44.72,44.65,44.57,44.49,44.42,44.34,44.31,44.30,44.27,44.27,44.22,44.14,44.08,44.13,44.26,44.44,44.63,44.79,45.47,47.45,49.85,51.67,53.27,54.93,56.59,58.18,59.50,59.93,59.23,57.56,55.28,52.75,50.42,48.52,47.13,45.79,45.10,44.80,44.76,44.89,45.04,45.30,45.70,46.27,46.92,47.30,47.47,47.51,47.58,47.55,47.66,47.89,48.16,48.44
136.68,132.14,127.70,123.17,118.19,112.87,108.39,104.68,100.87,97.13,93.47,89.94,86.56,83.58,80.66,77.93,75.34,72.48,69.98,67.90,66.36,65.53,65.30,63.95,61.78,59.34,58.58,57.70,57.21,57.16,57.37,57.60,57.78,57.55,56.58,55.28,54.08,52.96,51.87,50.71,50.00,49.52,49.14,48.73,48.35,47.91,47.47,47.05,46.61,46.36,46.36,46.57,46.78,46.89,47.03,47.18,47.33,47.49,47.63,47.77,47.89,47.84,47.76,47.70,47.69,47.80,48.07,48.37,48.67,48.95,49.22,49.47,49.71,50.14,51.42,52.60,53.31,53.37,52.70,52.61,53.68,55.12,56.50,57.71,59.17,59.99,60.14,59.98,60.62,62.16,64.32,66.76,68.90,70.37,71.10,71.22,71.15,69.42,66.84,63.75,60.48,56.57,53.34,50.95,49.48,48.96,48.52,48.06,47.59,47.19,46.72,46.31,45.90,45.51,45.62,47.22,49.14,50.87,52.29,53.69,54.59,55.21,55.85,56.37,56.83,56.21,54.21,52.23,50.69,49.69,49.14,48.79,49.02,49.30,49.43,49.23,48.66,47.83,47.50,47.93,49.11,51.32,54.60,58.14,60.84,62.58,64.53,66.54,68.45,69.96,71.07,72.10,72.98,73.41,73.18,72.91,72.45,71.70,71.47,71.19,70.79,70.27,69.78,69.01,68.04,66.91,65.69,64.10,62.60,61.01,59.31,57.96,57.06,56.50,56.15,55.80,55.57,55.30,55.04,54.81,54.51,54.26,54.02,53.72,53.20,52.77,52.19,51.39,50.32,49.40,48.55,47.67,46.71,45.90,45.30,44.97,44.87,44.87,44.80,44.76,44.72,44.67,44.61,44.56,44.50,44.45,44.39,44.32,44.27,44.24,44.20,44.18,44.10,44.02,43.98,44.06,44.20,44.38,44.58,44.76,45.37,47.39,49.86,51.67,53.22,54.84,56.42,57.80,58.59,58.64,57.42,55.25,52.82,50.61,48.85,47.38,46.09,45.13,44.84,44.74,44.73,44.89,45.04,45.20,45.45,45.91,46.48,46.79,46.95,47.05,47.22,47.33,47.62,48.06,48.52,49.11
134.88,130.50,126.31,121.93,116.70,111.50,107.24,103.79,100.28,96.97,93.50,90.00,86.66,84.27,81.94,79.30,76.24,73.03,70.23,67.97,66.08,64.26,62.64,61.40,60.21,58.94,58.03,57.17,56.64,56.51,56.67,56.90,57.17,57.14,56.46,55.36,54.21,53.09,51.99,50.84,50.08,49.61,49.26,48.80,48.41,47.97,47.51,47.06,46.67,46.18,46.02,46.18,46.34,46.49,46.64,46.80,46.95,47.11,47.21,47.32,47.45,47.45,47.38,47.34,47.44,47.79,48.17,48.50,48.78,49.01,49.17,49.45,49.68,50.17,51.90,53.61,54.59,54.71,54.02,53.39,54.47,56.11,57.69,59.20,61.21,62.34,62.61,62.59,63.33,64.84,66.94,69.32,70.72,71.44,71.73,71.70,71.48,69.20,65.97,62.35,58.87,54.52,51.45,49.74,49.17,48.70,48.18,47.65,47.13,46.68,46.21,45.80,45.41,45.17,46.56,48.17,49.68,51.04,52.36,53.75,55.05,56.07,56.62,57.09,57.60,56.83,54.37,52.08,50.37,49.69,49.89,50.47,51.12,51.41,51.33,50.94,50.12,49.16,48.29,47.87,48.75,49.87,52.65,56.48,60.20,62.39,64.50,66.58,68.59,70.20,71.37,72.26,72.68,72.17,71.66,71.15,70.64,70.16,69.93,69.70,69.41,69.04,68.51,67.82,66.97,65.96,64.80,63.45,62.02,60.31,58.32,56.72,55.58,54.85,54.44,54.20,53.97,53.73,53.57,53.54,53.44,53.24,52.98,52.64,52.17,51.53,50.85,50.10,49.23,48.51,47.65,46.73,45.82,45.12,44.94,44.87,44.81,44.81,44.74,44.66,44.61,44.61,44.60,44.60,44.59,44.58,44.58,44.51,44.44,44.34,44.20,44.13,44.00,43.91,43.92,43.99,44.13,44.29,44.47,44.69,45.03,47.10,49.77,51.67,53.22,54.77,56.16,57.13,56.93,56.42,54.91,52.66,50.33,48.70,47.33,46.09,45.02,44.85,44.75,44.70,44.73,44.89,45.04,45.20,45.38,45.65,46.12,46.52,46.85,47.15,47.51,47.99,48.50,49.01,49.48,50.36
132.61,127.81,123.59,119.28,113.85,109.46,105.81,102.63,99.46,96.38,93.11,89.74,86.44,84.08,81.71,79.09,76.15,73.13,70.35,67.91,65.67,63.44,61.57,60.31,59.33,58.39,57.51,56.65,56.06,55.82,56.02,56.25,56.56,56.71,56.45,55.37,54.23,53.10,52.04,51.10,50.34,49.77,49.33,48.86,48.48,48.04,47.55,47.06,46.63,46.11,45.81,45.80,45.95,46.10,46.23,46.36,46.51,46.67,46.80,46.93,47.07,47.11,47.05,47.14,47.42,47.85,48.28,48.62,48.94,49.24,49.40,49.88,50.66,51.74,53.17,54.88,55.89,56.04,55.31,54.61,55.36,56.75,58.21,59.28,60.69,62.45,64.29,65.68,66.39,67.60,69.12,70.65,71.53,71.97,72.10,71.95,71.59,68.56,64.94,60.98,56.76,52.45,50.29,49.31,48.85,48.39,47.86,47.34,46.82,46.23,45.76,45.67,46.04,46.94,48.57,49.75,50.78,51.82,52.95,54.28,55.58,56.68,57.39,57.85,58.31,57.69,55.76,54.45,54.27,54.56,54.78,54.17,54.39,54.24,53.89,53.53,52.99,51.40,49.75,48.61,48.63,49.30,51.26,54.50,58.78,61.63,64.09,66.41,68.67,70.34,71.44,71.95,71.84,71.13,70.37,69.64,69.04,68.63,68.40,68.20,67.95,67.60,67.06,66.46,65.74,64.86,63.79,62.65,61.34,59.59,57.37,55.45,54.22,53.42,52.96,52.77,52.54,52.39,52.33,52.33,52.29,52.14,51.92,51.62,51.20,50.54,49.84,49.13,48.37,47.63,46.82,46.05,45.41,44.98,44.90,44.88,44.86,44.86,44.82,44.76,44.71,44.72,44.76,44.77,44.77,44.77,44.77,44.70,44.62,44.53,44.37,44.25,44.11,43.96,43.85,43.93,44.07,44.25,44.45,44.68,44.91,46.78,49.34,51.33,52.83,54.40,55.43,55.63,54.93,54.11,52.52,50.43,48.51,47.00,46.01,45.32,44.78,44.70,44.66,44.67,44.73,44.89,45.16,45.53,45.97,46.46,46.88,47.28,47.65,48.01,48.44,48.93,49.72,50.77,51.89,53.46
131.22,126.18,121.69,117.13,111.46,107.64,104.45,101.47,98.53,95.58,92.47,89.22,85.91,83.33,80.73,78.04,75.24,72.45,69.95,67.52,65.09,62.67,60.77,59.50,58.60,57.82,56.97,56.12,55.46,55.13,55.38,55.64,55.97,56.26,56.33,55.34,54.24,53.15,52.17,51.38,50.60,49.94,49.41,48.95,48.54,48.10,47.61,47.09,46.59,46.06,45.64,45.43,45.59,45.74,45.85,45.95,46.10,46.24,46.39,46.54,46.67,46.76,46.78,47.01,47.43,47.89,48.35,48.73,49.09,49.47,49.75,50.65,52.04,53.65,54.87,56.42,57.30,57.35,56.58,55.86,56.07,56.92,58.05,58.73,59.64,61.63,64.41,67.13,68.53,69.68,70.65,71.47,72.01,72.30,72.34,72.03,71.19,67.59,63.68,59.42,54.50,50.81,49.47,48.99,48.53,48.05,47.53,47.04,46.53,45.88,45.46,45.87,47.05,48.78,50.33,51.20,51.93,52.74,53.71,54.91,56.13,57.23,58.07,58.60,59.00,58.67,57.56,57.18,58.02,58.83,58.93,57.59,57.44,57.03,56.54,56.24,56.04,54.03,51.62,49.59,48.79,49.12,50.52,53.25,57.56,60.91,63.66,66.19,68.66,70.36,71.36,71.52,70.99,70.14,69.09,68.17,67.48,67.08,66.88,66.70,66.47,66.13,65.61,65.07,64.45,63.69,62.75,61.74,60.44,58.61,56.24,54.19,52.86,52.01,51.54,51.42,51.22,51.15,51.15,51.15,51.15,51.05,50.87,50.62,50.22,49.57,48.89,48.19,47.47,46.81,46.24,45.80,45.52,45.25,45.18,45.17,45.17,45.17,45.18,45.10,45.00,44.99,45.10,45.20,45.26,45.29,45.29,45.14,44.92,44.70,44.54,44.37,44.21,44.03,43.82,43.85,44.00,44.20,44.43,44.64,44.82,46.47,48.85,50.99,52.45,53.98,54.62,54.08,53.01,51.90,50.29,48.43,46.84,45.63,45.03,44.78,44.65,44.57,44.58,44.65,44.77,44.99,45.49,46.08,46.73,47.40,47.79,48.17,48.57,49.03,49.70,50.37,51.46,52.95,54.62,56.63
131.86,127.11,121.92,116.45,110.43,106.52,103.32,100.38,97.44,94.45,91.42,88.23,84.79,81.61,78.58,75.65,72.85,70.25,68.47,66.45,64.18,61.90,60.10,58.90,58.03,57.25,56.40,55.55,54.83,54.44,54.74,55.09,55.43,55.73,55.96,55.27,54.28,53.31,52.48,51.65,50.81,50.10,49.54,49.07,48.62,48.16,47.70,47.21,46.61,46.06,45.51,45.11,45.27,45.42,45.53,45.63,45.78,45.87,46.01,46.13,46.23,46.37,46.61,46.97,47.43,47.89,48.35,48.80,49.22,49.63,50.31,52.00,53.98,55.87,57.29,58.49,58.91,58.63,57.86,57.03,56.35,56.18,56.64,57.27,58.21,59.44,61.42,64.94,68.61,70.27,70.94,71.53,72.07,72.37,72.37,71.78,69.76,66.06,62.00,57.40,52.06,50.09,49.18,48.68,48.20,47.67,47.19,46.72,46.25,45.75,45.47,46.70,48.54,50.15,51.26,52.19,53.01,53.81,54.68,55.60,56.67,57.74,58.59,59.31,59.70,59.85,59.87,59.98,60.28,60.42,60.30,59.85,59.70,59.49,59.23,58.95,59.10,57.24,54.18,50.89,49.49,49.54,51.02,53.65,56.99,60.44,63.28,65.91,68.47,70.17,71.00,71.00,70.29,69.19,67.76,66.70,65.97,65.49,65.38,65.19,64.96,64.67,64.20,63.66,63.07,62.41,61.66,60.66,59.11,57.05,54.68,52.98,51.46,50.55,50.22,50.20,50.10,50.07,50.07,50.07,50.07,50.00,49.87,49.66,49.20,48.60,47.93,47.21,46.45,46.13,46.19,46.41,46.59,46.23,46.06,46.00,46.00,46.00,46.06,45.86,45.62,45.57,45.78,46.12,46.39,46.50,46.50,46.09,45.44,44.82,44.67,44.45,44.28,44.09,43.87,43.75,43.91,44.14,44.35,44.52,44.74,46.15,48.36,50.73,52.20,53.54,53.75,52.64,51.37,49.94,48.38,46.79,45.30,44.92,44.72,44.61,44.52,44.45,44.54,44.67,44.87,45.29,46.22,47.01,47.67,48.30,48.68,49.07,49.51,50.15,51.46,52.77,54.20,55.80,57.62,59.45
130.25,126.30,121.47,116.05,110.02,105.94,102.49,99.29,96.36,93.35,90.22,86.89,83.35,79.88,76.38,73.20,70.49,68.32,66.83,65.09,63.12,61.18,59.66,58.48,57.52,56.67,55.82,54.97,54.20,53.75,54.09,54.44,54.79,55.12,55.41,55.20,54.42,53.50,52.66,51.81,50.96,50.22,49.62,49.15,48.69,48.23,47.73,47.19,46.61,46.03,45.45,44.99,44.96,45.07,45.18,45.31,45.46,45.54,45.67,45.79,45.90,46.17,46.53,46.96,47.43,47.89,48.35,48.82,49.27,49.78,51.15,53.30,55.59,57.71,59.36,60.35,60.42,59.84,58.99,58.10,56.91,56.44,56.90,56.78,57.04,57.84,59.33,61.73,64.59,67.25,69.56,71.36,71.90,72.22,72.24,71.38,68.09,64.38,60.01,55.18,50.37,49.57,49.01,48.55,48.07,47.53,47.06,46.57,46.08,45.62,45.81,47.51,49.51,50.77,51.78,52.57,53.22,53.81,54.59,55.40,56.69,58.07,58.96,59.73,60.19,60.54,60.88,61.22,61.28,61.20,61.05,60.89,60.70,60.51,60.33,60.20,60.43,59.34,57.05,53.99,51.36,51.80,54.00,56.90,59.24,61.75,64.21,66.49,68.49,69.96,70.60,70.50,69.68,68.11,66.46,65.30,64.52,63.93,63.82,63.64,63.43,63.16,62.74,62.21,61.65,61.02,60.28,59.24,57.39,55.16,52.96,51.45,50.47,49.92,49.70,49.66,49.55,49.46,49.41,49.41,49.37,49.25,49.06,48.78,48.28,47.68,47.17,46.82,46.68,46.75,47.04,47.43,47.76,47.71,47.61,47.53,47.50,47.50,47.30,46.85,46.49,46.54,46.84,47.30,47.67,47.86,47.86,47.26,46.41,45.52,44.80,44.57,44.36,44.15,43.93,43.74,43.80,43.98,44.20,44.39,44.65,45.63,47.54,50.42,51.70,52.75,52.77,51.60,50.21,48.56,46.97,45.65,44.82,44.65,44.52,44.45,44.46,44.49,44.62,44.79,45.13,46.01,46.94,47.84,48.62,49.20,49.85,50.49,51.21,52.12,53.63,55.23,56.83,58.37,59.81,61.36
127.74,124.61,120.38,115.26,109.47,105.26,101.53,98.08,95.10,92.17,89.01,85.62,82.02,78.59,74.85,71.45,68.77,67.07,65.67,64.09,62.34,60.53,59.30,58.13,57.06,56.12,55.25,54.40,53.58,53.06,53.43,53.75,54.11,54.46,54.78,55.04,54.51,53.67,52.76,51.92,51.08,50.32,49.68,49.22,48.75,48.28,47.75,47.14,46.59,46.00,45.42,44.94,44.66,44.71,44.84,44.99,45.13,45.22,45.35,45.50,45.66,46.06,46.50,46.96,47.43,47.89,48.35,48.82,49.30,49.92,52.00,54.48,56.98,59.27,61.08,62.04,61.87,61.04,60.10,59.17,57.76,57.29,57.92,56.91,56.35,56.66,57.62,58.62,59.95,63.22,67.06,70.14,71.09,71.72,71.76,70.49,66.20,62.39,57.66,52.76,48.88,48.88,48.64,48.27,47.85,47.37,46.96,46.51,46.04,45.59,46.20,48.14,50.09,51.01,51.93,52.53,52.93,53.29,53.93,54.69,56.32,58.16,59.28,60.02,60.57,61.02,61.44,61.90,61.87,61.72,61.59,61.51,61.29,61.06,60.92,60.94,61.17,60.84,59.62,57.31,53.66,54.60,57.42,60.46,61.99,63.40,65.24,66.95,68.27,69.51,70.01,69.82,68.86,66.94,65.18,63.93,63.05,62.41,62.25,62.09,61.90,61.64,61.25,60.73,60.18,59.56,58.79,57.75,55.67,53.34,51.34,50.09,49.74,49.58,49.44,49.34,49.18,49.02,48.91,48.90,48.80,48.59,48.32,47.97,47.48,47.00,46.75,46.86,47.41,47.80,48.18,48.57,48.98,49.31,49.37,49.35,49.30,49.21,48.59,47.86,47.41,47.62,48.03,48.58,49.06,49.33,49.30,48.53,47.55,46.40,45.02,44.71,44.46,44.23,43.99,43.76,43.69,43.80,44.03,44.26,44.56,45.08,46.65,49.91,51.08,51.83,51.72,50.66,49.18,47.38,45.83,44.83,44.67,44.51,44.38,44.34,44.44,44.59,44.75,45.02,45.60,46.93,47.78,48.72,49.61,50.24,51.23,52.18,53.19,54.33,55.77,57.40,58.99,60.38,61.40,62.69
124.60,121.62,117.48,112.42,107.47,103.37,99.69,96.30,93.13,90.61,87.99,85.03,81.63,79.24,76.16,72.77,69.67,68.43,66.81,65.02,62.88,60.08,58.96,57.81,56.70,55.66,54.69,53.82,52.98,52.40,52.67,53.03,53.37,53.71,54.08,54.49,54.26,53.62,52.77,51.98,51.19,50.42,49.75,49.28,48.82,48.27,47.70,47.14,46.54,45.97,45.42,44.88,44.36,44.39,44.52,44.65,44.75,44.89,45.03,45.29,45.67,46.12,46.53,46.96,47.43,47.89,48.35,48.86,49.38,50.08,52.50,55.22,57.86,60.19,61.80,63.24,63.22,62.30,61.31,60.39,59.41,59.27,59.84,58.38,57.29,56.51,56.33,57.28,58.37,59.95,62.10,64.83,67.96,70.02,70.03,67.78,63.63,59.20,54.21,49.75,47.22,47.22,47.15,47.05,46.94,46.81,46.70,46.58,46.38,45.97,46.34,48.00,49.77,50.66,51.13,51.52,51.77,51.96,52.36,53.10,54.99,57.46,59.59,60.19,60.77,61.32,61.82,62.28,62.37,62.30,62.17,62.09,61.86,61.67,61.56,61.58,61.81,61.36,60.50,59.05,56.14,57.16,59.27,61.46,62.88,63.99,64.86,65.72,66.74,68.04,68.70,68.31,67.05,65.57,63.98,62.55,61.49,60.94,60.72,60.55,60.36,60.10,59.72,59.19,58.62,57.97,57.19,56.35,54.54,52.34,50.34,49.84,49.57,49.39,49.23,49.03,48.82,48.60,48.45,48.38,48.18,47.92,47.59,47.25,47.07,47.22,47.49,47.89,48.49,48.94,49.26,49.67,50.27,50.70,51.10,51.40,51.43,50.84,49.63,48.66,48.25,48.65,49.21,50.02,50.73,51.09,50.86,49.98,48.79,47.32,45.60,44.95,44.59,44.34,44.05,43.82,43.63,43.67,43.90,44.13,44.44,44.77,45.94,48.65,50.26,50.83,50.58,49.62,48.04,46.27,45.17,44.69,44.48,44.32,44.29,44.38,44.57,44.72,44.88,45.52,46.70,48.13,49.18,50.01,50.83,51.85,53.13,54.24,55.30,56.35,57.25,58.30,59.35,60.40,61.53,62.72
121.11,117.90,113.86,109.23,104.87,101.06,97.57,94.33,91.30,89.38,87.19,84.70,82.07,80.37,78.29,75.61,72.59,70.67,68.77,66.85,64.41,60.68,59.00,57.58,56.35,55.25,54.21,53.28,52.40,51.78,51.95,52.29,52.64,53.00,53.42,53.85,53.94,53.56,52.78,52.04,51.27,50.51,49.84,49.35,48.85,48.27,47.68,47.14,46.55,45.98,45.41,44.82,44.21,44.12,44.20,44.33,44.41,44.53,44.86,45.30,45.79,46.26,46.68,47.12,47.58,48.01,48.38,48.87,49.41,50.16,52.83,55.68,58.41,60.79,62.43,64.11,64.41,63.76,62.85,62.11,61.44,61.59,62.33,60.76,58.79,57.25,56.44,56.60,57.16,57.95,59.22,61.18,63.85,66.38,66.76,64.52,60.24,55.45,51.06,47.60,45.60,45.60,45.60,45.60,45.60,45.60,45.60,45.70,45.88,46.02,46.32,47.79,49.33,50.01,50.31,50.55,50.68,50.76,50.98,51.81,54.21,57.34,59.91,60.45,61.05,61.63,62.17,62.66,62.88,62.88,62.73,62.62,62.43,62.28,62.20,62.21,62.32,61.77,61.04,60.10,58.34,58.92,60.20,61.67,62.93,63.97,64.39,64.65,65.12,66.34,67.18,66.76,65.31,63.91,62.40,61.08,60.12,59.63,59.43,59.24,59.01,58.71,58.23,57.73,57.10,56.38,55.63,54.83,53.31,51.55,50.01,49.78,49.55,49.34,49.15,48.95,48.75,48.53,48.34,48.22,47.96,47.64,47.31,47.07,47.24,47.78,48.33,48.92,49.66,50.37,50.85,51.34,51.94,52.31,52.80,53.40,53.73,52.89,51.35,49.90,49.26,50.01,51.00,52.00,52.73,52.99,52.47,51.39,49.96,48.27,46.42,45.24,44.70,44.42,44.12,43.88,43.60,43.55,43.74,44.00,44.31,44.57,45.33,47.10,48.81,49.39,49.16,48.30,46.80,45.51,44.82,44.56,44.36,44.21,44.26,44.43,44.66,44.88,45.37,46.30,47.63,49.07,50.12,50.99,51.77,52.60,53.65,54.56,55.44,56.31,57.04,57.87,58.72,59.63,60.70,61.73
117.36,113.74,109.78,105.78,101.91,98.51,95.29,92.26,89.62,88.37,86.53,84.54,82.95,81.72,80.77,79.14,76.53,73.40,71.19,69.20,66.50,61.92,59.33,57.50,56.11,54.94,53.85,52.79,51.83,51.18,51.25,51.54,51.90,52.32,52.78,53.17,53.56,53.46,52.77,52.08,51.32,50.60,49.95,49.41,48.87,48.27,47.69,47.14,46.60,46.00,45.38,44.76,44.14,43.87,43.88,44.01,44.08,44.16,44.76,45.43,45.98,46.45,46.92,47.38,47.83,48.21,48.44,48.88,49.41,50.17,53.02,55.94,58.72,61.17,62.95,64.76,65.52,65.35,64.61,64.14,63.68,64.08,65.13,63.77,60.83,58.67,57.41,56.40,56.26,56.75,57.62,58.60,59.37,61.72,62.61,60.89,56.34,51.44,48.12,45.92,44.00,44.00,44.00,44.02,44.05,44.09,44.12,44.40,45.00,45.92,46.23,47.53,48.79,49.17,49.49,49.62,49.67,49.70,49.79,50.87,53.92,57.66,60.23,60.78,61.37,61.95,62.49,63.04,63.39,63.45,63.30,63.14,62.99,62.89,62.84,62.83,62.74,62.12,61.39,60.75,60.28,60.16,60.58,61.43,62.49,63.56,63.86,63.70,63.50,64.52,65.53,65.17,63.63,62.09,60.64,59.59,58.88,58.42,58.26,58.04,57.77,57.41,56.78,56.30,55.61,54.80,54.10,53.26,52.08,50.92,50.08,49.85,49.62,49.39,49.18,49.03,48.88,48.68,48.47,48.31,48.00,47.63,47.31,47.21,47.76,48.51,49.21,49.95,50.91,51.99,52.76,53.35,53.85,54.07,54.49,55.36,56.11,55.25,53.60,51.61,50.60,51.72,53.20,54.31,54.93,54.95,54.09,52.74,51.06,49.19,47.34,45.57,44.80,44.48,44.18,43.94,43.59,43.44,43.56,43.87,44.18,44.44,44.80,45.44,47.01,47.68,47.58,46.81,45.54,44.98,44.65,44.45,44.29,44.14,44.26,44.49,44.73,45.03,46.01,47.16,48.38,49.76,50.72,51.67,52.42,52.73,53.28,53.82,54.40,55.05,55.84,56.69,57.55,58.42,59.34,60.18
112.80,109.24,105.43,101.69,98.85,95.91,93.01,90.45,88.85,87.62,86.15,84.64,83.34,82.16,81.07,79.63,77.68,75.30,73.22,71.21,68.38,63.46,60.43,58.73,57.42,55.89,54.70,52.94,51.45,50.57,50.49,50.82,51.23,51.68,52.15,52.64,53.05,53.06,52.58,51.89,51.22,50.59,50.02,49.47,48.88,48.31,47.73,47.14,46.55,45.93,45.31,44.70,44.08,43.62,43.56,43.67,43.70,43.77,44.41,45.22,46.01,46.74,47.24,47.70,48.15,48.53,48.66,48.97,49.41,50.16,52.86,55.79,58.60,61.06,62.95,65.16,66.61,67.10,66.59,66.07,65.67,66.17,67.56,67.93,65.83,62.20,58.61,57.55,56.83,56.40,56.56,57.45,58.22,59.27,58.88,56.43,51.98,48.44,45.73,43.73,42.34,42.34,42.41,42.72,43.30,43.88,44.45,45.14,45.95,46.82,46.74,47.28,47.96,48.35,48.71,48.89,49.11,49.43,49.77,52.44,56.13,59.40,60.62,61.16,61.72,62.27,62.82,63.41,63.90,64.05,63.93,63.72,63.61,63.53,63.48,63.45,63.11,62.52,61.91,61.38,60.86,60.65,60.82,61.32,62.04,63.01,63.25,63.08,62.80,62.89,63.83,63.59,62.17,60.68,59.61,58.73,57.97,57.33,57.07,56.79,56.49,56.11,55.39,54.85,54.16,53.37,52.57,51.82,51.51,51.03,50.15,49.97,49.74,49.54,49.39,49.34,49.24,49.09,48.94,48.82,48.52,48.11,47.67,47.44,48.19,49.00,50.05,51.28,52.63,53.82,54.79,55.49,55.87,55.84,56.21,57.11,58.15,58.38,57.86,56.53,55.44,55.56,56.01,56.72,56.98,56.52,55.46,53.70,51.62,49.52,47.72,46.05,45.07,44.54,44.24,43.95,43.63,43.43,43.43,43.74,44.00,44.28,44.59,44.95,45.58,45.95,45.93,45.51,44.93,44.64,44.46,44.32,44.17,44.06,44.19,44.42,44.66,44.91,45.60,46.69,48.03,49.26,50.07,50.69,51.09,51.26,51.91,52.52,53.14,53.88,54.97,56.07,57.01,57.83,58.70,59.45
108.35,104.94,101.53,98.35,96.01,93.41,91.00,89.07,87.99,86.83,85.59,84.32,83.09,81.88,80.63,79.20,77.48,75.40,73.40,71.56,69.09,64.83,61.92,60.23,58.99,57.68,56.51,54.33,52.16,50.51,49.92,50.19,50.63,51.11,51.60,52.12,52.54,52.67,52.43,51.78,51.16,50.59,50.05,49.51,48.89,48.31,47.72,47.10,46.49,45.89,45.28,44.66,44.05,43.48,43.27,43.29,43.31,43.36,44.03,44.94,45.88,46.75,47.40,47.96,48.44,48.85,48.96,49.15,49.47,50.12,52.69,55.62,58.45,61.05,63.44,66.00,67.83,68.66,68.32,67.95,67.68,68.11,69.32,70.31,69.17,66.04,61.95,58.76,57.65,56.73,56.28,56.46,56.52,56.31,55.12,52.53,48.08,45.11,43.07,41.76,41.00,41.45,41.89,42.52,43.37,44.22,45.09,45.98,46.86,47.68,47.44,47.54,47.84,48.15,48.51,48.77,49.09,49.73,51.30,54.92,58.25,60.49,61.03,61.55,62.08,62.62,63.17,63.77,64.31,64.57,64.53,64.33,64.24,64.17,64.12,64.08,63.54,62.98,62.46,61.98,61.44,61.18,61.23,61.52,61.97,62.52,62.61,62.44,62.16,61.78,62.29,61.99,60.83,59.58,58.73,57.93,57.14,56.38,55.88,55.54,55.22,54.79,54.05,53.53,53.07,52.63,52.15,51.85,52.09,51.96,51.07,50.67,50.27,49.89,49.63,49.63,49.60,49.55,49.47,49.33,48.92,48.43,47.93,47.68,48.56,49.54,51.01,52.73,54.23,55.54,56.69,57.50,57.87,57.74,58.00,58.64,59.48,60.06,60.10,59.40,58.60,58.32,58.27,58.62,58.64,57.97,56.42,54.31,52.01,49.77,47.95,46.32,45.22,44.58,44.26,43.93,43.62,43.38,43.31,43.61,43.85,44.12,44.38,44.58,44.71,44.86,44.87,44.71,44.50,44.34,44.21,44.10,43.94,43.99,44.16,44.39,44.62,44.83,45.29,46.19,47.40,48.39,49.06,49.57,49.95,50.26,51.42,52.54,53.59,54.58,55.72,56.83,57.70,58.45,59.40,60.65
104.01,100.85,98.11,95.79,93.40,90.99,89.25,88.11,87.03,86.01,84.85,83.56,82.19,80.88,79.46,77.83,75.92,73.69,71.72,70.21,68.62,66.03,63.82,61.99,60.82,60.31,59.30,56.98,53.97,51.02,49.53,49.65,50.08,50.62,51.15,51.62,52.03,52.30,52.32,51.77,51.16,50.59,50.05,49.51,48.89,48.27,47.66,47.04,46.42,45.86,45.28,44.66,44.05,43.43,43.02,42.85,42.93,42.93,43.62,44.58,45.57,46.49,47.40,48.14,48.71,49.17,49.33,49.43,49.58,50.04,52.52,55.43,58.28,61.12,64.45,67.27,69.18,70.03,69.80,69.78,69.71,69.89,70.40,70.89,70.82,70.19,67.47,60.03,58.70,57.76,56.79,55.62,54.25,52.81,51.32,49.19,44.64,41.43,40.15,40.02,40.00,41.34,42.45,43.41,44.26,45.11,46.02,46.91,47.74,48.52,48.32,48.30,48.42,48.60,48.91,49.27,49.62,50.62,54.41,58.33,60.29,60.94,61.48,61.95,62.47,63.01,63.55,64.09,64.63,65.00,65.12,64.96,64.88,64.81,64.76,64.71,64.02,63.50,63.04,62.56,62.02,61.75,61.80,62.04,62.28,62.09,61.93,61.78,61.59,61.20,60.93,60.39,59.59,58.79,58.01,57.19,56.37,55.59,54.69,54.30,53.96,53.46,52.76,52.34,52.33,52.60,52.86,53.34,53.81,53.73,52.87,51.97,51.20,50.45,49.88,49.88,49.95,50.07,50.08,49.83,49.22,48.61,48.11,47.95,48.87,50.12,52.12,54.30,55.70,57.16,58.45,59.39,59.86,59.78,59.84,59.95,60.09,60.28,60.29,60.20,60.07,59.99,59.99,60.01,59.91,59.30,56.96,54.59,52.20,49.94,48.01,46.39,45.25,44.58,44.26,43.88,43.55,43.29,43.18,43.49,43.72,43.96,44.17,44.32,44.40,44.43,44.43,44.40,44.24,44.08,43.93,43.78,43.62,43.91,44.16,44.39,44.62,44.77,45.06,45.67,46.49,47.14,47.69,48.32,49.00,49.72,51.82,53.92,55.75,57.17,58.11,58.99,59.63,60.29,61.44,63.80
100.56,97.91,95.53,93.37,91.11,88.89,87.04,85.60,84.52,83.81,83.49,82.95,81.64,80.09,78.05,76.00,74.12,72.06,70.48,69.28,68.12,66.53,65.10,63.45,62.16,61.50,60.45,58.07,54.96,51.76,49.66,49.26,49.57,50.17,50.71,51.17,51.61,51.91,51.97,51.52,51.00,50.52,50.02,49.39,48.86,48.27,47.65,47.04,46.42,45.83,45.22,44.61,44.04,43.47,42.98,42.63,42.49,42.58,43.29,44.26,45.25,46.18,47.10,47.96,48.73,49.42,49.73,50.22,50.74,51.27,52.86,55.26,57.80,60.54,64.31,68.10,70.20,70.88,70.79,70.75,70.71,70.82,71.09,71.32,71.29,70.64,68.38,62.91,59.93,57.89,56.30,54.78,53.18,51.47,48.68,44.96,41.83,40.38,39.86,39.86,39.92,40.48,41.42,42.58,43.84,45.11,46.40,47.60,48.60,49.23,49.21,49.25,49.32,49.42,50.01,51.31,52.81,54.63,57.74,59.77,60.87,61.43,61.93,62.44,62.94,63.45,63.99,64.53,65.03,65.46,65.71,65.60,65.52,65.45,65.33,65.12,64.56,64.04,63.55,63.07,62.53,62.15,61.97,61.93,61.88,61.60,61.38,61.20,61.01,60.63,60.19,59.59,58.84,58.02,57.25,56.43,55.60,54.83,54.09,53.92,53.81,53.62,53.61,53.60,53.77,54.08,54.39,54.98,55.48,55.45,54.72,53.84,53.05,52.28,51.66,51.52,51.32,51.26,51.08,50.50,49.66,48.84,48.30,48.26,49.19,51.31,53.88,56.30,57.83,58.79,59.52,59.99,60.18,60.20,60.22,60.25,60.31,60.47,60.48,60.43,60.35,60.28,60.28,60.24,60.13,59.81,58.79,55.93,52.58,49.60,47.90,46.27,45.20,44.56,44.20,43.86,43.55,43.26,43.08,43.25,43.48,43.68,43.84,43.95,44.07,44.10,44.10,44.09,44.03,43.85,43.65,43.54,43.66,43.92,44.19,44.45,44.72,45.29,46.31,47.21,47.85,48.37,48.83,49.60,50.77,52.38,54.87,57.01,58.67,59.84,60.72,61.70,62.47,63.26,64.55,67.09
97.52,95.18,93.04,91.05,88.96,86.88,84.88,83.14,81.91,81.45,81.80,81.99,81.07,79.31,76.78,74.34,72.33,70.55,69.26,68.24,67.32,66.33,65.43,64.10,62.86,61.97,60.87,58.47,55.41,52.22,49.74,48.95,49.11,49.73,50.30,50.77,51.20,51.49,51.54,51.22,50.84,50.44,49.87,48.87,48.50,48.05,47.56,47.04,46.42,45.80,45.18,44.58,44.04,43.50,42.96,42.48,42.16,42.26,42.99,43.97,44.98,45.94,46.91,47.87,48.82,49.72,50.35,51.27,52.20,52.96,53.89,55.70,57.74,60.34,65.03,69.08,71.06,71.58,71.61,71.55,71.55,71.60,71.67,71.71,71.48,70.30,67.85,63.82,60.08,57.43,55.46,53.77,51.96,49.06,45.36,41.68,40.02,39.81,39.78,39.80,39.88,39.90,40.51,41.57,42.97,44.61,46.40,48.09,49.45,50.19,50.45,50.66,50.82,51.00,51.79,53.48,55.63,57.95,60.06,60.77,61.35,61.91,62.38,62.92,63.40,63.90,64.44,64.98,65.46,65.93,66.27,66.21,66.14,66.06,65.82,65.31,64.74,64.20,63.71,63.23,62.69,62.22,61.88,61.64,61.41,61.10,60.84,60.62,60.37,59.98,59.47,58.85,58.14,57.30,56.51,55.69,54.96,54.42,54.08,54.15,54.23,54.28,54.74,55.05,55.36,55.69,56.02,56.62,57.14,57.19,56.58,55.73,54.94,54.20,53.58,53.28,52.69,52.27,51.76,50.87,49.88,48.96,48.46,48.58,49.49,52.41,55.57,58.16,59.43,59.96,60.27,60.39,60.40,60.48,60.49,60.50,60.55,60.66,60.67,60.62,60.54,60.47,60.47,60.40,60.28,60.13,60.04,57.05,53.00,49.33,47.77,46.16,45.15,44.55,44.19,43.90,43.60,43.30,43.07,43.05,43.22,43.37,43.49,43.59,43.72,43.76,43.76,43.76,43.76,43.59,43.38,43.33,43.69,43.98,44.27,44.54,44.87,46.14,47.80,48.98,49.63,50.35,50.85,51.81,53.38,55.60,57.87,59.72,61.17,62.26,63.26,64.09,64.75,65.51,66.83,69.23
95.05,92.66,90.61,88.90,87.01,84.96,82.89,80.93,79.31,78.97,79.62,80.42,80.42,78.52,75.80,73.00,70.61,69.22,68.02,66.96,65.99,65.06,64.20,63.40,62.50,61.39,60.24,57.87,55.04,52.15,49.68,48.75,48.76,49.32,49.99,50.45,50.81,51.00,50.99,50.88,50.69,50.35,49.51,47.66,47.58,47.46,47.29,47.04,46.42,45.80,45.18,44.58,44.04,43.50,42.96,42.45,42.02,41.97,42.71,43.73,44.81,45.87,46.93,47.99,49.05,50.10,51.36,52.72,54.08,55.31,56.04,57.18,58.45,60.86,67.38,70.35,71.67,72.06,72.19,72.18,72.22,72.21,72.10,72.05,71.33,69.06,65.42,61.14,58.36,56.05,54.14,52.46,50.36,44.53,40.76,40.11,39.84,39.74,39.71,39.74,39.81,39.88,40.00,40.46,41.47,43.35,45.81,48.24,50.30,51.58,52.29,52.84,53.32,53.82,54.66,55.70,57.49,59.70,60.62,61.26,61.84,62.36,62.82,63.36,63.85,64.35,64.89,65.43,65.90,66.40,66.80,66.79,66.71,66.64,66.20,65.16,64.29,63.73,63.26,62.78,62.24,61.77,61.41,61.13,60.90,60.59,60.33,60.02,59.60,59.21,58.70,58.11,57.45,56.66,55.83,55.02,54.54,54.60,55.00,55.31,55.49,55.62,56.09,56.52,56.92,57.30,57.68,58.23,58.81,58.96,58.43,57.58,56.80,56.13,55.58,55.08,53.92,52.88,51.84,50.68,49.74,48.87,48.53,48.89,49.75,53.27,57.04,59.74,60.07,60.35,60.55,60.65,60.66,60.74,60.75,60.79,60.84,60.86,60.86,60.81,60.74,60.66,60.66,60.55,60.40,60.25,60.11,57.68,53.47,49.25,47.64,46.08,45.12,44.57,44.26,44.02,43.72,43.45,43.20,42.94,42.95,43.02,43.12,43.27,43.35,43.38,43.38,43.38,43.38,43.29,43.16,43.18,43.69,44.13,44.43,44.67,45.12,47.52,49.52,50.90,51.89,53.30,54.08,55.29,57.08,59.39,60.47,61.58,62.83,64.24,65.63,65.88,66.00,66.42,67.54,69.40
93.26,90.80,88.75,86.99,85.14,83.16,80.96,78.67,76.61,76.12,76.88,78.08,78.76,76.99,74.45,71.88,69.69,68.30,66.98,65.79,64.73,63.73,62.76,62.03,61.20,60.01,58.57,56.32,53.80,51.35,49.47,48.55,48.36,48.72,49.41,50.00,50.34,50.49,50.48,50.40,50.08,49.50,48.55,47.06,46.57,46.40,46.33,46.19,45.85,45.54,45.14,44.62,44.04,43.50,42.96,42.42,41.89,41.61,41.85,42.54,43.58,44.62,45.70,46.98,48.43,49.91,50.99,51.79,52.61,53.71,55.43,57.60,59.83,62.76,68.40,70.70,71.74,72.11,72.30,72.38,72.43,72.19,71.54,70.59,68.88,65.83,62.00,58.59,56.05,53.89,51.33,47.93,45.14,41.64,39.76,39.70,39.70,39.74,39.75,39.78,39.85,39.89,39.90,40.06,40.69,42.78,45.29,47.76,49.86,51.14,51.89,52.84,53.87,54.87,56.15,57.47,58.93,60.35,61.04,61.67,62.26,62.82,63.32,63.82,64.33,64.83,65.33,65.87,66.35,66.83,67.23,67.31,67.24,67.11,66.52,65.21,64.01,63.29,62.76,62.29,61.79,61.32,60.95,60.66,60.38,59.91,59.45,58.99,58.59,58.32,57.86,57.32,56.69,55.92,55.38,55.08,55.08,55.41,55.99,56.45,56.73,56.91,57.38,57.88,58.33,58.75,59.13,59.52,59.92,60.04,59.68,58.87,57.76,56.65,55.61,54.63,53.30,52.12,51.09,50.14,49.41,48.84,48.79,49.47,50.91,54.10,57.55,60.06,60.25,60.52,60.77,60.91,60.91,60.99,61.01,61.03,61.05,61.05,61.02,60.98,60.93,60.85,60.77,60.60,60.43,60.27,60.12,58.29,54.12,49.57,47.87,46.36,45.31,44.69,44.43,44.20,43.90,43.61,43.34,43.07,42.94,42.87,42.86,42.90,43.01,43.04,43.04,43.04,43.04,42.98,42.95,43.10,43.64,44.14,44.54,45.24,46.58,49.01,50.91,52.41,53.68,55.03,56.47,57.90,59.37,60.91,61.88,62.70,63.42,64.02,64.22,63.94,63.69,63.79,64.60,67.83
91.92,89.44,87.39,85.53,83.66,81.71,79.34,76.62,74.02,73.30,74.04,75.48,76.68,75.37,73.19,70.96,69.07,67.59,66.12,64.80,63.62,62.48,61.30,60.41,59.44,58.15,56.43,54.37,52.28,50.41,49.20,48.36,48.00,48.11,48.66,49.30,49.60,49.69,49.65,49.53,49.02,48.24,47.30,46.36,45.50,45.23,45.19,45.12,45.05,45.04,44.87,44.50,43.96,43.46,42.93,42.36,41.75,41.30,41.04,41.30,42.13,43.10,44.17,45.66,47.47,49.31,50.10,50.30,50.52,51.37,54.00,57.44,60.90,64.34,68.36,70.16,71.07,71.43,71.53,71.55,71.56,71.03,69.71,67.74,65.27,61.96,58.41,55.86,53.28,50.75,47.52,43.25,40.35,39.71,39.66,39.62,39.63,39.76,39.82,39.86,39.96,39.97,39.98,39.99,40.28,42.22,44.59,46.92,48.90,50.11,50.89,52.14,53.58,54.97,56.67,58.37,59.64,60.44,61.16,61.78,62.39,63.00,63.59,64.12,64.70,65.26,65.78,66.32,66.80,67.26,67.65,67.83,67.76,67.53,66.79,65.32,63.85,62.90,62.25,61.79,61.33,60.86,60.48,60.13,59.76,59.16,58.55,58.04,57.66,57.45,57.04,56.56,56.03,55.44,55.29,55.50,55.91,56.39,56.99,57.56,57.95,58.21,58.69,59.23,59.74,60.19,60.52,60.74,60.84,60.75,60.40,59.51,58.07,56.52,55.01,53.62,52.23,51.09,50.21,49.56,49.09,48.89,49.20,50.22,52.36,55.13,57.99,60.10,60.35,60.64,60.95,61.14,61.17,61.23,61.25,61.25,61.26,61.25,61.17,61.14,61.10,60.99,60.84,60.63,60.44,60.29,60.12,58.80,54.80,50.10,48.21,46.78,45.65,44.93,44.62,44.38,44.08,43.78,43.49,43.26,43.03,42.85,42.71,42.62,42.73,42.74,42.72,42.73,42.74,42.68,42.76,43.04,43.61,44.16,44.72,45.90,48.04,50.24,52.00,53.62,55.13,56.38,58.33,59.86,60.93,61.64,62.54,63.08,63.26,63.00,61.98,61.22,60.66,60.54,61.21,65.62
91.47,89.14,87.20,85.33,83.35,81.31,78.60,75.27,71.83,70.83,71.33,72.66,74.07,74.04,72.46,70.51,68.74,67.21,65.74,64.31,62.91,61.52,59.95,58.49,57.00,55.39,53.57,51.85,50.54,49.62,48.86,48.18,47.78,47.57,47.50,47.95,48.05,47.98,47.83,47.50,46.89,46.24,45.58,44.89,44.32,44.11,44.04,43.97,43.96,43.95,43.91,43.81,43.62,43.27,42.80,42.23,41.62,41.22,40.87,40.67,40.76,41.59,42.63,44.18,46.05,47.84,48.63,48.87,49.06,49.74,52.08,56.25,60.44,63.87,65.96,67.56,68.52,68.76,68.32,67.74,67.63,66.75,64.60,61.84,59.81,57.56,55.02,52.47,49.46,45.18,41.72,40.56,39.73,39.60,39.64,39.69,39.75,39.84,39.92,40.02,40.22,40.28,40.30,40.35,40.55,41.20,43.29,45.42,47.22,48.63,49.70,50.88,52.13,53.44,55.14,56.84,58.37,59.63,60.45,61.03,61.63,62.30,63.08,63.91,64.71,65.49,66.23,66.77,67.25,67.71,68.12,68.40,68.34,67.88,66.92,65.45,63.98,62.64,61.74,61.28,60.81,60.35,59.91,59.42,58.80,58.25,57.94,57.63,57.19,56.72,56.31,55.94,55.70,55.85,56.16,56.52,56.94,57.41,57.96,58.55,59.09,59.56,60.09,60.68,61.27,61.72,61.87,62.04,61.55,60.80,59.96,58.57,57.00,55.43,53.92,52.53,51.14,50.23,49.63,49.13,48.96,49.17,49.89,51.34,54.02,56.81,58.96,60.24,60.54,60.79,61.08,61.31,61.42,61.43,61.44,61.47,61.50,61.44,61.37,61.30,61.19,60.99,60.84,60.67,60.51,60.34,60.13,59.02,55.43,50.99,48.60,47.36,46.29,45.43,44.81,44.51,44.21,43.93,43.69,43.45,43.22,43.04,42.87,42.68,42.58,42.47,42.40,42.41,42.47,42.47,42.62,43.01,43.67,44.27,45.12,46.50,48.54,50.53,52.37,54.14,55.85,57.50,59.21,60.45,61.21,61.61,61.77,61.76,61.57,61.14,60.07,58.92,58.09,58.00,59.21,62.77
