27.51,27.69,27.88,28.07,28.22,28.41,28.60,28.79,28.94,29.13,29.30,29.47,29.66,29.81,30.86,32.64,34.96,37.32,39.95,42.97,46.25,49.54,50.90,52.06,53.16,54.28,55.44,56.63,57.79,58.84,59.69,59.93,59.90,59.56,58.84,57.72,56.95,56.31,55.69,55.07,54.66,54.67,55.00,55.39,55.55,55.38,55.10,54.88,54.73,54.63,54.54,54.43,54.35,54.24,54.10,54.09,54.36,54.71,55.03,55.32,55.56,55.68,56.13,56.61,57.03,57.34,57.61,57.61,57.50,57.39,57.40,57.68,58.16,58.80,59.49,60.26,61.05,61.76,62.26,62.64,63.09,63.52,63.88,64.16,64.56,65.18,65.99,66.88,67.80,68.68,69.68,71.11,74.52,78.25,80.17,80.06,79.36,78.67,77.97,77.39,77.07,77.68,78.30,78.71,78.83,78.75,78.64,78.44,78.06,77.37,76.30,75.22,74.82,75.60,76.83,78.10,79.30,80.33,81.03,81.58,82.08,82.25,81.79,81.17,80.52,79.50,77.98,76.35,77.36,78.97,80.46,81.31,82.12,82.21,81.86,81.35,80.73,80.11,79.51,78.93,78.35,77.81,77.41,77.17,77.09,77.05,76.99,76.88,76.68,76.22,75.34,74.42,73.53,72.64,71.75,71.04,70.55,70.29,70.21,71.50,73.62,75.70,75.55,73.61,71.74,70.26,69.19,68.61,68.03,67.47,66.93,66.39,65.78,65.21,65.03,65.99,67.10,68.23,69.38,70.69,73.73,76.61,78.35,78.52,77.01,75.10,73.04,71.12,69.70,69.27,68.96,68.70,68.46,68.15,67.91,67.86,68.01,68.24,68.47,68.65,68.78,68.84,68.69,68.18,67.58,67.22,67.96,68.66,69.54,71.17,74.38,77.01,78.67,79.61,80.07,80.22,80.28,80.30,80.16,79.55,77.43,74.53,71.56,69.31,69.39,69.67,69.96,70.16,70.16,70.02,70.27,71.28,73.51,77.01,79.11,80.00,79.97,79.70,77.52,74.57,71.53,69.26,66.55,63.71,61.29,59.85,59.77,59.69,59.65,59.63,59.52,59.37,59.19,59.04,59.00,58.93
27.44,27.60,27.78,28.00,28.16,28.31,28.51,28.72,28.88,29.03,29.19,29.36,29.58,29.75,30.26,31.75,34.22,36.70,39.18,42.14,45.46,48.81,50.51,51.73,52.80,53.96,55.11,56.30,57.47,58.63,59.86,60.06,60.06,59.88,59.44,58.51,57.81,57.20,56.59,55.97,55.38,55.31,55.64,56.02,56.09,55.89,55.61,55.38,55.25,55.16,55.08,55.00,54.91,54.77,54.61,54.56,54.77,55.19,55.53,55.85,56.11,56.13,56.45,56.98,57.54,57.90,58.22,58.28,58.22,58.13,57.99,57.99,58.28,58.85,59.53,60.13,61.12,62.17,62.86,63.33,63.79,64.21,64.56,64.79,64.95,65.34,65.97,66.76,67.67,68.46,69.12,69.85,72.54,76.87,79.37,79.45,78.93,78.34,77.68,77.20,77.16,77.85,78.56,79.17,79.60,79.65,79.53,79.23,78.67,77.73,76.65,75.57,75.17,75.96,77.27,78.58,79.75,80.74,81.52,82.11,82.62,82.71,82.00,81.27,80.51,79.40,77.95,76.96,78.19,79.62,80.78,81.64,82.65,82.96,82.70,82.09,81.48,80.81,80.19,79.63,79.00,78.48,78.18,78.04,77.95,77.85,77.75,77.59,77.28,76.58,75.71,74.83,73.99,73.14,72.26,71.69,71.40,71.33,71.32,73.18,75.76,78.01,77.97,76.08,73.89,71.81,70.11,69.28,68.65,68.11,67.57,67.02,66.43,65.86,65.67,66.53,67.45,68.36,69.40,70.82,74.37,77.36,79.50,80.34,78.71,76.54,74.34,72.20,70.09,69.59,69.27,69.00,68.67,68.28,67.90,67.73,67.78,67.94,68.15,68.33,68.45,68.53,68.55,68.11,67.59,67.33,67.95,68.57,69.30,70.70,73.52,75.66,77.26,78.60,79.83,80.36,80.49,80.40,79.97,78.66,76.22,73.34,70.64,68.77,68.64,68.82,69.07,69.27,69.36,69.43,69.86,71.22,74.30,77.66,79.39,80.00,79.99,79.86,78.69,76.65,74.00,71.25,68.39,65.34,62.43,60.07,59.93,59.94,59.96,59.91,59.66,59.48,59.24,58.98,58.80,58.70
27.38,27.53,27.72,27.94,28.10,28.25,28.45,28.66,28.81,28.97,29.12,29.28,29.46,29.67,29.93,31.24,33.72,36.25,38.78,41.70,44.88,47.98,50.02,51.38,52.48,53.63,54.73,55.80,56.85,58.01,59.58,59.99,60.13,60.08,59.84,59.31,58.67,58.05,57.48,56.86,56.10,55.95,56.27,56.59,56.61,56.40,56.10,55.84,55.80,55.73,55.66,55.57,55.43,55.33,55.12,54.96,55.03,55.60,56.02,56.36,56.64,56.76,56.71,57.10,57.80,58.41,58.78,58.93,58.92,58.84,58.75,58.60,58.59,58.84,59.47,59.98,60.90,62.03,63.06,63.93,64.49,64.87,65.13,65.36,65.53,65.78,66.16,66.71,67.51,68.17,68.72,69.26,70.42,73.73,76.73,78.32,77.90,77.72,77.27,76.96,77.35,78.05,78.79,79.49,80.08,80.38,80.30,79.91,79.22,78.18,77.10,76.02,75.56,76.22,77.53,78.80,80.02,81.13,81.96,82.69,83.05,82.88,82.06,81.19,80.34,79.25,77.99,77.79,78.94,80.13,81.12,82.03,83.08,83.47,83.29,82.73,82.17,81.56,80.94,80.32,79.64,79.25,79.01,78.85,78.65,78.45,78.25,77.99,77.60,76.90,76.11,75.28,74.43,73.58,72.94,72.62,72.49,72.44,72.78,75.02,77.61,79.58,79.68,78.33,76.38,74.19,72.09,70.21,69.29,68.75,68.20,67.60,67.08,66.59,66.36,66.93,67.78,68.61,69.80,71.84,76.48,79.61,81.28,81.42,79.74,77.56,75.37,73.19,70.99,69.94,69.43,69.10,68.73,68.35,68.01,67.89,67.89,67.70,67.85,67.97,68.08,68.22,68.34,67.99,67.59,67.46,68.08,68.70,69.34,70.38,72.31,73.96,75.58,77.21,78.82,80.04,80.41,80.33,79.62,77.63,75.23,72.63,70.28,68.61,67.90,67.81,68.12,68.64,69.17,69.90,71.48,73.99,77.36,79.12,79.84,80.00,79.93,79.21,78.36,76.78,74.48,71.87,68.98,65.98,63.17,60.89,60.45,60.61,60.75,60.54,59.85,59.57,59.34,59.08,58.81,58.61
27.30,27.47,27.64,27.84,28.03,28.19,28.36,28.55,28.71,28.89,29.06,29.22,29.41,29.61,29.80,30.95,33.24,35.76,38.28,41.06,44.03,46.98,49.31,50.83,51.97,53.06,54.08,55.06,56.20,57.59,59.32,59.91,60.17,60.20,60.07,59.81,59.42,58.94,58.41,57.76,56.91,56.66,56.89,57.17,57.14,56.92,56.61,56.33,56.33,56.29,56.22,56.10,55.98,55.87,55.62,55.37,55.33,55.92,56.43,56.84,57.16,57.38,57.21,57.39,57.95,58.71,59.26,59.57,59.67,59.58,59.37,59.14,59.01,59.09,59.54,60.15,61.07,62.18,63.30,64.34,65.09,65.56,65.79,66.02,66.21,66.43,66.69,67.06,67.67,68.21,68.74,69.31,70.02,72.46,75.14,77.07,76.97,77.14,77.07,77.08,77.63,78.35,79.09,79.81,80.48,80.99,80.91,80.47,79.72,78.71,77.57,76.44,75.95,76.55,77.76,78.97,80.19,81.39,82.43,83.26,83.47,83.05,82.04,81.08,80.15,79.09,78.06,78.49,79.63,80.83,81.91,82.90,83.95,84.14,83.77,83.16,82.59,82.01,81.42,80.83,80.20,79.85,79.62,79.42,79.19,78.99,78.76,78.43,77.91,77.19,76.45,75.66,74.87,74.15,73.78,73.63,73.57,73.52,73.79,75.93,78.32,80.12,80.65,79.72,78.06,76.03,73.99,71.94,70.55,69.58,68.84,68.26,67.77,67.31,67.06,67.49,68.22,68.95,70.50,73.67,78.44,81.40,82.79,82.66,80.71,78.45,76.22,74.05,71.84,70.25,69.54,69.17,68.76,68.37,68.10,68.06,68.09,67.78,67.73,67.71,67.75,67.90,68.06,67.84,67.58,67.55,68.20,68.77,69.28,69.96,71.11,72.63,74.33,76.10,77.85,79.41,79.97,79.75,78.71,76.67,74.35,71.93,69.70,68.04,67.46,67.76,68.48,69.38,70.42,71.82,74.17,76.96,79.13,79.83,79.71,79.09,78.26,77.33,77.03,76.05,74.16,71.83,69.47,66.88,64.43,62.58,62.01,62.14,62.08,61.42,60.21,59.74,59.43,59.17,58.89,58.72
27.23,27.40,27.56,27.72,27.95,28.12,28.28,28.44,28.59,28.82,29.00,29.18,29.41,29.56,29.78,30.79,32.80,35.27,37.73,40.32,43.04,45.88,48.42,50.12,51.33,52.33,53.26,54.21,55.56,57.27,59.03,59.83,60.19,60.27,60.21,60.14,60.06,59.82,59.33,58.66,57.76,57.40,57.52,57.74,57.67,57.43,57.12,56.84,56.85,56.84,56.76,56.63,56.55,56.40,56.09,55.78,55.65,56.19,56.78,57.30,57.68,58.00,57.85,57.79,58.06,58.89,59.67,60.19,60.41,60.31,59.94,59.68,59.52,59.50,59.72,60.52,61.47,62.50,63.58,64.66,65.63,66.25,66.50,66.74,66.97,67.20,67.44,67.67,68.05,68.49,69.06,69.80,70.71,72.41,74.35,75.97,76.27,76.66,77.01,77.40,77.96,78.72,79.44,80.14,80.84,81.55,81.42,80.91,80.16,79.24,78.02,76.84,76.32,76.89,77.98,79.12,80.32,81.57,82.88,83.80,83.90,83.24,82.01,80.99,79.98,78.96,78.18,79.10,80.30,81.63,82.95,84.04,85.01,84.87,84.17,83.48,82.86,82.30,81.76,81.23,80.70,80.38,80.13,79.90,79.67,79.50,79.27,78.87,78.23,77.46,76.76,76.02,75.32,74.80,74.72,74.69,74.66,74.59,74.59,76.34,78.38,80.07,81.17,80.58,79.25,77.54,75.76,73.99,72.12,70.55,69.52,68.96,68.48,68.01,67.76,68.12,68.73,69.44,71.51,75.95,80.26,82.88,84.14,84.00,81.66,79.25,76.98,74.81,72.63,70.54,69.63,69.21,68.76,68.36,68.18,68.23,68.35,68.05,67.74,67.53,67.47,67.61,67.74,67.67,67.56,67.63,68.31,68.79,69.15,69.50,69.97,71.55,73.31,75.12,76.88,78.57,79.25,78.82,77.47,75.71,73.53,71.21,69.01,67.22,67.24,68.26,69.58,70.91,72.48,74.51,77.32,79.80,80.10,80.10,79.20,77.60,75.67,74.81,75.15,74.84,73.47,71.51,69.95,67.97,66.03,64.76,64.14,64.11,63.65,62.37,60.66,59.94,59.53,59.24,59.03,58.95
27.16,27.34,27.49,27.65,27.83,28.03,28.24,28.44,28.59,28.82,29.00,29.18,29.41,29.56,29.78,30.70,32.53,34.90,37.21,39.60,42.06,44.60,46.99,48.93,50.41,51.50,52.43,53.71,55.24,56.91,58.47,59.62,60.13,60.26,60.34,60.37,60.32,60.19,59.94,59.46,58.55,58.11,58.13,58.25,58.18,57.94,57.61,57.30,57.40,57.38,57.30,57.21,57.13,56.88,56.54,56.20,55.97,56.51,57.07,57.60,58.08,58.50,58.45,58.31,58.39,59.03,59.85,60.56,60.94,60.90,60.67,60.44,60.26,60.18,60.25,61.03,61.98,63.01,64.09,65.12,66.11,66.88,67.34,67.63,67.87,68.10,68.34,68.63,69.01,69.45,70.17,71.34,72.99,74.61,76.10,77.22,77.43,77.14,77.23,77.72,78.47,79.08,79.76,80.52,81.38,82.23,81.62,80.85,80.12,79.30,78.18,77.07,76.52,76.96,78.10,79.21,80.40,81.69,82.95,84.13,84.32,83.61,82.32,81.10,80.08,79.28,78.87,79.69,81.00,82.42,83.83,85.12,85.58,85.25,84.54,83.80,83.18,82.58,82.04,81.58,81.26,81.09,80.95,80.78,80.50,80.18,79.77,79.23,78.56,77.89,77.20,76.52,75.97,75.75,75.82,75.81,75.77,75.75,75.75,76.88,78.32,79.72,81.02,80.98,80.01,78.42,76.59,74.92,73.29,71.79,70.51,69.76,69.20,68.77,68.53,68.65,69.29,71.10,74.15,78.25,81.37,83.86,85.32,85.30,82.71,80.06,77.63,75.34,73.02,70.77,69.69,69.16,68.75,68.31,68.24,68.39,68.56,68.36,68.06,67.85,67.71,67.59,67.48,67.50,67.57,67.73,68.26,68.55,68.77,69.08,69.65,70.79,72.27,73.95,75.66,77.25,77.66,77.09,75.81,74.35,72.46,70.38,68.23,66.32,67.47,69.18,71.05,72.88,74.74,76.94,78.82,80.02,80.17,80.06,77.94,75.10,72.81,72.74,73.35,73.80,73.59,72.17,70.83,69.45,68.13,67.00,66.38,65.76,64.58,62.73,60.93,60.03,59.53,59.30,59.28,59.25
27.10,27.28,27.43,27.59,27.77,27.99,28.21,28.41,28.59,28.79,28.98,29.18,29.41,29.56,29.78,30.63,32.32,34.53,36.68,38.82,40.98,43.23,45.44,47.46,49.17,50.53,51.63,53.03,54.60,56.20,57.64,59.01,59.81,60.18,60.30,60.38,60.38,60.38,60.35,60.04,59.24,58.78,58.69,58.76,58.69,58.43,58.09,57.78,57.94,57.92,57.86,57.78,57.67,57.36,56.99,56.61,56.29,56.80,57.36,57.91,58.44,58.93,59.04,58.96,58.89,59.10,59.88,60.66,61.24,61.50,61.55,61.40,61.22,61.09,61.06,61.77,62.61,63.54,64.57,65.57,66.59,67.46,68.09,68.45,68.74,69.11,69.57,70.11,70.68,71.12,71.86,73.24,75.30,76.91,78.03,78.64,78.69,78.09,77.86,78.04,78.49,79.44,80.34,81.24,82.11,82.68,81.72,80.74,79.97,79.23,78.28,77.26,76.74,77.18,78.21,79.30,80.50,81.79,83.11,84.51,84.75,83.99,82.71,81.42,80.36,79.74,79.78,80.86,82.26,83.73,85.10,86.18,86.11,85.60,84.89,84.15,83.51,82.92,82.48,82.20,82.05,81.98,81.89,81.70,81.39,80.98,80.42,79.75,79.01,78.37,77.68,77.11,76.74,76.67,76.86,76.91,76.90,76.90,76.90,77.51,78.44,79.56,80.95,81.56,80.92,79.42,77.72,76.12,74.67,73.23,71.78,70.83,70.13,69.64,69.38,69.43,70.33,72.55,75.76,79.43,82.11,84.68,86.56,87.01,84.31,81.09,78.31,75.88,73.44,71.04,69.79,69.15,68.72,68.28,68.31,68.53,68.74,68.64,68.37,68.17,67.98,67.75,67.49,67.45,67.51,67.66,68.02,68.20,68.39,68.71,69.33,70.13,71.39,72.93,74.55,75.89,76.10,75.43,74.18,72.90,71.30,69.38,67.42,65.89,67.87,70.03,72.21,74.34,76.42,78.55,79.79,80.20,80.20,79.57,76.76,73.31,70.72,71.21,72.09,73.04,73.58,72.73,71.64,70.70,69.83,68.93,68.27,67.19,65.53,63.35,61.34,60.18,59.60,59.45,59.53,59.56
27.03,27.21,27.37,27.53,27.76,27.99,28.18,28.36,28.59,28.75,28.95,29.18,29.41,29.56,29.78,30.59,32.15,34.17,36.12,37.97,39.81,41.76,43.77,45.73,47.62,49.41,50.87,52.21,53.65,55.16,56.56,58.01,59.26,60.03,60.11,60.19,60.26,60.41,60.56,60.40,59.83,59.39,59.20,59.28,59.20,58.91,58.56,58.29,58.45,58.47,58.43,58.34,58.19,57.82,57.44,57.03,56.60,57.07,57.65,58.23,58.77,59.31,59.64,59.72,59.54,59.11,59.79,60.54,61.33,62.12,62.56,62.52,62.37,62.23,62.16,62.72,63.35,64.08,65.01,66.02,67.08,68.02,68.74,69.20,69.59,70.23,71.10,72.08,72.99,73.45,74.10,75.49,77.65,79.32,80.14,80.20,80.05,79.47,78.87,78.36,78.07,79.81,81.17,82.26,83.04,82.91,81.72,80.59,79.73,79.03,78.33,77.42,76.99,77.55,78.33,79.41,80.60,81.89,83.35,84.95,85.20,84.39,83.15,81.92,80.80,80.34,80.88,82.55,84.05,85.52,86.74,87.23,86.61,85.92,85.23,84.53,83.84,83.32,83.07,83.06,83.05,83.05,82.91,82.66,82.35,81.89,81.21,80.41,79.58,78.89,78.20,77.79,77.64,77.56,77.85,78.00,78.05,78.05,78.05,78.25,78.72,79.56,80.95,82.30,81.98,80.53,79.13,77.58,76.25,74.85,73.29,72.14,71.25,70.61,70.29,70.44,71.82,73.80,76.39,79.57,82.49,85.36,87.86,89.12,86.42,82.33,79.02,76.43,73.88,71.34,69.94,69.18,68.66,68.27,68.39,68.66,68.89,68.89,68.67,68.49,68.30,68.07,67.76,67.52,67.41,67.44,67.60,67.76,68.00,68.39,69.01,69.56,70.65,72.06,73.55,74.49,74.55,73.83,72.60,71.36,70.04,68.23,66.58,65.92,68.44,70.81,73.08,75.32,77.55,79.40,80.27,80.35,80.20,78.65,75.65,72.17,69.35,70.18,71.33,72.55,73.46,73.20,72.38,71.71,71.16,70.59,69.83,68.44,66.51,64.20,61.90,60.39,59.75,59.71,59.79,59.86
26.92,27.12,27.30,27.47,27.70,27.93,28.12,28.29,28.52,28.73,28.92,29.12,29.35,29.55,29.74,30.41,31.77,33.73,35.59,37.22,38.73,40.29,42.06,43.88,45.66,47.39,49.18,50.78,52.28,53.70,55.05,56.02,56.80,57.57,58.47,58.88,59.29,59.77,60.26,60.44,60.33,60.15,59.97,59.91,59.69,59.39,59.07,58.80,58.91,58.97,58.95,58.84,58.64,58.27,57.88,57.47,57.04,57.41,57.93,58.47,58.97,59.51,60.01,60.34,60.33,59.72,59.98,60.53,61.27,62.10,62.75,63.21,63.41,63.37,63.25,63.76,64.36,65.02,65.76,66.58,67.55,68.51,69.43,70.60,71.90,73.04,74.05,75.10,75.48,75.75,76.38,77.68,79.27,80.53,81.20,81.31,81.21,80.72,80.23,79.88,79.86,81.03,82.17,83.26,84.00,83.04,81.68,80.47,79.55,78.90,78.16,77.53,77.39,77.99,78.71,79.59,80.81,82.35,83.96,85.58,85.83,85.05,83.91,82.62,81.55,81.77,83.58,85.47,86.84,87.61,87.79,87.50,86.82,86.12,85.43,84.75,84.29,84.12,84.08,84.08,84.08,84.08,83.94,83.67,83.31,82.70,81.94,81.13,80.32,79.49,78.97,78.67,78.55,78.52,78.76,79.03,79.20,79.20,79.25,79.40,79.76,80.44,81.64,82.97,82.86,81.68,80.29,79.12,77.84,76.39,74.80,73.45,72.63,72.06,71.69,71.66,72.15,73.82,76.32,79.23,82.40,85.69,88.36,89.67,88.09,83.59,79.73,76.74,74.15,71.41,69.98,69.24,68.72,68.33,68.53,68.82,69.05,69.20,68.99,68.81,68.61,68.33,68.07,67.83,67.64,67.50,67.37,67.41,67.67,68.12,68.69,69.23,69.98,70.99,72.21,73.04,73.15,72.60,71.56,70.37,68.71,66.77,65.62,66.34,68.75,71.12,73.45,75.75,78.08,79.81,80.49,80.38,80.08,77.83,74.91,71.77,69.06,69.49,70.68,71.98,73.05,73.53,73.26,72.68,72.08,71.75,72.01,69.92,67.29,65.02,62.98,61.34,60.56,60.53,60.89,61.48
26.83,27.04,27.24,27.40,27.63,27.87,28.06,28.23,28.46,28.69,28.87,29.06,29.29,29.52,29.71,30.25,31.37,33.22,34.96,36.42,37.69,38.97,40.42,41.99,43.62,45.30,47.31,49.06,50.65,52.04,53.08,53.64,54.05,54.79,56.24,56.95,57.64,58.45,59.37,60.08,60.46,60.60,60.57,60.45,60.14,59.85,59.57,59.33,59.41,59.47,59.46,59.35,59.12,58.74,58.34,57.93,57.51,57.70,58.11,58.58,59.03,59.55,60.11,60.71,61.04,60.56,60.47,60.73,61.27,62.03,62.82,63.59,64.10,64.31,64.35,64.81,65.38,66.01,66.65,67.32,68.17,69.18,70.45,72.48,74.52,76.14,77.36,78.44,78.28,78.27,78.72,79.75,80.64,81.50,82.13,82.43,82.33,81.94,81.60,81.44,81.59,82.27,83.24,84.16,84.56,83.05,81.55,80.31,79.39,78.80,78.07,77.72,77.84,78.43,79.09,79.94,81.23,82.91,84.61,86.24,86.44,85.61,84.52,83.29,82.53,83.41,86.09,88.02,88.96,89.04,88.48,87.73,87.02,86.31,85.66,85.11,84.94,85.02,85.10,85.10,85.10,85.08,84.93,84.65,84.24,83.51,82.74,81.96,81.16,80.29,79.87,79.64,79.53,79.55,79.73,80.07,80.34,80.40,80.46,80.62,80.94,81.49,82.53,83.61,83.57,82.62,81.34,80.42,79.21,77.74,76.09,74.75,74.04,73.54,73.13,72.86,72.45,73.79,76.20,78.84,81.95,85.56,88.47,89.96,89.32,84.56,80.20,76.78,74.05,71.25,69.88,69.22,68.74,68.43,68.71,69.02,69.25,69.46,69.29,69.13,68.92,68.61,68.34,68.03,67.79,67.64,67.45,67.36,67.48,67.82,68.32,68.80,69.34,70.04,70.93,71.62,71.74,71.26,70.27,69.02,67.22,65.56,65.12,66.91,69.20,71.56,73.90,76.21,78.56,80.08,80.59,80.29,79.61,77.02,74.20,71.34,68.79,68.69,70.00,71.40,72.52,73.41,73.69,73.34,72.78,72.54,72.91,70.80,68.24,66.20,64.42,62.84,62.03,61.99,62.54,63.36
26.77,26.97,27.17,27.34,27.57,27.80,27.99,28.17,28.40,28.63,28.81,28.99,29.22,29.46,29.68,30.11,30.95,32.61,34.19,35.53,36.71,37.88,38.89,40.05,41.46,43.19,45.20,46.95,48.67,50.09,50.44,50.72,50.98,51.67,53.18,54.14,55.00,56.12,57.59,59.14,60.02,60.57,60.85,60.83,60.53,60.27,60.05,59.91,59.99,60.01,59.97,59.86,59.63,59.25,58.82,58.39,58.01,57.90,58.13,58.49,58.90,59.37,59.79,60.69,61.64,61.70,61.43,61.25,61.36,61.90,62.74,63.53,64.26,64.92,65.46,65.87,66.41,67.05,67.73,68.36,69.01,70.13,72.02,75.08,77.53,79.55,81.13,82.21,81.58,81.14,81.15,81.66,81.66,82.17,82.92,83.57,83.42,83.11,82.96,82.96,83.06,83.49,84.39,84.90,84.48,82.88,81.27,80.07,79.28,78.73,78.10,78.05,78.38,78.87,79.43,80.53,81.97,83.61,85.31,86.94,86.99,85.99,84.91,83.87,83.81,85.30,88.17,89.90,89.94,89.41,88.69,87.98,87.22,86.51,85.96,85.71,85.88,86.04,86.12,86.12,86.12,86.06,85.89,85.59,85.13,84.30,83.65,82.97,82.14,81.42,80.98,80.73,80.63,80.70,80.79,81.12,81.49,81.68,81.69,81.91,82.26,82.75,83.70,84.23,84.01,83.22,82.24,81.31,80.25,78.81,77.02,76.04,75.47,75.03,74.60,74.03,72.76,73.76,76.05,78.42,80.99,84.74,88.04,89.99,89.90,85.07,80.29,76.38,73.42,70.76,69.57,69.07,68.70,68.59,68.94,69.28,69.49,69.66,69.58,69.45,69.24,68.92,68.56,68.03,67.77,67.88,67.99,67.76,67.51,67.47,67.87,68.21,68.74,69.29,69.75,70.25,70.29,69.71,68.55,67.05,65.47,64.74,65.37,67.67,69.92,72.23,74.52,76.77,79.02,80.19,80.52,80.02,78.60,76.19,73.50,70.81,68.47,67.73,69.27,70.82,71.79,72.58,73.40,73.52,73.20,72.80,71.74,70.70,69.46,67.95,66.37,65.16,64.50,64.42,64.96,65.55
26.70,26.91,27.11,27.27,27.51,27.70,27.90,28.10,28.33,28.56,28.75,28.93,29.16,29.39,29.62,29.92,30.47,31.89,33.31,34.56,35.62,36.53,37.46,38.52,39.69,40.96,42.36,43.93,45.51,46.81,47.32,47.58,47.75,48.33,49.73,51.47,52.81,54.20,55.84,57.74,59.33,60.30,60.75,60.95,60.85,60.68,60.52,60.43,60.51,60.49,60.43,60.32,60.09,59.71,59.28,58.83,58.41,58.13,58.32,58.70,59.12,59.51,59.93,60.90,62.10,62.78,62.50,62.21,62.07,62.17,62.69,63.45,64.24,65.00,65.74,66.35,66.96,67.58,68.24,68.81,69.42,70.94,73.68,77.05,80.53,83.74,86.13,86.84,85.95,85.06,84.40,84.10,83.99,84.16,84.47,84.74,84.66,84.52,84.49,84.53,84.57,84.75,85.48,85.54,84.41,82.79,81.17,80.02,79.32,78.82,78.33,78.43,78.84,79.35,80.30,81.63,83.16,84.77,86.35,87.63,87.54,86.55,85.51,84.50,84.77,86.37,88.95,90.61,90.55,89.89,89.02,88.24,87.43,86.89,86.62,86.61,86.84,87.04,87.16,87.19,87.15,87.04,86.85,86.51,85.92,85.24,84.63,83.95,83.17,82.60,82.25,82.05,81.97,82.01,82.08,82.33,82.66,82.96,82.96,83.20,83.54,84.01,84.86,84.90,84.50,83.81,82.92,81.95,80.82,79.52,78.15,77.35,76.89,76.53,76.06,75.20,73.77,74.07,75.60,77.64,79.75,83.18,86.65,89.14,89.06,84.64,80.09,76.16,72.99,70.52,69.44,69.04,68.81,68.86,69.18,69.52,69.88,70.36,70.24,69.69,69.02,68.56,68.21,68.13,68.23,68.44,68.51,68.15,67.81,67.63,67.69,67.68,68.05,68.51,68.84,69.06,68.67,68.07,67.13,65.30,64.50,64.93,66.44,68.74,70.65,72.81,75.03,77.19,79.19,80.04,80.11,79.33,77.58,75.20,72.68,70.16,67.88,66.95,68.44,70.08,71.20,72.01,72.90,73.41,73.52,73.24,72.41,71.63,70.70,69.60,68.55,67.61,66.99,66.85,67.39,67.94
26.64,26.85,27.05,27.21,27.43,27.60,27.81,28.04,28.27,28.49,28.67,28.86,29.10,29.31,29.54,29.74,30.05,31.12,32.38,33.50,34.42,35.11,36.05,37.10,38.08,38.91,39.73,41.03,42.31,43.37,44.08,44.34,44.47,44.88,46.03,48.41,50.44,52.30,54.15,56.27,58.45,59.85,60.54,60.91,61.04,61.01,60.93,60.91,60.99,60.96,60.89,60.79,60.57,60.16,59.69,59.21,58.75,58.35,58.53,58.94,59.39,59.78,60.27,61.16,62.34,63.46,63.47,63.26,62.95,62.68,62.84,63.43,64.18,64.98,65.81,66.59,67.28,67.93,68.57,69.11,69.84,71.79,75.18,78.71,83.20,87.33,90.17,90.62,89.68,88.54,87.42,86.52,86.31,86.02,85.67,85.43,85.77,85.86,85.94,86.01,86.04,86.06,86.44,86.01,84.40,82.79,81.18,80.06,79.40,78.93,78.63,78.83,79.32,79.99,81.47,82.99,84.52,86.04,87.51,88.34,88.12,87.21,86.20,85.18,85.65,87.20,89.35,90.90,91.05,90.41,89.39,88.54,87.74,87.37,87.34,87.55,87.80,88.03,88.20,88.25,88.18,88.03,87.81,87.42,86.78,86.25,85.64,84.96,84.26,83.81,83.54,83.40,83.36,83.37,83.42,83.59,83.87,84.20,84.23,84.48,84.83,85.22,85.71,85.34,84.86,84.28,83.50,82.56,81.40,80.26,79.30,78.65,78.29,77.98,77.47,76.36,74.92,74.43,75.07,76.80,78.56,81.43,84.77,87.61,87.51,83.68,79.62,75.93,72.67,70.38,69.37,69.05,68.97,69.15,69.45,69.84,70.39,71.18,71.03,70.16,69.12,68.48,68.04,68.39,68.84,69.05,69.02,68.60,68.27,68.04,67.77,67.44,67.56,67.83,67.99,67.93,67.16,66.50,65.75,63.85,63.87,65.33,67.56,69.79,71.41,73.38,75.36,77.18,78.71,79.29,79.10,78.13,76.36,74.09,71.77,69.40,67.14,66.10,67.51,69.23,70.56,71.45,72.26,73.03,73.49,73.42,73.19,72.66,71.95,71.16,70.55,69.89,69.35,69.15,69.64,70.17
26.57,26.78,26.98,27.14,27.31,27.52,27.74,27.97,28.21,28.38,28.58,28.80,29.03,29.20,29.42,29.61,29.81,30.24,31.33,32.24,32.94,33.64,34.63,35.72,36.70,37.42,38.15,38.98,39.72,40.31,40.77,41.02,41.11,41.29,41.87,44.20,47.30,50.23,52.64,54.91,57.20,59.06,60.27,60.59,60.92,61.08,61.19,61.29,61.37,61.42,61.41,61.31,61.14,60.60,60.01,59.47,59.00,58.56,58.68,59.07,59.57,60.25,60.91,61.45,62.04,63.02,64.14,64.28,63.97,63.68,63.54,63.64,64.14,64.97,65.75,66.53,67.28,68.02,68.76,69.30,70.55,72.83,76.17,79.90,84.96,88.73,90.81,91.51,90.96,90.18,89.33,88.52,87.82,86.72,85.48,84.80,86.42,86.85,87.06,87.19,87.32,87.44,87.08,86.10,84.54,82.98,81.42,80.23,79.46,79.00,79.03,79.27,79.89,81.07,83.19,84.81,86.14,87.39,88.85,89.10,88.81,88.09,87.03,85.96,86.49,87.84,89.44,90.75,91.49,91.01,89.77,88.92,88.31,88.00,88.06,88.45,88.75,88.99,89.18,89.28,89.20,89.05,88.74,88.31,87.87,87.39,86.72,86.04,85.48,85.08,84.82,84.71,84.71,84.77,84.73,84.87,85.11,85.36,85.49,85.80,86.15,86.30,85.70,85.17,84.78,84.42,83.88,83.19,82.28,81.30,80.41,79.90,79.61,79.30,78.73,77.52,76.07,74.71,74.44,76.03,77.68,79.55,82.07,84.70,84.80,81.78,78.58,75.55,72.54,70.35,69.37,69.11,69.17,69.45,69.81,70.38,71.18,72.07,71.97,71.31,70.41,69.60,68.67,69.09,69.58,69.61,69.48,69.26,69.07,68.83,68.41,67.98,67.69,67.46,67.20,66.89,66.07,65.21,64.31,63.10,63.77,65.74,68.29,70.62,72.25,73.95,75.25,76.01,76.60,76.97,76.65,75.74,74.56,72.74,70.69,68.44,66.17,64.98,66.32,68.14,69.70,70.73,71.42,72.04,72.52,72.81,73.17,73.42,73.21,72.51,71.95,71.64,71.29,71.08,71.37,71.85
26.51,26.72,26.92,27.07,27.23,27.45,27.68,27.90,28.10,28.29,28.50,28.72,28.92,29.11,29.31,29.48,29.64,29.84,30.49,31.01,31.48,32.21,33.28,34.35,35.27,36.00,36.77,37.45,37.93,38.26,38.62,38.95,39.14,39.27,39.51,41.21,44.48,47.75,50.38,52.83,55.17,57.33,59.13,60.26,60.59,60.77,60.90,61.05,61.17,61.39,61.61,61.76,61.75,61.08,60.42,59.83,59.31,59.02,59.07,59.27,59.52,59.95,60.49,60.80,61.23,62.43,64.20,64.92,64.95,64.65,64.42,64.23,64.38,64.93,65.73,66.51,67.28,68.05,68.82,69.47,71.22,73.81,77.06,80.88,85.86,89.32,91.14,92.09,91.63,90.83,89.66,88.16,87.04,85.64,84.65,84.69,86.83,87.75,88.13,88.25,88.37,88.35,87.72,86.54,84.93,83.35,81.74,80.45,79.60,79.28,79.42,79.91,80.95,82.68,84.96,86.77,88.07,88.97,89.85,89.87,89.60,89.04,88.13,87.19,87.32,88.09,89.18,90.28,91.63,91.73,90.68,89.45,88.92,88.62,88.65,89.05,89.49,90.01,90.45,90.69,90.58,90.34,89.96,89.49,89.00,88.46,87.81,87.20,86.74,86.36,86.16,86.08,86.09,86.14,86.06,86.17,86.38,86.60,86.76,86.72,86.45,85.91,84.95,84.30,83.91,83.64,83.28,82.91,82.36,81.71,81.08,80.79,80.46,80.10,79.56,78.53,77.08,75.51,74.59,75.04,76.62,78.18,80.11,82.11,82.40,80.13,77.64,75.15,72.46,70.33,69.40,69.22,69.44,69.95,70.62,71.45,72.38,73.24,72.86,72.21,71.51,70.91,70.42,70.69,71.07,71.24,71.05,70.74,70.38,69.86,69.05,68.38,67.79,67.49,67.50,66.77,65.74,64.64,63.52,62.35,63.52,65.84,68.54,70.82,72.27,73.62,74.42,74.55,74.37,74.26,73.92,73.23,72.05,70.67,69.06,67.11,64.94,64.11,65.15,66.80,68.47,69.62,70.31,70.85,71.29,71.69,72.30,72.85,73.14,73.17,73.39,73.34,73.11,72.91,73.14,73.33
26.45,26.66,26.86,27.01,27.16,27.38,27.61,27.83,27.98,28.21,28.44,28.64,28.80,29.02,29.19,29.35,29.50,29.66,29.81,29.92,30.18,30.89,31.99,32.96,33.83,34.61,35.46,36.11,36.47,36.65,36.96,37.42,37.75,37.92,38.01,38.98,41.91,45.08,47.77,50.40,52.78,55.15,57.47,59.63,59.96,60.12,60.27,60.51,60.72,61.12,61.62,62.11,62.33,61.64,60.96,60.36,59.80,59.74,59.73,59.70,59.61,59.52,59.76,59.92,60.38,61.93,64.05,65.41,65.90,65.61,65.38,65.02,64.81,64.95,65.73,66.51,67.28,68.06,68.84,69.66,71.91,74.78,77.93,81.80,86.39,89.56,91.31,92.45,91.91,90.91,89.19,86.74,85.26,83.85,83.62,84.81,87.13,88.57,89.15,89.22,89.27,89.03,88.35,87.14,85.45,83.83,82.22,80.88,80.02,79.84,80.01,80.83,82.37,84.60,86.83,88.77,90.07,90.66,90.82,90.76,90.52,90.08,89.38,88.62,88.22,88.31,88.91,89.81,91.67,92.48,91.88,90.21,89.61,89.25,89.22,89.60,90.27,91.15,91.89,92.29,92.15,91.79,91.37,90.86,90.24,89.58,88.96,88.43,88.01,87.64,87.52,87.48,87.49,87.49,87.41,87.48,87.65,87.83,87.85,87.25,86.19,84.87,83.85,83.12,82.70,82.45,82.21,82.12,81.93,81.65,81.33,81.26,80.89,80.49,80.02,79.23,77.80,76.29,74.96,74.14,75.68,77.22,78.68,79.88,80.28,78.71,76.83,74.80,72.46,70.42,69.52,69.42,69.83,70.64,71.67,72.76,73.77,74.47,73.75,73.08,72.58,72.30,72.55,72.63,72.91,73.36,73.15,72.65,71.98,71.07,69.77,68.85,68.02,67.82,68.27,67.12,65.84,64.49,63.07,61.61,63.15,65.69,68.43,70.65,71.87,72.86,73.28,73.05,72.30,71.66,71.21,70.59,69.18,68.21,67.10,65.54,63.61,63.43,64.13,65.46,67.08,68.30,69.04,69.54,69.95,70.36,71.06,71.70,72.47,73.46,74.71,74.98,74.86,74.69,74.88,74.56
26.38,26.59,26.79,26.95,27.10,27.32,27.55,27.76,27.92,28.15,28.34,28.51,28.66,28.84,29.00,29.15,29.31,29.46,29.62,29.73,29.86,30.13,30.78,31.59,32.44,33.27,34.12,34.64,34.88,34.98,35.29,35.85,36.24,36.57,37.00,38.26,40.12,42.42,45.02,47.71,50.27,52.69,54.96,57.07,57.99,58.40,58.87,59.72,60.32,60.72,61.23,61.91,62.68,62.57,62.12,61.61,61.34,61.38,61.47,61.44,61.17,60.44,60.00,60.05,60.77,62.38,64.31,65.98,66.84,66.63,66.34,65.98,65.65,65.47,65.71,66.49,67.28,68.07,68.91,70.08,72.71,75.83,79.02,82.94,87.03,89.81,91.34,92.33,91.45,90.10,87.98,85.07,83.43,82.51,83.09,85.07,87.38,89.14,89.88,89.94,89.84,89.50,88.91,87.78,86.09,84.47,83.40,82.57,81.95,81.57,81.98,83.07,84.78,86.96,89.09,90.66,91.73,92.33,92.54,92.44,92.09,91.55,90.85,90.14,89.61,89.38,89.52,90.22,91.81,93.12,93.47,91.99,90.73,90.05,90.04,90.71,91.78,92.82,93.59,93.97,93.87,93.56,93.19,92.71,92.09,91.14,90.46,89.86,89.24,88.97,88.86,88.85,88.90,88.90,88.77,88.82,88.89,88.72,87.70,86.45,85.13,83.82,82.65,81.95,81.49,81.15,80.80,80.61,80.43,80.26,80.12,80.10,79.94,79.71,79.29,78.41,76.92,75.49,74.56,74.53,76.01,77.50,78.59,79.10,79.05,78.09,76.60,74.80,72.91,71.16,70.21,70.14,70.88,71.93,73.06,74.22,75.18,75.33,74.86,74.39,73.99,73.72,74.12,74.34,74.86,75.63,75.56,75.03,74.12,72.77,70.92,70.10,69.23,68.83,68.98,67.88,66.65,64.98,62.95,60.94,62.35,64.73,67.41,69.81,70.99,71.81,72.20,72.12,71.57,70.87,69.36,67.43,65.92,65.24,64.49,63.51,62.43,63.24,64.01,64.79,65.65,66.77,67.50,68.07,68.59,69.15,69.84,70.52,71.63,73.31,75.25,76.30,76.57,76.39,76.23,74.65
26.35,26.54,26.73,26.88,27.04,27.25,27.47,27.66,27.82,28.02,28.19,28.34,28.50,28.65,28.81,28.96,29.12,29.27,29.43,29.55,29.66,29.76,30.11,30.69,31.37,32.06,32.80,33.34,33.74,34.08,34.50,34.97,35.27,35.60,36.24,37.60,38.90,40.54,42.70,45.29,47.69,50.00,52.21,54.30,55.44,56.16,56.95,58.10,59.21,60.06,60.80,61.53,62.40,62.85,62.98,63.00,63.10,63.23,63.42,63.37,62.90,61.93,61.32,61.38,62.14,63.45,65.13,66.78,67.72,67.58,67.30,66.94,66.55,66.21,66.04,66.60,67.34,68.15,69.02,70.27,73.10,76.47,79.90,83.64,87.39,89.93,91.27,91.92,90.77,88.87,86.26,83.19,81.64,81.22,82.40,84.89,87.44,89.40,90.34,90.51,90.35,89.99,89.48,88.53,87.11,85.86,85.17,84.72,84.38,84.06,84.44,85.51,87.16,89.19,91.08,92.39,93.32,93.93,94.22,94.11,93.68,93.06,92.36,91.69,91.00,90.60,90.67,91.09,92.40,93.77,94.38,93.05,91.54,90.76,90.90,92.00,93.32,94.50,95.30,95.64,95.59,95.33,95.01,94.54,93.84,93.12,92.55,91.93,91.21,90.84,90.64,90.59,90.60,90.45,90.17,89.95,89.61,88.94,87.28,85.57,84.02,82.69,81.48,80.87,80.46,80.13,79.80,79.59,79.39,79.22,79.12,79.09,79.03,78.88,78.50,77.58,76.07,75.09,74.68,74.80,76.27,77.45,78.15,78.32,78.06,77.49,76.28,74.62,72.92,71.69,71.12,71.29,72.17,73.33,74.49,75.64,76.51,76.43,76.12,75.75,75.41,75.20,75.69,76.07,76.75,77.66,77.92,77.43,76.37,74.92,73.31,72.70,71.89,71.13,70.48,69.00,67.31,65.21,62.80,60.45,61.29,63.24,65.67,68.02,69.65,70.65,71.13,71.15,70.71,69.22,66.69,64.05,62.84,62.48,62.42,62.59,63.03,64.41,65.17,65.64,66.06,66.80,67.47,67.97,68.42,68.98,69.45,70.03,71.23,73.21,75.42,77.06,77.88,77.83,76.93,74.69
26.36,26.51,26.66,26.82,26.97,27.19,27.38,27.54,27.69,27.85,28.00,28.15,28.31,28.46,28.62,28.77,28.93,29.08,29.24,29.39,29.54,29.70,29.85,30.17,30.56,30.96,31.50,32.18,32.95,33.75,34.37,34.63,34.71,34.95,35.67,36.97,38.11,39.26,40.69,43.08,45.06,47.12,49.26,51.35,52.45,53.53,54.65,55.86,57.56,59.20,60.34,61.02,61.65,62.62,63.62,64.47,65.00,65.23,65.52,65.42,64.75,63.84,63.45,63.63,64.23,65.00,66.37,67.76,68.58,68.48,68.25,67.90,67.51,67.11,66.64,66.82,67.43,68.28,69.14,70.30,73.17,76.82,80.62,84.01,87.55,89.97,91.14,91.29,89.94,87.34,84.17,81.18,79.87,79.97,81.59,84.40,87.34,89.43,90.58,90.95,90.80,90.49,90.06,89.37,88.42,87.81,87.39,87.22,87.20,87.12,87.27,88.10,89.51,91.34,92.88,94.00,94.85,95.49,95.87,95.77,95.29,94.59,93.90,93.28,92.38,91.94,92.22,92.30,93.35,94.41,94.79,93.55,92.10,91.40,91.81,93.42,94.89,96.17,97.00,97.31,97.31,97.10,96.83,96.35,95.51,95.44,95.08,94.49,93.74,93.12,92.76,92.61,92.51,92.12,91.59,90.89,89.95,88.66,86.65,84.64,82.89,81.48,80.32,79.85,79.56,79.33,79.10,78.94,78.68,78.43,78.29,78.21,78.13,78.01,77.67,76.75,75.24,75.00,75.19,74.99,76.45,77.15,77.47,77.54,77.23,76.92,75.89,74.30,72.61,72.07,72.18,72.76,73.64,74.80,75.96,77.04,77.79,77.71,77.49,77.16,76.86,76.74,77.28,77.82,78.58,79.53,80.22,79.83,78.71,77.39,76.62,76.31,75.62,74.40,72.58,70.41,67.87,65.25,62.63,60.08,60.04,61.37,63.40,65.50,67.97,69.39,70.05,70.12,69.73,66.93,63.41,60.52,59.91,59.90,60.76,62.52,64.98,66.60,67.29,67.63,67.85,68.00,68.59,68.91,69.17,69.62,69.70,70.06,71.18,73.15,75.31,77.40,78.87,79.08,77.15,74.69
26.42,26.57,26.73,26.88,27.04,27.21,27.38,27.54,27.69,27.85,28.00,28.15,28.31,28.46,28.62,28.77,28.93,29.08,29.24,29.39,29.53,29.64,29.84,30.14,30.49,30.97,32.21,33.57,34.68,35.47,36.03,36.24,36.25,36.11,35.94,36.31,37.10,38.13,39.31,40.71,42.01,43.69,45.66,47.64,49.47,51.06,52.39,53.56,55.31,56.68,57.94,59.18,60.45,61.29,62.12,62.84,63.28,63.76,64.41,64.81,64.91,65.37,65.94,66.53,67.01,67.18,67.97,68.86,69.43,69.38,69.20,68.86,68.44,67.99,67.48,67.19,67.56,68.33,69.15,70.56,73.57,77.25,81.01,84.51,88.10,90.32,91.09,90.79,88.61,85.61,82.55,80.13,79.26,79.57,81.19,83.94,87.12,89.46,90.71,91.21,91.43,91.07,90.75,90.42,90.08,89.86,89.71,89.65,89.75,90.17,90.34,91.00,91.95,93.00,94.54,95.59,96.41,97.10,97.53,97.34,96.79,96.03,95.23,94.37,93.58,93.28,93.59,93.87,94.49,95.09,95.17,93.94,92.62,92.30,93.04,94.70,96.27,97.77,98.72,99.04,99.04,98.87,98.65,98.36,98.01,97.98,97.68,97.11,96.34,95.57,95.23,94.49,93.38,92.34,91.50,90.63,89.45,87.70,85.64,83.58,81.76,80.37,79.81,79.41,79.08,78.80,78.52,78.37,78.10,77.82,77.56,77.34,77.24,77.12,76.79,75.91,75.67,75.55,75.40,75.21,76.08,76.49,76.68,76.73,76.52,76.04,75.22,74.23,73.37,73.13,73.33,73.93,74.87,76.13,77.34,78.29,78.80,78.67,78.54,78.44,78.34,78.27,78.81,79.51,80.16,80.72,81.32,80.88,80.14,79.42,79.05,78.84,78.25,76.81,74.36,72.15,69.60,66.74,63.70,60.75,60.04,60.33,61.32,62.80,64.92,66.26,66.89,66.83,65.90,63.20,61.07,59.94,59.77,60.11,62.10,64.88,67.57,68.90,69.53,69.85,70.06,70.42,71.11,71.63,72.02,72.37,72.45,72.70,73.54,75.08,76.95,78.66,79.62,79.46,77.78,75.62
26.45,26.61,26.76,26.92,27.07,27.23,27.38,27.54,27.69,27.85,28.00,28.15,28.31,28.46,28.62,28.77,28.93,29.08,29.24,29.39,29.52,29.60,29.81,30.07,30.43,31.03,32.85,34.76,36.23,37.16,37.70,37.82,37.71,37.36,36.77,36.57,36.95,37.56,38.23,38.90,39.72,40.92,42.40,43.94,45.95,47.93,49.66,51.06,52.72,53.92,55.20,56.68,58.12,59.08,59.94,60.69,61.28,62.03,62.78,63.37,63.85,64.85,65.84,66.72,67.32,67.38,68.84,69.79,70.26,70.37,70.26,69.89,69.38,68.80,68.26,67.71,67.82,68.43,69.31,71.25,74.37,78.02,81.78,85.40,88.66,90.50,90.90,90.21,87.24,83.91,81.05,79.30,78.79,79.33,81.00,83.70,86.98,89.45,90.79,91.43,91.94,91.72,91.53,91.47,91.57,91.62,91.73,91.89,92.22,93.00,93.39,93.93,94.51,95.09,96.30,97.18,97.91,98.53,98.99,98.80,98.20,97.36,96.46,95.43,94.78,94.64,94.97,95.34,95.72,95.90,95.59,94.38,93.16,93.08,94.00,95.68,97.30,98.87,99.87,100.21,100.28,100.18,100.05,99.94,99.88,99.90,99.62,98.99,98.03,96.88,96.02,94.72,93.08,91.73,90.71,89.57,88.15,86.35,84.37,82.43,80.76,79.60,79.41,79.04,78.68,78.35,78.09,77.89,77.63,77.36,77.11,76.82,76.69,76.55,76.29,75.74,76.20,76.05,75.60,75.32,75.69,75.83,75.90,75.93,75.78,75.45,75.03,74.60,74.28,74.20,74.47,75.08,76.04,77.42,78.81,79.87,80.43,80.26,80.11,80.04,80.08,80.26,80.71,81.33,81.72,81.80,81.93,81.48,81.01,80.65,80.43,80.23,79.63,78.10,75.50,73.21,70.76,67.88,64.66,61.52,60.17,59.72,59.99,60.81,62.24,63.25,63.74,63.62,62.63,60.64,59.65,59.59,59.75,61.04,63.96,67.21,69.72,70.79,71.46,71.85,72.15,72.77,73.75,74.51,75.00,75.26,75.29,75.44,76.05,77.20,78.46,79.58,80.10,79.85,78.72,77.05
26.45,26.61,26.76,26.92,27.07,27.23,27.38,27.54,27.69,27.85,28.00,28.15,28.31,28.46,28.62,28.77,28.93,29.08,29.24,29.39,29.52,29.60,29.76,29.97,30.36,31.14,33.41,35.68,37.55,38.82,39.36,39.34,39.09,38.70,38.30,38.00,37.87,37.70,37.52,37.80,38.40,39.00,39.59,40.24,41.76,44.00,46.33,48.28,49.70,50.85,52.06,53.33,54.38,55.76,56.90,57.90,58.93,59.98,60.51,60.88,61.27,61.73,62.48,63.50,64.51,65.07,68.81,70.49,71.08,71.47,71.45,71.03,70.32,69.50,68.96,68.42,68.25,68.61,69.66,72.49,75.70,79.24,83.02,86.79,89.22,90.47,90.55,89.51,85.82,82.24,79.71,78.75,78.48,79.27,81.07,83.75,86.92,89.39,90.82,91.60,92.27,92.45,92.43,92.54,92.87,93.01,93.39,93.90,94.58,95.56,96.43,96.90,97.24,97.71,98.19,98.79,99.32,99.74,100.21,100.10,99.48,98.54,97.55,96.47,95.99,96.00,96.37,96.69,97.06,96.86,96.05,94.89,93.72,93.69,94.62,96.25,97.87,99.33,100.28,100.69,100.90,100.91,100.94,100.97,100.97,101.04,100.73,99.93,98.58,96.74,94.69,92.85,91.31,90.06,89.05,87.49,85.83,84.51,82.78,81.16,79.93,79.23,79.14,78.79,78.36,78.00,77.83,77.53,77.28,77.10,76.99,76.75,76.58,76.40,76.26,76.41,76.86,76.49,75.79,75.30,75.27,75.16,75.13,75.17,75.01,75.20,75.43,75.54,75.37,75.29,75.59,76.21,77.14,78.67,80.37,81.89,82.85,82.63,82.34,82.06,82.12,82.80,83.06,83.33,83.26,82.73,81.92,81.52,81.20,80.86,80.50,80.20,79.42,77.98,75.80,73.42,71.19,68.55,65.50,62.41,60.47,59.66,59.58,59.74,60.03,60.38,60.58,60.52,60.06,59.56,59.38,59.52,59.88,62.87,66.46,69.52,71.29,72.17,73.00,73.59,74.08,75.05,76.56,77.61,78.17,78.32,78.26,78.31,78.75,79.54,79.81,80.07,80.23,80.23,80.04,79.12
26.51,26.67,26.82,26.97,27.13,27.28,27.44,27.59,27.75,27.90,28.06,28.21,28.36,28.52,28.64,28.77,28.93,29.08,29.24,29.36,29.48,29.60,29.75,29.93,30.49,31.72,34.04,36.35,38.47,40.29,41.70,41.76,41.92,41.79,40.93,40.10,39.39,38.89,38.65,38.75,39.04,39.29,39.53,39.85,41.13,42.54,43.83,44.93,46.49,47.95,49.27,50.39,51.14,52.11,52.92,53.67,54.54,55.54,56.18,56.72,57.29,57.89,58.64,59.55,60.49,61.19,63.60,67.58,70.69,71.32,71.88,72.05,71.59,70.62,69.64,69.03,68.78,69.19,70.62,74.07,77.33,80.65,84.21,88.17,89.82,90.41,89.92,87.88,83.94,80.92,78.95,78.06,78.44,79.41,81.33,84.11,87.10,89.39,90.69,91.39,92.03,92.57,92.94,93.19,93.38,93.71,93.90,94.12,94.35,94.49,94.43,94.36,94.68,95.70,97.13,98.26,99.22,100.03,100.62,100.85,100.44,99.58,98.58,97.63,97.29,97.38,97.70,97.83,97.92,97.49,96.57,95.45,94.30,94.24,95.08,96.52,97.84,99.08,99.95,100.44,100.85,101.20,101.54,101.79,101.83,101.82,101.14,99.88,98.13,96.12,93.69,91.55,89.96,89.11,88.40,87.58,86.67,85.71,84.36,82.62,80.88,79.50,79.29,78.96,78.65,78.39,78.19,77.97,77.77,77.67,77.65,77.46,77.34,77.16,77.03,77.22,77.30,76.89,76.21,75.59,75.78,75.73,75.65,75.60,75.58,75.92,76.27,76.49,76.51,76.48,76.79,77.42,78.36,80.08,82.17,84.00,85.04,84.51,83.94,83.43,82.99,82.64,82.44,82.14,81.77,81.31,80.65,80.22,79.80,79.35,78.88,78.39,77.52,76.30,74.81,73.24,71.22,68.64,65.61,62.52,60.50,59.65,59.50,59.48,59.42,59.51,59.62,59.65,59.40,59.17,59.27,59.89,61.23,64.91,68.22,70.74,72.30,73.46,74.40,75.17,75.96,77.26,78.46,79.12,79.37,79.43,79.40,79.41,79.54,79.67,79.17,79.53,79.97,80.26,80.31,79.86
26.58,26.73,26.88,27.02,27.17,27.33,27.48,27.64,27.79,27.95,28.10,28.25,28.41,28.55,28.65,28.77,28.93,29.08,29.22,29.33,29.44,29.60,29.75,29.90,30.64,32.34,34.64,36.93,39.20,41.44,43.61,44.21,44.96,45.23,44.29,43.10,42.03,41.32,41.04,40.96,40.99,41.11,41.40,41.94,42.76,43.19,43.36,43.50,44.66,45.83,46.90,47.80,48.45,49.14,49.70,50.21,50.79,51.58,52.23,52.83,53.44,54.09,54.73,55.54,56.47,57.40,58.72,63.68,68.40,70.11,71.74,72.68,72.72,71.89,70.53,69.68,69.32,69.89,71.86,75.72,78.99,82.09,85.34,89.03,90.13,90.22,89.12,85.98,82.13,79.73,78.27,77.39,78.36,79.54,81.53,84.27,86.98,89.08,90.33,91.03,91.64,92.44,93.09,93.35,93.28,93.68,93.66,93.55,93.30,92.72,91.71,91.18,91.65,93.41,95.56,97.16,98.54,99.78,100.69,101.28,101.28,100.71,99.73,98.89,98.59,98.64,98.84,98.81,98.66,98.06,97.07,95.99,94.90,94.74,95.35,96.52,97.60,98.65,99.46,100.02,100.54,101.13,101.72,102.21,102.44,102.50,101.62,100.14,98.35,96.58,94.35,92.19,90.53,89.96,89.53,89.17,88.69,87.91,86.83,84.95,82.74,80.73,80.11,79.49,79.11,78.90,78.68,78.53,78.38,78.34,78.41,78.28,78.21,78.06,77.91,78.03,77.75,77.27,76.63,75.92,76.29,76.43,76.39,76.27,76.33,76.75,77.13,77.42,77.62,77.67,78.01,78.69,79.81,81.75,84.11,85.68,86.08,85.12,84.16,83.37,82.51,81.36,80.78,80.07,79.52,79.16,78.69,78.27,77.84,77.36,76.82,76.22,75.29,74.28,73.36,72.43,70.61,68.18,65.34,62.42,60.48,59.67,59.53,59.49,59.31,59.20,59.17,59.17,59.02,58.95,59.22,60.21,62.41,66.62,69.59,71.60,73.03,74.48,75.41,76.16,77.02,78.41,79.34,79.76,79.82,79.78,79.68,79.48,79.19,78.72,77.75,78.36,79.19,79.87,80.23,80.13
26.66,26.79,26.92,27.02,27.17,27.33,27.48,27.64,27.79,27.95,28.10,28.25,28.41,28.49,28.62,28.77,28.93,29.08,29.18,29.30,29.44,29.60,29.75,29.86,30.77,32.91,35.16,37.36,39.61,41.95,44.43,46.47,48.02,48.89,48.90,47.86,46.94,46.17,45.60,45.27,45.19,45.61,46.67,48.45,48.21,47.69,47.07,46.46,45.89,45.37,45.31,45.83,46.82,47.77,48.45,48.86,49.04,49.39,49.70,50.01,50.31,50.56,50.81,51.59,52.83,54.25,56.12,58.72,62.35,66.98,70.58,72.51,73.43,73.40,71.89,70.48,69.87,70.69,73.52,77.38,80.58,83.52,86.36,88.77,89.81,89.74,88.05,83.78,80.56,78.72,77.59,76.78,78.15,79.61,81.55,83.92,86.13,88.05,89.51,90.51,91.07,91.97,92.57,92.56,92.03,92.24,92.15,91.79,91.22,90.48,88.95,88.27,89.18,91.92,93.77,95.46,97.07,98.64,100.24,101.17,101.91,102.07,101.13,100.35,99.85,99.62,99.59,99.46,99.26,98.58,97.51,96.43,95.59,95.14,95.25,96.01,97.09,98.02,98.80,99.43,99.91,100.40,101.07,101.85,102.57,103.08,102.47,101.39,100.34,99.55,98.52,96.90,95.17,94.50,94.21,93.39,92.33,91.37,90.28,88.33,86.06,83.88,82.27,80.66,79.76,79.42,79.26,79.10,78.99,79.00,79.12,79.10,79.08,78.95,78.78,78.81,78.28,77.65,76.95,76.24,76.56,77.02,77.22,77.09,77.11,77.52,77.93,78.30,78.64,78.84,79.22,80.11,81.70,83.94,86.26,86.42,84.66,83.11,81.56,80.40,79.44,78.48,77.74,77.08,76.53,76.09,75.62,75.33,75.13,74.87,74.33,73.77,72.90,72.02,71.31,70.38,68.73,66.72,64.51,62.13,60.41,59.74,59.71,59.82,59.78,59.53,59.19,58.85,58.70,58.88,59.26,60.31,62.85,67.56,70.34,71.99,73.30,74.95,75.60,75.94,76.34,77.23,78.27,78.98,79.26,79.06,78.67,77.85,76.94,76.12,75.24,76.12,77.42,78.71,79.70,79.77
26.71,26.86,26.98,27.07,27.22,27.38,27.51,27.64,27.79,27.95,28.10,28.24,28.36,28.47,28.62,28.77,28.92,29.04,29.15,29.29,29.44,29.60,29.72,29.83,30.81,33.06,35.45,37.72,40.09,42.63,45.29,47.81,49.51,50.48,50.89,50.29,49.84,49.40,49.01,48.99,49.24,49.94,51.20,53.10,53.29,52.80,51.89,50.67,48.48,47.10,46.49,46.58,47.22,47.61,48.00,48.30,48.41,48.57,48.79,48.97,49.09,49.20,49.35,49.89,50.78,51.85,53.87,56.07,59.48,64.63,69.39,71.84,73.39,74.21,73.59,72.67,72.42,73.31,75.67,78.54,81.01,83.39,85.68,87.28,87.80,87.23,85.30,81.52,79.32,77.84,76.89,76.43,77.83,79.19,80.83,82.76,84.77,86.67,88.30,89.63,90.69,91.96,91.98,91.27,90.38,90.58,90.38,89.77,88.83,87.68,85.93,85.22,86.36,89.62,91.92,93.60,95.09,96.51,97.69,99.28,100.71,101.65,101.84,102.18,102.24,102.12,101.87,101.19,100.42,99.46,98.39,97.50,96.72,96.23,96.04,96.18,96.74,97.50,98.24,98.84,99.23,99.75,100.35,101.04,101.89,102.96,103.25,102.87,102.03,101.49,100.88,99.95,98.93,98.45,98.11,97.34,96.33,95.25,94.09,91.98,89.61,87.34,85.45,83.59,82.14,81.11,80.41,80.07,79.91,79.99,80.26,80.26,80.14,79.98,79.76,79.31,78.67,77.99,77.27,76.56,76.83,77.37,77.76,77.88,77.88,78.28,78.70,79.25,80.19,80.87,81.69,82.68,83.97,86.10,86.68,85.36,82.84,81.03,79.46,78.12,76.95,75.88,74.88,74.03,73.39,72.93,72.50,72.28,72.17,72.05,71.73,71.23,70.41,69.52,68.75,67.97,66.47,64.69,62.85,61.20,60.33,61.05,62.22,62.50,61.65,60.34,59.33,58.89,58.59,58.85,59.27,60.31,62.86,67.84,70.54,72.04,73.27,74.45,74.45,74.22,74.18,74.61,75.61,76.48,77.00,77.01,76.55,75.48,74.32,73.37,72.89,74.04,75.54,76.99,78.18,78.07
26.75,26.91,27.04,27.13,27.27,27.43,27.55,27.65,27.79,27.95,28.10,28.23,28.31,28.46,28.62,28.77,28.91,28.99,29.14,29.29,29.44,29.60,29.68,29.81,30.80,33.05,35.59,37.98,40.50,43.22,46.02,48.69,50.33,51.26,51.88,51.85,51.92,51.92,51.88,52.34,53.06,54.01,55.24,56.83,57.71,57.57,56.70,55.22,52.12,50.26,49.16,48.63,48.55,48.14,48.09,48.23,48.33,48.42,48.62,48.78,48.84,48.84,48.94,49.18,49.54,50.01,51.86,54.27,57.77,62.65,67.97,70.85,72.89,74.41,74.88,74.69,74.85,75.62,77.11,78.98,80.81,82.64,84.33,85.30,85.16,84.10,82.14,79.34,78.07,76.88,76.16,76.26,77.56,78.70,79.94,81.44,83.44,85.38,87.11,88.73,90.41,92.00,91.40,89.89,88.48,88.51,88.23,87.46,86.24,84.69,82.92,82.20,83.33,86.64,89.54,91.28,92.60,93.67,94.27,96.44,98.40,100.08,101.68,103.22,104.05,104.37,104.26,103.37,102.05,100.76,99.65,98.84,98.03,97.52,97.13,96.70,96.70,97.20,97.82,98.35,98.69,99.23,99.67,100.17,100.98,102.57,103.84,104.24,103.64,103.09,102.63,102.30,102.07,101.85,101.40,100.84,100.05,98.96,97.75,95.69,93.33,91.03,89.06,87.12,85.17,83.40,82.08,81.50,81.21,81.28,81.65,81.62,81.29,81.01,80.66,79.76,78.95,78.22,77.52,76.86,77.11,77.63,78.18,78.59,78.64,79.19,79.86,80.85,82.55,83.63,84.74,85.65,86.35,87.89,86.42,83.89,81.25,79.42,78.06,76.64,75.26,74.01,72.72,71.61,70.80,70.29,69.86,69.57,69.40,69.29,69.14,68.69,67.98,67.14,66.33,65.69,64.48,63.10,61.87,61.26,61.41,63.41,65.55,65.88,63.88,61.25,59.50,59.02,58.55,58.80,59.22,60.21,62.53,67.65,70.40,71.88,73.03,73.65,73.01,72.25,71.74,71.55,72.46,73.44,74.19,74.48,74.03,72.90,71.65,70.71,70.70,72.09,73.66,75.11,76.28,75.89
26.75,26.91,27.06,27.19,27.28,27.43,27.57,27.70,27.79,27.95,28.10,28.23,28.31,28.46,28.62,28.77,28.91,28.99,29.14,29.29,29.44,29.60,29.68,29.81,30.74,32.85,35.40,37.91,40.48,43.18,46.08,48.89,50.56,51.52,52.36,52.97,53.35,53.68,54.12,54.98,56.05,57.17,58.27,59.27,59.85,59.99,59.82,59.39,58.32,56.41,54.31,52.38,51.01,49.92,49.37,49.17,49.04,49.18,49.38,49.72,50.06,49.66,49.54,49.49,49.50,49.57,50.35,52.79,56.54,61.16,65.59,69.12,71.55,72.97,73.89,74.00,73.88,73.96,74.70,77.06,79.50,81.43,82.58,82.89,82.29,81.17,79.59,77.53,76.33,75.39,75.33,76.51,77.71,78.59,79.44,80.62,82.96,84.98,86.64,88.25,90.21,91.66,90.98,88.81,86.02,85.03,84.80,84.27,83.23,81.69,80.30,79.54,79.94,81.86,84.95,87.25,88.57,89.19,90.08,92.01,93.92,96.03,98.74,100.23,101.72,103.33,104.96,105.89,104.87,103.41,101.93,100.53,99.45,98.73,98.22,97.79,97.79,97.75,97.91,98.32,98.80,99.09,99.36,99.70,100.21,102.05,103.64,104.79,105.30,104.70,104.31,104.02,103.81,103.63,103.24,102.69,102.05,101.34,100.28,99.20,97.51,95.21,93.04,90.69,88.47,86.58,85.21,84.44,83.70,83.38,83.55,83.31,82.63,81.85,81.08,80.32,78.96,78.06,77.50,77.12,77.47,77.94,78.50,79.08,79.38,80.70,82.70,85.13,87.67,88.30,88.59,88.69,88.67,88.08,85.70,83.23,81.25,79.96,78.91,77.63,76.26,74.95,73.37,72.00,70.90,70.06,69.38,68.54,67.81,67.19,66.65,66.30,65.95,65.61,65.23,64.50,64.15,64.29,65.03,66.54,67.48,68.48,69.14,68.90,65.71,61.93,59.54,59.02,58.49,58.61,59.00,59.78,61.26,66.32,69.50,71.31,72.33,72.95,72.27,71.33,70.28,68.66,69.41,70.52,71.46,71.80,71.39,70.43,69.38,68.66,69.05,70.45,72.00,73.35,74.18,73.59
26.75,26.91,27.06,27.21,27.29,27.43,27.58,27.72,27.80,27.95,28.10,28.24,28.35,28.47,28.62,28.77,28.91,28.99,29.14,29.29,29.44,29.56,29.67,29.81,30.65,32.58,35.06,37.53,40.06,42.78,45.97,48.96,50.66,51.58,52.37,52.94,53.37,53.76,54.23,55.15,56.07,57.12,58.28,59.55,60.29,60.67,60.89,61.11,61.42,60.10,58.38,56.74,55.44,54.41,53.51,52.79,52.37,52.50,52.93,53.41,53.67,53.16,52.50,51.67,50.69,49.66,49.78,51.33,54.33,58.54,62.42,66.01,68.65,70.23,71.10,71.03,70.66,70.60,71.49,74.31,76.94,78.79,79.65,79.79,78.59,77.37,76.41,75.74,74.51,74.53,75.55,77.17,78.45,79.64,80.99,82.76,85.32,86.82,87.91,88.95,90.29,91.34,90.70,88.25,84.49,82.18,81.64,81.19,80.39,79.19,78.16,77.50,77.69,79.06,81.21,83.03,84.26,85.20,87.07,89.19,91.29,93.57,96.33,98.32,100.36,102.51,104.68,106.46,106.58,106.01,104.97,103.47,102.33,101.03,99.78,98.83,98.67,98.44,98.39,98.62,99.16,99.41,99.62,99.89,100.32,102.07,103.66,105.07,106.17,106.23,106.03,105.77,105.55,105.46,105.09,104.55,103.88,103.11,102.07,101.33,100.14,98.31,96.31,93.74,91.26,89.12,87.55,86.61,85.63,84.91,84.55,83.96,83.04,82.08,81.20,80.54,79.46,78.54,78.02,78.10,78.42,78.87,79.72,80.91,81.82,83.74,86.12,88.64,90.91,91.32,91.25,90.93,90.41,88.99,86.64,84.43,82.74,81.76,80.65,79.36,78.01,76.71,75.23,74.17,73.19,72.10,70.78,69.53,68.47,67.65,67.14,67.07,67.01,66.86,66.54,65.89,65.90,66.61,67.95,69.66,70.57,71.03,71.00,70.29,67.09,62.80,59.88,59.05,58.48,58.40,58.73,59.40,60.35,64.62,68.06,70.39,71.54,72.13,71.51,70.39,68.85,66.47,66.77,67.77,68.73,69.00,68.73,68.11,67.39,66.93,67.75,68.98,70.33,71.54,72.27,71.52
26.75,26.91,27.06,27.21,27.29,27.43,27.58,27.72,27.80,27.95,28.10,28.25,28.40,28.48,28.62,28.77,28.91,28.99,29.14,29.29,29.42,29.50,29.65,29.81,30.55,32.23,34.62,36.94,39.37,42.13,45.69,48.89,50.65,51.48,52.05,52.19,52.51,52.77,53.02,53.76,54.25,55.07,56.41,58.39,59.59,60.18,60.61,61.26,62.51,62.20,61.68,61.29,60.84,60.32,59.19,57.95,57.24,57.32,58.08,58.66,58.65,58.20,56.88,55.01,52.75,50.25,49.88,50.02,51.67,55.34,58.86,62.11,64.78,66.62,67.15,66.65,66.10,66.23,67.74,70.99,73.55,75.21,75.96,76.18,74.40,73.12,72.92,73.93,72.75,74.13,76.41,78.13,79.68,81.52,83.86,86.60,89.21,89.85,90.11,90.28,90.52,91.04,90.51,88.01,83.57,79.85,78.77,78.24,77.70,76.98,76.38,75.98,76.30,77.61,78.23,79.03,80.12,81.82,84.99,87.54,89.96,92.27,94.43,97.20,99.69,101.91,103.92,105.91,107.57,108.43,108.31,107.07,106.02,104.03,101.77,99.97,99.53,99.28,99.13,99.17,99.75,100.13,100.35,100.57,101.01,102.43,103.82,105.20,106.56,107.65,107.72,107.51,107.30,107.30,106.94,106.39,105.59,104.51,103.43,102.62,101.76,100.63,99.01,96.34,93.59,91.13,89.28,88.19,87.11,86.03,84.96,83.96,82.89,81.95,81.19,80.61,80.31,79.48,78.98,79.60,79.88,80.38,81.67,83.67,85.34,87.66,89.82,91.63,93.03,93.33,93.20,92.70,91.85,90.38,88.60,86.76,85.15,84.28,82.92,81.54,80.21,78.99,77.85,77.40,76.76,75.49,73.32,71.75,70.49,69.65,69.46,69.77,69.92,69.78,69.31,68.85,68.87,69.56,70.65,71.42,71.83,72.05,71.78,70.71,68.23,63.89,60.50,59.12,58.50,58.20,58.44,59.05,59.67,62.70,66.23,69.11,70.56,71.09,70.54,69.23,67.27,64.63,64.38,65.13,65.99,66.13,66.05,65.87,65.57,65.41,66.62,67.59,68.64,69.70,70.48,69.62
26.75,26.91,27.06,27.22,27.34,27.45,27.58,27.73,27.86,27.96,28.10,28.25,28.40,28.48,28.62,28.77,28.91,28.99,29.14,29.29,29.42,29.50,29.65,29.81,30.37,31.64,33.88,36.09,38.34,40.92,44.47,47.91,50.01,50.93,51.01,50.96,51.04,51.11,51.14,51.33,51.67,52.54,53.82,55.20,56.93,57.93,58.82,60.08,61.68,62.63,63.01,62.94,62.68,62.45,61.96,61.44,61.21,61.39,62.03,62.47,62.46,62.26,61.10,59.16,56.59,53.65,51.72,50.92,51.51,53.56,56.59,58.87,60.51,61.54,61.98,61.88,61.72,61.96,63.14,66.38,68.98,70.60,71.20,71.28,70.24,69.90,70.46,71.56,72.74,74.89,77.43,79.86,82.84,85.64,87.70,89.02,90.05,90.28,90.37,90.46,90.64,90.76,90.34,88.05,83.67,79.76,77.60,76.43,75.68,74.57,75.57,76.58,77.61,78.70,79.26,80.05,81.36,83.42,86.59,89.32,91.66,93.76,95.77,98.24,100.54,102.72,104.77,106.41,107.64,108.55,109.06,109.00,108.66,107.83,106.11,103.41,101.93,100.95,100.33,100.27,101.59,102.76,103.02,102.74,102.53,103.16,104.19,105.46,106.83,108.07,108.54,108.77,108.93,109.09,108.73,108.02,107.05,105.91,104.78,103.66,102.45,101.09,99.52,96.64,93.61,90.92,89.02,87.89,86.76,85.66,84.65,83.69,82.72,82.06,81.79,81.85,82.01,81.68,81.68,82.71,83.78,84.97,86.47,88.19,89.42,90.78,92.25,93.76,95.20,95.46,95.28,94.73,93.84,92.42,90.73,89.06,87.56,86.34,84.96,83.74,82.65,81.63,80.68,80.31,79.59,78.11,75.95,74.12,72.50,71.60,72.21,72.62,72.80,72.64,72.12,71.55,71.36,71.51,71.98,72.70,73.02,72.85,72.23,71.21,69.81,66.63,62.81,59.43,58.76,58.20,58.20,58.67,59.28,60.66,63.20,65.70,67.22,67.60,66.55,64.87,63.06,61.66,61.82,62.57,63.26,63.25,63.12,63.26,63.54,63.95,64.82,65.69,66.72,67.82,68.75,68.33
26.79,26.92,27.06,27.22,27.37,27.46,27.58,27.74,27.89,27.97,28.10,28.25,28.37,28.48,28.62,28.76,28.89,28.99,29.14,29.28,29.40,29.50,29.65,29.79,30.19,31.14,33.18,35.22,37.31,39.68,42.87,46.40,48.72,49.76,49.70,49.42,49.30,49.21,49.11,49.03,49.38,50.15,51.19,52.23,54.39,56.29,58.08,59.84,61.37,62.73,63.47,63.64,63.75,64.12,64.39,64.54,64.57,64.85,65.41,65.90,66.16,66.11,65.02,62.97,60.08,56.57,53.76,52.50,52.39,53.06,54.64,56.00,56.95,57.58,58.21,58.53,58.72,59.07,59.93,62.42,64.47,65.93,66.75,67.24,67.40,68.04,69.18,70.58,73.07,75.73,78.62,81.87,85.89,88.48,89.83,90.25,90.36,89.73,89.64,90.00,90.51,90.43,89.84,87.58,83.46,79.56,76.81,75.06,74.09,73.51,75.76,77.78,79.47,80.82,81.65,82.52,83.81,85.72,88.42,90.88,93.11,95.15,97.11,99.30,101.42,103.27,104.72,105.67,106.36,107.21,108.32,109.72,110.04,109.94,108.91,106.68,105.31,104.32,103.70,103.65,104.71,105.64,105.55,104.86,104.25,104.16,104.84,105.94,107.19,108.45,109.15,109.67,110.06,110.24,109.89,109.16,108.10,106.77,105.41,104.05,102.67,101.25,99.68,96.32,93.01,90.34,88.70,87.54,86.40,85.32,84.33,83.43,82.87,82.72,82.94,83.45,83.85,83.89,84.33,85.81,87.35,88.90,90.46,91.94,92.97,93.75,94.79,95.82,96.36,96.06,95.66,95.14,94.46,93.66,92.48,91.14,89.74,88.43,87.27,86.20,85.19,84.22,83.27,82.79,81.91,80.28,78.10,75.96,74.41,73.89,74.92,75.44,75.63,75.40,74.76,74.10,73.70,73.54,73.65,74.10,73.89,73.31,72.49,71.59,70.76,68.55,64.50,59.65,58.96,58.24,58.00,58.25,58.87,59.39,60.87,62.51,63.62,63.81,62.89,61.57,60.33,59.82,60.10,60.67,61.12,61.07,61.06,61.53,62.25,63.08,63.97,64.87,65.83,66.78,67.57,67.48
26.85,26.95,27.06,27.22,27.37,27.46,27.58,27.74,27.89,27.97,28.10,28.23,28.31,28.46,28.62,28.74,28.83,28.98,29.14,29.25,29.35,29.50,29.65,29.76,30.03,30.72,32.52,34.31,36.26,38.43,40.88,44.35,46.77,47.98,48.08,47.56,47.27,47.08,46.94,46.86,47.38,47.92,48.54,49.48,51.98,55.29,58.40,60.55,61.59,62.50,63.05,63.37,64.03,65.30,66.49,67.24,67.33,67.71,68.21,68.94,69.75,69.75,68.62,66.43,63.22,59.02,55.99,54.78,54.35,53.85,53.01,53.49,54.13,54.74,55.87,56.64,57.15,57.58,58.15,59.11,60.03,61.18,62.62,64.10,65.92,67.56,69.12,71.02,73.76,76.63,80.00,84.16,88.83,90.02,90.21,90.27,90.13,88.17,87.89,88.90,90.12,90.05,88.98,86.58,82.92,79.27,76.43,74.15,72.94,73.84,76.95,79.58,81.88,84.00,85.43,86.46,87.48,88.73,90.49,92.24,94.28,96.44,98.45,100.39,102.34,103.55,103.75,103.66,103.68,104.37,106.08,109.20,110.11,110.32,110.13,109.79,109.70,109.41,109.29,109.35,109.13,108.77,107.94,106.92,106.16,105.43,105.79,106.64,107.62,108.79,109.55,110.20,110.68,110.76,110.40,109.80,108.74,107.06,105.31,103.78,102.43,101.11,99.49,95.38,91.79,89.37,88.32,87.16,86.05,85.00,84.02,83.16,83.35,83.93,84.67,85.42,85.83,86.10,86.93,88.89,90.58,92.16,93.60,94.89,95.97,96.58,97.45,97.83,96.49,95.10,94.31,93.89,93.71,94.09,93.85,92.98,91.70,90.53,89.84,88.92,87.84,86.76,85.62,84.83,83.72,82.00,79.76,77.28,76.22,76.53,77.61,78.22,78.41,78.07,77.25,76.48,75.91,75.65,75.64,75.60,74.44,73.40,72.56,71.85,71.07,69.61,65.58,59.78,59.08,58.32,57.83,57.80,58.42,58.89,59.27,59.56,59.76,59.70,59.57,59.34,59.10,59.14,59.23,59.43,59.60,59.61,59.90,60.70,61.72,62.82,64.11,65.15,65.98,66.60,66.94,67.08
26.81,26.93,27.06,27.21,27.32,27.44,27.58,27.73,27.83,27.96,28.10,28.23,28.31,28.46,28.62,28.74,28.83,28.98,29.14,29.25,29.34,29.50,29.61,29.73,29.98,30.58,32.35,34.13,35.95,37.84,39.87,42.81,45.20,46.52,46.41,45.50,45.07,44.85,44.73,44.79,45.33,46.15,47.34,49.10,52.14,55.92,59.11,60.78,61.19,61.47,61.59,61.73,62.33,63.75,65.08,66.15,66.88,67.77,68.85,69.76,70.33,70.56,70.06,68.92,66.42,61.35,58.29,57.24,56.98,56.53,55.62,55.76,56.43,57.43,58.73,59.59,59.99,60.15,60.33,60.53,61.29,62.60,64.38,66.06,67.83,69.53,71.27,73.25,75.60,78.23,81.81,86.54,89.46,90.15,90.17,89.72,87.77,84.51,83.75,85.23,87.91,88.29,87.22,85.17,82.43,78.98,75.97,73.35,72.03,73.72,77.98,81.76,84.99,87.64,88.64,89.48,90.34,91.36,92.64,94.18,95.90,97.75,99.66,101.23,102.06,102.18,101.67,100.73,100.20,100.87,102.99,106.65,109.33,110.32,110.35,110.18,110.13,109.95,109.89,109.97,109.94,109.77,109.27,108.54,107.72,106.90,106.70,107.13,108.13,109.28,110.02,110.53,110.82,110.80,110.56,109.69,108.36,106.78,105.01,103.33,101.89,100.51,98.24,93.80,90.62,88.82,87.82,86.70,85.68,84.82,84.21,84.14,84.51,85.12,85.89,86.80,87.61,88.37,89.46,91.18,92.84,94.51,96.13,97.56,98.46,98.43,97.63,96.18,94.30,93.02,92.29,91.90,91.74,92.11,92.34,92.39,92.26,91.93,91.33,90.50,89.62,88.85,87.83,86.71,85.08,82.85,80.33,78.59,78.25,78.88,79.64,80.08,80.08,79.72,79.09,78.36,77.45,76.51,75.60,74.69,73.45,72.40,71.58,70.96,69.96,68.11,64.59,60.11,59.18,58.43,57.81,57.53,57.92,58.24,58.47,58.61,58.66,58.63,58.60,58.54,58.52,58.78,59.00,59.23,59.47,59.81,61.73,62.32,62.98,64.31,65.71,66.93,67.87,68.45,68.62,68.24
26.78,26.91,27.06,27.19,27.28,27.43,27.57,27.70,27.79,27.95,28.09,28.21,28.31,28.46,28.60,28.72,28.83,28.98,29.12,29.23,29.34,29.50,29.58,29.71,29.94,30.45,32.21,33.98,35.72,37.42,39.14,41.54,43.77,45.09,44.82,43.55,42.90,42.60,42.53,42.70,43.45,44.77,46.64,48.99,52.40,56.32,59.37,60.63,60.54,60.21,59.84,59.72,60.42,61.99,63.42,64.69,65.86,67.08,68.52,69.62,70.21,70.74,70.77,70.65,69.24,64.58,61.82,60.85,60.60,60.14,58.97,58.87,59.66,61.06,62.56,63.56,63.91,63.85,63.69,63.24,63.69,64.95,66.79,68.51,70.15,71.85,73.67,75.66,77.66,80.18,83.81,88.51,89.83,90.13,89.88,88.72,85.25,81.40,80.29,81.83,85.25,86.11,85.29,83.67,81.60,78.41,75.30,72.49,71.21,73.69,78.76,83.40,87.29,90.19,90.87,91.56,92.37,93.31,94.33,95.87,97.37,98.84,100.37,101.36,100.93,99.78,98.35,96.66,96.09,97.24,100.02,104.00,107.97,109.87,110.38,110.29,110.22,110.08,110.04,110.13,110.28,110.30,110.10,109.61,108.76,107.80,107.26,107.50,108.59,109.75,110.37,110.72,110.86,110.80,110.50,109.34,107.77,106.23,104.51,102.81,101.29,99.68,96.95,92.79,90.06,88.62,87.63,86.55,85.57,84.86,84.61,85.20,85.71,86.30,87.04,88.07,89.33,90.54,91.84,93.37,94.98,96.71,98.33,99.60,100.05,98.98,96.76,94.09,91.89,90.67,89.96,89.60,89.50,89.81,90.33,91.07,91.83,92.19,91.87,91.31,90.71,90.23,89.45,88.19,86.25,83.70,81.18,80.05,80.15,80.92,81.46,81.57,81.26,80.76,80.21,79.39,78.08,76.58,75.02,73.56,72.29,71.21,70.33,69.64,68.46,66.31,63.34,60.20,59.23,58.51,57.86,57.42,57.50,57.61,57.74,57.83,57.87,57.89,58.03,58.19,58.37,58.76,59.06,59.47,60.24,61.62,64.31,64.67,64.83,65.83,67.33,68.55,69.40,69.85,69.89,69.32
26.78,26.91,27.04,27.13,27.27,27.43,27.55,27.65,27.79,27.95,28.06,28.16,28.31,28.46,28.57,28.68,28.83,28.98,29.08,29.20,29.34,29.50,29.58,29.71,29.90,30.31,32.02,33.79,35.52,37.19,38.77,40.69,42.53,43.63,43.40,41.84,40.81,40.34,40.36,40.59,41.86,44.00,46.60,49.06,52.51,56.10,58.80,59.90,59.57,58.67,57.70,57.26,58.40,60.23,61.76,63.04,64.26,65.43,66.78,68.09,69.25,70.17,70.52,71.20,71.38,69.38,67.45,66.43,65.83,65.11,63.04,62.81,63.82,65.60,67.40,68.70,69.13,68.97,68.60,67.55,67.38,68.10,69.58,71.16,72.77,74.44,76.22,78.16,79.91,82.62,86.10,89.76,90.04,90.05,89.21,87.02,82.70,79.50,78.30,79.21,82.06,83.37,83.21,82.07,80.18,77.33,74.28,71.52,70.54,73.85,79.15,84.08,88.11,90.83,91.45,92.13,93.04,94.15,95.22,97.08,98.53,99.53,100.23,100.32,98.50,95.81,93.02,90.74,91.04,93.48,97.36,101.43,105.69,108.68,110.19,110.29,110.22,110.08,110.04,110.13,110.28,110.30,110.19,109.80,108.95,107.69,107.25,107.71,108.97,110.13,110.50,110.69,110.81,110.80,110.07,108.67,106.95,105.28,103.71,102.24,100.58,98.52,95.75,92.85,90.55,88.96,88.02,86.94,85.92,85.28,85.29,86.22,86.88,87.46,88.14,89.21,91.00,92.56,94.00,95.48,97.03,98.76,100.05,100.60,100.15,97.41,94.43,91.69,89.39,88.03,87.21,86.87,86.94,87.25,87.86,88.80,89.87,90.57,90.92,90.93,90.72,90.44,90.05,89.00,87.14,84.68,82.65,81.76,81.83,82.45,82.99,82.57,81.75,80.89,80.17,79.01,77.23,75.44,73.81,72.34,71.03,69.83,68.74,67.72,66.49,64.33,61.93,59.87,59.19,58.56,58.00,57.56,57.26,57.01,57.00,57.10,57.23,57.30,57.86,58.43,58.88,59.27,59.52,60.35,62.37,66.00,67.80,67.96,67.46,67.18,68.79,69.68,70.10,70.21,70.15,70.05
26.77,26.88,27.00,27.12,27.27,27.39,27.51,27.64,27.79,27.91,28.02,28.15,28.31,28.42,28.54,28.67,28.82,28.93,29.05,29.19,29.33,29.45,29.56,29.71,29.86,30.18,31.84,33.56,35.28,36.96,38.59,40.31,42.03,43.12,42.97,41.39,40.30,39.71,39.57,39.76,40.96,43.41,46.49,49.12,52.43,55.47,57.54,58.19,57.53,56.33,55.16,54.60,55.75,57.77,59.67,61.25,62.40,63.44,64.65,65.73,66.56,67.32,68.10,69.39,70.70,71.01,70.68,70.25,69.75,69.08,67.51,67.35,68.11,69.43,70.85,72.03,72.41,72.23,71.83,71.03,70.91,71.45,72.53,73.64,75.16,76.87,78.67,80.40,82.06,84.58,87.46,90.00,90.04,89.99,88.51,85.37,81.24,78.24,76.69,76.99,79.39,80.86,81.06,80.13,78.23,75.65,72.84,70.53,70.00,73.32,78.31,82.79,86.52,89.31,89.93,90.57,91.85,93.85,96.25,97.11,97.31,97.25,97.25,96.06,93.75,90.82,87.78,85.55,88.41,92.25,96.09,99.86,103.75,107.14,109.05,108.78,107.63,106.82,106.84,107.87,109.93,110.32,110.29,109.91,109.14,107.66,107.22,107.82,109.24,110.28,110.58,110.73,110.81,110.65,109.46,107.87,106.09,104.33,102.82,101.34,99.67,97.72,95.50,93.34,91.20,89.40,88.35,87.27,86.21,85.74,86.13,87.06,87.83,88.52,89.44,91.20,93.35,94.98,96.33,97.68,98.98,100.29,100.91,100.47,98.62,95.02,91.69,88.92,86.64,85.13,84.45,84.28,84.38,84.65,85.10,85.90,86.92,87.73,88.70,89.08,89.09,89.04,88.61,88.26,87.61,86.43,84.57,83.80,83.70,83.80,83.51,82.46,81.30,80.19,79.17,77.78,76.08,74.32,72.64,71.13,69.84,68.46,67.12,65.96,64.84,63.19,61.44,59.97,59.47,58.98,58.52,58.08,57.62,57.07,56.79,56.76,56.93,57.33,58.09,58.85,59.55,60.41,61.24,63.35,66.09,68.53,69.31,69.38,69.05,68.77,69.60,70.10,70.39,70.50,70.46,70.50
26.75,26.85,26.96,27.12,27.26,27.36,27.48,27.63,27.78,27.87,28.00,28.15,28.29,28.38,28.52,28.67,28.80,28.89,29.04,29.18,29.31,29.40,29.54,29.69,29.82,30.06,31.63,33.33,35.05,36.78,38.50,40.13,41.78,42.90,42.90,41.38,40.25,39.52,39.19,39.31,40.26,42.71,46.03,48.98,52.08,54.65,56.15,56.25,55.24,53.88,52.55,51.83,52.90,55.06,57.35,59.25,60.36,61.26,62.25,62.97,63.36,63.87,64.97,66.72,68.87,71.00,72.21,72.57,72.45,72.12,71.48,71.47,71.89,72.59,73.42,74.25,74.59,74.57,74.39,74.08,74.19,74.65,75.35,75.98,77.31,78.97,80.75,82.38,84.10,86.33,88.41,89.75,89.80,89.65,87.66,83.93,80.32,77.35,75.24,74.77,76.68,78.22,78.70,77.98,76.11,73.75,71.20,69.48,69.52,72.51,77.00,80.89,84.25,87.08,87.96,88.85,90.70,93.59,96.66,96.14,95.06,94.05,93.38,91.13,88.67,85.91,83.07,81.46,86.76,91.75,95.35,98.82,102.23,105.46,107.11,106.14,103.91,102.50,102.75,104.94,108.93,110.10,110.33,109.95,109.12,107.28,106.81,107.55,109.14,110.25,110.62,110.80,110.85,110.57,108.94,106.98,105.00,103.25,101.81,100.28,98.63,96.88,95.18,93.48,91.51,89.66,88.52,87.45,86.53,86.32,87.03,87.90,88.82,89.78,91.10,93.48,95.84,97.45,98.64,99.80,100.73,101.35,101.08,99.55,96.31,92.37,88.97,86.37,84.61,83.38,82.88,82.65,82.36,82.25,82.42,82.97,83.77,84.54,85.86,86.49,86.71,86.90,86.46,86.80,87.34,87.51,86.15,85.65,85.38,84.94,83.83,82.29,80.90,79.65,78.48,77.05,75.52,73.77,71.89,70.15,69.00,67.63,66.25,65.11,64.12,62.95,61.70,60.58,60.09,59.61,59.16,58.68,58.10,57.33,56.78,56.56,56.76,57.49,58.38,59.26,60.24,61.68,63.15,66.21,69.19,70.09,70.11,70.13,70.12,70.07,70.15,70.35,70.56,70.72,70.75,70.83
26.75,26.85,26.96,27.11,27.20,27.33,27.48,27.62,27.72,27.85,28.00,28.13,28.23,28.37,28.52,28.64,28.74,28.88,29.04,29.15,29.26,29.40,29.49,29.63,29.75,29.97,31.35,33.09,34.91,36.73,38.56,40.19,41.75,42.89,43.23,41.80,40.48,39.52,39.04,39.01,39.64,41.55,44.56,48.20,51.07,53.60,54.87,54.36,53.01,51.66,50.07,48.88,49.90,52.10,54.56,56.68,57.92,58.73,59.25,59.60,59.89,60.31,61.22,63.08,65.62,68.24,70.24,71.46,72.28,73.00,73.55,73.78,73.97,74.16,74.24,74.39,74.78,75.37,76.07,76.40,76.75,77.16,77.61,78.00,78.91,80.15,81.74,83.71,85.88,87.78,88.80,88.68,88.99,88.45,86.39,83.12,80.26,77.17,74.01,72.24,73.48,75.02,75.80,75.42,73.83,71.62,69.21,68.28,69.07,71.32,75.12,78.62,81.69,84.29,86.26,88.27,91.14,94.28,95.03,92.90,91.34,90.25,88.91,86.61,84.38,82.05,79.95,80.31,86.35,91.58,95.22,98.70,101.82,103.57,103.41,101.13,98.60,97.32,98.30,101.59,106.12,109.08,110.19,109.80,108.47,105.69,105.17,106.14,107.96,109.87,110.57,110.86,110.95,110.82,108.87,105.91,103.21,101.79,100.44,98.94,97.32,95.60,93.90,92.20,90.65,89.29,88.20,87.18,86.94,87.28,88.00,88.91,90.13,91.72,93.71,96.04,98.26,99.72,100.72,101.62,101.90,101.35,99.75,96.95,92.77,89.51,86.62,84.78,85.05,85.45,85.13,83.96,82.06,80.52,80.20,80.37,80.75,81.17,82.06,82.68,83.16,83.66,83.67,84.27,85.10,85.88,86.25,86.57,86.34,85.55,84.34,82.80,81.38,80.25,79.49,78.56,77.07,75.00,72.47,69.89,69.18,68.52,67.79,67.03,66.09,64.93,63.66,62.43,61.49,60.66,59.91,59.21,58.49,57.72,56.96,56.54,56.71,57.59,58.51,59.54,60.87,62.85,64.68,67.04,69.13,70.03,70.15,70.27,70.33,70.33,70.41,70.56,70.70,70.81,70.93,71.07
26.72,26.83,26.95,27.07,27.18,27.33,27.46,27.58,27.69,27.85,27.98,28.10,28.21,28.33,28.47,28.59,28.68,28.84,28.99,29.10,29.20,29.36,29.43,29.56,29.70,29.93,31.07,32.93,34.95,36.97,39.00,40.52,41.95,42.99,43.25,41.86,40.52,39.49,38.86,38.55,39.11,40.52,43.11,47.34,50.37,52.61,53.50,52.80,51.33,48.99,46.89,45.91,47.42,49.61,51.98,54.04,55.36,56.13,56.53,56.78,57.04,57.50,58.33,59.93,62.10,64.42,66.89,68.80,70.31,71.55,72.38,72.59,72.62,72.60,72.48,72.58,73.08,73.87,74.75,74.99,75.32,75.68,76.07,76.48,77.98,80.28,82.97,85.39,86.44,86.89,86.71,86.03,86.25,85.93,84.73,82.67,80.14,76.72,73.08,70.55,70.63,72.07,72.93,72.76,71.40,69.17,67.67,68.05,70.13,73.14,76.62,79.50,81.96,84.22,86.60,88.94,92.02,94.83,93.43,90.49,88.41,86.99,85.60,83.31,81.17,79.26,78.14,80.62,86.59,91.43,94.83,98.27,100.85,101.19,99.57,96.56,93.83,93.17,95.07,99.19,103.84,107.66,109.48,109.17,106.92,103.56,102.97,104.19,106.41,108.83,110.11,110.74,110.93,110.82,108.79,105.04,101.58,100.15,98.97,97.56,96.00,94.32,92.62,91.07,89.82,88.84,88.10,87.69,87.95,88.60,89.46,90.55,91.92,93.81,96.12,98.47,100.45,101.77,102.33,102.12,101.50,99.79,97.09,93.64,90.13,87.37,85.85,85.77,87.23,88.06,87.92,86.44,83.68,81.50,80.46,79.83,79.40,79.25,79.49,79.87,80.37,80.98,81.30,81.94,82.84,83.91,84.93,85.74,85.94,85.63,85.02,83.59,82.32,81.34,80.69,80.06,78.97,77.36,75.13,72.14,71.26,70.56,69.84,69.08,68.05,66.89,65.64,64.35,63.20,62.05,60.82,59.65,58.74,57.87,56.99,56.46,56.56,57.49,58.39,59.39,60.68,62.64,64.64,66.75,68.66,70.01,70.16,70.32,70.40,70.41,70.45,70.53,70.61,70.71,70.87,70.96
26.68,26.82,26.94,27.03,27.18,27.33,27.45,27.54,27.69,27.84,27.95,28.05,28.20,28.28,28.42,28.54,28.63,28.78,28.94,29.05,29.14,29.30,29.38,29.51,29.66,29.90,30.77,32.81,35.10,37.37,39.61,40.98,42.28,43.14,43.08,41.70,40.43,39.41,38.66,38.03,38.60,39.57,41.64,46.09,49.49,51.41,51.92,51.19,49.62,46.03,43.47,43.04,45.19,47.35,49.50,51.39,52.74,53.51,53.94,54.22,54.50,55.05,55.87,57.07,58.59,60.28,62.94,65.31,67.28,68.75,69.44,69.52,69.44,69.36,69.29,69.62,70.25,71.04,71.78,71.75,71.95,72.29,72.71,73.31,75.94,79.89,84.09,86.85,86.11,84.74,83.41,82.64,82.65,82.80,82.81,82.19,79.86,76.14,72.34,69.36,68.11,69.31,70.11,70.03,68.83,66.58,66.50,68.45,71.98,76.31,79.66,81.91,83.69,85.58,87.96,90.20,93.05,95.22,92.02,88.71,86.07,84.15,82.83,80.63,78.52,77.08,77.18,81.60,87.12,91.30,94.32,97.65,99.45,98.44,95.67,92.32,89.55,89.78,92.66,97.38,101.92,106.05,108.31,108.04,104.81,101.24,100.60,101.99,104.57,107.35,109.27,110.38,110.77,110.66,108.51,104.16,100.10,98.54,97.51,96.20,94.70,93.07,91.39,90.08,89.11,88.49,88.24,88.68,89.33,90.18,91.25,92.57,93.98,95.93,98.33,100.72,102.41,103.45,103.35,101.77,100.16,97.37,93.85,90.20,88.00,85.91,86.11,88.00,90.11,90.81,90.77,89.25,86.13,83.76,81.98,80.39,79.02,78.21,77.75,77.75,78.12,78.73,79.26,79.83,80.67,81.81,82.96,84.05,84.82,85.28,85.53,84.34,83.38,82.62,81.98,81.50,80.90,80.04,78.55,75.58,74.27,73.17,72.14,71.17,69.99,68.83,67.59,66.25,64.92,63.45,61.70,60.01,58.92,57.92,56.97,56.35,56.32,57.24,58.12,59.01,60.11,61.80,63.88,66.00,68.08,70.01,70.16,70.31,70.39,70.38,70.37,70.36,70.41,70.52,70.68,70.67
26.73,26.88,27.03,27.15,27.25,27.40,27.51,27.59,27.69,27.79,27.91,28.05,28.20,28.28,28.42,28.54,28.63,28.78,28.94,29.05,29.14,29.30,29.43,29.54,29.66,29.84,30.22,32.70,35.42,37.88,40.12,41.44,42.70,43.31,42.64,41.36,40.11,39.09,38.32,37.53,37.91,38.69,39.95,42.02,45.98,48.29,48.92,47.96,45.45,42.53,40.85,40.96,42.96,45.11,47.14,48.86,50.12,50.83,51.29,51.62,51.95,52.55,53.46,54.67,56.14,57.73,59.46,61.07,62.62,64.08,64.77,64.85,64.77,64.70,64.62,64.82,65.52,66.42,67.15,68.20,68.58,68.83,69.34,70.54,74.65,79.40,83.46,85.27,83.31,81.47,80.10,79.39,79.49,79.95,80.37,80.27,78.53,75.54,72.08,68.94,67.00,67.21,67.46,67.07,65.78,64.12,66.53,70.16,74.28,78.61,81.91,84.35,86.29,88.07,89.67,91.47,93.55,94.85,92.04,88.82,85.54,82.48,79.96,78.11,76.13,75.74,77.91,82.47,87.47,91.26,93.98,96.72,96.74,94.66,91.69,88.99,87.01,88.54,92.05,96.59,100.98,104.34,105.70,104.83,101.76,99.42,98.96,99.94,102.01,104.74,107.06,108.82,109.90,110.19,106.65,102.48,99.14,97.69,96.41,95.05,93.57,92.01,90.47,89.58,89.23,89.27,89.46,90.39,91.43,92.57,93.81,95.18,96.36,97.85,99.79,102.13,103.40,103.00,101.54,99.69,97.49,94.14,90.93,88.40,86.49,87.06,88.54,90.36,92.03,92.73,91.96,90.21,87.95,85.83,83.89,81.84,79.90,78.74,77.84,77.30,77.27,77.83,78.26,78.58,79.17,80.13,81.18,82.26,83.06,83.61,84.06,83.80,83.64,83.48,83.18,82.49,81.77,80.98,80.03,78.78,77.41,75.92,74.45,73.14,71.82,70.62,69.26,67.59,65.48,63.64,61.80,60.13,58.99,57.98,57.03,56.20,55.68,56.55,57.49,58.46,59.58,61.17,63.52,65.93,68.18,70.01,70.16,70.27,70.28,70.18,70.12,70.02,70.11,70.34,70.55,70.45
26.82,26.98,27.13,27.28,27.36,27.47,27.58,27.65,27.73,27.81,27.92,28.04,28.17,28.28,28.42,28.54,28.63,28.78,28.91,29.03,29.14,29.30,29.43,29.54,29.66,29.81,29.94,32.66,35.70,38.36,40.46,41.76,42.91,43.31,42.38,41.36,40.24,39.25,38.43,37.53,37.34,37.78,38.62,39.49,42.41,44.18,44.69,43.97,42.01,40.25,39.41,39.70,41.12,42.90,44.65,46.14,47.13,47.61,48.06,48.51,49.00,49.75,50.91,52.24,53.65,55.03,56.29,57.44,58.62,59.86,60.44,60.35,60.17,60.12,60.15,60.49,61.31,62.30,63.14,64.92,65.89,66.64,67.58,69.11,73.63,78.89,83.00,83.50,80.70,78.49,77.04,76.39,76.67,77.44,78.16,78.36,77.11,74.71,71.72,68.66,66.09,65.07,64.76,64.18,63.11,62.99,66.58,71.06,75.65,80.00,83.47,86.30,88.45,89.93,91.14,92.59,93.72,93.87,91.60,88.45,84.86,81.29,78.27,76.19,74.30,74.79,78.46,82.99,87.69,91.14,93.40,95.31,93.95,91.30,88.37,86.08,85.40,87.87,91.72,96.01,99.96,102.74,103.57,102.45,99.64,97.70,97.32,98.16,99.87,102.06,104.26,106.29,107.89,108.57,105.05,101.42,98.60,97.13,95.65,94.18,92.70,91.32,90.45,90.09,90.34,90.95,91.58,92.44,93.57,94.88,96.31,97.75,98.90,100.16,101.69,103.60,103.38,101.80,99.56,97.31,94.73,91.56,89.08,87.75,87.33,89.19,91.15,92.82,94.12,94.31,93.15,91.40,89.55,87.32,84.97,82.42,80.08,78.90,77.84,77.03,76.66,76.86,77.16,77.33,77.78,78.63,79.58,80.57,81.36,81.96,82.45,82.69,82.96,83.11,83.01,82.54,82.11,81.59,80.99,80.45,79.37,77.99,76.46,74.94,73.33,71.77,70.06,68.08,65.74,64.16,62.54,60.86,59.27,58.31,57.36,56.37,55.49,55.99,56.96,58.06,59.29,60.97,63.56,66.23,68.53,70.00,70.13,70.20,70.17,69.97,69.38,68.86,68.99,69.61,70.27,70.24
26.95,27.11,27.26,27.41,27.48,27.56,27.64,27.72,27.79,27.87,27.95,28.03,28.11,28.26,28.42,28.54,28.63,28.78,28.87,28.99,29.14,29.30,29.38,29.51,29.66,29.81,29.89,32.67,35.95,38.81,40.67,41.95,42.94,43.18,42.27,41.65,40.73,39.80,38.93,37.92,36.87,36.86,37.59,38.21,38.79,39.25,39.45,39.36,39.18,39.00,38.95,39.11,39.59,40.71,42.07,43.25,43.86,43.94,44.36,44.97,45.71,46.71,48.24,49.78,51.14,52.22,53.38,54.33,55.19,56.00,56.39,55.98,55.63,55.62,55.85,56.57,57.54,58.59,59.63,61.87,63.75,65.48,67.15,68.77,72.85,78.37,82.70,81.56,78.23,75.73,74.18,73.59,74.13,75.22,76.14,76.46,75.60,73.69,71.29,68.48,65.34,62.90,62.02,61.37,60.76,62.96,66.64,71.27,76.24,80.64,84.44,87.85,90.25,91.27,92.43,93.60,93.63,92.40,90.77,87.68,84.06,80.49,77.56,74.79,72.96,74.17,78.88,83.21,87.80,90.96,92.63,93.49,91.10,88.30,85.59,83.52,84.58,87.70,91.63,95.63,98.88,101.23,101.85,100.77,98.29,96.06,95.70,96.58,98.09,99.34,100.97,102.96,104.91,105.99,103.67,100.88,98.42,96.80,95.18,93.56,92.05,90.95,91.16,91.45,92.26,93.39,94.45,94.77,95.74,97.14,98.75,100.29,101.58,102.78,103.94,105.11,102.52,99.97,97.45,94.67,91.90,89.52,88.10,88.06,90.11,92.12,93.91,95.35,96.36,95.61,94.35,92.78,90.97,88.35,85.36,82.28,79.69,78.76,77.76,76.91,76.25,75.83,75.98,76.08,76.48,77.27,78.12,78.97,79.73,80.34,80.72,81.11,81.49,81.72,81.73,81.80,81.99,81.93,81.54,80.84,80.35,79.49,78.22,76.58,74.58,72.41,70.14,67.86,65.77,64.95,63.84,62.11,59.73,58.85,57.90,56.80,55.68,55.54,56.50,57.78,59.22,61.15,63.93,66.83,69.10,70.00,70.08,70.10,70.07,69.76,68.23,67.03,67.19,68.42,69.87,70.05
27.08,27.23,27.39,27.53,27.61,27.69,27.74,27.78,27.86,27.94,28.01,28.09,28.17,28.27,28.38,28.50,28.63,28.78,28.87,28.99,29.13,29.24,29.36,29.51,29.64,29.75,29.88,32.32,35.64,38.94,41.04,42.33,43.47,44.36,44.81,44.63,43.71,41.88,39.49,38.44,37.23,36.52,36.41,36.94,37.43,37.85,38.11,38.15,38.00,38.31,38.74,39.16,39.63,40.91,42.25,43.53,44.72,45.57,46.30,46.95,47.51,47.88,48.07,48.37,48.84,49.48,50.44,51.26,51.94,52.53,53.50,54.60,55.76,57.04,58.68,60.42,62.05,63.52,64.78,66.43,67.53,68.51,69.74,71.90,75.88,80.28,83.06,81.17,77.39,73.89,71.63,71.26,72.24,73.34,74.20,74.53,73.92,72.30,70.08,67.43,64.51,61.79,60.56,60.41,61.34,64.35,67.91,72.35,77.31,81.96,85.92,88.86,90.82,91.91,92.87,92.96,92.26,90.85,88.84,86.07,82.96,79.43,75.41,72.62,71.04,72.95,78.65,83.08,87.43,90.45,91.84,91.62,89.03,86.11,83.25,81.02,82.83,86.76,90.84,94.31,97.26,99.49,99.91,98.59,95.88,93.84,93.96,95.13,96.55,97.79,99.37,101.44,103.40,103.90,101.99,99.71,97.59,95.97,94.35,92.95,92.34,92.60,93.32,94.07,95.03,96.16,97.33,97.54,98.14,99.27,100.96,102.80,104.38,104.96,104.48,103.26,100.63,97.87,95.09,92.34,90.14,89.25,89.58,90.96,93.05,95.24,96.93,97.88,97.91,96.70,94.83,92.67,90.40,87.48,84.22,81.40,79.44,78.80,78.23,77.50,76.75,76.17,75.98,75.48,75.33,75.77,76.48,77.18,77.85,78.44,78.87,79.36,79.80,80.22,80.60,80.87,81.07,81.15,81.07,80.76,80.44,79.82,78.78,77.22,74.82,72.47,70.61,69.40,68.62,67.90,66.31,63.95,61.31,59.58,58.25,57.01,55.72,55.27,56.22,57.57,59.06,60.85,63.40,66.09,68.46,70.00,70.03,70.00,69.33,67.82,65.94,65.09,65.46,66.70,68.17,68.73
27.21,27.36,27.51,27.64,27.71,27.79,27.84,27.87,27.95,28.01,28.08,28.15,28.23,28.31,28.37,28.47,28.62,28.76,28.86,28.99,29.12,29.20,29.35,29.49,29.61,29.72,29.87,31.95,35.30,38.99,41.27,42.68,44.02,45.36,46.67,47.06,46.64,44.55,41.08,39.03,37.62,36.42,35.68,35.88,36.27,36.65,37.01,37.33,37.48,38.16,38.88,39.67,40.90,42.23,43.49,44.81,46.34,47.88,49.00,49.82,50.34,50.34,49.73,49.18,48.88,48.89,49.50,50.05,50.54,51.11,52.61,54.66,56.89,59.30,62.19,64.57,66.52,68.10,69.42,70.51,71.04,71.55,72.52,74.93,78.52,81.80,83.31,80.99,76.92,72.77,69.93,69.41,70.41,71.45,72.24,72.58,72.16,70.71,68.66,66.17,63.43,60.66,59.83,60.71,63.08,66.64,70.30,74.53,79.13,83.53,87.40,89.82,91.24,92.15,92.90,92.38,91.34,89.90,87.49,84.70,81.68,78.00,73.21,70.64,69.62,72.26,78.61,82.80,86.74,89.51,90.60,89.52,86.85,83.92,81.00,78.65,81.20,85.53,89.58,92.62,95.01,96.66,96.76,95.44,93.11,91.70,92.31,93.73,95.18,96.64,98.34,100.53,102.37,101.97,100.40,98.55,96.69,95.04,93.89,93.17,93.29,94.22,95.30,96.39,97.54,98.74,99.99,100.19,100.59,101.57,103.27,105.14,105.96,105.47,103.77,101.23,98.69,95.84,93.03,90.66,89.66,90.22,91.85,94.11,96.18,98.21,99.53,99.87,99.02,97.11,94.64,91.92,89.15,85.95,83.29,81.32,80.11,79.69,79.02,78.22,77.44,76.86,76.50,75.66,75.07,74.98,75.10,75.46,75.96,76.51,76.99,77.51,77.95,78.37,78.83,79.41,79.62,79.90,80.21,80.19,79.97,79.56,78.84,77.68,75.45,73.25,71.75,71.16,70.97,70.06,68.07,65.33,62.51,60.18,58.55,57.17,55.74,54.92,55.80,57.14,58.58,60.22,62.45,64.90,67.25,69.15,69.33,69.08,67.88,65.74,63.67,63.18,63.77,65.05,66.52,67.19
27.34,27.49,27.62,27.70,27.78,27.85,27.93,28.00,28.08,28.09,28.14,28.22,28.30,28.37,28.40,28.47,28.61,28.70,28.84,28.99,29.12,29.20,29.35,29.46,29.57,29.72,29.87,31.59,34.93,38.95,41.33,42.97,44.56,46.10,47.54,48.66,49.44,48.02,44.09,39.71,38.00,36.66,35.56,35.12,35.36,35.66,36.16,36.96,37.85,38.71,39.51,40.77,43.83,45.03,46.15,47.42,48.92,51.00,52.63,53.81,54.50,54.50,53.84,53.02,52.15,51.28,51.34,51.40,51.70,52.49,54.44,56.61,59.30,62.58,66.46,68.97,70.71,72.02,73.18,73.72,74.04,74.52,75.51,77.77,80.53,82.73,83.37,81.05,76.94,72.63,69.41,68.21,68.67,69.51,70.26,70.62,70.30,68.86,66.96,64.67,62.03,59.45,60.09,62.71,66.37,70.13,74.24,78.22,81.96,85.41,88.87,90.70,91.48,91.88,92.38,91.92,91.08,89.75,86.95,83.68,80.16,76.05,70.98,68.90,68.88,72.32,78.83,82.33,85.63,87.97,88.74,87.12,84.52,81.72,78.85,76.47,79.76,83.91,87.67,90.46,91.91,92.36,91.94,90.96,89.87,89.69,90.78,92.38,94.03,96.04,98.08,100.43,101.98,100.24,98.93,97.40,95.67,93.97,93.96,94.52,95.12,95.72,97.01,98.29,99.67,101.06,102.36,102.66,103.12,104.11,105.73,107.24,105.84,103.68,101.39,99.04,96.70,93.92,91.39,89.89,90.91,92.85,95.19,97.56,99.57,100.99,101.56,101.12,99.53,96.59,93.53,90.34,87.01,83.57,82.69,82.37,82.05,81.73,80.23,79.08,78.36,78.02,77.70,76.92,76.03,75.16,74.10,73.83,74.04,74.54,75.07,75.54,75.86,76.04,76.20,77.21,77.47,78.03,78.83,78.97,78.76,78.51,78.24,77.91,76.62,75.02,73.82,73.19,72.56,71.08,68.84,66.07,63.15,60.63,58.80,57.27,55.76,54.44,55.19,56.40,57.65,59.14,60.95,63.11,65.30,67.12,67.75,67.02,65.48,63.51,61.49,61.30,62.12,63.52,64.99,65.36
27.46,27.62,27.74,27.82,27.90,27.94,28.00,28.07,28.15,28.19,28.26,28.32,28.36,28.44,28.49,28.56,28.66,28.70,28.84,28.97,29.08,29.20,29.35,29.45,29.56,29.72,29.87,31.40,34.61,38.63,41.11,42.79,44.42,46.00,47.52,49.18,50.35,49.17,45.16,40.03,38.18,36.78,35.50,34.57,34.79,35.46,36.41,37.51,38.56,40.06,42.15,44.74,47.47,48.33,49.54,50.98,52.36,54.56,56.24,57.49,58.31,58.57,58.08,57.05,55.69,54.31,54.82,55.31,55.72,56.06,56.63,58.23,61.72,66.39,69.65,71.84,73.48,74.49,74.82,75.45,76.07,76.81,77.77,79.08,81.22,82.59,82.48,80.29,76.34,72.55,69.75,68.43,67.72,67.37,67.55,67.99,67.73,66.60,64.88,62.72,60.36,59.96,62.38,66.08,70.13,74.34,77.87,81.13,84.16,86.80,88.83,90.14,90.86,91.18,91.64,91.63,91.14,90.02,87.80,83.98,79.80,75.17,69.89,67.80,68.27,72.00,78.33,81.86,84.59,86.25,86.53,84.96,82.26,79.15,76.39,74.90,78.29,81.76,84.86,87.27,88.42,88.60,88.27,87.72,87.28,88.72,90.50,92.40,94.31,96.39,98.48,100.42,101.28,99.18,97.74,96.25,95.13,94.83,95.54,96.45,97.14,97.62,98.51,99.96,101.58,103.18,104.62,105.05,105.65,106.39,107.03,106.43,104.41,102.06,99.70,97.47,95.03,93.26,92.35,92.43,94.08,96.30,98.51,100.44,102.03,102.52,101.93,100.34,97.96,94.66,91.45,88.42,85.87,85.60,86.15,86.43,86.08,84.97,82.87,80.99,79.65,79.06,78.84,78.27,77.48,76.50,75.27,74.36,73.72,73.33,73.11,73.44,73.58,73.62,73.67,74.12,74.06,74.38,75.13,75.75,76.32,76.33,76.10,76.03,75.92,75.66,75.12,74.25,73.22,71.31,69.02,66.55,64.17,61.20,59.10,57.47,55.96,54.40,54.52,55.34,56.52,57.90,59.53,61.41,63.31,64.91,65.56,65.10,63.80,61.94,59.97,59.79,60.60,61.95,63.29,63.50
27.59,27.74,27.85,27.93,28.01,28.03,28.08,28.15,28.21,28.29,28.37,28.42,28.44,28.50,28.58,28.65,28.72,28.74,28.86,28.96,29.04,29.20,29.34,29.45,29.56,29.72,29.86,31.27,34.26,38.07,40.66,42.38,44.00,45.58,47.11,48.91,50.16,49.16,45.43,40.18,38.25,36.79,35.37,34.10,34.53,35.58,36.90,38.22,39.55,41.86,45.15,48.74,50.87,51.62,53.11,54.81,55.97,57.96,59.49,60.72,61.71,62.35,62.20,61.13,59.43,57.67,58.68,59.79,60.62,60.89,60.38,61.34,64.87,69.85,72.22,73.60,74.67,75.17,74.82,75.73,76.83,77.98,79.05,79.68,81.35,82.24,81.81,79.82,76.35,73.17,70.79,69.40,67.71,66.21,65.54,65.53,65.04,64.22,62.63,60.70,59.08,61.08,65.02,69.57,73.95,78.19,81.01,83.44,85.50,86.82,87.28,88.31,89.42,90.17,90.87,91.23,91.07,90.24,88.53,84.39,79.70,74.62,69.16,66.87,67.72,71.59,77.54,81.28,83.56,84.56,84.31,82.83,79.60,76.19,73.78,73.43,76.64,79.39,81.87,83.93,84.88,85.01,85.10,85.34,85.85,88.54,90.93,93.14,95.27,97.40,99.36,100.55,100.47,98.39,96.83,95.56,95.18,96.13,97.32,98.40,99.15,99.59,100.10,101.67,103.46,105.23,106.80,107.36,107.83,107.91,107.26,104.96,102.73,100.50,98.26,96.09,94.09,93.50,94.09,95.50,97.44,99.61,101.56,103.07,104.06,103.43,101.70,99.15,96.08,92.59,89.59,87.33,86.26,88.46,89.89,90.44,89.98,88.23,85.88,83.68,82.05,81.29,80.92,80.28,79.34,78.11,76.78,75.42,74.09,72.87,71.86,71.82,71.70,71.57,71.48,71.36,71.07,71.13,71.65,72.53,73.62,73.87,73.72,73.78,74.54,75.33,75.47,74.76,73.69,71.60,69.39,67.22,65.08,61.77,59.42,57.70,56.23,54.65,54.14,54.39,55.26,56.60,58.09,59.72,61.32,62.69,63.29,63.12,62.16,60.50,58.67,58.44,59.18,60.42,61.51,61.62
27.72,27.83,27.91,27.99,28.07,28.14,28.21,28.27,28.28,28.36,28.43,28.50,28.57,28.58,28.64,28.72,28.79,28.86,28.94,28.99,29.04,29.20,29.29,29.42,29.56,29.71,29.80,31.20,33.78,37.02,39.76,41.57,43.20,44.71,46.12,47.23,48.04,47.31,44.54,40.08,38.12,36.57,35.09,33.72,34.88,36.15,37.49,38.95,41.12,44.43,48.20,51.66,53.39,54.66,56.84,58.90,59.64,60.79,61.85,62.98,64.23,65.46,65.95,65.21,63.53,61.58,62.77,64.63,66.52,67.89,67.79,68.19,69.80,72.22,73.70,73.23,72.63,72.09,71.70,73.11,74.92,76.73,78.27,79.19,80.65,81.82,82.03,80.39,78.08,75.45,73.16,71.62,69.68,67.54,65.51,63.75,62.37,61.69,60.14,58.71,58.88,62.95,67.71,72.79,77.69,80.85,83.13,84.62,85.01,83.71,82.70,83.99,86.35,88.57,90.06,90.52,90.57,90.17,88.40,84.53,79.78,74.45,68.83,66.09,67.29,71.12,76.31,80.45,82.54,83.00,82.19,80.65,75.96,72.43,70.95,71.97,74.54,76.73,78.81,80.63,81.38,81.63,82.67,84.52,86.94,89.82,92.56,95.06,97.34,99.62,101.15,101.00,99.52,97.98,96.50,95.99,96.43,97.67,98.96,100.17,101.07,101.62,102.03,103.59,105.38,107.18,108.85,109.45,109.13,107.73,105.35,103.09,100.96,99.03,97.16,94.94,94.76,95.39,96.68,98.50,100.50,102.26,103.92,105.28,105.43,103.31,100.73,97.80,94.29,90.75,88.64,88.39,89.95,91.52,92.67,93.13,92.69,91.04,89.20,87.87,86.99,86.43,85.32,83.83,81.97,79.91,78.23,76.91,75.48,73.93,72.37,71.45,70.85,70.42,70.05,69.78,69.63,69.58,69.70,70.13,70.78,71.18,71.39,71.54,72.25,73.10,73.86,74.32,74.09,72.33,70.47,68.43,65.61,62.23,59.77,57.98,56.59,55.40,54.49,53.85,53.81,55.25,56.61,58.03,59.39,60.51,61.07,60.96,60.29,59.15,57.67,57.31,57.94,59.01,59.61,59.70
27.85,27.95,28.02,28.10,28.14,28.21,28.29,28.35,28.39,28.43,28.50,28.57,28.65,28.68,28.75,28.81,28.86,28.94,29.01,29.07,29.13,29.25,29.29,29.41,29.55,29.67,29.78,30.81,32.95,35.84,38.36,40.23,41.78,43.09,44.21,44.92,45.10,44.27,42.29,39.41,37.65,36.07,34.55,33.20,34.59,36.06,37.57,39.20,41.67,45.03,48.55,51.64,53.37,55.09,57.46,59.69,60.88,62.06,63.21,63.96,64.23,64.47,64.59,64.80,65.17,65.75,66.66,68.00,69.44,70.63,70.99,71.22,71.64,72.14,72.19,71.23,70.32,69.68,69.48,71.60,73.59,75.49,77.24,78.42,79.79,81.01,81.61,80.89,79.48,77.57,75.48,73.40,71.07,68.66,66.14,63.62,61.46,60.32,58.58,57.65,59.39,64.28,69.32,74.38,79.04,81.61,83.64,84.21,83.28,81.20,79.50,80.48,82.95,85.70,87.68,88.25,88.25,87.78,86.29,83.11,78.70,73.54,68.23,65.30,66.75,70.52,75.05,78.98,80.69,80.52,78.82,76.20,72.50,70.48,70.48,72.51,74.90,76.24,77.29,78.28,78.94,79.90,81.95,84.83,87.99,91.17,94.20,96.93,99.33,101.58,102.47,101.67,99.83,98.47,97.11,96.61,97.13,98.67,100.31,101.80,102.92,103.63,104.09,105.46,107.18,108.92,110.28,110.15,108.88,106.59,103.61,101.34,99.48,98.08,97.00,95.91,96.46,97.53,99.15,101.35,103.75,105.41,106.63,107.19,105.78,102.87,99.68,96.30,92.59,89.83,89.44,90.78,93.04,94.29,95.30,95.72,95.32,93.84,92.09,90.73,89.88,89.53,88.57,86.99,84.77,82.07,79.43,77.83,76.26,74.59,72.89,71.62,70.81,70.24,69.75,69.37,68.97,68.68,68.59,68.83,69.12,69.33,69.48,69.62,70.21,70.95,71.76,72.55,73.02,72.62,71.57,69.92,67.74,64.25,60.98,58.60,57.45,56.55,55.51,54.48,53.72,53.78,55.03,56.27,57.37,58.29,58.83,58.69,58.19,57.48,56.38,56.18,56.81,57.71,57.89,57.82
27.97,28.07,28.14,28.21,28.22,28.28,28.36,28.43,28.51,28.52,28.57,28.65,28.71,28.79,28.87,28.91,28.93,29.01,29.08,29.16,29.23,29.31,29.32,29.42,29.53,29.62,29.77,30.31,31.99,34.53,36.72,38.55,39.96,41.03,41.82,42.25,41.85,40.88,39.57,38.37,36.91,35.38,33.91,32.67,34.07,35.69,37.38,39.13,41.54,44.61,47.69,50.39,52.35,54.65,57.12,59.41,61.16,62.62,63.95,64.22,63.22,62.10,61.49,62.58,65.26,68.90,69.76,70.36,70.88,71.45,72.12,72.24,71.82,70.89,69.58,68.58,67.85,67.52,67.84,70.64,72.61,74.36,76.13,77.37,78.73,79.99,80.93,81.20,80.53,79.34,77.47,74.83,72.13,69.58,66.91,64.07,61.28,59.44,57.53,57.12,60.12,65.21,70.24,75.03,79.22,81.54,83.40,83.19,81.24,78.96,76.83,77.31,79.52,82.41,84.65,85.23,85.01,84.33,83.23,80.82,76.93,72.18,67.45,64.50,66.13,69.76,73.68,77.05,78.24,77.45,74.97,71.38,69.56,69.55,71.19,74.12,76.48,77.02,77.02,77.07,77.55,79.07,81.86,85.38,88.86,92.50,95.83,98.75,101.23,103.39,103.73,102.65,100.81,99.42,98.10,97.31,97.65,99.50,101.54,103.34,104.71,105.60,106.16,107.31,108.91,110.45,111.22,110.09,107.97,105.15,102.06,99.94,98.54,97.72,97.45,97.71,98.56,99.81,101.65,104.20,107.02,108.63,109.25,108.63,105.55,102.18,98.57,94.82,91.05,89.69,91.13,93.66,95.90,96.92,97.80,98.17,97.83,96.61,94.79,93.08,91.95,91.70,91.11,89.70,87.36,84.16,80.50,78.51,76.78,75.06,73.36,72.04,71.25,70.69,70.12,69.52,68.78,68.23,67.98,68.07,68.03,67.93,67.83,67.86,68.32,68.90,69.58,70.38,71.37,72.43,72.29,71.24,70.15,66.83,62.85,59.84,58.77,58.01,56.88,55.62,54.27,52.68,53.57,54.49,55.28,56.05,56.56,56.36,55.98,55.62,54.94,55.03,55.70,56.40,56.22,55.97
28.05,28.13,28.21,28.28,28.34,28.41,28.46,28.49,28.57,28.63,28.70,28.76,28.78,28.86,28.93,29.00,29.06,29.14,29.17,29.22,29.30,29.37,29.43,29.48,29.53,29.62,29.77,29.99,31.04,32.86,34.69,36.22,37.38,38.19,38.74,38.97,38.63,37.92,37.06,36.56,35.45,34.23,33.15,32.41,33.62,35.14,36.76,38.34,39.85,42.72,45.72,48.49,51.09,54.76,57.79,59.93,61.16,62.57,63.41,63.21,61.97,60.60,59.19,59.64,62.14,66.26,69.17,70.29,70.54,70.69,70.77,70.30,69.43,68.27,66.96,65.73,65.00,65.39,67.53,70.42,72.31,73.78,75.04,75.39,76.91,78.69,80.16,80.62,80.38,79.58,77.91,75.28,72.58,69.87,67.12,64.31,61.48,58.91,57.31,57.58,60.62,65.16,69.65,74.00,78.01,80.76,82.36,82.05,80.04,77.07,74.19,74.36,76.55,79.49,81.24,81.24,80.60,79.80,79.10,77.13,73.87,69.96,66.31,63.76,65.27,68.50,71.80,74.09,74.36,73.11,70.98,69.07,68.89,70.37,73.37,77.43,79.60,80.21,80.16,79.86,79.50,79.73,81.69,85.01,88.93,93.56,97.39,100.42,102.77,104.93,105.51,104.67,102.87,100.98,99.16,98.01,98.28,100.47,102.71,104.75,106.34,107.42,108.13,109.20,110.53,111.38,110.77,108.90,106.63,103.93,101.12,100.18,99.73,99.38,99.22,99.68,100.73,102.31,104.52,107.38,110.01,111.23,110.71,108.35,104.38,100.81,97.31,93.76,90.09,91.74,94.03,96.55,98.80,99.42,99.86,100.05,99.88,99.20,97.36,95.35,93.77,93.09,92.20,90.83,88.53,85.22,81.42,79.10,77.17,75.37,73.61,72.79,72.70,72.55,71.75,70.31,69.42,68.76,68.28,67.97,67.63,67.16,66.66,66.26,66.72,67.26,67.89,68.64,69.59,70.55,71.08,71.17,70.97,69.32,66.44,63.52,61.48,60.27,58.77,57.17,55.49,53.66,52.89,52.68,53.00,53.81,54.12,53.94,53.63,53.41,53.32,53.79,54.42,54.82,54.50,54.15
28.15,28.23,28.30,28.35,28.42,28.50,28.55,28.59,28.64,28.71,28.79,28.85,28.88,28.96,29.01,29.07,29.15,29.23,29.26,29.32,29.39,29.44,29.52,29.56,29.60,29.65,29.78,29.84,30.35,31.31,32.39,33.54,34.40,34.98,35.32,35.51,35.38,34.98,34.49,34.53,33.72,32.80,32.12,31.99,33.20,34.63,36.19,37.78,39.20,41.97,44.97,47.97,51.25,55.63,58.66,60.40,61.30,62.52,62.80,62.26,60.99,59.13,57.14,57.32,59.61,63.08,66.55,68.27,68.88,69.01,68.88,67.94,66.76,65.54,64.25,62.97,62.56,63.71,66.94,70.00,71.79,72.92,73.60,73.30,74.49,76.32,78.21,79.41,79.60,78.82,77.16,74.78,72.23,69.63,66.97,64.22,61.36,58.45,56.99,57.54,60.48,64.92,69.18,73.31,77.23,80.29,81.47,80.85,78.63,75.24,72.10,71.91,73.72,76.35,78.13,77.68,76.66,75.72,74.94,73.17,70.35,67.06,64.15,63.06,64.78,67.44,69.75,71.04,70.90,69.83,68.47,67.86,68.78,71.44,75.30,79.60,81.62,82.90,83.38,83.17,82.57,81.98,82.75,85.01,88.62,93.55,98.02,101.60,104.21,106.55,107.48,106.80,104.86,102.53,100.23,98.67,98.79,101.19,103.83,106.11,107.94,109.26,110.03,111.02,111.58,111.29,109.74,107.55,105.26,103.10,101.39,101.19,101.31,101.40,101.53,102.01,103.07,104.65,107.02,110.36,113.14,113.22,111.38,108.04,103.51,99.82,96.55,94.00,92.62,95.26,97.36,99.22,100.89,101.18,101.42,101.47,101.21,100.48,98.87,96.99,95.23,93.94,92.76,91.30,88.83,85.24,81.26,78.80,76.73,75.14,74.40,74.40,74.67,74.56,73.60,71.82,70.50,69.72,69.31,68.82,68.35,67.76,67.02,66.17,66.01,65.89,66.17,66.95,67.88,68.83,69.74,70.48,70.87,70.30,68.33,65.82,63.50,61.93,60.19,58.28,56.33,54.57,53.15,52.27,51.99,52.32,52.29,52.11,51.96,51.90,52.00,52.61,53.11,53.27,52.85,52.58
28.28,28.36,28.40,28.41,28.49,28.57,28.64,28.70,28.70,28.77,28.85,28.93,29.00,29.08,29.10,29.14,29.21,29.29,29.37,29.44,29.50,29.50,29.57,29.65,29.70,29.71,29.78,29.80,29.84,29.91,29.99,30.70,31.26,31.61,31.77,31.99,32.16,32.11,31.93,32.38,31.85,31.21,30.93,31.47,32.77,34.14,35.67,37.41,39.28,42.01,45.06,48.39,52.34,56.99,59.64,60.84,61.54,62.44,62.15,61.34,60.14,57.63,55.25,55.42,57.51,59.58,62.61,64.94,66.32,66.68,66.62,65.33,63.95,62.76,61.53,60.32,60.45,62.33,66.16,69.40,71.11,71.86,71.92,71.12,71.66,73.26,75.52,77.75,78.37,77.39,75.59,73.63,71.32,69.01,66.55,63.89,61.04,58.05,56.60,57.15,59.90,64.52,68.77,72.83,76.73,79.97,80.65,79.59,77.10,73.47,70.35,69.80,71.03,73.12,75.24,74.42,73.05,71.93,70.76,69.02,66.52,63.73,61.39,62.41,64.51,66.45,67.55,67.95,67.78,67.33,66.99,67.39,69.03,72.62,77.00,80.94,82.90,85.21,86.62,86.82,86.37,85.28,84.67,85.33,88.07,92.85,98.03,102.44,105.54,108.19,109.51,108.92,106.76,104.05,101.27,99.30,99.20,101.72,104.89,107.42,109.49,111.09,111.87,112.73,112.20,110.51,108.35,106.11,103.92,102.59,102.50,102.73,103.15,103.67,104.19,104.58,105.54,106.91,109.34,113.25,116.35,114.80,111.54,107.72,102.85,99.11,96.21,95.17,97.40,99.71,100.92,101.71,102.46,102.46,102.63,102.55,102.03,100.87,99.63,98.14,96.37,94.39,92.92,91.26,88.51,84.53,80.39,77.91,75.81,74.64,75.57,76.59,77.01,76.69,75.58,73.78,71.91,71.02,70.91,70.38,69.90,69.31,68.42,67.10,65.93,64.77,64.50,65.31,66.22,67.22,68.31,69.35,70.13,70.22,69.04,67.13,65.01,63.15,61.24,59.09,56.91,55.45,54.05,52.80,51.87,51.40,50.93,50.75,50.76,50.88,50.88,51.46,51.80,51.73,51.28,51.20
28.34,28.42,28.47,28.48,28.55,28.63,28.68,28.71,28.76,28.84,28.88,28.93,29.00,29.08,29.10,29.14,29.20,29.23,29.30,29.38,29.43,29.43,29.51,29.59,29.63,29.64,29.72,29.73,29.77,29.84,29.87,30.16,30.37,30.49,30.54,30.62,30.68,30.66,30.60,30.76,30.57,30.38,30.39,30.83,32.08,33.54,35.43,37.83,40.10,42.90,45.88,49.15,53.35,57.88,60.16,61.00,61.57,61.73,61.37,60.26,58.18,54.64,53.10,53.73,55.68,57.41,59.42,61.26,62.65,63.47,63.95,63.41,62.11,60.53,59.65,59.10,59.55,61.34,64.69,67.88,69.87,70.68,70.30,68.51,68.74,70.62,73.29,75.33,76.75,75.74,73.69,71.79,69.68,67.73,65.56,63.12,60.63,57.75,56.16,56.49,59.19,63.52,68.01,72.13,75.65,78.94,79.42,78.11,75.46,71.93,68.48,68.02,69.49,71.62,72.61,71.62,69.89,68.03,66.57,64.27,62.43,61.17,60.44,61.95,63.36,64.28,64.68,65.63,66.17,66.43,66.72,67.56,69.13,72.39,76.61,80.94,83.69,86.48,88.67,89.87,89.61,88.59,87.73,87.49,88.32,92.86,98.00,102.44,105.63,108.98,109.83,109.16,107.32,104.56,101.74,99.68,99.47,101.86,105.23,108.26,110.72,112.48,113.51,112.90,111.42,109.41,107.20,105.16,104.33,104.19,104.35,104.58,105.09,105.92,106.83,107.32,108.10,109.95,113.18,117.67,118.74,116.07,111.90,107.27,102.35,99.33,98.04,98.41,100.35,102.20,102.90,103.35,104.06,104.06,103.62,102.90,101.98,100.87,99.31,97.56,95.62,93.49,91.92,89.94,86.89,82.86,79.40,77.10,76.30,76.73,77.81,79.17,79.80,79.27,77.42,74.98,74.16,74.24,74.59,74.20,73.56,72.20,70.38,68.43,67.17,65.83,64.76,64.22,64.74,65.73,66.75,67.69,68.46,68.65,68.01,66.73,65.00,62.99,61.13,59.40,57.82,56.40,54.96,53.60,52.49,51.78,51.32,50.91,50.59,50.35,50.19,50.42,50.56,50.52,50.31,50.53
28.35,28.42,28.47,28.48,28.56,28.63,28.67,28.69,28.77,28.84,28.87,28.90,28.97,29.05,29.07,29.11,29.17,29.17,29.24,29.31,29.37,29.37,29.45,29.51,29.55,29.58,29.66,29.67,29.71,29.77,29.77,29.82,29.85,29.87,29.87,29.87,29.87,29.87,29.87,29.87,29.87,29.91,30.05,30.32,31.31,32.84,35.05,37.92,40.58,43.45,46.35,49.49,53.56,57.80,60.00,60.82,61.26,61.05,60.39,58.60,55.54,51.93,51.15,51.99,53.63,55.03,56.32,57.86,59.33,60.46,61.35,61.96,61.11,59.19,58.31,58.07,58.68,60.25,62.84,65.63,67.41,67.89,66.98,64.89,65.57,68.10,71.33,73.47,75.37,74.38,72.12,70.03,67.90,66.22,64.39,62.25,60.01,57.31,55.72,55.97,58.66,62.71,67.39,71.54,74.72,77.91,77.96,76.35,73.65,70.39,66.72,65.93,67.14,69.16,69.48,68.37,66.47,64.34,63.00,61.12,60.07,59.77,59.90,61.21,62.50,63.56,64.40,65.83,66.63,67.01,67.27,67.86,69.12,71.94,75.94,80.49,83.80,86.95,89.72,91.83,92.61,92.08,91.39,90.80,90.50,94.04,98.54,102.82,106.28,109.47,110.00,109.21,107.48,104.86,102.14,100.11,99.90,102.32,105.75,109.00,111.70,113.58,114.27,112.69,110.65,108.50,106.38,105.34,105.43,105.84,106.07,106.42,107.01,108.19,109.75,110.97,112.22,114.34,117.46,121.28,120.51,116.85,112.08,107.21,102.97,101.14,101.00,101.90,103.05,104.60,105.02,105.16,105.48,105.04,104.07,102.90,101.71,100.66,98.46,96.22,94.06,92.08,90.43,87.92,84.67,81.10,78.52,77.13,77.43,79.10,81.43,82.93,83.17,81.73,78.70,76.48,76.51,77.36,78.24,78.28,77.44,75.63,73.10,70.20,68.35,66.75,65.20,63.85,63.72,64.25,65.04,65.90,66.62,66.88,66.62,65.81,64.47,62.62,60.84,59.31,57.99,56.72,55.39,54.11,53.01,52.19,51.68,51.15,50.63,50.17,49.87,49.82,49.78,49.74,49.71,50.04
28.30,28.36,28.41,28.41,28.49,28.57,28.61,28.62,28.70,28.78,28.81,28.83,28.91,28.99,29.01,29.04,29.11,29.11,29.17,29.25,29.31,29.31,29.38,29.41,29.44,29.51,29.59,29.61,29.65,29.71,29.71,29.71,29.76,29.81,29.81,29.81,29.81,29.81,29.81,29.81,29.81,29.85,29.91,29.93,30.44,32.02,34.51,37.64,40.70,43.60,46.42,49.37,52.90,56.64,59.06,60.26,60.56,60.40,59.20,56.31,52.12,49.55,49.42,50.18,51.31,52.42,53.31,54.80,56.38,57.67,58.80,61.05,61.05,58.85,57.57,57.26,57.85,59.07,60.57,62.58,63.61,63.30,61.74,60.15,62.13,65.73,69.65,72.24,74.26,73.32,70.90,68.34,65.97,64.48,63.01,61.26,59.16,56.70,55.27,55.60,58.33,62.14,66.93,71.09,73.98,76.86,76.24,74.28,71.66,68.84,65.09,63.51,63.89,65.63,65.80,64.63,62.77,60.88,60.13,59.78,59.64,59.66,59.81,60.13,61.94,64.45,67.01,68.83,69.41,69.26,68.73,68.28,68.98,71.26,74.93,79.56,83.16,86.53,89.67,92.59,95.35,95.77,95.71,95.39,94.83,96.54,99.70,103.63,107.54,109.65,110.00,109.05,107.18,104.91,102.49,100.59,100.50,103.15,106.48,109.63,112.42,114.36,114.06,112.06,109.88,107.81,105.95,106.78,107.30,107.54,107.63,108.23,108.90,110.51,112.97,115.62,118.07,120.22,122.22,124.00,121.60,117.06,112.05,107.60,104.84,104.71,105.22,105.67,105.48,106.88,107.29,107.16,106.72,105.34,103.91,102.50,101.21,100.20,97.05,94.02,91.61,90.09,88.40,85.12,81.81,79.23,77.74,78.09,79.27,81.79,86.59,88.01,87.19,84.04,79.34,78.31,78.96,80.35,81.86,82.64,81.57,79.66,76.67,72.45,69.47,67.51,65.86,64.27,63.20,62.80,63.16,63.95,64.58,64.89,64.81,64.30,63.37,62.01,60.37,58.76,57.34,56.31,55.28,54.30,53.41,52.64,52.03,51.47,50.93,50.41,49.96,49.71,49.54,49.45,49.52,49.75
28.24,28.30,28.34,28.35,28.43,28.51,28.54,28.56,28.64,28.71,28.74,28.77,28.85,28.92,28.94,28.98,29.04,29.04,29.11,29.19,29.24,29.24,29.32,29.34,29.37,29.45,29.48,29.52,29.58,29.64,29.64,29.64,29.69,29.74,29.74,29.74,29.74,29.74,29.74,29.74,29.74,29.79,29.84,29.84,30.08,31.44,33.79,36.84,39.71,42.17,44.65,47.29,50.05,53.48,55.83,57.11,57.51,56.91,54.81,52.23,49.84,48.13,48.05,48.61,49.44,50.21,50.88,52.16,53.93,56.07,58.40,61.10,61.29,59.12,57.58,56.63,56.54,57.18,58.30,59.34,59.80,59.50,58.56,57.91,60.82,64.78,68.67,71.43,73.19,72.37,69.94,66.95,64.33,62.56,61.08,59.58,57.68,55.46,54.76,55.77,58.43,62.48,67.32,71.34,73.85,75.85,74.62,72.50,69.91,66.68,63.04,61.43,61.35,62.11,62.22,61.63,60.77,59.92,59.49,59.56,59.68,60.03,60.87,62.14,64.47,67.15,69.70,72.05,73.55,73.82,73.01,71.61,70.71,71.50,74.11,78.37,82.00,85.77,89.42,92.87,96.30,97.99,98.84,99.09,98.94,100.21,102.53,105.68,109.02,109.86,109.81,108.80,106.98,104.74,103.07,101.80,101.90,104.13,107.09,110.08,112.94,114.95,113.94,111.63,109.43,107.87,107.42,108.60,109.38,109.73,109.84,110.73,111.94,114.05,116.93,119.98,123.15,125.23,126.05,125.44,121.55,116.92,112.57,109.22,107.98,108.26,108.76,109.03,108.72,108.94,108.38,107.32,106.02,104.60,103.25,101.93,100.35,97.82,93.89,90.99,88.98,87.41,85.76,82.87,80.44,79.24,79.24,81.29,83.84,86.63,89.63,90.37,88.77,85.16,80.68,81.37,83.40,85.40,86.80,87.20,85.37,82.94,79.64,75.14,70.43,67.94,66.52,65.51,64.58,63.57,62.83,62.47,62.60,62.90,62.84,62.45,61.78,60.69,59.36,57.96,56.63,55.58,55.20,54.86,54.48,54.01,53.25,52.49,51.75,51.03,50.34,49.86,49.52,49.34,49.33,49.60
28.18,28.23,28.28,28.29,28.36,28.44,28.48,28.50,28.57,28.65,28.68,28.71,28.78,28.86,28.88,28.91,28.98,28.98,29.05,29.11,29.16,29.18,29.25,29.28,29.31,29.38,29.38,29.44,29.51,29.56,29.58,29.58,29.63,29.68,29.68,29.68,29.68,29.68,29.68,29.68,29.68,29.72,29.78,29.80,29.88,30.83,32.77,35.59,38.22,40.24,42.20,44.18,46.03,48.61,50.49,51.85,53.02,52.47,50.34,48.52,47.68,46.72,46.84,47.44,48.23,48.88,49.57,51.01,53.10,55.73,58.72,61.30,61.40,59.36,57.84,56.48,55.74,55.60,55.93,56.16,56.17,55.92,55.63,56.34,59.89,63.95,67.73,70.66,72.12,71.45,69.10,65.70,62.66,60.64,59.13,57.75,55.97,54.35,54.54,56.25,58.84,63.69,68.27,71.77,73.80,74.60,72.97,70.66,67.90,64.38,61.31,59.91,59.57,59.65,59.71,59.55,59.42,59.37,59.25,59.52,60.25,61.47,63.16,65.12,67.51,69.91,72.18,74.92,77.22,78.10,77.46,75.61,73.62,73.06,74.25,77.23,80.74,84.94,89.17,93.21,97.15,99.64,101.18,102.02,102.45,103.48,105.11,107.38,109.83,109.84,109.42,108.42,106.93,105.29,104.29,103.58,103.74,105.29,107.94,110.77,113.63,115.64,113.91,111.31,109.21,108.26,108.97,110.47,111.59,112.28,112.70,113.80,115.44,117.83,120.86,124.14,127.49,129.30,129.19,126.92,121.55,117.10,113.55,111.17,110.92,111.33,111.64,111.61,111.03,110.19,108.80,107.04,105.14,103.67,102.40,100.94,98.77,94.97,91.03,88.41,86.68,85.23,83.94,81.79,80.35,80.31,81.64,84.75,87.99,90.68,92.28,91.85,89.50,86.06,82.88,84.92,87.56,89.65,90.75,90.71,88.48,85.55,81.82,77.08,71.11,68.51,67.51,67.02,66.12,64.72,63.13,61.78,61.22,61.26,61.09,60.73,60.22,59.31,58.41,57.47,56.53,55.72,55.76,55.84,55.80,55.47,54.61,53.71,52.80,51.88,50.84,50.05,49.54,49.26,49.12,49.45
28.11,28.17,28.21,28.22,28.30,28.38,28.41,28.43,28.51,28.59,28.61,28.64,28.72,28.80,28.81,28.85,28.91,28.91,28.98,29.02,29.05,29.11,29.19,29.21,29.25,29.31,29.31,29.38,29.42,29.44,29.51,29.51,29.56,29.61,29.61,29.61,29.61,29.61,29.61,29.61,29.61,29.66,29.73,29.80,29.88,30.11,31.23,33.59,36.02,37.68,38.79,39.52,40.24,40.90,41.55,43.07,46.22,46.76,46.34,45.82,45.53,45.17,45.88,46.99,48.19,49.12,50.26,52.62,55.27,57.53,60.04,61.60,61.22,59.41,58.44,57.21,55.98,54.71,53.35,53.14,52.89,52.62,52.81,55.60,59.28,63.11,66.76,69.88,71.02,70.60,68.46,64.67,60.90,58.76,57.22,55.77,53.99,53.63,54.90,57.19,59.78,66.36,70.10,72.41,73.81,72.88,71.24,68.66,65.37,61.95,60.26,59.40,59.13,59.20,59.21,59.08,59.03,59.12,59.35,59.65,61.73,64.81,67.57,69.38,70.94,72.47,74.24,77.08,79.73,81.41,81.73,80.32,78.40,76.97,76.17,76.25,79.41,84.04,88.98,93.74,98.12,100.48,102.24,103.67,104.88,105.76,106.89,108.16,109.32,109.39,108.69,107.81,107.16,107.25,106.67,106.30,106.27,106.75,109.25,111.93,114.70,116.52,114.06,111.15,109.40,109.11,110.32,112.36,114.02,115.42,116.67,117.82,119.59,121.84,124.59,127.97,130.58,131.76,131.23,128.68,121.89,117.93,115.31,113.53,113.23,113.50,113.44,112.79,111.42,109.94,108.18,106.25,104.28,102.56,101.29,99.18,95.91,91.61,89.07,86.81,85.06,84.13,83.77,82.83,82.37,83.02,85.29,88.27,90.80,92.84,94.58,92.19,89.07,86.80,86.58,89.17,90.83,91.99,92.59,92.21,90.36,87.03,82.59,77.51,71.24,69.39,69.14,68.88,67.64,66.15,64.34,62.47,60.98,60.28,59.77,59.32,58.82,57.96,57.66,57.59,57.60,57.58,57.54,57.57,57.46,56.94,56.03,55.15,54.21,53.07,51.49,50.28,49.57,49.21,48.86,49.29
