116.72,117.35,117.72,118.27,119.58,121.78,124.09,126.34,128.85,132.12,136.94,140.22,142.68,143.80,143.35,143.15,144.43,146.87,150.26,154.27,158.15,160.52,162.08,164.02,166.11,166.39,166.42,166.84,166.07,163.26,160.63,158.47,156.29,154.57,151.79,150.95,154.51,160.12,165.46,168.89,170.71,173.95,176.63,179.65,183.08,186.78,188.89,189.32,188.99,188.49,187.79,187.97,190.01,193.53,197.16,199.73,200.35,199.61,198.18,196.30,192.73,189.56,188.27,190.85,192.03,191.35,188.66,184.00,182.46,180.63,178.39,175.81,173.79,178.31,185.83,193.75,198.38,204.33,208.74,210.02,207.07,201.67,195.73,188.34,180.96,180.17,184.71,190.75,196.43,199.90,200.30,199.68,198.25,196.31,194.81,194.22,193.58,192.62,191.32,189.90,188.46,188.46,191.26,196.46,200.92,205.56,210.16,212.26,211.59,209.96,207.17,202.56,195.26,187.45,179.17,170.59,163.02,157.57,152.55,146.97,139.70,134.86,131.71,130.68,132.18,136.14,140.50,145.10,149.98,155.67,159.47,161.48,162.19,162.44,164.93,166.21,165.71,163.22,159.58,156.02,152.48,149.33,147.56,145.52,143.89,142.39,140.64,138.41,135.91,133.11,130.15,127.57,124.94,122.13,119.03,115.47,112.21,109.34,106.74,104.28,101.88,99.25,96.48,93.70,91.16,88.70,86.28,83.84,81.30,78.98,76.78,74.60,72.47,70.70,69.68,69.51,70.35,72.37,75.19,76.90,76.71,74.30,71.75,69.83,68.69,68.44,69.28,71.24,72.94,74.14,74.74,74.15,73.54,72.32,70.05,66.11,62.47,60.46,60.18,61.21,63.16,65.08,66.18,65.85,64.42,62.19,58.94,54.71,49.98,45.59,41.35,37.34,33.72,30.57,29.03,28.11,27.18,26.25,25.26,24.48,23.93,23.49,23.76,24.63,25.85,27.16,28.49,30.14,31.92,33.82,36.06,38.30,40.45,42.47,44.32,46.80,49.88,53.07,55.77,56.49,56.20,54.84,52.45,49.21,45.00,40.78,36.36,31.55,26.47,21.56,16.35,11.45,9.56,8.86,8.31,7.82
113.58,114.06,114.64,116.41,118.82,121.43,123.70,125.90,128.15,130.90,134.99,138.67,140.95,141.51,140.39,140.21,141.44,144.81,149.60,152.82,155.68,157.53,158.93,160.63,162.53,162.54,161.92,161.47,161.35,159.15,156.85,154.68,152.24,149.92,147.35,147.10,151.24,157.67,162.49,165.61,167.77,171.39,174.33,176.96,179.73,183.12,184.46,184.77,184.58,184.15,183.03,182.98,185.61,190.10,193.87,196.58,197.61,197.04,195.17,193.08,189.65,186.05,183.57,185.08,187.43,187.17,184.42,180.15,178.27,176.43,174.30,172.20,173.14,179.42,187.08,194.19,198.87,203.58,206.12,205.88,202.66,197.86,191.91,184.88,178.17,176.70,180.76,186.22,191.26,194.12,194.46,194.06,192.82,190.87,189.35,188.73,188.32,187.74,186.47,184.57,182.70,182.63,185.96,191.36,196.31,201.48,206.77,210.58,211.03,210.15,207.76,203.18,196.40,188.64,180.41,172.21,164.82,159.01,154.05,148.92,141.68,136.19,131.98,129.52,129.35,132.57,136.77,141.20,145.50,149.75,152.70,154.94,156.40,156.82,158.46,159.64,159.68,158.15,154.90,151.67,148.51,145.61,143.37,141.23,139.41,137.86,136.43,134.69,132.62,130.47,128.38,126.44,124.15,121.68,118.95,115.77,112.62,109.90,107.38,104.86,102.28,99.56,96.68,93.71,90.83,88.16,85.52,82.91,80.37,78.10,75.88,73.66,71.49,69.76,68.52,67.88,68.16,69.79,72.34,74.33,74.75,73.04,70.68,68.71,67.12,66.06,65.88,67.76,69.53,70.66,70.86,69.35,67.40,65.15,62.68,59.97,56.96,54.74,54.02,55.67,58.34,60.94,62.47,62.24,60.99,58.66,55.42,51.63,48.08,44.43,40.82,37.25,33.68,30.56,29.03,28.08,27.11,26.19,25.23,24.46,23.85,23.24,22.93,23.19,24.01,25.27,26.54,27.96,29.62,31.53,33.73,35.96,38.05,39.89,41.37,43.33,45.94,49.13,52.43,53.58,54.13,53.37,51.30,48.24,44.23,40.16,36.01,31.70,26.93,21.62,15.68,10.22,9.06,8.37,7.77,7.22
110.63,110.86,112.12,114.90,118.10,121.02,123.18,125.30,127.31,129.57,132.74,136.47,138.56,138.82,137.54,137.72,138.92,142.25,146.99,149.83,152.70,154.58,155.90,157.43,159.12,159.05,158.11,157.03,156.95,155.27,153.28,151.17,148.67,145.94,143.48,143.57,147.91,154.20,158.94,162.51,165.49,169.28,172.08,174.26,176.37,179.07,179.79,179.70,179.10,178.26,177.58,178.65,182.21,187.29,191.41,194.10,195.33,194.89,192.75,190.39,187.07,183.26,179.99,180.03,182.86,183.00,180.52,176.71,174.51,172.53,170.50,169.07,173.10,180.57,187.99,194.21,198.72,202.43,203.55,202.12,198.48,194.02,187.93,181.06,174.85,173.08,176.71,181.57,185.86,187.85,188.13,187.96,187.02,185.27,183.72,183.06,182.82,182.50,181.36,179.39,177.36,177.38,181.33,186.87,191.99,197.55,203.54,208.42,209.83,209.62,207.65,203.36,197.41,190.09,182.29,174.65,167.14,160.69,155.49,150.57,143.40,137.62,132.77,129.04,126.77,128.98,132.78,136.96,140.87,144.27,146.73,149.04,150.90,151.65,152.69,153.69,154.07,153.32,150.72,147.90,145.11,142.40,139.68,137.32,135.31,133.65,132.30,130.85,129.12,127.48,126.08,124.84,123.00,120.98,118.75,116.08,113.24,110.73,108.33,105.83,103.11,100.25,97.24,94.13,91.00,88.12,85.29,82.48,79.70,77.44,75.21,72.98,70.83,69.17,67.69,66.54,66.22,67.55,69.79,71.90,72.79,71.68,69.35,67.38,65.54,63.93,63.02,64.06,65.22,65.94,65.78,63.94,61.50,58.91,56.48,54.53,52.17,49.95,48.84,50.34,53.08,55.79,57.46,57.38,56.45,54.31,51.53,48.51,45.92,42.96,39.98,36.86,33.45,30.51,29.01,28.04,27.05,26.12,25.20,24.44,23.80,23.10,22.37,22.10,22.38,23.22,24.29,25.66,27.32,29.22,31.33,33.50,35.48,37.14,38.42,40.06,42.23,45.23,48.81,50.54,51.82,51.65,49.93,47.05,43.29,39.46,35.61,31.72,27.14,21.83,15.49,9.47,8.73,8.02,7.34,6.72
108.05,107.84,110.58,113.89,117.33,120.48,122.45,124.41,126.24,128.04,130.04,133.25,135.11,135.51,134.80,135.88,137.11,138.70,140.87,144.05,148.83,151.63,153.08,154.56,155.99,156.11,155.37,154.14,153.02,151.60,149.86,147.87,145.72,142.91,140.42,140.43,144.45,149.02,154.47,159.63,164.05,167.64,169.67,171.36,172.89,174.28,174.65,173.72,171.81,169.75,170.96,175.38,180.48,185.54,190.36,192.65,193.70,193.27,191.20,188.55,185.19,181.60,178.29,176.40,178.50,178.93,177.22,173.89,171.40,169.12,167.22,166.77,173.86,181.64,188.37,193.63,197.60,200.82,201.35,199.18,194.70,190.09,183.63,176.53,170.39,169.07,172.40,176.73,180.19,180.96,181.13,181.14,180.62,179.39,177.85,177.19,176.97,176.75,175.86,174.40,172.66,173.06,177.77,183.45,188.23,193.94,200.67,205.60,207.71,208.03,206.51,202.91,198.33,192.09,185.24,178.41,170.26,162.81,156.96,151.86,144.74,139.06,134.15,129.40,124.54,125.47,128.46,132.20,135.95,139.35,141.98,144.12,145.82,147.11,148.06,148.86,149.25,148.96,147.45,145.11,142.59,139.94,136.77,133.97,131.74,129.91,128.28,126.88,125.39,124.04,123.01,122.56,121.34,119.94,118.36,116.38,114.19,111.94,109.68,107.36,104.58,101.48,98.30,95.13,91.90,88.84,85.87,82.78,79.38,77.07,74.86,72.66,70.52,68.96,67.20,65.46,64.52,65.70,67.60,69.67,70.79,70.06,67.48,65.58,63.79,62.11,61.06,60.06,59.55,59.27,58.84,57.64,56.20,54.47,52.42,50.22,48.41,46.59,45.24,45.40,47.15,49.07,50.38,50.53,50.19,48.84,47.24,45.54,43.45,41.11,38.68,36.01,32.94,30.40,28.98,27.98,26.99,26.06,25.13,24.37,23.74,23.04,22.22,21.58,21.15,20.95,21.58,23.16,25.02,26.89,28.85,30.88,32.64,34.17,35.54,37.23,38.96,41.40,44.70,47.32,49.17,49.51,48.25,45.51,42.09,38.67,35.19,31.53,26.90,22.26,16.06,9.45,8.62,7.84,7.09,6.34
105.15,105.73,109.15,112.55,115.78,118.73,121.19,123.10,124.82,126.46,128.03,130.33,131.84,132.57,132.73,133.89,135.10,136.50,138.20,140.47,143.40,146.02,148.60,151.52,152.83,153.05,152.24,150.58,148.82,147.92,146.72,145.01,142.89,140.14,138.42,139.12,143.04,147.25,152.66,158.11,162.76,165.30,166.98,168.17,169.07,169.84,169.10,167.17,164.46,162.13,165.17,171.46,177.90,183.59,188.25,190.96,192.05,191.51,189.43,186.44,183.05,179.48,175.99,173.15,174.50,175.06,173.91,170.87,168.20,165.81,164.54,165.69,173.95,181.65,187.84,192.48,196.10,198.64,197.94,194.82,190.42,185.99,179.90,173.02,166.63,164.06,166.86,170.74,173.85,174.43,174.46,174.21,173.64,172.67,171.09,170.82,170.83,170.72,170.23,169.13,168.69,170.31,175.09,181.01,186.60,192.60,198.82,203.32,205.46,205.88,204.84,202.66,198.87,193.39,187.02,180.22,172.24,164.79,158.44,152.74,146.20,140.38,135.31,130.21,124.48,122.55,124.08,127.32,131.14,134.49,137.22,139.43,141.19,142.62,143.16,143.86,144.62,145.23,144.80,142.85,140.25,137.31,134.15,131.23,128.84,126.84,125.02,123.14,121.75,120.56,119.52,119.17,118.41,117.35,116.11,114.86,113.74,112.57,111.02,108.82,105.88,102.73,99.68,96.65,93.09,89.81,86.38,82.79,79.17,76.89,74.64,72.38,70.19,68.52,66.73,64.89,63.43,63.06,64.34,65.83,66.70,66.33,64.39,62.96,61.57,60.14,58.93,57.38,55.91,54.77,54.18,53.22,51.35,49.30,47.43,45.39,44.05,42.83,41.91,41.79,42.61,43.84,44.77,44.90,44.79,44.06,43.11,42.03,40.54,38.81,36.94,34.75,32.08,30.09,28.87,27.92,26.92,25.99,25.10,24.34,23.65,22.88,21.99,21.25,20.67,20.20,19.74,20.86,22.58,24.48,26.41,28.38,30.31,32.11,33.66,35.32,36.95,38.83,41.04,43.10,44.89,45.44,44.66,42.84,40.29,37.43,34.33,31.00,26.76,22.50,16.35,9.50,8.65,7.83,7.04,6.26
102.11,103.81,107.58,110.90,113.76,116.34,119.39,121.48,123.21,124.73,126.12,127.65,128.89,129.90,130.80,131.91,133.18,134.73,136.43,137.86,138.82,140.97,144.28,148.32,149.32,149.28,148.19,146.26,144.44,144.09,143.43,142.01,139.74,137.17,136.59,138.29,142.20,146.43,151.57,156.83,161.27,162.82,164.20,164.93,164.94,164.24,162.35,159.71,156.91,155.25,159.98,167.39,174.82,181.22,185.79,189.01,190.20,189.54,187.36,184.17,180.87,177.38,173.78,170.34,170.53,170.91,170.26,167.60,164.93,162.48,161.90,164.68,173.54,181.16,186.97,191.14,194.45,196.33,194.62,190.78,186.44,181.93,176.28,169.73,163.19,159.54,161.64,164.99,167.83,168.55,168.23,167.34,166.45,165.82,164.57,164.72,164.94,164.93,164.79,164.12,165.18,168.16,172.98,179.17,185.69,191.93,197.41,201.42,203.29,203.65,202.96,201.82,198.41,193.61,187.73,181.03,173.60,166.40,159.73,153.55,147.54,141.64,136.41,131.06,124.82,120.33,120.28,122.73,126.35,129.63,132.46,134.77,136.60,138.01,138.21,138.90,140.06,141.47,142.07,140.61,138.06,134.94,131.88,128.94,126.39,124.16,122.14,119.86,118.46,117.27,116.09,115.53,115.02,114.20,113.27,112.66,112.58,112.45,111.68,109.83,107.02,103.97,101.15,98.34,94.62,90.86,86.81,82.73,78.99,76.74,74.44,72.13,69.90,68.10,66.31,64.46,62.60,60.84,61.32,62.02,62.50,62.39,61.24,60.28,59.26,58.08,56.77,55.00,52.98,51.16,50.04,48.73,46.43,44.20,42.55,40.85,39.88,39.23,38.83,38.65,38.79,39.31,39.72,39.67,39.73,39.55,39.12,38.46,37.61,36.38,34.99,33.28,31.04,29.66,28.69,27.81,26.86,25.93,25.07,24.29,23.54,22.69,21.76,20.98,20.32,19.67,18.24,18.54,19.91,21.92,23.96,25.93,28.06,30.17,31.94,33.56,35.13,36.53,37.76,39.07,40.50,41.06,40.68,39.78,38.21,35.99,33.32,30.37,26.56,22.60,16.52,9.55,8.71,7.86,7.05,6.25
98.89,101.83,105.55,108.56,110.86,112.83,116.32,119.23,121.25,122.63,124.02,125.50,126.75,127.83,128.83,130.09,131.63,133.32,135.06,136.63,137.83,139.32,141.52,144.72,144.79,143.45,141.65,140.13,139.69,139.81,139.50,138.27,135.61,133.44,134.55,137.74,141.70,146.18,150.83,155.36,159.10,160.36,161.36,161.75,160.15,154.97,152.34,149.92,148.78,149.99,156.00,163.29,170.81,177.75,183.02,186.50,187.80,187.03,184.50,181.56,178.74,175.65,172.22,168.63,166.39,165.82,165.58,163.71,161.48,159.01,158.95,163.04,172.10,179.88,185.68,189.65,192.62,193.97,192.39,188.65,183.70,178.15,172.56,166.40,160.29,157.18,158.20,160.68,163.23,164.40,163.09,160.69,159.03,159.09,159.32,159.70,159.95,160.02,159.93,160.10,162.52,166.72,171.98,178.52,185.53,191.76,196.65,200.31,201.45,201.54,200.76,199.07,195.27,191.05,186.05,180.14,173.89,167.03,160.49,154.39,148.43,142.77,137.47,131.75,124.91,119.79,118.24,119.12,121.60,124.74,127.71,130.08,131.81,132.97,133.26,134.19,135.58,137.21,138.65,138.07,136.18,133.43,130.47,127.58,124.80,122.21,119.92,117.78,116.12,114.60,113.11,111.86,111.12,110.47,109.91,109.65,110.20,110.52,110.36,109.56,107.82,105.19,102.64,100.18,97.00,91.98,87.05,82.60,78.86,76.56,74.25,71.96,69.76,67.85,66.01,64.06,62.10,60.39,59.73,59.41,59.30,59.26,58.75,57.96,57.01,55.91,54.60,52.70,50.83,48.70,45.90,42.77,40.99,39.76,38.61,37.56,36.68,36.34,36.31,36.03,36.17,35.86,35.30,34.77,35.08,35.37,35.39,35.13,34.87,33.88,32.75,31.40,29.71,29.03,28.31,27.57,26.79,25.87,25.01,24.17,23.35,22.50,21.57,20.76,19.88,18.76,17.19,16.07,16.65,18.94,21.42,23.52,25.73,27.96,30.02,31.64,33.00,34.19,35.29,36.31,36.87,37.03,36.82,36.31,35.70,34.24,32.16,29.68,26.06,22.46,16.56,9.56,8.77,7.92,7.08,6.25
96.14,99.93,103.51,106.16,108.20,110.02,112.77,115.76,118.13,119.99,121.89,123.31,124.57,125.95,127.62,129.24,130.95,132.54,133.92,135.07,136.38,137.79,139.48,141.61,140.77,138.61,136.47,135.21,135.14,135.31,134.88,133.56,131.18,131.08,133.41,136.95,140.67,145.81,150.27,153.78,156.03,156.38,155.63,154.76,152.83,148.52,146.10,143.50,142.95,145.83,152.44,159.84,167.17,174.02,179.97,183.79,185.06,184.20,181.82,179.20,176.65,173.86,170.62,166.72,163.23,161.54,160.77,159.38,157.49,155.68,156.43,161.28,170.23,178.34,184.11,187.78,190.81,191.74,189.82,185.82,180.62,174.27,169.03,163.76,158.56,155.45,155.19,156.61,158.50,159.38,156.81,154.82,154.09,154.79,155.45,155.63,155.86,156.22,156.58,158.06,161.42,166.24,171.93,178.57,185.26,190.71,194.51,197.18,197.72,197.43,196.33,194.14,191.05,187.57,183.36,178.29,172.97,166.89,160.78,154.84,149.13,143.65,138.16,132.18,125.38,119.98,116.93,116.12,117.41,120.64,123.68,126.03,127.70,128.89,129.31,130.16,131.41,133.00,134.83,135.11,133.99,131.79,129.13,126.19,123.29,120.59,118.20,115.98,114.08,112.29,110.52,108.89,107.71,106.89,106.34,105.95,106.56,106.98,107.20,107.23,106.72,105.58,103.83,101.54,98.90,93.20,87.66,82.79,78.82,76.57,74.32,72.08,69.91,68.11,66.64,65.10,63.45,61.82,60.21,59.01,58.12,57.42,56.84,56.15,55.43,54.67,53.83,52.33,50.68,48.64,45.89,42.72,41.05,39.82,38.51,37.63,36.72,35.95,35.27,34.48,33.85,33.03,32.18,31.55,31.77,32.05,32.14,32.03,31.99,31.35,30.54,29.53,28.24,27.74,27.20,26.62,26.02,25.37,24.72,23.98,23.15,22.26,21.34,20.40,19.26,17.78,16.16,14.57,14.09,15.10,17.46,20.39,22.96,25.19,27.32,29.04,30.38,31.47,32.37,32.92,33.14,33.23,33.20,33.02,32.81,31.96,30.49,28.44,25.33,22.17,16.54,9.60,8.79,7.94,7.10,6.25
93.68,98.02,101.45,103.80,105.74,107.61,109.22,111.83,114.44,116.93,119.47,120.91,122.27,124.06,126.52,128.58,130.45,131.87,132.81,133.34,134.68,136.17,137.52,138.48,136.83,134.19,131.93,130.80,130.60,130.63,129.93,128.51,126.77,129.39,132.74,136.22,139.63,145.41,149.72,152.12,152.61,151.80,148.98,146.63,144.88,143.47,141.49,138.69,138.45,142.51,149.30,156.83,163.83,170.29,176.79,180.96,182.19,181.33,179.36,177.07,174.69,172.12,169.08,164.89,160.81,157.97,156.19,154.97,153.36,152.50,154.22,159.54,168.20,176.69,182.44,185.76,188.80,189.30,186.86,182.48,177.23,170.49,165.73,161.46,157.26,153.93,152.26,152.54,153.66,153.88,150.12,149.32,150.16,151.51,152.12,151.99,152.23,153.03,154.20,157.05,161.09,166.19,172.24,178.89,184.82,189.14,191.64,192.97,192.99,192.35,190.93,188.44,186.45,183.68,180.11,175.82,171.25,166.16,160.66,155.01,149.69,144.36,138.63,132.50,126.07,120.47,116.05,113.60,113.62,116.84,119.93,122.27,123.95,125.25,125.85,126.54,127.54,129.00,130.97,132.00,131.67,130.10,127.86,124.85,121.91,119.19,116.76,114.35,112.22,110.18,108.17,106.28,104.60,103.49,102.79,102.13,102.51,102.83,103.27,103.97,104.64,105.29,104.59,102.56,100.43,94.51,88.60,83.33,79.02,76.83,74.68,72.50,70.40,68.89,67.88,66.87,65.66,64.11,61.76,59.80,58.08,56.50,55.61,55.03,54.60,54.27,54.03,53.11,51.69,49.93,47.94,45.59,43.90,42.25,40.47,39.45,38.32,36.83,35.13,33.68,32.03,30.82,29.97,29.40,29.34,29.37,29.34,29.25,29.22,28.92,28.41,27.68,26.75,26.19,25.77,25.36,24.94,24.63,24.26,23.68,22.89,22.00,21.10,20.01,18.61,16.82,15.16,13.52,12.01,11.25,13.11,16.80,19.77,22.05,24.17,26.02,27.43,28.49,29.21,29.37,29.52,29.67,29.81,29.89,29.86,29.52,28.62,26.99,24.47,21.79,16.51,9.75,8.83,7.96,7.11,6.26
91.65,95.66,99.39,101.96,103.95,105.68,107.25,108.81,110.48,112.43,114.87,117.08,119.30,121.48,123.62,126.13,128.32,130.02,131.14,131.62,132.65,133.45,133.83,133.62,131.72,129.52,127.48,125.96,125.42,125.31,124.89,124.16,123.41,128.06,132.56,136.60,140.27,145.31,148.73,150.17,149.68,147.88,145.32,142.85,140.76,139.24,136.28,134.37,135.97,141.78,147.82,154.86,161.45,167.47,173.43,177.91,179.61,179.31,177.91,175.81,173.44,170.89,168.02,164.26,160.45,156.92,153.87,151.53,149.96,150.00,152.63,158.32,166.44,175.04,180.96,183.94,185.25,184.82,182.03,177.70,172.74,167.78,163.51,159.34,155.21,151.83,148.54,147.81,148.40,147.88,144.37,143.88,145.35,147.61,148.23,148.22,148.89,150.68,153.82,157.03,161.09,166.08,171.98,178.68,183.62,186.75,188.08,187.63,187.35,186.78,185.83,184.47,182.64,179.81,176.13,171.85,167.83,163.68,159.17,154.41,149.83,144.55,138.79,132.90,127.17,120.58,115.89,112.54,110.76,112.56,115.80,118.54,120.46,121.61,122.65,123.72,124.94,126.41,128.09,129.26,129.41,128.52,126.92,124.10,121.18,118.33,115.61,113.05,110.69,108.41,106.15,104.02,102.14,100.85,100.13,99.76,99.67,99.62,99.90,100.69,101.80,102.74,103.14,102.68,100.85,96.09,90.77,85.46,80.61,78.22,76.13,74.14,72.39,71.82,70.49,69.18,67.89,66.35,64.19,61.93,59.80,58.06,57.41,57.20,57.06,56.88,56.65,55.77,54.53,53.02,51.35,49.99,48.71,46.95,44.63,42.82,40.62,38.59,36.73,34.78,32.78,31.16,30.02,29.36,28.86,28.60,28.32,27.99,27.71,27.21,26.59,26.00,25.60,24.89,24.50,24.21,23.92,23.67,23.30,22.83,22.26,21.67,20.97,19.85,18.28,16.28,14.33,12.55,11.04,10.13,10.81,12.34,14.94,17.94,20.40,22.20,23.64,24.82,25.85,26.70,26.97,27.09,27.20,27.33,27.63,27.60,27.04,25.79,23.52,21.28,16.70,10.60,9.08,8.11,7.24,6.39
90.23,93.79,97.38,100.04,102.05,103.63,105.01,106.05,107.27,108.85,110.89,113.16,115.65,118.16,120.53,122.85,125.06,126.92,128.28,128.99,129.85,130.26,130.07,129.16,127.20,125.19,123.16,121.32,120.57,120.46,120.49,120.72,121.45,127.64,132.95,137.32,141.05,144.81,146.94,147.47,146.51,144.38,141.80,139.10,136.56,134.45,131.13,130.55,133.84,140.76,146.64,153.35,159.69,165.47,170.88,175.04,177.05,177.23,176.09,174.49,172.45,170.03,167.22,163.83,160.25,156.22,152.23,149.00,147.15,147.99,151.40,157.13,164.66,173.04,178.91,181.65,181.92,181.00,178.28,174.35,169.97,165.88,161.59,157.06,152.54,149.03,144.81,143.24,143.27,142.58,139.35,138.74,140.33,143.20,143.95,144.25,145.53,148.28,152.71,156.56,160.87,165.75,171.23,177.84,181.88,184.00,184.46,183.17,182.21,181.48,180.82,180.05,178.15,175.04,171.03,166.61,163.37,160.46,157.19,153.45,149.42,144.45,139.05,133.60,128.34,120.62,115.76,112.07,109.29,109.66,112.34,115.11,117.28,118.39,119.71,121.04,122.47,124.02,125.57,126.84,127.25,126.77,125.87,123.46,120.74,117.88,114.94,112.13,109.56,107.10,104.66,102.32,100.28,98.90,98.14,97.82,97.41,97.09,97.11,97.64,98.98,100.20,101.35,102.00,100.98,97.19,92.62,87.77,83.07,80.25,78.00,76.30,75.21,75.22,74.03,72.61,71.04,69.09,66.74,64.22,61.87,60.08,59.76,59.77,59.82,59.73,59.39,58.54,57.57,56.44,55.06,53.66,52.28,50.34,47.68,45.16,42.33,39.86,37.74,35.63,33.52,31.65,30.22,29.39,28.80,28.50,28.18,27.79,27.49,27.20,26.81,26.45,26.25,25.40,24.82,24.34,23.83,23.13,22.56,22.07,21.64,21.20,20.67,19.48,17.76,15.73,13.67,11.79,10.35,9.53,9.52,9.95,11.63,14.07,16.39,18.33,19.92,21.22,22.33,23.46,24.07,24.42,24.64,24.88,25.38,25.53,25.27,24.57,22.68,20.59,16.78,11.74,9.34,8.27,7.40,6.54
89.29,92.31,95.40,98.04,100.07,101.48,102.57,103.52,104.66,106.00,107.40,109.17,111.47,114.24,117.27,118.91,120.90,122.83,124.48,125.63,126.44,126.70,126.25,125.01,123.15,121.13,118.95,116.84,115.99,115.98,116.60,118.00,120.61,127.96,133.78,138.29,141.94,143.97,144.49,144.16,143.17,141.23,138.40,135.38,132.30,129.22,126.05,127.14,132.01,139.53,145.70,152.21,158.44,164.12,168.99,172.32,174.50,175.10,173.97,173.11,171.65,169.47,166.63,163.54,160.17,155.81,151.12,147.20,144.81,146.38,150.44,155.97,162.85,170.76,176.39,178.98,178.75,177.72,175.37,172.16,168.57,164.63,159.92,154.66,149.38,145.67,141.08,138.79,138.25,137.85,134.92,133.84,135.12,138.37,139.38,140.12,142.15,145.84,151.00,155.73,160.49,165.25,170.07,176.48,179.73,180.97,180.81,179.42,177.50,176.39,175.88,175.26,173.11,169.55,165.04,160.33,158.08,156.64,154.82,152.19,148.56,144.13,139.40,134.55,129.56,120.61,115.67,112.07,108.93,107.86,109.41,111.93,114.36,115.52,116.98,118.50,120.10,121.79,123.33,124.69,125.17,124.89,124.73,122.92,120.55,117.77,114.67,111.51,108.75,106.16,103.61,101.07,98.92,97.49,96.69,96.23,95.62,95.11,94.77,94.77,96.16,97.67,99.29,100.67,100.88,97.92,94.23,90.25,86.25,82.78,80.22,78.87,78.70,79.01,78.32,76.95,74.93,72.24,69.39,66.64,64.23,62.48,62.55,62.69,62.80,62.75,62.21,61.39,60.78,60.11,58.99,56.76,54.87,52.66,49.82,46.66,43.56,40.73,38.27,36.26,34.25,32.25,30.56,29.47,29.08,28.93,28.74,28.46,28.31,28.56,28.68,28.60,28.36,27.35,26.41,25.49,24.48,22.95,21.99,21.40,21.01,20.62,20.24,18.93,17.10,15.16,13.15,11.20,9.91,9.34,9.04,9.22,9.56,10.39,12.18,14.41,16.26,17.67,18.68,19.76,20.90,21.68,22.12,22.51,23.11,23.33,23.35,23.32,21.93,19.76,16.77,13.13,9.59,8.44,7.59,6.72
88.09,90.77,93.56,95.80,97.56,98.94,100.07,101.07,102.12,103.31,104.70,106.47,108.67,111.25,114.03,115.85,117.42,118.84,120.19,121.59,122.38,122.67,122.07,120.10,118.00,115.63,113.53,112.29,113.14,115.13,117.29,119.72,123.03,128.93,133.78,137.61,140.54,141.38,141.32,140.54,139.19,137.45,134.55,130.93,126.93,122.99,121.53,125.23,131.41,138.14,144.41,151.54,158.08,163.55,167.68,171.29,172.94,172.95,171.87,171.22,169.62,167.37,164.73,162.33,158.99,154.81,150.25,145.98,142.80,144.71,149.54,155.68,162.41,168.83,173.39,175.67,175.73,174.85,173.10,170.57,167.36,163.42,158.22,152.94,148.29,145.07,141.48,138.27,135.61,133.57,131.27,129.76,130.04,132.35,134.08,135.88,139.04,143.45,147.99,152.10,157.80,163.90,169.09,174.09,176.88,177.67,176.71,174.49,172.50,171.47,171.01,170.35,168.19,164.69,160.34,155.83,153.49,152.37,151.19,149.43,146.78,142.88,138.92,134.89,130.45,121.39,116.35,112.61,109.04,106.40,107.40,109.46,111.66,113.21,114.48,115.57,116.99,119.03,121.01,122.53,123.16,123.07,123.06,121.81,120.25,118.06,114.93,111.91,109.11,106.40,103.70,101.01,98.63,96.62,95.16,94.45,93.73,93.12,92.57,92.14,92.85,94.27,95.97,97.60,98.61,97.33,94.73,91.66,88.98,86.87,85.17,83.92,83.20,83.37,82.58,80.89,78.37,75.13,71.69,68.75,66.85,66.31,66.58,66.68,66.48,65.94,65.06,63.80,62.87,62.01,60.80,58.47,55.83,52.91,49.74,46.23,42.91,40.04,37.67,35.76,33.85,32.33,31.33,30.86,30.52,30.58,30.56,30.38,30.32,30.60,30.69,30.52,30.08,29.03,27.86,26.57,25.18,23.58,22.21,21.28,20.75,20.36,19.79,18.42,16.62,14.78,12.87,11.28,10.17,9.49,8.99,8.80,8.96,9.49,10.35,11.42,12.90,14.30,15.36,16.44,17.59,18.58,19.39,20.07,20.78,21.19,21.41,21.51,20.55,18.49,15.69,12.53,9.70,8.63,7.78,6.93
86.80,89.17,91.59,93.46,95.01,96.37,97.55,98.58,99.58,100.68,102.05,103.91,106.07,108.48,110.99,112.80,113.99,114.94,115.80,116.70,117.09,117.13,116.37,114.29,112.28,110.08,108.85,109.29,111.83,115.24,118.55,121.81,125.58,129.91,133.59,136.61,138.89,138.88,138.34,137.23,135.63,133.78,130.22,126.01,121.74,118.01,118.58,123.82,130.68,137.26,143.47,150.72,157.54,163.17,166.77,170.15,170.99,170.17,168.72,167.32,165.66,163.86,162.00,160.24,157.07,153.14,148.81,144.43,140.45,142.88,148.63,155.37,161.64,166.77,170.31,172.20,172.55,171.69,170.27,168.22,165.43,161.78,156.87,151.97,147.79,144.90,141.97,138.28,134.22,130.59,128.05,126.09,125.69,127.24,129.24,132.16,136.53,141.68,145.66,149.31,155.39,162.18,167.67,171.84,174.11,174.22,172.25,168.88,167.09,166.32,166.03,165.48,163.27,159.82,155.54,151.03,148.40,147.48,146.87,145.98,144.44,141.46,138.35,135.03,131.10,122.70,117.38,113.13,109.07,105.56,105.54,107.02,109.04,110.58,111.89,112.79,114.02,116.05,118.30,120.00,120.92,121.16,121.16,120.15,119.19,117.87,115.64,112.65,109.86,107.11,104.31,101.43,98.72,96.16,94.01,92.73,91.82,91.04,90.29,89.56,89.73,91.01,92.68,94.40,95.95,95.96,94.60,92.71,91.29,90.29,89.31,88.33,87.48,87.51,86.62,84.59,81.57,77.93,74.48,72.22,71.31,71.63,71.93,71.71,70.84,69.36,67.57,65.89,64.49,63.20,61.73,59.42,56.14,52.59,49.10,45.40,42.00,39.19,37.04,35.56,34.30,33.52,33.25,33.42,33.38,33.59,33.53,33.18,32.95,32.93,32.75,32.29,31.45,30.25,28.85,27.32,25.73,24.19,22.58,21.33,20.51,20.06,19.33,17.99,16.28,14.49,12.74,11.46,10.46,9.65,8.97,8.48,8.44,8.70,9.01,9.42,10.46,11.57,12.45,13.39,14.47,15.56,16.57,17.44,18.22,18.74,19.09,19.35,19.03,17.26,14.76,12.04,9.85,8.85,8.00,7.16
85.38,87.49,89.42,90.98,92.39,93.76,94.98,96.02,97.03,98.11,99.43,101.53,103.74,106.00,108.22,109.73,110.63,111.16,111.28,110.65,110.14,109.52,108.62,107.28,105.81,104.51,105.17,108.43,112.60,116.59,120.49,124.34,128.26,130.88,133.15,135.19,136.94,136.54,135.64,134.36,132.65,130.26,125.22,120.48,116.81,114.72,117.77,123.05,129.78,137.09,143.01,149.67,156.74,163.04,166.40,168.83,168.49,166.52,164.11,160.69,159.07,158.45,158.15,156.99,154.14,150.57,146.58,142.45,137.62,140.83,147.73,155.00,160.38,164.50,167.14,168.50,169.15,168.12,166.66,164.82,162.54,159.58,156.00,152.02,148.06,145.27,142.53,138.94,134.49,129.37,125.41,122.99,122.36,123.43,125.03,129.14,134.83,140.75,144.29,147.72,153.41,159.95,165.62,169.80,171.47,170.58,167.32,162.37,161.12,160.87,160.89,160.69,158.33,154.91,150.58,145.80,142.63,141.77,141.63,141.61,141.35,139.84,137.67,134.91,131.44,124.71,118.88,113.63,108.96,105.54,103.86,104.58,106.52,107.53,109.17,110.21,111.25,112.80,115.04,116.94,118.36,119.14,118.94,117.73,117.10,116.98,116.98,113.83,111.12,108.45,105.61,102.48,99.32,96.23,93.41,91.09,89.87,88.83,87.88,87.04,86.86,87.95,89.45,91.06,92.81,93.55,93.60,93.29,93.04,92.78,92.32,91.83,91.42,91.36,90.37,87.97,84.46,80.62,77.93,77.56,78.29,78.95,79.06,78.13,76.10,73.10,69.64,67.54,65.48,63.42,61.48,59.37,55.60,51.50,47.76,44.06,40.79,38.15,36.38,35.78,35.94,36.22,36.75,37.56,38.16,38.43,38.06,37.16,36.39,35.64,34.88,33.86,32.34,30.84,29.22,27.60,26.07,24.73,23.15,21.58,20.28,19.68,18.85,17.67,16.14,14.32,12.81,11.74,10.77,9.81,8.99,8.30,7.97,8.00,8.31,8.76,9.25,9.70,10.11,10.70,11.64,12.66,13.65,14.57,15.35,15.87,16.27,16.72,17.29,16.11,14.06,11.74,10.05,9.11,8.26,7.43
83.71,85.66,87.17,88.54,89.84,91.14,92.42,93.47,94.47,95.65,97.30,99.32,101.41,103.44,105.30,106.64,107.40,107.64,107.30,106.20,105.42,104.63,103.72,102.61,101.22,101.83,104.75,109.56,113.54,117.34,121.04,124.65,128.17,130.65,132.64,134.07,134.80,134.21,133.26,131.57,128.84,124.67,119.22,115.10,113.11,113.77,117.97,123.33,129.66,136.60,143.02,149.93,156.73,162.45,165.43,166.66,165.61,163.32,160.80,157.64,155.56,154.58,154.32,153.53,151.06,147.81,144.01,139.87,135.52,139.49,147.00,154.34,158.67,161.74,163.48,164.10,164.16,163.27,162.26,160.95,159.09,156.70,153.70,150.60,147.63,144.93,142.38,139.00,134.67,129.47,124.58,121.11,119.56,120.02,121.44,126.81,133.64,140.13,143.65,146.74,151.30,157.10,163.47,166.54,167.44,165.69,161.56,156.89,154.77,153.96,153.72,153.22,151.81,149.21,145.50,141.07,137.95,136.78,136.51,136.71,137.10,136.50,135.83,134.46,131.57,125.63,119.76,113.95,108.43,104.23,101.94,101.87,103.05,103.81,105.29,106.57,107.96,109.66,111.48,112.95,113.94,114.42,114.44,113.89,113.98,114.68,115.72,114.58,112.39,109.78,106.93,103.30,99.75,96.30,93.02,90.04,88.27,86.75,85.45,84.42,84.07,85.04,86.10,87.10,88.75,90.65,91.66,92.01,92.10,92.11,92.18,92.71,93.75,94.47,94.13,91.90,88.25,84.35,82.78,82.81,83.14,82.82,82.51,81.04,78.33,74.45,69.60,66.80,64.21,61.49,58.45,54.85,51.93,49.18,46.25,42.88,40.15,38.27,37.35,37.44,38.02,39.01,40.55,42.55,42.82,42.90,41.99,40.11,38.29,36.85,35.40,33.85,32.14,30.64,28.93,27.29,25.84,24.49,22.87,21.30,19.98,19.20,18.31,17.31,15.98,14.26,13.04,11.92,10.83,9.81,9.08,8.46,7.92,7.61,7.71,8.22,8.61,8.92,9.18,9.38,9.83,10.42,11.09,11.76,12.45,12.91,13.31,13.85,14.80,14.54,13.46,11.85,10.14,9.27,8.46,7.61
81.96,83.74,84.99,86.24,87.49,88.75,90.07,91.07,92.05,93.30,95.24,97.19,99.12,100.88,102.36,103.53,104.19,104.21,103.55,102.19,101.16,100.32,99.52,98.63,98.21,100.68,105.17,110.59,114.15,117.55,120.85,124.09,127.25,129.87,131.83,132.83,132.70,131.89,130.62,128.25,124.48,119.08,113.78,110.48,110.03,113.10,118.15,123.61,129.61,136.16,142.98,150.01,156.55,161.79,164.43,164.62,163.06,160.64,158.15,155.51,152.98,151.29,150.54,150.05,148.09,145.24,141.48,136.79,133.40,138.14,146.08,153.39,156.73,158.78,159.70,159.78,159.54,158.84,158.24,157.28,155.52,153.59,151.15,148.86,146.83,144.43,142.07,138.81,134.55,129.46,124.01,119.62,117.13,116.97,118.61,124.64,132.16,139.17,142.95,145.90,149.67,154.70,160.95,162.97,163.07,160.69,156.21,151.91,148.92,147.45,146.86,146.09,145.45,143.69,140.80,137.02,133.92,132.30,131.78,132.09,132.80,133.05,133.66,133.57,131.52,126.26,120.55,114.36,108.04,103.09,100.33,99.40,99.68,100.26,101.49,103.00,104.75,106.63,108.06,109.13,109.69,109.85,110.06,110.02,110.76,112.17,113.94,114.74,113.31,110.96,108.18,104.17,100.34,96.58,92.90,89.37,87.15,85.17,83.45,82.05,81.16,81.81,82.40,82.81,84.16,86.56,88.10,88.91,89.43,90.05,91.01,92.68,95.00,96.86,97.43,95.82,92.55,88.88,88.21,88.00,87.43,86.02,84.98,82.89,79.45,74.69,68.98,65.60,62.41,58.90,54.75,50.52,48.49,46.89,44.70,41.90,39.83,38.86,38.90,39.65,40.54,42.26,44.65,47.25,47.16,46.86,45.26,42.36,39.48,37.45,35.48,33.54,31.74,30.22,28.46,26.79,25.33,23.88,22.27,20.82,19.65,18.76,17.84,16.94,15.80,14.26,13.29,12.13,10.96,9.92,9.24,8.64,7.94,7.34,7.16,7.67,8.01,8.23,8.36,8.28,8.29,8.52,8.92,9.35,9.87,10.25,10.65,11.25,12.29,12.74,12.54,11.66,10.12,9.36,8.61,7.78
80.11,81.70,83.00,84.30,85.60,86.90,88.21,89.05,89.94,91.20,93.20,95.19,96.94,98.37,99.47,100.39,100.96,100.91,100.13,98.63,97.14,96.31,95.86,95.38,98.32,102.10,106.32,110.56,113.87,116.69,119.43,122.30,125.47,128.22,130.26,131.20,130.82,129.61,127.17,123.62,119.16,114.30,110.17,107.68,107.96,112.15,117.84,123.45,129.44,136.00,142.62,149.09,155.60,161.16,163.61,163.22,161.46,159.04,156.57,154.12,151.37,148.79,146.87,146.58,145.44,143.20,139.20,132.71,130.95,136.47,144.66,151.83,154.43,155.49,155.83,155.94,156.50,155.98,155.46,154.29,151.90,150.21,148.55,146.97,145.44,143.83,141.69,138.26,133.72,128.63,123.33,118.56,115.38,114.61,117.39,122.61,129.75,137.25,141.82,145.19,149.25,153.61,157.60,159.13,158.40,155.96,152.22,147.72,144.40,142.53,141.62,140.85,140.17,138.95,137.06,134.43,131.04,128.80,128.00,128.34,128.86,130.01,131.13,131.71,131.11,126.64,121.35,115.04,108.18,102.94,99.58,97.64,96.96,97.39,98.37,100.01,101.94,103.81,105.08,106.09,106.62,106.77,106.87,106.64,107.74,109.74,111.93,113.62,113.33,111.79,109.27,105.25,101.38,97.40,93.35,89.38,87.06,84.77,82.52,80.31,77.94,77.74,77.87,77.94,78.59,79.81,80.95,82.15,83.68,85.87,88.63,91.47,94.29,97.78,99.59,99.47,97.72,94.99,94.43,93.12,91.23,89.02,86.56,83.62,79.10,73.21,67.80,64.27,60.25,55.58,50.53,48.52,46.91,45.16,43.12,41.30,40.05,40.09,41.19,42.62,43.97,46.63,49.33,50.89,50.74,49.70,47.16,43.34,39.57,37.18,35.12,33.19,31.29,29.57,27.80,26.04,24.34,22.70,21.22,20.08,19.24,18.50,17.58,16.62,15.57,14.40,13.52,12.47,11.39,10.39,9.52,8.72,7.94,7.22,6.65,7.06,7.26,7.29,7.21,7.13,7.02,7.18,7.55,7.89,8.07,8.33,8.77,9.44,10.09,10.56,10.76,10.60,9.84,9.30,8.67,7.96
77.99,79.71,81.31,82.70,84.01,85.31,86.48,87.33,88.33,89.62,91.30,93.23,94.86,96.10,96.94,97.58,97.85,97.51,96.49,94.88,93.26,92.94,93.70,95.04,98.87,102.77,106.56,110.08,112.97,115.54,118.00,120.57,123.59,126.07,127.58,127.99,127.31,125.60,122.81,119.09,114.76,110.65,107.29,105.37,106.14,110.97,117.41,123.27,129.30,135.80,141.87,147.95,154.35,159.97,162.33,161.67,159.82,157.40,154.93,152.54,149.81,146.92,144.32,143.31,142.65,140.53,136.27,129.47,129.63,135.76,143.55,149.72,151.65,152.10,152.10,152.19,152.89,152.92,152.64,151.59,149.45,147.62,145.93,144.37,143.04,142.29,140.07,136.21,131.41,126.78,121.53,116.35,112.71,111.73,114.75,120.50,127.92,135.50,140.43,144.09,148.05,151.81,154.72,155.78,154.48,151.45,147.30,143.14,140.28,138.47,137.42,136.72,136.03,135.05,133.61,131.55,128.54,126.07,124.81,124.73,125.27,126.64,127.99,129.11,129.70,126.30,121.55,115.47,108.63,103.23,99.52,96.98,95.41,94.62,95.42,97.06,99.05,100.95,102.22,103.16,103.63,103.70,103.60,103.31,104.55,107.02,110.05,112.23,112.80,111.89,109.61,106.13,102.47,98.89,95.17,90.83,88.12,85.63,83.08,80.25,77.01,74.68,73.62,73.71,74.32,75.42,76.54,77.92,79.87,82.68,86.38,90.14,93.66,97.53,99.89,100.76,100.33,99.04,98.14,96.09,93.41,90.53,87.07,83.52,78.16,71.54,67.04,63.47,59.10,54.23,49.59,48.20,46.81,45.21,43.41,41.79,41.46,42.34,44.04,45.84,47.49,49.82,52.01,53.19,51.92,50.13,47.24,43.36,39.53,36.80,34.37,32.17,30.24,28.28,26.43,24.66,22.97,21.34,20.21,19.38,18.74,18.15,17.37,16.47,15.48,14.47,13.48,12.36,11.28,10.31,9.49,8.68,7.89,7.13,6.41,6.44,6.40,6.28,6.10,5.99,5.87,5.93,6.12,6.29,6.34,6.60,7.06,7.64,8.18,8.66,9.00,9.09,8.76,8.48,8.20,7.88
75.76,77.68,79.64,81.18,82.54,83.81,84.81,85.77,86.93,88.23,89.52,91.29,92.80,93.91,94.56,94.87,94.78,94.08,92.79,91.10,89.81,90.28,92.39,95.70,99.45,103.01,106.34,109.36,111.81,114.23,116.52,118.85,121.56,123.53,124.31,124.10,123.12,120.94,118.13,114.66,110.80,107.44,104.62,103.18,104.40,109.72,116.90,123.07,129.14,135.48,140.94,146.75,152.95,158.41,160.80,159.96,158.05,155.65,153.21,150.84,148.21,145.27,142.28,140.13,139.65,137.44,133.03,126.65,128.73,135.42,142.60,147.39,148.70,148.71,148.50,148.50,149.02,149.62,149.69,149.03,147.52,145.43,143.45,141.54,139.95,139.72,137.35,133.25,128.45,124.39,119.16,113.74,109.86,108.81,111.79,118.47,126.28,133.69,138.76,142.66,146.40,149.70,152.13,152.67,150.68,146.92,142.26,138.68,136.47,134.83,133.67,132.99,132.28,131.44,130.23,128.51,126.09,123.62,121.90,121.26,121.83,123.18,124.66,126.26,127.79,125.53,121.43,115.79,109.27,103.77,99.76,96.78,94.44,92.20,92.66,94.16,96.12,98.06,99.37,100.26,100.69,100.69,100.39,100.12,101.40,104.17,108.09,110.79,112.08,111.67,109.63,106.79,103.48,100.49,97.32,92.84,89.69,87.01,84.21,80.88,76.99,72.36,69.90,69.91,70.66,71.97,73.27,74.82,77.00,80.08,84.29,88.73,92.88,96.58,99.22,100.87,101.63,101.72,100.50,97.98,94.77,91.33,87.08,82.99,77.00,69.97,66.45,63.04,58.83,54.43,50.73,49.02,47.52,46.04,44.45,42.75,43.25,44.80,46.85,48.87,50.83,52.52,53.91,54.72,52.13,49.62,46.57,42.95,39.34,36.32,33.47,30.94,28.97,26.77,24.81,23.05,21.47,20.00,19.24,18.67,18.15,17.68,17.07,16.28,15.40,14.51,13.37,12.16,11.03,10.08,9.37,8.59,7.82,7.05,6.28,5.87,5.59,5.36,5.15,5.01,4.93,4.90,4.90,4.90,4.90,5.17,5.59,6.01,6.50,6.93,7.26,7.44,7.39,7.36,7.49,7.59
73.44,75.32,77.43,79.37,81.03,82.34,83.28,84.41,85.65,86.90,87.99,89.38,90.65,91.65,92.22,92.04,91.60,90.64,89.17,87.58,88.45,90.20,92.67,95.82,99.32,102.53,105.48,108.19,110.49,112.59,114.84,117.08,118.85,119.93,120.21,119.74,118.58,116.36,113.61,110.57,107.39,104.22,101.61,100.63,102.52,108.58,116.20,122.74,128.76,134.57,139.94,145.73,151.34,156.10,158.99,157.70,155.72,153.47,151.18,148.96,146.36,143.59,140.62,137.09,135.80,133.37,129.45,124.36,127.87,135.19,141.79,144.96,145.78,145.59,145.26,145.04,144.97,145.44,146.18,146.55,145.92,143.84,141.78,138.81,135.22,133.50,131.27,128.41,125.01,121.20,116.12,111.37,107.92,106.74,109.96,117.00,124.51,131.16,136.09,140.16,143.98,147.41,150.16,149.71,146.03,141.86,138.44,135.71,133.51,131.66,130.17,129.09,128.34,127.55,126.56,125.23,123.15,121.07,119.28,118.20,118.53,119.90,121.65,123.56,125.28,123.91,120.77,116.10,110.34,104.74,100.29,96.87,94.11,91.38,90.61,91.42,93.12,95.06,96.37,97.34,97.84,97.89,97.64,97.65,98.79,101.35,105.46,109.65,111.46,111.29,109.52,106.78,103.94,101.28,98.48,94.99,91.67,88.55,85.35,81.78,77.25,71.98,68.37,67.07,67.67,68.79,70.41,72.52,75.10,78.63,82.80,87.09,91.08,94.23,97.13,99.53,101.07,101.20,100.80,98.42,95.01,91.35,86.55,81.84,75.83,69.31,65.98,63.54,61.19,58.78,56.24,52.50,49.59,47.38,45.66,43.96,44.72,46.31,48.28,50.40,52.98,54.95,55.73,54.89,52.06,49.03,45.68,42.08,38.62,35.53,32.61,29.97,27.75,25.36,23.23,21.45,20.07,19.09,18.37,17.80,17.31,16.79,16.23,15.65,15.07,14.45,13.47,12.28,11.16,10.19,9.38,8.51,7.69,6.93,6.22,5.60,5.30,5.13,4.97,4.93,4.91,4.90,4.90,4.90,4.90,4.98,5.10,5.22,5.36,5.49,5.66,5.88,6.03,6.28,6.53,6.72
71.31,73.00,75.16,77.27,79.17,80.73,81.81,82.89,84.01,85.11,86.08,87.28,88.38,89.21,89.63,89.16,88.50,87.35,86.02,85.79,87.87,90.29,92.94,95.94,98.87,101.61,104.22,106.67,108.80,110.63,112.55,114.32,115.30,115.67,115.55,114.96,113.88,112.05,109.78,107.17,104.28,101.28,98.96,98.90,101.97,108.86,116.05,122.38,128.12,133.58,139.38,145.14,150.39,154.59,156.89,155.35,153.34,151.19,149.07,146.96,144.46,141.68,138.51,134.48,132.03,129.04,125.60,122.34,126.99,134.07,140.02,142.73,143.09,142.64,142.18,141.84,141.50,141.87,142.88,143.93,144.30,142.48,140.05,136.37,131.84,128.85,126.57,124.18,121.30,117.59,112.89,108.82,105.93,105.00,108.79,115.90,122.94,128.86,133.43,137.55,141.74,145.67,148.79,147.26,143.08,138.99,136.05,133.59,131.14,128.79,126.73,125.20,124.34,123.62,122.90,122.00,120.48,118.72,116.95,115.57,115.36,116.79,118.87,121.12,122.98,122.33,119.95,116.20,111.40,106.11,101.30,97.54,94.51,91.46,89.51,89.47,90.60,92.16,93.35,94.40,95.01,95.14,94.96,95.42,96.66,98.99,102.68,108.05,110.49,110.42,108.31,104.97,102.44,99.96,97.47,95.17,92.51,89.52,86.16,82.33,77.51,71.95,67.74,65.46,64.74,65.78,67.65,70.13,73.05,77.05,81.31,85.38,88.94,91.64,94.51,97.42,99.87,101.04,101.06,98.67,94.89,90.57,85.23,80.30,74.86,69.54,67.08,65.93,65.09,63.94,61.81,57.19,52.56,48.98,46.85,45.21,46.07,47.73,49.80,52.23,55.07,57.13,57.52,55.64,52.21,48.45,44.65,41.01,37.78,34.76,31.79,29.04,26.72,24.31,22.07,20.28,19.07,18.27,17.54,16.94,16.43,15.89,15.27,14.73,14.29,13.92,13.29,12.37,11.36,10.37,9.44,8.51,7.62,6.79,6.04,5.34,5.08,4.97,4.86,4.86,4.86,4.86,4.86,4.86,4.86,4.86,4.86,4.86,4.86,4.86,4.94,5.11,5.26,5.49,5.72,5.97
69.31,70.72,72.87,74.97,77.06,79.03,80.34,81.26,82.11,82.98,83.91,85.06,86.01,86.65,86.88,86.26,85.45,84.19,83.25,85.20,87.84,90.50,93.19,96.03,98.18,100.39,102.66,104.91,106.84,108.44,109.85,110.90,111.20,111.00,110.56,109.94,109.14,107.98,106.46,104.23,101.38,98.52,96.61,97.77,102.33,110.12,116.30,122.02,127.35,132.57,139.14,144.87,149.92,153.62,154.60,152.95,150.92,148.84,146.90,144.90,142.53,139.62,136.12,132.18,128.37,124.58,121.58,120.48,126.03,132.30,137.55,140.58,140.51,139.80,139.21,138.83,138.46,138.75,139.77,141.24,142.66,141.26,138.27,134.14,129.43,125.34,122.86,120.37,117.40,113.70,109.53,106.13,103.88,103.48,108.06,115.02,121.48,126.70,130.79,134.91,139.67,144.35,147.85,145.21,141.36,137.65,134.64,132.08,129.18,126.15,123.37,121.35,120.34,119.71,119.28,118.84,118.00,116.53,114.83,113.24,112.29,113.79,116.22,118.81,120.81,120.76,119.02,116.16,112.43,107.76,102.65,98.62,95.42,92.16,89.07,88.09,88.42,89.34,90.34,91.46,92.18,92.41,92.34,93.34,94.87,96.96,99.81,106.10,109.22,109.20,106.37,101.94,99.55,97.14,94.92,93.93,92.48,90.03,86.69,82.62,77.77,72.16,67.73,64.69,61.90,62.92,64.98,67.69,70.91,75.38,79.80,83.62,86.59,88.90,91.54,94.77,98.20,101.09,101.29,98.81,94.53,89.27,83.41,78.54,74.11,70.49,69.34,69.65,70.04,69.59,67.35,62.63,56.13,50.79,48.01,46.47,47.34,49.09,51.38,54.24,57.10,59.12,59.26,56.79,52.51,47.88,43.54,39.79,36.86,34.00,31.01,28.17,25.85,23.53,21.22,19.43,18.38,17.53,16.74,16.08,15.54,14.99,14.23,13.61,13.21,13.06,12.91,12.40,11.59,10.58,9.50,8.56,7.59,6.64,5.79,5.10,4.90,4.87,4.80,4.80,4.80,4.80,4.80,4.80,4.80,4.80,4.80,4.80,4.80,4.80,4.84,4.90,4.90,4.90,5.04,5.31
67.71,68.92,70.73,72.77,74.84,76.73,78.04,79.01,79.88,80.75,81.68,82.68,83.51,84.04,84.13,83.57,82.58,81.75,81.87,84.56,87.44,90.18,92.75,95.19,97.10,98.99,100.93,102.91,104.64,106.04,107.14,107.86,108.02,107.99,107.69,107.15,106.40,105.34,103.65,101.39,98.71,95.96,95.79,98.04,103.08,111.20,117.23,122.56,127.64,132.95,139.46,145.60,150.21,152.69,152.48,150.68,148.72,146.73,144.80,142.84,140.45,137.67,134.45,130.46,126.21,122.09,119.01,118.05,123.41,129.09,133.71,136.35,136.68,136.28,136.04,136.09,136.26,137.19,138.40,139.64,140.54,139.05,135.92,132.09,128.04,124.05,120.58,117.12,113.59,109.93,105.91,102.73,101.01,101.52,106.84,113.45,119.50,124.53,128.62,133.67,139.13,144.19,147.76,144.68,140.87,137.17,133.91,130.81,127.54,124.25,121.28,119.12,118.01,117.39,116.94,116.43,115.68,114.55,113.01,111.24,109.66,110.42,112.33,114.90,117.60,118.54,117.86,115.81,112.75,109.61,104.74,100.30,96.46,92.81,89.61,87.61,86.73,86.84,87.74,88.64,89.27,89.62,89.95,91.16,93.01,95.37,98.14,102.55,106.30,107.31,104.76,99.44,95.23,92.44,91.01,90.66,89.42,87.60,85.16,82.03,77.67,72.08,67.42,64.00,60.66,60.83,62.83,65.89,69.24,73.52,77.89,81.57,84.27,86.49,88.95,92.17,96.03,100.10,101.82,99.67,94.93,88.99,83.52,79.44,76.71,75.18,74.47,74.42,74.00,72.77,70.28,65.27,59.33,53.61,49.14,47.95,48.50,50.32,53.01,55.97,58.78,60.42,60.31,57.97,52.50,47.19,42.55,38.79,35.96,33.19,30.51,27.98,25.66,23.34,21.06,19.30,18.23,17.23,16.21,15.31,14.55,13.91,13.19,12.56,12.13,11.98,11.87,11.53,10.90,10.03,9.10,8.22,7.36,6.49,5.60,5.05,4.90,4.87,4.79,4.74,4.73,4.73,4.73,4.73,4.73,4.73,4.73,4.73,4.73,4.77,4.81,4.83,4.83,4.88,4.95,5.04
66.54,66.89,68.63,70.64,72.63,74.38,75.71,76.70,77.60,78.49,79.44,80.35,81.06,81.45,81.40,80.92,79.97,79.82,81.05,84.09,87.01,89.67,92.05,94.15,95.88,97.56,99.22,100.87,102.40,103.59,104.41,104.87,104.94,105.00,104.84,104.43,103.77,102.62,100.54,98.01,95.51,93.88,95.45,98.88,104.38,112.26,118.30,123.42,128.35,133.63,139.73,145.67,149.76,151.47,150.55,148.62,146.66,144.71,142.78,140.85,138.48,135.79,132.73,128.87,124.45,120.01,116.48,115.03,120.40,125.65,129.81,132.24,132.73,132.74,133.02,133.66,134.44,135.79,137.13,138.10,138.34,136.68,133.59,130.10,126.60,122.89,118.95,114.95,110.94,106.93,102.83,99.92,98.84,100.22,105.80,112.21,118.10,123.10,127.21,132.82,138.66,143.84,147.32,144.20,140.54,136.97,133.67,130.32,126.56,122.85,119.60,117.27,115.90,115.14,114.61,114.04,113.34,112.45,111.01,109.11,107.23,107.50,109.02,111.41,114.21,116.04,116.23,115.10,113.02,110.80,106.37,101.85,97.65,93.83,90.38,87.75,85.99,85.12,85.22,85.80,86.35,86.77,87.31,88.82,90.98,93.60,96.50,99.81,103.76,105.79,104.47,99.02,93.34,89.52,87.56,86.77,85.53,84.29,82.63,80.18,76.43,71.43,66.98,63.38,59.82,59.17,60.92,64.11,67.57,71.58,75.78,79.30,81.82,83.98,86.73,90.25,94.47,99.19,102.05,100.66,96.26,90.33,85.64,82.55,80.85,80.13,79.41,78.66,77.20,74.94,71.82,66.31,60.82,55.32,50.43,49.38,49.90,51.76,54.52,57.40,60.03,61.38,61.02,58.52,52.44,46.73,41.88,38.09,35.37,32.73,30.23,27.84,25.53,23.21,20.96,19.22,18.09,16.94,15.76,14.69,13.77,13.01,12.25,11.55,11.08,10.95,10.90,10.63,10.12,9.40,8.64,7.80,6.99,6.19,5.38,5.01,4.90,4.87,4.79,4.71,4.70,4.69,4.67,4.67,4.67,4.67,4.67,4.67,4.67,4.73,4.77,4.77,4.77,4.84,4.87,4.87
65.87,64.60,66.58,68.59,70.41,71.96,73.34,74.34,75.26,76.20,77.20,78.06,78.66,78.88,78.66,78.34,77.69,78.46,80.90,83.85,86.53,88.95,91.07,92.87,94.50,96.08,97.51,98.80,100.13,101.08,101.66,101.93,102.01,102.01,102.00,101.80,101.25,99.82,97.09,94.01,91.68,92.37,95.68,100.40,106.32,113.28,119.52,124.66,129.54,134.67,139.93,144.95,148.45,149.90,148.83,146.80,144.78,142.80,140.87,138.94,136.64,133.98,130.94,127.43,123.18,118.38,114.00,111.33,116.95,121.95,125.85,128.27,128.66,129.19,130.18,131.59,133.06,134.59,135.98,136.63,136.02,134.12,131.27,128.18,125.09,121.87,118.08,114.04,109.67,104.82,100.38,97.82,97.50,99.67,104.96,111.35,117.37,122.53,126.70,132.45,138.27,143.28,146.45,143.77,140.41,137.08,134.01,130.75,126.36,122.05,118.39,115.86,114.05,112.99,112.29,111.67,110.98,110.21,108.79,106.84,105.05,105.10,106.41,108.43,110.61,113.23,114.06,113.98,113.25,111.22,107.46,103.22,99.02,95.30,91.41,88.61,86.37,84.31,82.78,82.94,83.41,83.83,84.37,86.29,88.74,91.62,94.89,98.01,101.65,104.70,105.74,101.03,94.30,88.67,84.67,82.14,80.67,79.95,78.94,76.87,73.86,70.11,66.37,62.84,59.42,58.02,59.30,62.35,65.90,69.57,73.46,76.77,79.20,81.36,84.96,89.13,93.64,98.35,101.94,101.83,98.67,93.57,90.11,88.26,86.80,85.38,84.12,82.29,79.52,75.93,71.74,65.48,60.31,55.73,51.88,50.73,51.57,53.45,55.91,58.49,60.78,61.95,61.32,58.33,52.30,46.53,41.58,37.73,35.17,32.67,30.20,27.78,25.46,23.14,20.94,19.17,17.94,16.64,15.40,14.25,13.22,12.31,11.40,10.59,10.08,10.00,10.00,9.70,9.23,8.67,8.11,7.29,6.45,5.69,5.12,4.95,4.90,4.87,4.79,4.71,4.70,4.66,4.61,4.61,4.61,4.61,4.61,4.61,4.61,4.67,4.71,4.71,4.71,4.78,4.81,4.81
65.39,63.38,65.08,66.61,68.12,69.65,71.09,72.16,73.18,74.20,75.25,76.02,76.49,76.58,76.25,75.86,76.30,77.93,80.54,83.17,85.51,87.70,89.69,91.42,93.00,94.46,95.68,96.67,97.81,98.48,98.86,99.05,99.13,99.13,99.16,98.90,98.05,96.27,93.41,90.77,89.65,92.52,96.29,100.97,106.66,113.39,119.69,124.85,129.54,134.29,139.64,143.70,146.37,147.42,146.47,144.57,142.64,140.78,139.01,137.12,135.02,132.50,129.60,126.65,122.67,117.74,112.78,109.10,112.44,117.93,122.62,124.78,125.35,126.36,127.96,129.96,131.81,133.38,134.80,135.26,134.07,132.13,129.28,126.22,123.23,120.10,116.60,112.74,108.35,103.23,99.23,96.67,96.55,99.39,104.64,110.96,116.98,122.19,126.36,131.38,136.21,140.33,143.26,143.50,141.69,138.78,135.34,131.96,127.56,122.82,118.43,115.26,112.57,110.91,109.90,109.19,108.45,107.18,105.51,103.68,102.12,102.57,103.99,105.94,108.04,110.39,111.57,112.12,112.10,110.62,107.46,103.86,100.09,96.25,92.18,89.17,86.74,84.48,82.42,81.40,80.92,80.93,81.65,83.67,86.27,89.26,92.45,95.76,99.59,103.53,106.13,102.07,95.58,89.47,84.40,80.59,78.34,76.83,75.43,73.64,71.06,68.01,64.80,61.61,58.61,56.46,57.50,60.58,64.00,67.46,70.94,73.98,76.55,79.64,83.83,88.30,92.92,97.81,101.39,102.42,101.24,98.48,96.53,94.84,92.57,89.72,87.08,84.01,80.13,75.50,70.25,64.09,59.54,56.18,53.82,52.75,53.52,55.12,57.25,59.75,62.17,62.68,61.11,57.47,51.67,46.21,41.45,37.62,34.98,32.38,29.75,27.13,24.60,22.33,20.32,18.71,17.46,16.15,14.94,13.81,12.77,11.84,10.95,10.20,9.66,9.37,9.15,8.73,8.27,7.81,7.31,6.73,6.12,5.53,5.04,4.93,4.87,4.83,4.79,4.71,4.66,4.62,4.59,4.55,4.54,4.54,4.56,4.60,4.60,4.63,4.64,4.64,4.64,4.67,4.69,4.67
64.41,62.17,63.40,64.54,65.77,67.17,68.62,69.85,71.04,72.19,73.29,73.98,74.34,74.32,73.94,73.64,75.06,77.32,79.91,82.26,84.37,86.36,88.21,89.91,91.42,92.71,93.71,94.49,95.36,95.82,96.09,96.23,96.27,96.28,96.26,95.85,94.68,92.47,89.50,87.89,88.73,92.94,96.83,101.35,106.79,113.33,119.71,124.80,129.31,133.85,139.32,142.60,144.42,144.90,143.98,142.26,140.50,138.80,137.21,135.37,133.41,131.04,128.31,125.78,122.21,117.28,111.88,107.39,108.41,113.64,118.71,121.01,122.03,123.68,125.88,128.38,130.66,132.26,133.65,133.94,132.39,130.26,127.26,124.12,121.09,117.90,114.73,110.97,106.51,101.36,97.70,95.48,95.83,99.24,104.52,110.65,116.50,121.59,125.55,129.84,133.74,137.06,139.72,142.23,142.57,140.61,136.84,133.32,129.07,124.07,119.10,115.30,111.82,109.44,107.82,106.65,105.65,103.95,102.09,100.33,98.94,99.84,101.53,103.58,105.66,107.61,108.97,109.90,110.31,109.42,106.91,104.02,100.77,96.87,92.84,89.69,87.11,84.78,82.38,80.39,79.05,78.58,79.38,81.23,83.79,86.78,89.88,93.44,97.57,102.18,105.86,102.59,96.46,90.26,84.74,80.21,77.45,75.13,72.99,70.82,68.40,65.81,63.02,60.16,57.55,55.00,55.78,58.72,61.97,65.20,68.33,71.23,74.05,77.99,82.56,87.21,91.94,96.91,100.59,102.60,103.12,102.46,101.48,99.94,97.39,93.83,89.74,85.10,80.06,74.66,68.96,63.39,59.48,57.06,55.81,54.80,55.41,56.74,58.65,61.22,63.75,63.40,60.75,56.53,50.98,45.87,41.34,37.54,34.80,31.91,29.10,26.39,23.72,21.45,19.65,18.20,16.96,15.66,14.59,13.67,12.87,12.12,11.34,10.64,10.00,9.38,8.88,8.38,7.92,7.51,7.06,6.61,6.09,5.54,5.00,4.92,4.84,4.79,4.77,4.71,4.64,4.59,4.56,4.50,4.48,4.49,4.52,4.56,4.58,4.58,4.57,4.56,4.56,4.56,4.55,4.52
62.38,60.75,61.23,62.25,63.32,64.29,65.69,67.21,68.71,70.10,71.25,71.89,72.17,72.08,71.75,71.94,73.89,76.35,78.80,81.00,83.09,84.93,86.62,88.31,89.72,90.73,91.52,92.20,92.68,93.08,93.37,93.52,93.47,93.47,93.26,92.56,91.12,88.32,85.19,85.54,89.62,93.49,97.12,101.54,106.89,113.14,119.67,124.52,128.90,133.66,139.08,141.93,142.91,142.48,141.37,139.93,138.42,136.94,135.48,133.70,131.79,129.56,127.04,124.56,121.65,116.93,111.32,106.42,105.62,108.92,113.25,116.54,118.55,121.14,123.93,126.80,129.67,131.35,132.56,132.70,131.20,128.49,125.12,121.73,118.48,115.00,112.18,108.34,103.66,98.80,95.04,93.98,95.50,99.31,104.70,110.40,115.78,120.42,123.74,127.53,130.87,133.68,136.04,138.89,142.28,142.35,138.48,134.80,130.88,125.97,120.74,116.46,112.48,109.19,106.41,104.02,102.33,100.51,98.62,96.82,95.43,96.75,98.94,101.34,103.40,104.97,106.22,107.11,107.53,107.24,105.49,103.36,100.68,96.94,93.29,90.16,87.49,85.14,82.49,80.18,78.34,77.33,77.98,79.18,81.34,84.16,87.28,91.08,95.60,100.50,104.43,102.25,96.44,90.66,85.66,81.48,78.87,76.02,72.66,68.81,66.10,63.60,61.04,58.43,56.12,53.82,54.26,56.67,59.73,62.66,65.57,68.57,71.89,76.26,80.81,85.56,90.43,95.26,99.41,102.04,103.52,104.11,102.98,101.80,100.28,97.70,92.23,85.35,79.00,73.37,68.43,64.24,60.91,58.79,57.79,56.78,57.09,58.24,60.19,63.06,65.56,64.10,60.25,55.60,50.28,45.50,41.20,37.46,34.62,31.13,28.17,25.59,23.02,20.65,19.00,17.69,16.45,15.20,14.47,14.17,14.09,13.88,13.31,12.62,11.73,10.63,9.79,9.28,8.85,8.41,8.01,7.39,6.62,5.78,5.00,4.92,4.84,4.77,4.71,4.70,4.64,4.56,4.51,4.50,4.44,4.46,4.48,4.43,4.50,4.52,4.48,4.43,4.43,4.43,4.39,4.34
60.88,58.94,59.14,59.85,60.68,61.50,62.81,64.45,66.13,67.67,68.91,69.73,70.17,70.19,69.90,70.66,72.80,75.24,77.55,79.68,81.63,83.40,85.01,86.51,87.64,88.45,89.07,89.56,89.94,90.27,90.53,90.65,90.42,90.38,89.81,88.58,86.62,83.69,82.89,85.22,90.11,94.57,98.38,102.90,108.49,115.33,120.99,125.39,129.35,133.48,138.29,140.35,140.59,139.61,138.18,137.40,136.33,135.03,133.62,131.96,130.15,128.12,125.87,123.44,120.53,116.09,110.69,105.35,102.76,103.79,107.26,111.91,115.24,118.84,122.21,125.30,128.32,130.19,131.30,131.26,129.69,126.57,123.02,119.45,115.95,112.32,108.48,104.21,99.79,95.71,92.12,92.42,95.32,99.65,104.46,109.51,114.16,118.05,120.84,123.51,126.56,129.92,133.43,136.74,140.63,142.14,140.32,136.57,132.63,127.97,122.95,118.24,114.14,110.51,107.19,104.08,101.32,98.35,95.46,93.09,92.04,93.30,95.62,98.23,100.44,102.06,103.30,104.12,104.52,104.60,103.62,102.11,99.97,96.94,93.66,90.56,87.72,85.12,82.34,79.99,78.03,76.67,76.49,77.52,79.28,81.61,84.37,88.31,93.19,98.45,102.94,102.92,98.69,93.48,88.40,84.27,81.28,77.90,73.86,69.26,65.95,62.80,59.90,57.25,54.83,52.54,52.22,53.81,56.86,59.83,62.75,65.80,69.27,74.06,78.45,83.08,87.95,92.82,97.08,100.25,102.33,103.38,103.39,102.80,101.66,99.43,94.54,86.94,80.13,74.69,70.76,67.80,65.19,62.97,61.14,59.49,59.38,60.54,62.69,65.36,66.09,63.75,59.40,54.18,49.19,44.75,40.64,36.86,33.55,30.15,27.29,24.77,22.22,20.06,18.51,17.37,16.53,16.05,15.87,15.89,16.05,16.19,15.68,15.24,14.60,13.56,12.64,11.69,10.68,9.67,8.87,8.13,7.23,6.17,5.00,4.92,4.84,4.77,4.70,4.70,4.64,4.56,4.50,4.50,4.43,4.40,4.39,4.35,4.39,4.37,4.33,4.30,4.30,4.30,4.26,4.20
59.77,57.29,57.12,57.47,58.09,58.89,60.11,61.78,63.53,65.18,66.48,67.55,68.28,68.51,68.31,69.59,71.75,74.05,76.22,78.28,80.08,81.79,83.33,84.57,85.39,86.04,86.51,86.82,87.18,87.41,87.60,87.63,87.22,87.08,86.12,84.39,82.06,79.70,81.79,85.85,90.75,95.83,100.18,105.01,110.87,118.17,122.74,126.66,130.10,133.30,136.98,138.09,137.67,136.34,134.85,134.76,134.12,133.04,131.69,130.19,128.49,126.65,124.65,122.30,119.12,114.93,109.89,104.31,100.27,99.33,101.91,107.52,112.15,116.63,120.55,123.89,126.89,128.89,129.89,129.62,127.85,124.56,120.94,117.22,113.49,109.72,104.73,100.09,96.09,92.75,89.44,91.03,95.18,99.99,104.03,108.33,112.15,115.26,117.64,119.29,122.15,126.24,131.22,134.99,138.66,141.28,141.90,138.37,134.41,130.11,125.45,120.40,116.20,112.41,108.87,105.43,101.77,97.64,93.51,90.16,89.20,89.99,92.11,94.75,97.04,98.74,99.93,100.68,101.10,101.50,101.26,100.36,98.85,96.79,93.84,90.82,87.84,84.97,82.10,79.81,77.85,76.22,75.12,76.00,77.39,79.20,81.47,85.48,90.64,96.28,101.45,103.61,101.27,96.84,91.68,87.36,83.88,80.07,75.62,70.56,66.63,62.75,59.40,56.59,53.89,51.47,50.33,50.99,53.77,56.79,59.80,62.95,66.53,71.56,75.80,80.25,85.02,89.97,94.27,97.92,100.53,101.96,103.17,103.29,102.47,100.57,96.94,89.78,83.11,77.89,74.70,72.46,70.29,67.85,65.10,62.82,62.27,63.44,65.68,67.80,66.41,63.25,58.57,52.81,48.05,43.83,39.88,36.07,32.33,29.20,26.49,23.99,21.45,19.55,18.21,17.38,17.05,17.36,17.73,18.07,18.40,18.84,18.45,18.31,18.02,17.18,16.19,14.70,12.99,11.26,9.87,8.88,7.82,6.56,5.02,4.93,4.84,4.77,4.71,4.70,4.64,4.56,4.51,4.50,4.43,4.34,4.28,4.27,4.26,4.21,4.17,4.17,4.17,4.17,4.12,4.07
59.65,56.75,55.29,55.30,55.98,56.90,58.08,59.56,61.20,62.80,64.05,65.41,66.60,67.26,67.31,68.84,70.74,72.74,74.72,76.63,78.42,80.04,81.37,82.26,82.94,83.44,83.82,84.12,84.33,84.46,84.44,84.22,83.72,83.28,82.03,80.24,78.46,79.00,82.96,87.78,92.51,97.16,102.92,108.72,114.60,120.71,124.54,128.11,131.02,133.04,134.26,134.26,133.32,132.07,131.67,131.86,131.51,130.72,129.66,128.35,126.77,125.01,123.10,121.00,117.32,113.10,108.48,103.47,99.34,98.09,99.85,104.29,109.66,114.47,118.87,122.72,125.61,127.34,128.07,127.43,125.14,122.39,118.86,115.07,111.20,107.14,102.19,97.98,94.40,90.96,88.15,90.40,95.07,99.97,103.38,106.71,109.68,112.24,114.51,116.44,119.19,123.37,129.26,133.38,137.13,140.30,142.12,139.93,136.44,132.68,128.47,123.27,118.59,114.68,111.45,108.65,105.24,101.24,96.04,90.75,88.46,87.64,88.76,90.85,92.74,94.05,94.91,95.59,96.26,97.16,97.49,97.36,96.85,96.07,93.38,90.61,87.74,84.77,81.85,79.59,77.66,75.92,74.33,74.62,75.74,77.28,78.98,82.94,88.05,94.06,100.11,103.06,102.32,99.33,94.85,89.74,85.95,82.18,77.70,72.26,67.98,63.99,60.46,57.34,54.24,51.42,49.67,49.32,50.57,53.24,56.42,59.93,63.79,68.48,72.76,77.00,81.45,86.45,90.95,94.96,98.26,100.67,101.79,102.74,102.89,101.98,99.93,96.06,90.77,85.41,81.57,78.14,75.15,72.40,69.85,67.71,66.85,67.76,69.54,70.28,67.46,63.42,58.28,52.28,47.27,42.77,38.76,35.15,31.60,28.63,25.95,23.41,20.88,19.12,18.50,18.44,18.58,18.95,19.62,20.51,21.46,22.15,22.34,22.43,22.22,21.50,20.16,18.29,16.11,13.80,11.61,9.74,8.18,6.74,5.15,4.96,4.84,4.79,4.77,4.71,4.64,4.59,4.56,4.50,4.43,4.31,4.20,4.14,4.08,4.06,4.05,4.05,4.05,3.99,3.96,3.95
59.14,55.65,53.41,53.18,53.89,54.89,56.11,57.54,59.12,60.71,62.11,63.42,64.76,65.76,66.29,67.88,69.56,71.32,73.14,74.87,76.53,77.93,79.02,79.76,80.28,80.71,80.99,81.14,81.23,81.23,81.06,80.73,80.28,79.60,78.28,77.11,76.92,79.57,84.66,89.79,94.20,98.44,104.89,111.14,116.74,121.52,124.48,127.67,129.90,130.61,130.67,130.15,129.30,128.57,128.76,129.12,128.93,128.34,127.51,126.33,124.91,123.30,121.42,118.88,115.07,110.94,106.68,102.36,98.25,96.86,98.13,101.82,107.21,112.31,117.22,121.50,124.11,125.89,126.45,125.55,123.13,120.45,116.88,112.93,108.84,104.51,99.98,95.94,92.33,88.89,86.54,89.45,94.30,98.61,101.53,103.57,105.68,108.28,111.64,114.55,118.25,122.83,128.17,132.49,136.44,139.84,141.97,140.52,137.63,134.37,130.76,126.62,121.27,117.13,113.97,111.45,108.53,104.73,99.75,94.27,90.21,87.49,86.32,86.64,88.19,88.92,89.49,90.12,90.96,92.23,93.29,93.94,94.30,94.59,92.71,90.31,87.54,84.53,81.57,79.34,77.43,75.64,73.84,73.25,73.51,74.61,76.62,80.74,86.02,92.20,98.49,102.05,102.53,100.80,97.18,92.02,87.64,83.60,79.18,73.99,69.37,65.49,62.07,58.95,55.92,52.78,50.22,48.64,48.40,50.42,52.87,56.08,60.17,65.04,69.35,73.48,77.89,83.25,87.80,91.91,95.46,98.31,99.95,101.36,102.03,101.87,101.05,99.70,96.79,92.73,88.24,83.94,79.98,76.54,73.76,71.83,71.20,71.87,72.84,72.23,68.49,63.68,58.20,52.44,47.18,42.24,38.09,34.66,31.25,28.39,25.73,23.15,20.60,19.52,19.79,20.57,21.34,22.10,23.09,24.28,25.49,26.38,26.70,26.85,26.70,26.06,24.41,22.02,19.21,16.24,13.46,10.78,8.71,7.03,5.36,5.00,4.84,4.80,4.79,4.71,4.64,4.60,4.57,4.47,4.39,4.28,4.16,4.05,3.98,3.94,3.92,3.91,3.88,3.84,3.82,3.82
58.31,54.16,51.53,51.15,51.83,52.87,54.18,55.62,57.18,58.82,60.46,61.58,62.87,64.14,65.26,66.80,68.28,69.85,71.49,73.02,74.48,75.60,76.45,77.13,77.50,77.88,78.06,77.98,77.96,77.83,77.54,77.18,76.87,75.98,74.82,74.69,76.69,80.89,86.60,91.73,95.77,99.65,106.31,112.65,117.82,121.29,123.37,126.10,127.52,126.88,126.51,125.85,125.48,125.54,126.01,126.48,126.39,125.92,125.27,124.20,122.93,121.48,119.58,116.27,112.57,108.65,104.75,101.13,97.00,95.58,96.62,99.82,104.83,110.15,115.55,120.21,122.50,124.53,124.98,123.91,121.57,118.67,114.96,110.83,106.45,101.88,97.90,93.89,90.01,86.62,84.68,88.24,93.11,96.44,98.96,99.64,101.05,104.07,109.14,113.49,118.66,123.73,127.78,132.17,136.36,139.73,141.57,140.43,138.18,135.39,132.49,130.04,124.07,119.68,116.48,114.03,111.71,108.17,104.11,99.46,93.57,88.88,84.79,82.65,83.62,83.64,83.93,84.52,85.46,86.98,88.80,90.25,91.40,92.61,91.83,89.89,87.23,84.24,81.24,79.05,77.16,75.37,73.52,71.94,71.06,71.61,74.32,78.78,84.35,90.56,96.73,100.80,102.24,101.60,98.94,94.24,89.11,84.64,80.35,75.83,70.98,67.30,64.09,61.13,58.41,54.98,51.52,48.63,46.97,48.07,49.33,51.85,56.05,61.36,65.74,69.84,74.34,80.19,84.72,88.78,92.32,95.30,97.76,99.35,100.24,100.61,100.77,101.38,101.34,99.47,94.67,89.79,84.85,80.52,77.25,75.53,75.40,75.83,75.81,73.86,69.49,63.96,58.21,52.95,47.48,42.05,37.71,34.46,31.15,28.37,25.75,23.21,20.73,20.64,21.84,23.45,24.92,26.26,27.59,28.89,30.10,31.16,31.30,31.38,31.24,30.64,28.72,25.80,22.31,18.62,15.34,11.94,9.35,7.39,5.63,5.06,4.85,4.80,4.79,4.71,4.64,4.60,4.56,4.41,4.32,4.25,4.14,3.99,3.91,3.83,3.79,3.78,3.70,3.69,3.69,3.69
56.17,51.77,50.11,49.78,50.17,50.95,52.26,53.71,55.38,57.22,59.11,60.52,61.81,63.02,64.23,65.67,67.13,68.46,69.65,70.93,72.19,73.12,73.78,74.31,74.59,74.84,74.89,74.68,74.31,74.08,73.80,73.49,73.23,72.48,72.49,74.07,77.74,82.33,87.59,92.27,96.19,100.27,106.24,112.00,116.94,120.65,122.63,124.12,124.16,122.55,121.29,121.27,121.92,122.83,123.45,123.97,123.93,123.51,122.92,121.94,120.58,118.82,116.54,113.32,110.16,107.04,103.86,100.48,94.72,93.36,94.93,98.32,103.02,108.05,113.31,118.17,121.31,123.47,123.89,122.86,120.76,117.17,113.27,108.97,104.30,99.54,95.01,90.88,87.15,83.81,81.77,86.00,91.22,94.03,96.10,97.40,99.90,104.09,109.80,116.19,121.38,125.73,129.81,134.00,137.78,140.30,140.96,138.83,136.42,134.41,132.58,130.42,126.02,122.24,119.22,116.90,114.47,111.52,108.12,104.12,99.06,93.84,88.67,84.11,80.77,79.90,79.89,80.32,80.98,82.05,84.04,86.04,87.97,89.92,89.83,88.41,86.16,83.50,80.69,78.62,76.78,74.99,73.13,71.47,70.27,70.16,71.87,77.27,82.96,89.01,95.13,99.98,101.79,101.59,99.70,96.38,90.70,86.11,82.29,78.84,75.53,71.33,67.46,64.20,61.24,57.61,53.61,49.95,47.41,46.39,47.25,49.26,52.24,57.25,62.22,66.59,70.93,76.43,81.09,85.14,88.73,91.96,94.17,95.43,95.81,95.64,95.84,97.05,98.59,99.64,99.23,95.39,90.51,85.71,81.80,79.68,79.48,79.59,78.73,75.25,70.02,63.92,57.97,52.90,47.57,42.18,37.87,34.68,31.52,28.48,26.50,25.27,24.26,25.21,26.59,28.28,30.15,31.94,33.55,34.55,35.14,35.90,35.23,34.89,34.44,33.40,31.73,29.29,25.48,20.70,16.93,13.30,10.31,7.97,6.20,5.19,4.88,4.85,4.79,4.71,4.64,4.57,4.51,4.41,4.28,4.18,4.08,3.93,3.85,3.73,3.66,3.65,3.57,3.56,3.56,3.55
53.36,50.03,48.99,48.64,48.84,49.48,50.60,51.93,53.63,55.60,57.61,59.28,60.71,61.98,63.21,64.60,65.89,66.96,67.83,68.79,69.67,70.41,70.98,71.34,71.55,71.66,71.62,71.37,70.83,70.53,70.25,70.07,70.18,70.21,71.61,74.71,79.50,84.19,89.07,93.46,97.36,101.53,107.01,112.06,116.32,119.59,121.20,121.72,120.85,118.73,116.86,117.24,118.46,119.86,120.72,121.42,121.50,121.16,120.61,119.53,117.87,115.81,113.41,110.54,107.85,105.26,102.41,98.88,92.46,91.27,93.28,96.91,101.29,106.08,111.13,116.04,120.02,122.30,122.81,121.91,119.96,115.74,111.51,106.99,102.16,97.37,92.62,88.43,84.76,81.44,79.85,83.57,88.36,91.40,93.73,96.24,100.15,105.59,112.08,118.82,123.92,128.00,131.91,135.93,138.89,140.21,139.53,136.51,134.08,132.44,131.14,129.40,126.25,123.62,121.46,119.55,117.12,114.41,111.46,108.16,104.16,98.85,93.33,87.66,81.94,79.08,77.84,77.30,77.13,77.91,79.81,81.89,84.01,86.18,86.78,86.37,84.95,82.63,80.13,78.17,76.35,74.54,72.72,70.96,69.55,69.07,70.20,75.56,81.20,87.11,93.19,99.16,101.20,101.40,100.31,98.27,92.62,88.08,84.53,81.73,79.50,75.86,71.65,67.42,63.96,60.20,55.86,51.57,48.10,45.87,45.74,46.97,49.28,53.31,58.70,63.40,67.62,72.58,77.21,81.16,84.58,87.56,89.55,90.66,90.75,90.32,90.89,92.78,95.37,98.24,100.82,98.97,95.39,91.07,86.90,84.34,83.52,82.58,80.39,75.65,69.85,63.48,57.49,52.55,47.56,42.48,38.32,35.27,32.70,30.04,28.84,28.74,29.03,30.69,32.32,34.01,35.83,37.81,39.39,40.28,40.69,41.21,40.03,38.90,37.64,36.05,34.33,31.93,28.01,22.86,18.58,14.90,11.60,8.86,6.86,5.36,4.91,4.87,4.79,4.71,4.64,4.55,4.45,4.37,4.22,4.12,4.01,3.86,3.79,3.67,3.58,3.52,3.44,3.44,3.42,3.39
49.88,48.95,48.16,47.73,47.84,48.47,49.19,50.29,51.93,53.94,55.94,57.86,59.57,61.00,62.18,63.57,64.56,65.35,66.03,66.60,66.89,67.47,68.04,68.21,68.37,68.36,68.26,68.05,67.51,67.16,66.90,66.93,67.73,69.15,72.18,76.61,81.98,86.47,91.03,95.30,99.28,103.45,108.61,112.85,115.97,118.11,119.08,118.89,117.60,115.43,113.21,113.74,115.10,116.62,117.83,118.83,119.11,118.88,118.35,116.98,114.79,112.45,110.20,107.92,105.65,103.30,100.40,96.32,90.20,89.31,91.66,95.59,99.63,104.23,109.00,113.82,118.63,121.01,121.72,121.05,119.16,114.40,109.70,104.90,100.01,95.37,90.73,86.55,82.85,79.53,78.92,80.95,84.50,88.58,91.84,96.18,101.80,108.55,115.98,121.39,126.28,130.55,134.07,137.94,139.71,139.45,137.29,133.48,131.16,129.49,128.16,126.97,124.75,123.82,123.18,121.98,119.66,116.85,114.14,111.58,108.87,103.91,98.79,93.31,87.16,81.18,77.77,75.46,73.92,74.54,76.12,77.81,79.52,81.39,82.67,83.77,83.62,81.65,79.54,77.70,75.88,74.04,72.26,70.42,68.92,68.33,69.33,73.65,79.07,84.87,90.93,98.33,100.48,101.02,100.76,99.91,94.86,90.54,87.08,84.47,82.88,80.92,76.68,70.78,66.58,62.76,58.26,53.48,49.05,46.52,44.82,44.99,47.18,49.53,55.19,60.25,64.42,68.64,73.06,76.84,79.87,82.12,83.91,85.01,85.05,84.65,85.91,88.58,91.69,95.29,99.43,100.54,99.48,96.61,92.58,89.52,87.50,84.78,80.77,75.04,68.97,62.66,56.79,51.89,47.45,42.94,39.09,36.25,34.71,33.04,32.76,33.64,35.04,37.10,39.05,40.66,41.95,43.89,45.13,46.08,46.77,47.10,45.72,43.40,40.83,38.58,36.51,33.73,29.89,25.12,20.29,16.73,13.25,10.06,7.62,5.57,4.94,4.87,4.79,4.71,4.64,4.52,4.39,4.31,4.16,4.05,3.95,3.80,3.72,3.64,3.53,3.39,3.32,3.31,3.26,3.21
48.77,48.04,47.27,46.77,46.84,47.51,48.25,49.19,50.36,51.86,53.87,55.89,57.80,59.55,61.08,62.14,62.86,63.47,63.98,64.10,64.16,64.51,64.87,64.84,64.90,64.83,64.77,64.79,64.71,65.99,67.46,68.98,70.75,73.14,76.39,80.92,86.76,90.83,94.92,98.42,101.52,105.56,109.61,112.37,113.92,114.67,115.46,114.55,112.87,111.06,109.46,110.18,111.60,113.21,114.77,115.88,116.51,116.55,115.95,114.70,112.68,110.39,108.06,105.73,103.48,101.01,98.15,94.72,88.71,87.80,90.14,94.13,98.20,102.57,107.02,111.56,116.34,119.58,120.67,119.74,117.08,112.43,107.81,103.21,98.61,93.93,89.25,84.83,80.99,78.09,78.01,80.09,83.54,87.63,91.60,96.44,102.28,109.22,117.45,122.16,126.17,129.56,132.33,135.50,136.88,136.14,133.14,127.85,125.00,122.96,121.26,119.60,118.35,118.36,119.05,119.72,118.64,117.07,115.45,113.67,111.14,107.33,102.90,98.10,93.12,87.17,82.07,78.14,75.35,72.93,72.69,73.61,75.29,77.38,79.15,80.72,81.25,80.24,78.43,76.65,74.83,72.99,71.16,69.48,67.95,67.40,68.68,71.64,76.31,81.65,87.38,94.51,98.76,100.48,100.41,99.77,95.90,92.52,89.62,87.12,85.16,82.63,78.68,73.54,68.60,64.38,59.73,54.69,49.53,46.79,44.15,43.69,45.90,48.09,51.99,56.48,61.10,65.46,69.32,72.89,75.74,77.61,79.02,79.72,79.89,80.16,82.07,85.18,88.49,92.18,96.52,99.58,100.07,98.92,96.63,92.99,89.24,85.03,79.95,73.42,67.26,61.43,56.11,51.47,47.62,44.18,41.75,40.39,39.66,38.62,38.57,39.26,40.14,41.72,43.25,44.83,46.50,48.15,49.63,50.86,52.04,53.69,52.18,48.60,44.49,41.23,38.82,35.40,31.27,26.78,22.66,19.55,16.03,12.25,8.68,6.00,5.05,4.87,4.78,4.66,4.58,4.48,4.37,4.25,4.14,4.02,3.90,3.79,3.67,3.58,3.47,3.33,3.25,3.20,3.13,3.08
47.72,47.06,46.32,45.80,45.86,46.59,47.38,48.20,49.04,50.13,51.86,53.90,55.95,57.91,59.67,60.54,61.09,61.48,61.71,61.57,61.47,61.53,61.59,61.46,61.47,61.43,61.78,62.70,63.85,66.44,69.24,71.95,74.54,77.55,80.90,85.20,90.68,94.30,97.99,100.97,103.41,106.75,109.53,111.08,111.57,111.44,111.79,110.40,108.52,106.95,105.76,106.61,108.11,109.86,111.69,112.98,113.92,114.25,113.76,112.55,110.71,108.51,106.10,103.70,101.35,98.73,95.88,92.89,87.19,86.06,88.29,92.60,96.69,100.99,105.29,109.60,114.04,117.70,118.98,117.94,114.91,110.61,106.14,101.69,97.28,92.64,87.85,83.26,79.35,76.71,77.12,79.33,82.76,86.91,91.37,96.51,102.41,109.32,117.74,122.01,125.03,127.30,129.24,131.89,133.13,132.25,128.81,122.45,118.51,115.73,113.61,111.62,111.60,112.56,114.33,116.41,116.16,115.55,114.97,114.25,112.67,109.93,106.26,102.16,98.08,92.92,86.89,81.65,77.56,72.90,70.69,70.36,71.53,73.70,75.82,77.65,78.75,78.75,77.18,75.51,73.73,71.88,70.08,68.50,67.02,66.55,68.02,69.89,73.75,78.48,83.67,90.07,95.67,98.42,98.82,98.48,96.01,93.88,91.74,89.30,87.02,83.87,79.99,75.40,70.03,65.45,60.66,55.44,49.79,46.59,43.38,42.51,44.58,46.71,49.24,52.89,57.44,62.15,65.75,69.12,71.78,73.40,74.59,74.94,75.09,75.70,78.00,81.72,85.37,89.12,93.32,97.57,99.64,100.16,99.21,95.26,90.31,84.97,79.13,72.32,66.32,61.06,56.42,52.34,49.10,46.76,45.58,45.29,44.82,44.08,43.93,44.23,44.71,45.89,47.04,48.44,50.14,51.61,53.40,54.98,56.51,58.57,57.23,52.83,47.62,43.64,40.86,37.03,32.75,28.46,24.90,21.93,18.25,13.97,9.48,6.21,5.07,4.86,4.76,4.62,4.52,4.43,4.34,4.18,4.10,3.98,3.85,3.77,3.61,3.52,3.40,3.26,3.19,3.09,3.01,2.95
46.47,45.91,45.27,44.81,44.93,45.70,46.54,47.33,48.15,49.04,50.03,51.95,54.03,56.04,57.76,58.67,59.23,59.33,59.10,59.01,58.88,58.52,58.16,58.07,58.14,58.29,59.63,62.60,66.27,69.42,72.60,75.85,78.99,82.07,85.50,89.15,92.81,95.99,99.43,102.39,104.63,106.34,107.67,108.53,108.91,108.81,108.22,106.75,105.01,103.43,102.13,103.01,104.67,106.64,108.62,110.20,111.37,112.00,111.96,110.60,108.89,106.76,104.31,101.92,99.30,96.53,93.62,90.53,85.53,83.85,85.85,90.94,95.03,99.53,103.97,108.14,111.84,115.05,116.20,115.33,112.72,109.11,104.87,100.43,95.97,91.53,86.55,81.92,78.06,75.37,76.27,78.52,81.97,86.35,90.96,96.21,102.10,108.74,116.33,120.50,122.42,123.27,124.31,126.81,128.25,127.66,124.42,117.76,111.84,107.73,105.13,103.18,104.84,106.85,109.31,111.87,111.57,111.31,111.59,112.37,113.20,111.32,108.49,105.03,101.23,97.79,92.08,86.04,80.54,75.39,71.15,68.77,68.54,70.51,72.72,74.58,76.13,77.17,75.75,74.26,72.58,70.77,69.11,67.50,66.18,65.90,67.29,68.57,71.62,75.50,79.83,84.95,90.32,93.75,95.20,95.40,94.69,94.23,93.10,90.69,88.32,84.72,80.49,75.81,70.53,65.69,60.75,55.49,49.76,45.62,42.38,41.46,43.10,45.12,47.22,49.72,53.20,58.56,62.42,65.63,68.03,69.57,70.87,71.00,70.83,71.16,73.41,78.07,82.33,86.13,89.81,94.06,97.90,99.97,99.43,95.68,90.51,84.66,78.45,72.23,66.83,62.22,58.43,55.39,52.79,51.56,51.20,51.10,49.99,49.02,48.27,48.00,48.47,49.51,50.44,51.38,52.44,53.91,56.03,58.08,59.69,60.41,59.78,55.35,49.80,45.66,42.42,38.62,34.43,30.22,26.86,23.42,19.38,14.78,9.79,6.03,4.93,4.84,4.70,4.61,4.48,4.37,4.27,4.12,4.04,3.91,3.78,3.70,3.55,3.45,3.34,3.20,3.12,2.98,2.88,2.83
45.20,44.66,44.08,43.76,43.95,44.70,45.55,46.37,47.18,48.02,48.95,50.43,52.30,54.22,55.89,56.82,57.35,57.26,56.70,56.43,56.26,55.53,54.72,54.55,55.18,56.76,59.53,63.53,68.34,72.10,75.66,79.04,81.93,84.90,88.02,91.12,94.05,97.02,99.77,102.00,103.55,104.18,104.94,105.52,105.82,105.73,105.04,103.68,101.97,100.19,98.68,99.14,100.67,102.77,104.78,106.53,108.02,109.16,109.77,108.58,107.06,105.13,102.79,100.20,97.16,94.22,91.36,88.37,83.47,81.53,83.27,88.39,93.20,98.03,102.50,106.56,110.27,113.17,114.19,113.43,111.16,107.72,103.88,99.56,94.89,90.44,85.04,80.26,76.53,74.03,75.19,77.72,81.29,85.60,90.48,95.89,101.59,107.55,113.86,117.76,118.91,118.62,118.47,120.82,122.60,122.75,120.52,114.63,108.48,103.64,100.15,97.63,98.78,100.23,102.06,104.10,104.70,105.62,107.10,109.11,111.45,110.99,109.31,106.66,103.30,100.61,96.01,90.45,84.54,78.81,73.45,69.35,67.11,67.34,69.59,71.74,73.66,75.07,74.23,72.89,71.36,69.82,68.40,66.83,65.41,64.84,65.78,67.25,69.75,72.93,76.55,80.39,84.69,88.13,90.29,91.00,91.64,92.22,92.07,90.73,88.54,84.88,80.55,75.79,70.58,65.47,60.39,55.13,49.49,44.93,41.60,40.34,41.29,43.10,45.04,47.18,50.11,54.85,59.12,62.16,64.20,65.50,66.42,66.62,66.84,67.63,69.79,73.37,77.93,82.57,86.29,90.22,94.21,96.78,97.12,95.28,91.01,85.70,79.90,74.20,69.58,65.51,62.16,59.61,57.50,56.22,55.35,54.55,53.28,51.92,50.95,50.64,51.26,52.03,52.23,52.39,52.90,53.97,55.99,58.17,59.82,59.93,58.77,54.74,49.88,46.11,42.83,39.25,35.38,31.32,27.36,23.34,18.88,14.09,9.24,5.86,4.87,4.78,4.64,4.56,4.42,4.31,4.21,4.06,3.98,3.85,3.72,3.64,3.53,3.41,3.29,3.18,3.06,2.95,2.83,2.74
43.94,43.41,42.87,42.70,42.98,43.70,44.53,45.38,46.20,47.06,48.07,49.14,50.69,52.43,54.01,54.96,55.45,55.24,54.48,53.90,53.60,52.63,51.60,51.46,52.93,56.04,60.12,64.76,70.03,74.23,78.04,81.42,84.03,86.92,89.72,92.34,94.80,97.39,99.40,100.86,101.70,101.61,102.01,102.38,102.58,102.49,101.89,100.69,99.01,97.02,95.29,95.19,96.47,98.62,100.72,102.72,104.57,106.21,107.46,106.48,105.15,103.46,101.34,98.50,95.11,92.01,89.16,86.30,81.49,79.43,80.84,85.65,91.11,96.21,100.76,104.81,108.64,111.39,112.33,111.62,109.57,106.24,102.79,98.65,93.82,89.19,83.39,78.53,74.93,72.53,74.01,76.82,80.51,84.78,89.96,95.56,101.08,106.37,111.41,114.73,115.08,113.66,112.15,114.64,116.93,117.98,116.88,112.07,105.99,100.58,96.19,92.87,93.17,93.88,95.04,96.60,98.13,100.08,102.41,105.11,108.21,109.18,108.81,107.25,104.69,102.51,99.15,94.43,88.54,82.54,76.38,70.89,66.75,64.78,66.44,68.64,70.95,72.84,72.68,71.52,70.18,68.91,67.68,66.20,64.71,63.80,64.09,65.80,67.84,70.40,73.42,76.31,79.48,82.62,85.18,86.38,88.01,89.33,90.03,89.83,88.01,84.58,80.32,75.53,70.38,64.97,59.78,54.62,49.30,44.57,41.11,39.41,39.58,41.06,42.80,44.81,47.47,51.43,55.83,58.68,60.41,61.50,62.03,62.38,63.16,64.60,66.77,69.13,73.43,78.44,82.42,86.06,89.82,92.65,94.04,94.14,91.04,86.63,81.63,76.57,72.67,69.14,66.18,63.95,62.06,60.46,58.89,57.30,55.85,54.04,52.85,52.48,52.96,53.25,52.71,52.23,52.34,53.07,54.83,56.85,58.33,58.10,56.45,53.07,49.19,45.92,42.71,39.38,35.85,31.97,27.40,22.71,17.81,12.92,8.38,5.67,4.84,4.72,4.58,4.50,4.37,4.25,4.15,4.01,3.92,3.79,3.67,3.58,3.50,3.37,3.25,3.16,3.00,2.92,2.79,2.66
42.75,42.26,41.72,41.66,42.02,42.73,43.52,44.36,45.23,46.17,47.24,48.26,49.40,50.68,52.04,53.09,53.52,53.35,52.65,51.58,50.79,49.96,49.47,49.89,52.69,56.71,61.31,66.08,70.76,74.83,78.48,81.74,84.60,87.69,90.41,92.75,94.71,96.17,97.66,98.73,99.20,99.06,99.15,99.20,99.19,99.11,98.55,97.51,95.91,93.81,91.92,91.23,92.03,94.06,96.55,99.13,101.38,103.37,105.04,104.16,102.96,101.62,99.89,96.80,93.43,90.17,87.13,84.32,80.11,78.11,79.02,82.95,88.31,93.44,98.25,102.60,106.28,109.31,110.31,109.52,107.35,104.32,101.16,97.32,92.62,87.34,81.47,76.79,73.30,70.55,72.72,75.63,79.33,83.86,89.39,95.21,100.74,105.72,109.87,111.75,110.93,108.23,105.06,108.58,111.87,113.86,113.70,110.13,103.64,97.70,92.71,88.40,88.46,89.16,90.55,92.54,94.32,96.20,98.02,99.85,102.02,103.98,105.18,105.46,104.72,103.07,100.74,96.96,91.73,86.53,79.87,73.80,68.61,64.17,63.27,64.55,67.32,70.61,71.09,70.29,69.15,67.96,66.78,65.49,64.23,63.15,62.48,63.90,65.61,67.73,70.31,73.35,75.86,78.27,80.46,82.16,83.84,85.44,86.60,86.97,85.94,83.30,79.47,74.78,69.73,63.97,58.72,53.97,49.56,45.08,41.43,39.14,38.47,39.36,40.46,42.44,45.36,49.08,52.56,55.13,56.88,57.92,58.40,58.98,60.27,62.37,64.89,67.24,69.72,72.93,77.44,81.13,84.68,87.89,90.44,91.28,89.25,86.15,82.51,78.64,75.12,72.19,69.78,67.74,65.36,63.50,61.66,59.67,57.63,55.18,53.56,52.61,51.92,51.12,50.29,49.83,50.00,50.88,52.21,53.38,54.05,53.82,52.74,50.47,47.66,44.91,41.85,38.67,35.35,31.71,27.09,21.55,16.25,11.42,7.18,5.40,4.80,4.66,4.51,4.43,4.34,4.23,4.10,4.00,3.87,3.76,3.65,3.52,3.44,3.30,3.18,3.09,2.94,2.85,2.73,2.60
41.39,40.99,40.62,40.65,41.05,41.73,42.50,43.37,44.31,45.31,46.33,47.33,48.31,49.35,50.47,51.29,51.62,51.48,50.89,49.86,48.95,48.28,48.22,49.24,52.49,56.87,61.72,66.55,70.93,74.66,78.09,81.32,84.35,87.42,90.05,92.14,93.63,94.38,95.61,96.34,96.33,96.05,95.93,95.84,95.75,95.60,95.19,94.31,92.81,90.70,88.51,87.62,88.30,90.32,93.12,95.99,98.51,100.74,102.65,102.23,101.30,99.99,98.17,95.24,91.95,88.69,85.50,82.39,78.84,76.59,77.09,80.86,85.79,90.64,95.85,100.92,104.52,107.36,108.09,107.16,105.16,102.19,99.03,95.40,90.99,85.11,79.29,74.66,71.40,69.47,71.24,74.18,77.91,82.31,88.65,94.45,99.63,104.06,107.43,107.77,105.80,102.74,100.21,103.64,107.17,109.44,109.61,106.64,100.86,95.18,89.93,84.80,83.87,84.47,86.16,88.48,90.43,92.17,93.74,95.26,96.95,99.16,101.22,102.65,103.01,102.30,100.82,97.81,93.35,89.19,82.56,76.26,70.57,65.09,61.74,61.41,63.46,66.89,68.58,68.81,68.16,67.00,65.85,64.68,63.56,62.48,61.49,62.01,62.77,64.21,66.51,69.60,72.17,74.23,75.98,77.77,79.44,81.04,82.44,83.46,83.15,81.31,78.19,73.99,69.04,63.32,58.34,53.99,49.95,45.48,41.62,39.04,37.96,37.96,38.84,40.46,42.88,46.21,49.45,51.82,53.47,54.58,55.27,56.23,58.14,60.89,63.42,65.54,67.20,69.15,72.28,75.69,79.24,82.89,86.22,87.30,85.71,83.28,80.53,77.72,75.14,73.17,71.59,70.05,67.33,64.81,62.47,60.10,57.13,54.34,52.45,51.21,50.12,49.03,48.09,47.59,47.72,48.54,49.13,49.64,49.97,49.84,49.01,47.39,45.30,43.00,40.09,37.11,34.01,30.52,25.76,19.96,14.54,9.81,5.98,5.10,4.75,4.61,4.49,4.38,4.29,4.17,4.04,3.96,3.81,3.71,3.60,3.45,3.37,3.24,3.12,3.03,2.87,2.79,2.69,2.57
39.91,39.60,39.46,39.62,40.05,40.70,41.48,42.39,43.40,44.44,45.36,46.37,47.32,48.24,49.13,49.61,49.80,49.67,49.19,48.42,47.58,47.11,47.45,49.06,52.30,56.73,61.61,66.39,70.61,73.97,77.18,80.40,83.54,86.46,89.01,90.94,92.05,92.36,93.37,93.74,93.23,92.73,92.47,92.32,92.18,91.94,91.70,90.96,89.57,87.51,85.00,84.15,84.92,87.05,90.07,93.09,95.80,98.21,100.24,100.45,99.84,98.45,96.36,93.73,90.52,87.28,83.98,80.46,77.53,74.93,75.12,79.06,83.47,87.93,93.52,99.39,103.01,105.47,105.78,104.69,102.98,99.93,96.60,93.09,88.98,82.64,76.97,72.42,69.53,68.83,69.77,72.66,76.37,80.50,87.71,93.43,98.13,101.87,104.50,103.39,100.37,97.45,96.59,99.43,102.70,104.87,105.03,102.38,97.83,92.86,87.57,81.83,79.61,79.89,81.75,84.28,86.41,88.02,89.48,90.91,92.36,94.56,97.11,99.27,100.33,100.60,99.77,97.42,93.81,90.78,84.53,78.28,72.41,66.67,61.21,59.00,59.70,62.61,65.61,67.16,67.18,66.07,64.91,63.83,62.80,61.79,60.82,60.25,59.87,60.52,62.51,65.45,68.32,70.25,71.59,73.27,74.85,76.27,77.80,79.45,79.87,78.83,76.58,73.13,68.34,62.87,58.28,54.30,50.35,45.76,41.71,38.98,37.70,36.75,37.59,38.75,40.36,43.18,46.44,48.66,50.18,51.38,52.39,53.84,56.38,59.68,62.10,63.89,65.19,66.20,67.21,70.15,73.75,77.80,81.65,82.79,81.30,79.18,77.01,75.08,73.66,72.76,72.09,71.20,68.34,65.10,62.18,59.38,55.38,52.46,50.44,49.05,47.97,46.96,46.01,45.45,45.47,46.09,45.87,45.84,46.03,46.00,45.26,44.01,42.39,40.48,37.72,34.97,32.12,28.76,23.81,17.95,12.64,8.22,4.90,4.82,4.69,4.57,4.47,4.32,4.23,4.11,3.98,3.90,3.75,3.65,3.54,3.39,3.31,3.18,3.06,2.97,2.82,2.73,2.65,2.55
38.06,37.75,37.71,38.19,38.88,39.63,40.51,41.43,42.41,43.41,44.34,45.34,46.30,47.22,48.12,48.69,48.68,48.29,47.66,46.95,46.16,46.16,47.08,48.93,52.12,56.11,60.35,64.51,68.48,72.01,75.28,78.37,81.31,83.99,86.82,89.15,90.39,90.70,90.86,90.48,89.59,88.74,88.40,88.11,87.82,87.53,87.24,86.42,85.04,83.15,80.98,80.36,81.59,84.24,87.26,90.37,93.12,95.55,97.66,98.36,97.86,96.69,94.94,92.21,88.68,85.10,81.63,78.35,75.47,72.92,73.20,77.28,81.74,86.12,91.30,96.81,101.12,103.57,103.70,102.45,100.72,97.33,93.80,89.89,85.34,79.75,74.59,70.95,68.87,68.13,69.22,71.63,74.93,79.03,85.75,91.91,96.47,99.40,101.29,99.71,96.64,94.10,94.03,96.72,98.87,100.16,100.19,97.98,94.66,90.64,85.99,80.74,77.49,76.19,76.78,78.97,81.60,83.46,84.80,85.90,87.20,90.22,93.12,95.39,96.68,96.55,95.40,93.50,91.09,88.60,83.71,78.29,72.81,67.56,62.35,58.78,57.80,59.73,62.63,65.12,65.99,65.31,64.21,63.18,62.13,61.12,60.23,59.36,58.87,59.00,59.85,61.31,63.43,65.39,67.07,68.55,69.64,70.71,72.09,73.93,75.33,75.08,73.92,71.75,67.70,62.56,58.12,54.20,50.34,45.45,41.36,38.59,37.15,35.89,36.66,37.82,39.16,40.84,43.64,45.82,47.38,48.45,49.51,51.63,54.49,57.68,60.29,61.75,62.56,63.05,63.61,65.92,69.20,73.05,76.81,78.49,76.88,74.56,72.30,70.42,69.57,69.20,69.04,68.70,66.53,63.91,60.77,57.04,52.50,50.02,48.29,47.00,45.92,44.86,43.94,43.39,43.27,43.26,42.93,42.66,42.45,42.18,41.43,40.05,38.32,36.47,33.91,31.51,29.03,25.94,20.88,14.22,9.80,7.15,4.90,4.77,4.66,4.54,4.42,4.32,4.19,4.08,3.97,3.84,3.73,3.61,3.49,3.39,3.26,3.15,3.04,2.91,2.81,2.68,2.58,2.48
36.21,35.94,36.16,36.82,37.62,38.41,39.31,40.37,41.41,42.39,43.32,44.30,45.26,46.20,47.10,47.66,47.43,46.87,46.17,45.48,44.83,45.31,46.73,48.66,51.50,55.11,58.86,62.44,66.12,69.58,72.73,75.63,78.43,80.74,83.22,85.43,86.91,87.19,86.66,85.87,85.07,84.30,83.95,83.59,83.23,82.92,82.50,81.45,79.92,78.03,75.89,75.99,78.11,81.51,84.71,87.83,90.61,93.05,95.13,96.14,95.85,94.85,93.24,90.59,86.67,82.86,79.41,76.35,73.54,71.18,71.53,75.48,80.15,84.64,89.58,94.78,99.52,101.67,101.66,100.22,98.04,94.62,91.06,87.03,82.38,77.07,72.56,69.66,68.16,67.53,68.74,70.87,73.91,77.98,84.15,90.34,94.77,97.12,97.93,95.92,92.87,90.64,90.95,93.53,95.22,96.13,96.12,94.46,91.87,88.51,84.49,79.92,75.55,72.72,72.00,73.51,75.92,78.07,79.67,80.88,82.36,85.55,88.51,90.82,92.20,91.81,90.67,89.17,87.45,85.34,81.70,77.25,72.39,67.55,62.96,58.96,56.75,57.13,60.10,63.06,64.59,64.49,63.43,62.42,61.39,60.40,59.55,58.60,57.93,57.68,57.93,58.68,60.10,61.57,62.94,64.14,65.18,66.23,67.58,69.38,71.24,71.64,71.24,69.89,66.58,62.00,57.80,53.93,50.02,44.86,40.92,38.26,36.71,35.24,35.81,36.88,38.05,39.18,41.30,43.16,44.62,45.66,46.79,49.25,52.16,55.05,57.49,58.69,59.28,59.55,59.86,61.92,65.29,69.34,73.24,74.69,73.01,70.54,68.07,66.14,65.55,65.35,65.33,65.21,63.78,61.83,58.80,54.71,50.24,48.04,46.41,45.07,43.88,42.80,41.83,41.09,40.62,40.15,39.71,39.27,38.83,38.39,37.38,35.87,34.15,32.45,30.35,28.24,25.98,22.92,17.16,11.32,7.82,6.10,4.86,4.74,4.63,4.50,4.36,4.28,4.14,4.02,3.93,3.77,3.69,3.56,3.44,3.36,3.20,3.11,2.99,2.85,2.77,2.63,2.52,2.42
34.38,34.17,34.77,35.50,36.28,37.06,37.91,39.22,40.39,41.37,42.30,43.23,44.20,45.18,46.07,46.53,46.09,45.40,44.70,44.01,43.58,44.55,46.40,48.26,50.52,53.78,57.15,60.22,63.55,66.75,69.63,72.28,74.99,76.81,78.41,80.07,81.86,82.09,81.01,80.11,79.79,79.47,79.16,78.80,78.44,78.12,77.51,76.12,74.30,72.25,69.86,71.12,74.51,78.85,82.40,85.44,88.25,90.70,92.65,93.80,93.82,92.95,91.31,88.91,84.53,80.59,77.30,74.43,71.73,69.67,70.06,73.67,78.68,83.44,88.28,93.23,98.17,99.77,99.65,97.99,94.99,91.81,88.35,84.46,80.00,74.60,70.81,68.51,67.41,67.01,68.33,70.35,73.28,77.27,82.85,88.74,93.02,95.01,94.43,92.02,89.07,87.08,87.43,89.91,91.73,92.70,92.72,91.70,89.40,86.47,83.07,79.34,73.75,69.45,67.38,67.92,69.49,71.97,74.14,75.88,77.79,80.60,83.37,85.65,87.02,86.48,85.64,84.49,83.02,81.16,78.67,75.33,71.27,66.78,63.12,59.47,56.42,54.79,57.95,60.99,63.00,63.60,62.60,61.59,60.59,59.64,58.79,57.93,57.03,56.53,56.65,57.34,58.12,58.66,59.14,60.00,61.37,62.70,64.10,65.68,67.53,68.45,68.54,67.62,65.05,61.21,57.36,53.49,49.43,44.03,40.39,37.99,36.37,34.75,35.05,35.93,37.02,38.10,39.36,40.66,41.89,42.98,44.22,46.74,49.45,51.88,53.83,54.85,55.44,55.76,55.97,58.13,61.92,66.51,70.75,71.31,69.62,67.03,64.27,62.18,61.59,61.26,61.06,60.87,60.23,58.99,56.33,52.40,48.52,46.47,44.76,43.21,41.84,40.75,39.68,38.60,37.58,36.82,36.24,35.70,35.17,34.63,33.14,31.49,29.88,28.41,27.00,25.12,22.96,19.75,12.75,9.12,6.58,5.06,4.80,4.72,4.59,4.44,4.29,4.21,4.07,3.96,3.86,3.71,3.63,3.50,3.37,3.29,3.14,3.04,2.93,2.79,2.71,2.56,2.46,2.36
32.63,32.75,33.42,34.13,34.85,35.60,36.50,37.78,39.12,40.39,41.46,42.44,43.37,44.17,44.75,44.69,44.16,43.49,42.83,42.28,42.53,43.79,45.64,47.50,49.50,52.23,55.14,57.93,60.82,63.70,66.25,68.58,70.99,72.75,74.27,75.69,76.96,76.66,76.01,75.48,75.17,74.86,74.60,74.32,73.96,73.46,72.65,70.75,68.43,66.34,65.58,68.25,72.15,76.32,79.97,83.01,85.66,88.08,90.37,91.86,92.15,91.47,89.79,86.53,82.48,79.15,76.48,74.01,71.54,69.02,69.07,72.85,77.63,82.15,86.78,91.37,95.45,97.39,97.42,95.89,93.22,89.96,86.47,82.59,78.10,72.50,69.64,67.77,66.73,66.63,67.99,69.72,72.53,76.77,81.90,87.82,91.96,93.53,92.38,89.52,86.23,83.54,82.45,84.16,86.16,87.88,88.80,87.94,86.64,84.51,81.40,77.22,71.97,67.51,64.84,64.54,66.09,67.95,69.86,71.84,74.11,76.61,78.55,79.95,80.93,80.72,80.12,79.04,77.56,76.14,74.07,71.76,69.16,66.12,62.97,59.72,56.48,53.81,55.30,58.83,61.44,62.31,61.74,60.81,59.85,58.93,58.08,57.23,56.36,55.68,55.42,56.07,56.41,56.63,56.96,57.71,58.34,59.24,60.67,62.72,64.52,65.52,65.72,65.03,63.15,59.74,56.19,52.60,48.86,43.40,40.04,37.90,36.35,34.68,34.15,34.63,35.73,36.77,37.67,38.59,39.52,40.49,41.78,44.16,46.65,48.80,50.35,50.98,51.40,51.81,52.46,55.29,59.21,63.55,67.43,68.26,66.41,63.70,60.82,58.30,56.49,55.42,55.08,55.38,55.91,55.65,53.82,50.59,47.30,44.75,42.85,41.23,39.41,37.95,36.55,35.35,34.39,33.62,32.88,32.12,31.23,30.02,28.49,27.22,26.13,25.08,23.78,22.30,19.67,15.61,10.45,7.81,5.99,4.92,4.74,4.61,4.50,4.39,4.28,4.16,4.05,3.93,3.81,3.71,3.58,3.47,3.35,3.23,3.12,3.00,2.89,2.78,2.65,2.54,2.43,2.31
30.70,31.27,32.03,32.74,33.42,34.12,35.06,36.30,37.78,39.31,40.57,41.56,42.36,42.93,43.21,42.79,42.22,41.59,40.99,40.73,41.52,42.95,44.73,46.52,48.31,50.54,52.98,55.48,57.97,60.48,62.66,64.58,66.60,68.33,69.75,70.90,71.76,71.43,71.14,70.93,70.78,70.61,70.39,70.14,69.75,69.02,67.67,65.43,63.01,61.19,62.01,65.61,69.82,73.92,77.54,80.36,82.80,85.15,87.57,89.39,90.22,89.82,88.00,84.39,80.86,78.07,75.80,73.58,71.30,68.34,68.12,72.14,76.58,80.84,85.21,89.48,93.03,95.10,95.24,93.87,91.49,88.19,84.76,80.91,76.42,70.95,68.73,67.10,66.06,66.12,67.61,69.18,71.84,76.09,80.82,86.34,90.26,91.68,90.13,86.92,83.41,80.27,78.20,79.06,80.76,82.67,84.15,83.96,83.47,81.92,79.04,74.66,69.74,65.22,62.14,61.21,62.65,64.13,65.93,68.11,70.61,72.82,74.16,74.92,75.47,75.23,74.31,72.92,71.33,70.17,68.74,67.60,66.51,64.89,62.58,59.77,56.47,53.09,52.73,56.13,59.32,60.97,60.80,60.00,59.12,58.22,57.35,56.53,55.68,54.88,54.31,54.63,54.66,54.68,54.88,55.48,55.49,55.75,56.81,58.95,61.29,62.51,62.85,62.36,60.95,58.12,54.99,51.66,48.11,43.05,39.92,37.87,36.32,34.64,33.42,33.38,34.25,35.20,35.80,36.50,37.32,38.27,39.66,41.83,44.05,45.94,47.15,47.63,47.97,48.49,49.56,52.94,56.98,61.08,64.55,65.47,63.47,60.58,57.51,54.73,52.13,50.52,50.08,50.81,52.17,52.60,51.40,48.72,45.83,42.98,40.77,38.85,36.67,34.91,33.38,32.09,31.02,30.09,29.16,28.17,26.98,25.30,23.94,22.98,22.20,21.40,20.22,18.85,16.05,11.98,8.56,6.64,5.43,4.81,4.67,4.52,4.42,4.33,4.23,4.10,4.01,3.89,3.76,3.68,3.53,3.42,3.32,3.17,3.09,2.95,2.84,2.75,2.59,2.51,2.38,2.25
28.48,29.68,30.58,31.33,31.97,32.59,33.59,34.79,36.36,38.10,39.60,40.56,41.11,41.35,41.35,40.83,40.28,39.70,39.24,39.47,40.57,42.00,43.59,45.24,46.89,48.64,50.61,52.81,54.95,57.04,58.75,60.16,61.64,63.39,64.63,65.49,66.13,66.49,66.43,66.46,66.70,66.87,66.68,66.41,65.90,64.92,62.53,60.22,58.24,57.17,59.41,63.21,67.50,71.70,75.13,77.36,79.54,81.76,84.02,86.13,87.91,87.88,85.78,82.62,79.88,77.46,75.24,73.06,70.89,67.57,67.22,71.57,75.51,79.48,83.55,87.56,91.11,92.95,93.13,91.96,89.77,86.52,83.25,79.48,75.06,70.18,68.16,66.53,65.40,65.41,67.15,68.76,71.25,75.15,79.54,84.03,87.59,89.27,87.52,84.11,80.56,77.40,75.08,75.00,75.70,76.94,78.46,79.70,79.73,78.40,75.66,71.53,66.86,62.38,59.13,57.86,59.06,60.53,62.46,64.80,67.35,69.29,70.39,70.87,70.97,70.14,68.11,65.87,63.98,62.82,62.38,62.67,63.12,62.83,61.85,59.56,56.32,52.69,50.31,52.64,56.39,59.57,59.75,59.16,58.38,57.50,56.59,55.81,54.98,54.14,53.37,52.94,52.83,52.80,52.90,53.25,52.86,52.23,52.33,53.97,57.69,59.39,59.93,59.58,58.32,56.32,53.76,50.69,47.13,43.10,40.13,37.93,36.27,34.64,32.95,32.24,32.49,33.28,33.64,34.37,35.33,36.44,38.03,39.88,41.75,43.40,44.36,45.05,45.44,46.06,47.52,51.25,55.42,59.33,62.35,63.08,60.91,57.74,54.38,51.60,48.91,47.07,46.57,47.64,49.30,49.98,49.10,46.76,43.97,41.18,38.47,35.89,33.47,31.56,30.17,28.85,27.39,26.06,24.90,23.70,22.28,20.45,19.56,18.76,17.99,17.20,16.17,14.44,11.97,9.13,7.20,5.64,4.89,4.69,4.61,4.45,4.35,4.25,4.11,4.02,3.95,3.83,3.69,3.61,3.46,3.36,3.25,3.11,3.03,2.89,2.77,2.68,2.53,2.44,2.32,2.19
25.82,26.97,28.18,29.29,30.24,31.05,31.97,33.33,34.91,36.53,37.95,39.09,39.65,39.76,39.62,39.20,38.69,38.09,37.52,37.33,38.10,39.88,42.00,43.59,45.25,46.88,48.52,50.17,51.76,53.60,55.15,56.45,57.84,59.12,60.00,60.63,61.16,61.66,61.91,62.22,62.64,63.04,63.09,62.79,62.01,60.61,57.73,55.58,54.46,54.78,57.87,61.81,65.95,69.82,72.72,74.97,77.20,79.40,81.51,83.50,85.36,85.83,84.54,81.86,79.41,77.09,74.87,72.66,70.33,66.67,66.13,70.56,74.38,78.06,81.84,85.59,88.94,90.96,91.24,90.11,88.02,85.19,81.98,78.10,73.69,69.65,67.71,66.09,64.87,64.50,66.31,68.06,70.54,74.20,78.53,82.51,85.65,87.05,84.98,81.63,77.91,74.49,72.04,71.31,71.53,72.22,73.12,74.09,74.18,73.34,71.53,68.76,64.59,60.32,56.74,54.60,55.34,56.91,59.39,62.35,64.69,66.08,66.42,65.78,64.32,62.82,60.87,59.05,57.66,56.83,56.48,56.82,57.70,58.78,59.30,58.34,56.03,52.72,49.89,50.59,53.28,56.49,57.64,57.57,57.29,56.76,55.88,55.06,54.22,53.39,52.60,51.89,51.59,51.39,51.26,51.24,50.86,50.31,50.17,50.99,53.44,55.58,56.63,56.42,55.27,53.70,51.68,49.17,46.18,42.86,40.11,37.91,36.13,34.38,32.58,31.48,31.14,31.33,31.56,32.37,33.55,34.91,36.49,38.12,39.58,40.77,41.62,42.32,42.84,43.82,46.08,49.94,54.18,58.01,60.69,60.47,57.90,54.55,50.93,47.32,44.46,43.29,43.51,44.69,46.02,46.86,46.30,44.25,41.47,38.76,35.96,33.24,30.82,29.05,27.58,26.21,24.81,23.29,21.87,20.40,18.84,17.15,16.14,15.19,14.23,13.26,12.34,11.02,9.36,7.52,5.94,5.13,4.75,4.62,4.54,4.39,4.29,4.18,4.04,3.96,3.85,3.73,3.63,3.55,3.40,3.30,3.19,3.04,2.96,2.86,2.74,2.63,2.51,2.39,2.28,2.16
22.08,24.09,25.53,26.92,28.17,29.24,30.23,31.80,33.38,34.83,36.13,37.43,38.09,38.22,37.97,37.66,37.16,36.54,35.85,35.19,35.44,37.30,39.84,41.81,43.54,45.12,46.52,47.73,48.88,50.32,51.65,52.92,54.37,55.16,55.73,56.19,56.64,57.17,57.62,58.10,58.61,59.13,59.33,58.99,58.01,56.28,53.37,51.58,51.31,52.83,56.56,60.60,64.55,68.04,70.51,72.84,75.15,77.36,79.36,81.21,83.01,83.92,83.46,81.15,78.82,76.54,74.30,72.08,69.52,65.67,64.97,69.28,73.06,76.48,80.00,83.51,86.53,88.74,89.22,88.24,86.23,83.83,80.66,76.67,72.31,69.10,67.28,65.70,64.36,63.50,65.36,67.28,69.78,73.19,77.55,81.27,83.98,84.92,82.62,79.14,75.26,71.76,69.40,68.20,67.94,68.05,68.30,68.80,68.95,68.63,67.72,66.11,62.47,58.40,54.56,51.72,51.82,53.36,56.19,59.60,61.93,62.89,62.43,60.67,57.92,55.86,54.23,53.03,52.22,51.73,51.36,51.50,52.42,54.42,56.42,56.96,55.78,52.96,50.02,49.09,50.46,53.32,55.27,55.64,55.87,55.80,55.15,54.31,53.47,52.65,51.86,51.01,50.53,50.16,49.84,49.54,49.23,48.87,48.68,48.88,49.97,52.12,53.36,53.23,52.21,51.01,49.50,47.59,45.23,42.44,39.93,37.76,35.90,34.03,32.17,30.84,30.07,29.72,29.87,30.67,31.90,33.36,34.88,36.28,37.37,38.16,38.95,39.67,40.39,41.87,44.96,48.81,52.94,56.68,59.14,57.78,54.73,51.13,47.25,43.08,40.20,39.69,40.56,41.80,42.86,43.78,43.47,41.70,38.97,36.33,33.57,30.87,28.53,26.87,25.27,23.81,22.46,20.80,19.17,17.50,15.84,14.27,13.06,11.98,10.94,9.88,9.06,8.17,7.24,6.23,5.01,4.80,4.68,4.55,4.46,4.32,4.22,4.11,3.97,3.90,3.75,3.64,3.56,3.47,3.33,3.23,3.13,2.98,2.90,2.81,2.70,2.57,2.49,2.35,2.24,2.14
15.75,21.34,22.68,24.01,25.36,26.76,28.24,30.05,31.64,32.97,34.22,35.47,36.41,36.80,36.50,36.19,35.65,35.00,34.29,33.48,33.09,34.04,36.38,39.90,41.72,43.30,44.65,45.81,46.91,47.46,48.28,49.52,51.16,51.68,52.15,52.59,53.00,53.47,53.84,54.22,54.63,55.05,55.02,54.68,53.78,52.02,50.04,49.01,49.31,51.22,55.29,59.43,63.16,66.31,68.79,71.11,73.43,75.63,77.63,79.48,81.33,82.45,82.32,80.06,77.69,75.36,73.11,70.99,68.08,64.46,63.74,67.49,71.28,74.53,77.88,81.15,83.62,85.80,86.77,86.28,84.33,82.23,79.09,75.10,70.90,68.38,66.86,65.38,63.87,62.42,64.27,66.44,68.98,72.06,76.51,80.37,82.69,82.95,80.70,76.44,72.51,69.52,67.79,66.44,65.40,64.80,64.70,65.05,65.48,65.62,65.11,63.55,60.41,56.45,52.64,49.82,48.88,50.03,52.49,55.65,58.57,59.62,58.48,56.01,53.25,50.99,49.68,48.97,48.61,48.32,48.06,48.01,48.56,50.21,53.56,55.62,55.69,53.53,50.60,48.31,48.49,50.78,52.77,53.20,53.75,54.27,54.39,53.54,52.74,51.93,51.09,50.24,49.68,49.21,48.83,48.58,48.28,47.91,47.76,48.02,48.87,49.90,50.39,50.15,49.38,48.52,47.50,46.14,44.21,41.67,39.41,37.36,35.44,33.53,31.66,30.33,29.52,29.02,29.22,29.70,30.50,31.63,33.05,34.16,34.97,35.62,36.45,37.27,38.42,40.59,44.44,47.94,51.55,55.09,57.61,54.97,51.40,47.29,43.12,39.55,37.02,36.69,37.64,38.94,40.19,41.04,40.81,39.31,36.78,34.16,31.58,29.13,26.93,25.12,23.41,21.79,20.21,18.39,16.74,15.08,13.39,11.71,10.41,9.43,8.62,7.84,7.12,6.33,5.67,5.19,4.85,4.69,4.58,4.48,4.34,4.24,4.12,4.00,3.91,3.83,3.69,3.58,3.48,3.34,3.25,3.17,3.06,2.91,2.84,2.71,2.59,2.50,2.43,2.28,2.17,2.07
9.97,14.34,15.72,19.57,22.87,24.37,26.06,28.08,29.98,31.60,32.80,34.00,34.97,35.37,35.03,34.72,34.14,33.44,32.65,31.80,31.14,31.34,32.71,35.47,38.23,40.84,42.79,43.93,44.98,45.07,45.06,45.43,46.67,47.60,48.33,48.89,49.31,49.77,50.12,50.50,50.91,51.16,51.08,50.92,50.39,49.10,47.65,47.11,47.88,50.18,54.18,58.12,61.58,64.50,66.97,69.36,71.70,73.91,75.91,77.76,79.61,80.82,80.83,78.73,76.43,74.11,71.73,69.18,65.89,62.69,62.00,64.85,68.71,72.13,75.52,78.78,81.49,83.55,84.72,84.58,82.87,80.82,77.65,73.75,69.76,67.40,65.82,64.38,62.99,61.65,63.19,65.45,68.08,70.98,75.25,79.17,81.27,80.98,78.01,73.58,70.15,67.72,66.05,64.59,63.30,62.30,61.67,61.53,62.17,62.63,62.46,61.27,57.92,54.11,50.74,48.43,47.06,47.98,50.15,52.96,55.67,56.75,55.52,52.92,50.12,47.70,46.49,45.91,45.63,45.51,45.29,45.35,46.10,48.07,51.24,53.51,54.34,53.43,50.95,48.43,47.56,48.54,50.51,51.33,52.12,52.80,53.18,52.68,51.95,51.14,50.35,49.64,49.04,48.51,48.04,47.63,47.28,46.94,46.84,47.17,47.77,48.02,47.98,47.62,46.93,46.16,45.36,44.30,42.75,40.70,38.81,36.92,34.99,33.06,31.17,29.88,29.12,28.54,28.65,28.98,29.54,30.31,31.25,32.01,32.68,33.51,35.20,36.57,38.16,40.86,45.51,48.73,51.68,54.24,55.71,52.90,48.79,44.03,39.29,35.55,33.71,33.72,34.74,36.02,37.26,38.16,38.17,37.11,35.06,32.68,30.31,28.02,25.83,23.80,21.78,19.87,18.10,16.25,14.47,12.74,11.10,9.65,8.40,7.44,6.73,6.18,5.77,5.35,4.99,4.75,4.67,4.59,4.49,4.37,4.25,4.14,4.02,3.92,3.84,3.73,3.61,3.51,3.42,3.26,3.18,3.08,2.97,2.85,2.77,2.64,2.52,2.43,2.32,2.20,2.11,2.01
4.85,6.42,7.85,14.31,19.61,21.27,23.68,25.97,28.29,30.37,31.63,32.77,33.64,33.94,33.56,33.25,32.63,31.86,31.02,30.20,29.41,28.99,29.25,30.51,34.10,37.84,40.59,41.95,43.05,42.89,42.06,41.34,41.97,43.39,44.43,45.12,45.60,46.06,46.42,46.88,47.37,47.48,47.45,47.54,47.44,46.76,45.61,45.47,46.67,49.33,53.05,56.68,59.88,62.64,65.11,67.58,69.97,72.18,74.18,76.03,77.88,79.13,79.26,77.31,75.12,72.86,70.32,67.17,63.55,60.85,60.14,61.97,65.74,69.39,72.89,76.24,79.45,81.53,82.82,82.93,81.54,79.37,76.17,72.44,68.76,66.37,64.54,63.08,61.93,61.00,62.01,64.19,66.92,69.86,73.84,77.74,79.70,78.98,75.12,70.84,68.04,66.11,64.27,62.71,61.36,60.09,58.91,58.22,59.00,59.69,59.80,59.01,55.32,51.74,48.95,47.24,45.69,46.42,48.38,50.90,53.14,54.15,52.99,50.46,47.61,45.05,43.84,43.26,42.94,42.94,42.76,43.05,44.22,46.70,49.26,51.32,52.71,53.15,51.25,49.02,47.25,46.64,48.32,49.59,50.58,51.29,51.76,51.70,51.09,50.32,49.61,49.06,48.46,47.90,47.34,46.73,46.33,45.97,45.89,46.22,46.52,46.21,45.78,45.32,44.63,43.86,43.15,42.32,41.14,39.64,38.12,36.44,34.55,32.62,30.71,29.49,28.81,28.17,28.12,28.37,28.77,29.22,29.61,30.05,30.65,31.83,34.75,36.77,38.85,42.03,47.29,50.17,52.36,53.70,53.81,51.31,46.67,41.24,35.89,31.69,30.53,30.83,31.88,33.07,34.20,35.19,35.50,34.93,33.45,31.40,29.27,27.10,24.88,22.65,20.26,18.02,16.06,14.20,12.31,10.54,9.00,7.82,6.67,5.74,5.11,4.85,4.79,4.78,4.70,4.57,4.49,4.48,4.39,4.27,4.18,4.03,3.93,3.85,3.76,3.62,3.53,3.45,3.35,3.20,3.12,2.99,2.86,2.79,2.70,2.57,2.45,2.36,2.21,2.12,2.04,1.94
2.20,3.48,4.66,7.90,10.97,13.61,20.46,23.58,26.18,28.71,30.71,31.74,32.35,32.48,32.09,31.73,31.06,30.31,29.59,28.90,28.04,27.50,27.58,28.55,30.27,33.14,36.34,39.24,41.03,40.89,39.94,38.99,39.18,39.97,40.66,41.26,41.83,42.29,42.77,43.47,44.28,44.59,44.80,45.04,45.06,44.53,43.43,43.76,45.42,48.19,51.47,54.90,58.00,60.72,63.19,65.67,68.15,70.46,72.45,74.25,76.05,77.49,77.96,75.92,73.85,71.80,69.31,65.77,62.19,59.82,58.94,59.71,62.30,65.70,69.19,72.61,76.12,79.23,80.84,81.01,79.91,77.20,74.06,70.91,68.00,65.60,63.42,61.78,60.74,60.30,60.27,61.59,64.38,68.42,72.10,75.63,77.42,76.74,72.88,69.25,66.51,64.38,62.54,60.88,59.29,57.71,56.30,55.66,56.31,57.00,57.15,56.27,53.06,50.18,47.78,45.90,44.35,44.68,46.63,49.49,51.67,52.18,50.63,47.90,45.05,42.39,41.20,40.68,40.45,40.45,40.40,40.89,42.26,44.85,48.04,50.57,52.45,53.49,51.78,50.11,48.03,46.06,45.96,47.15,48.40,49.44,50.10,50.14,49.85,49.39,48.84,48.30,47.74,47.22,46.72,46.15,45.65,45.13,44.78,44.69,44.40,43.97,43.49,42.96,42.33,41.56,40.94,40.37,39.68,38.47,37.18,35.74,34.10,32.17,30.48,29.36,28.64,27.86,27.56,27.69,28.05,28.46,28.84,29.25,29.94,31.63,36.08,38.24,41.01,44.78,49.43,51.43,52.63,53.18,52.96,50.75,45.70,39.89,34.31,29.91,28.41,28.43,29.22,30.12,31.05,32.11,32.62,32.34,31.36,29.67,27.76,25.74,23.67,21.49,18.82,16.25,14.08,12.17,10.48,8.95,7.56,6.23,5.12,4.33,4.11,4.54,4.63,4.61,4.53,4.44,4.36,4.35,4.30,4.19,4.05,3.95,3.83,3.72,3.64,3.54,3.46,3.35,3.23,3.13,3.05,2.93,2.80,2.72,2.58,2.48,2.39,2.30,2.14,2.06,1.95,1.82
e,e,e,e,5.84,8.42,14.39,17.30,21.26,25.80,28.40,30.04,30.72,30.78,30.54,30.13,29.59,28.97,28.30,27.59,26.69,26.04,25.98,26.80,27.73,29.77,32.49,35.45,37.87,38.20,37.68,36.99,36.93,37.40,37.90,38.43,38.98,39.35,39.70,40.38,41.31,41.84,42.24,42.57,42.65,42.30,41.42,41.88,43.76,46.84,49.82,53.05,56.08,58.80,61.24,63.74,66.39,68.96,71.24,72.99,74.74,76.16,76.67,74.76,72.86,70.87,68.38,64.84,61.40,59.20,58.03,57.89,59.77,62.33,65.39,68.87,72.70,76.11,78.18,78.82,78.02,75.40,72.38,69.44,66.76,64.19,61.97,60.44,59.56,59.19,58.98,59.95,62.67,67.11,70.89,74.13,75.81,75.28,71.70,68.33,65.32,62.77,60.73,58.89,57.09,55.33,53.78,53.08,53.62,54.33,54.60,53.82,51.19,48.82,46.66,44.69,43.00,42.74,44.23,46.92,49.17,49.49,47.91,45.25,42.45,40.29,39.16,38.64,38.45,38.48,38.48,39.14,40.70,43.33,46.93,49.84,52.03,53.33,52.30,50.96,48.87,46.39,44.80,45.13,46.13,47.31,48.19,48.23,48.33,48.21,47.80,47.43,46.92,46.40,45.90,45.36,44.85,44.28,43.76,43.34,42.75,42.21,41.65,41.07,40.53,39.94,39.48,39.03,38.44,37.39,36.20,34.91,33.49,31.67,30.18,29.13,28.35,27.50,26.99,27.04,27.40,27.85,28.38,28.91,29.91,32.10,37.06,39.86,42.99,46.56,50.25,51.28,51.81,52.05,51.91,50.36,45.65,39.48,33.26,28.90,26.98,26.39,26.67,27.39,28.15,29.07,29.64,29.65,28.99,27.69,26.07,24.22,22.23,19.70,17.02,14.43,12.12,10.36,8.85,7.47,6.25,5.28,4.53,3.87,3.67,4.20,4.44,4.45,4.39,4.31,4.23,4.20,4.16,4.09,3.96,3.88,3.75,3.63,3.55,3.44,3.39,3.28,3.14,3.07,2.96,2.84,2.74,2.65,2.50,2.40,2.31,2.20,2.08,1.97,1.85,1.74
e,e,e,e,e,5.05,6.28,8.24,14.30,21.91,24.99,27.82,28.80,28.89,28.94,28.47,28.20,27.78,27.12,26.27,25.35,24.61,24.43,25.20,26.13,27.39,28.95,30.89,33.90,35.02,35.33,35.24,35.09,35.45,35.88,36.35,36.79,37.03,37.07,37.52,38.42,39.19,39.76,40.11,40.23,40.07,39.53,39.89,41.83,45.35,48.13,51.16,54.13,56.87,59.27,61.81,64.67,67.62,70.40,72.11,73.81,75.06,75.39,73.77,72.08,70.06,67.51,64.27,61.03,58.88,57.34,56.38,57.92,59.21,61.55,65.07,69.24,72.40,75.04,76.44,75.95,73.87,71.01,68.03,65.17,62.32,60.28,59.08,58.41,57.79,58.02,59.02,61.57,65.87,70.05,73.07,74.67,74.37,71.28,67.90,64.40,61.25,58.87,56.78,54.81,52.95,51.33,50.49,50.93,51.67,52.12,51.58,49.59,47.58,45.58,43.58,41.65,40.66,41.36,43.51,45.89,46.27,44.93,42.52,39.82,38.59,37.59,36.98,36.79,36.87,36.88,37.69,39.43,42.06,45.90,49.13,51.48,52.80,52.80,51.62,49.75,47.38,44.53,43.44,43.82,44.97,46.08,46.08,46.60,46.84,46.57,46.50,46.02,45.48,44.94,44.40,43.94,43.42,42.82,42.12,41.43,40.80,40.14,39.51,39.12,38.81,38.55,38.14,37.35,36.35,35.18,33.97,32.75,31.13,29.84,28.82,27.97,27.12,26.42,26.40,26.80,27.37,28.14,28.91,30.38,33.06,37.73,41.49,44.70,47.49,49.95,49.95,50.06,50.32,50.57,50.00,46.23,39.75,32.61,28.44,26.06,24.61,24.21,24.82,25.43,26.05,26.59,26.87,26.41,25.53,24.24,22.57,20.61,17.44,14.94,12.58,10.18,8.72,7.38,6.07,5.04,4.81,4.65,4.09,3.66,3.82,4.21,4.30,4.26,4.18,4.11,4.03,4.00,3.97,3.90,3.82,3.69,3.57,3.48,3.32,3.30,3.22,3.08,3.00,2.85,2.75,2.67,2.59,2.44,2.34,2.23,2.09,2.01,1.86,1.76,1.68
