e,e,e,e,e,e,e,e,e,e,e,e,e,e,e,e,e,e,e,e,e,e,e,e,e,e,e,e,e,e,e,e,e,e,e,e,e,e,e,e,e,e,e,e,e,e,e,e,e,e,e,e,e,e,5.44,10.60,17.43,21.29,23.42,24.97,25.54,25.06,24.16,23.10,22.02,21.03,19.98,18.99,18.18,17.01,15.47,13.46,11.10,9.10,8.18,7.94,8.37,9.55,10.36,11.33,12.22,12.78,12.72,12.37,11.67,10.72,9.77,10.23,11.90,14.36,17.06,19.82,22.34,24.71,27.02,29.59,34.19,38.49,41.77,43.65,45.16,46.44,47.56,48.61,50.23,52.64,55.62,58.80,61.25,63.05,64.60,65.66,65.84,64.42,62.95,61.38,59.57,56.92,54.75,53.60,53.32,53.38,54.17,55.53,57.01,58.12,58.20,58.14,57.81,57.22,56.52,57.11,58.76,60.94,62.89,64.43,66.00,67.95,70.44,73.00,74.67,75.86,76.67,77.10,77.52,77.66,77.67,77.73,77.78,77.78,77.98,78.67,80.48,81.60,82.73,84.18,86.22,87.87,88.63,89.03,89.60,91.11,94.30,97.80,100.81,102.41,103.19,102.73,101.23,98.96,96.11,93.31,90.78,88.77,87.93,87.64,88.03,88.99,90.32,93.76,97.01,100.25,103.88,109.72,115.43,122.00,129.24,135.96,144.66,151.01,155.82,160.15,160.42,158.14,154.88,151.57,148.81,145.99,143.05,139.91,136.46,132.04,127.14,123.50,122.47,125.15,129.37,134.34,139.08,141.73,142.69,143.21,143.65,144.36,146.65,149.09,151.82,154.95,158.58,160.49,161.19,159.70,154.33,150.54,151.85,156.30,161.72,164.53,166.67,167.79,167.20,163.41,159.27,156.16,154.06,152.80,154.37,154.17,152.82,151.18,151.80,154.72,158.43,162.68,167.56,171.48,174.70,176.92,178.08,179.60,181.96,184.11,185.73,186.94,188.98,191.39
e,e,e,e,e,e,e,e,e,e,e,e,e,e,e,e,e,e,e,e,e,e,e,e,e,e,e,e,e,e,e,e,e,e,e,e,e,e,e,e,e,e,e,e,e,e,e,e,e,e,e,e,e,e,5.52,12.16,19.46,23.42,25.55,27.10,27.28,26.40,25.26,24.12,23.04,22.10,21.53,21.16,20.75,20.33,19.45,17.78,15.27,12.53,10.40,9.60,9.92,10.72,11.56,12.91,14.19,14.90,15.05,14.88,14.19,13.01,11.72,11.69,13.02,15.27,17.83,20.53,23.23,25.69,27.98,31.05,36.02,40.12,42.94,44.86,46.85,48.23,49.28,50.37,52.44,54.94,57.73,60.46,62.27,64.05,65.41,66.17,66.17,65.29,63.93,62.29,60.40,57.69,56.80,56.43,56.17,55.88,56.47,58.29,59.96,60.29,60.37,60.27,59.89,59.34,59.09,60.08,62.01,64.29,66.14,67.54,68.89,70.70,73.34,77.13,79.30,80.73,81.60,81.84,82.57,82.92,82.97,82.84,82.99,82.29,81.56,81.28,81.95,82.86,83.27,83.63,84.68,85.65,86.20,86.77,87.80,90.30,94.15,97.82,100.64,102.04,101.74,100.94,99.14,95.88,92.73,89.97,87.73,86.07,85.07,84.55,85.85,88.44,91.15,98.13,102.33,105.27,108.19,112.00,115.81,121.54,128.86,135.58,143.36,149.16,154.18,159.58,158.56,155.14,151.42,148.29,145.44,142.65,140.07,137.37,133.97,130.23,125.24,121.09,119.55,122.32,126.60,131.37,135.84,138.83,139.50,139.82,140.26,141.18,143.87,147.22,150.77,154.29,157.77,160.35,162.14,162.21,159.01,155.31,156.64,160.26,163.79,166.79,169.52,170.73,169.85,166.50,162.13,159.09,157.10,155.63,157.69,158.14,157.47,156.01,153.91,155.39,158.64,163.25,169.07,172.91,176.47,179.40,181.44,182.77,184.66,186.56,188.15,189.02,191.20,193.93
e,e,e,e,e,e,e,e,e,e,e,e,e,e,e,e,e,e,e,e,e,e,e,e,e,e,e,e,e,e,e,e,e,e,e,e,e,e,e,e,e,e,e,e,e,e,e,e,e,e,e,e,e,e,7.18,13.76,20.76,25.04,27.52,28.99,28.72,27.71,26.50,25.30,24.13,23.27,22.79,22.53,22.29,22.09,21.60,20.62,19.02,16.80,14.30,12.52,11.69,11.77,13.00,14.51,15.97,17.09,17.43,17.39,16.79,15.72,14.64,13.98,14.90,16.92,19.19,21.76,24.29,26.69,29.12,32.58,37.03,40.84,43.79,46.24,48.44,50.08,51.40,52.71,54.94,57.30,59.48,61.24,62.22,63.16,63.87,64.28,64.31,63.51,62.44,61.31,60.13,58.26,57.93,57.94,57.98,58.00,58.41,59.35,60.29,60.73,61.14,61.47,61.85,62.21,62.11,62.30,62.73,63.34,64.08,65.65,67.48,70.00,73.49,77.82,80.67,83.04,85.01,86.27,87.11,87.41,87.09,86.21,85.61,84.45,83.16,82.11,81.88,81.98,81.95,81.99,82.48,83.18,84.45,86.07,87.94,90.39,93.76,97.08,99.64,100.42,99.15,97.01,94.40,91.71,89.39,87.08,84.92,83.14,82.46,84.32,86.85,89.88,93.54,100.48,105.00,108.80,112.98,116.36,118.82,123.50,130.30,136.78,143.01,148.37,153.41,158.37,155.51,151.85,148.21,144.98,142.17,139.76,137.48,135.08,132.20,128.04,123.26,119.37,117.78,120.80,125.13,129.45,133.25,136.26,137.21,137.47,137.71,138.59,141.15,144.38,148.08,152.02,155.55,158.93,161.97,163.64,162.37,160.04,161.12,163.98,167.13,169.76,172.27,173.17,172.10,169.34,165.65,162.47,160.05,158.56,160.55,161.63,161.61,160.53,158.95,157.96,159.61,163.92,170.17,174.20,177.87,181.15,183.95,185.59,187.56,189.69,191.68,192.91,194.96,197.69
e,e,e,e,e,e,e,e,e,e,e,e,e,e,e,e,e,e,e,e,e,e,e,e,e,e,e,e,e,e,e,e,e,e,e,e,e,e,e,e,e,e,e,e,e,e,e,e,e,e,e,e,e,3.56,8.55,15.47,21.98,26.48,29.23,30.51,29.91,28.80,27.57,26.34,25.17,24.53,24.17,23.96,23.81,23.83,23.62,23.14,22.26,20.44,17.86,15.54,13.85,13.13,14.37,15.94,17.56,18.98,19.54,19.64,19.16,18.22,17.33,16.30,16.89,18.68,20.89,23.40,25.81,28.15,30.62,34.10,38.04,41.56,44.59,47.39,49.69,51.49,52.94,54.26,56.27,58.45,60.12,61.07,61.46,61.81,62.09,62.26,62.28,61.53,60.68,59.88,59.15,58.02,57.75,57.83,58.06,58.29,58.60,59.17,59.84,60.45,60.93,61.42,62.07,62.72,62.64,62.31,61.83,61.46,61.49,62.95,64.72,67.60,71.92,77.04,80.67,83.83,86.68,89.00,89.93,90.16,89.55,88.03,86.79,85.32,83.72,82.18,81.22,80.72,80.40,80.29,80.44,81.21,83.18,85.70,88.27,90.74,93.66,96.22,97.90,98.01,95.89,92.78,89.67,87.44,85.66,83.80,81.89,80.40,80.93,84.53,88.02,91.47,95.72,102.20,107.33,112.20,117.32,120.45,122.37,126.41,132.58,138.53,143.62,148.49,153.04,156.78,152.91,149.01,145.32,142.02,139.32,137.14,135.04,132.77,130.01,125.44,121.02,117.74,116.54,119.73,123.87,127.78,131.14,134.08,135.05,135.12,135.18,136.13,138.58,141.53,145.23,149.58,153.66,157.64,161.45,164.38,165.26,164.34,165.47,167.89,170.81,173.33,175.43,175.98,174.80,172.38,169.36,166.24,163.48,161.65,163.40,164.86,165.44,164.92,163.83,161.21,161.42,164.94,171.02,175.27,179.20,182.90,186.31,188.36,190.63,193.08,195.43,197.00,198.85,201.71
e,e,e,e,e,e,e,e,e,e,e,e,e,e,e,e,e,e,e,e,e,e,e,e,e,e,e,e,e,e,e,e,e,e,e,e,e,e,e,e,e,e,e,e,e,e,e,e,e,e,e,e,e,3.21,9.31,17.36,23.12,27.67,30.55,31.45,30.71,29.57,28.34,27.14,26.11,25.94,25.76,25.56,25.41,25.68,25.57,25.27,24.70,22.98,20.75,18.57,16.62,15.01,15.60,17.09,18.88,20.41,21.21,21.48,21.15,20.35,19.56,18.63,18.98,20.57,23.06,25.67,28.07,30.37,32.71,35.60,39.11,42.37,45.30,48.15,50.36,52.16,53.51,54.45,55.68,57.65,59.00,59.43,59.62,59.87,60.11,60.25,60.18,59.47,58.71,57.90,57.10,56.47,55.54,55.21,55.44,55.67,55.98,57.10,58.38,59.15,59.29,59.43,59.47,59.36,59.09,58.78,58.56,58.47,58.55,59.36,60.18,62.72,67.80,74.21,78.75,82.41,85.65,89.01,89.99,90.19,89.40,87.49,85.86,84.30,82.74,81.20,79.75,79.06,78.68,78.56,78.72,80.08,82.64,85.71,88.74,91.40,94.03,95.24,95.04,94.41,91.65,88.28,85.19,83.10,81.32,79.83,78.48,77.98,81.13,85.21,89.19,93.13,97.38,103.08,109.35,115.51,120.88,123.91,126.54,130.65,136.05,141.02,145.68,149.99,153.26,154.63,151.15,146.94,142.94,139.63,137.12,134.92,132.81,130.38,127.08,122.21,118.39,116.17,116.03,119.27,122.87,126.44,129.75,132.49,132.99,132.66,132.59,133.83,136.23,138.76,142.25,146.99,152.45,156.66,160.49,164.12,167.51,167.94,169.63,172.11,174.93,177.80,179.29,179.43,178.24,175.77,173.34,170.61,167.72,165.02,166.27,167.72,168.79,169.10,168.21,165.41,164.53,166.50,171.49,176.01,180.47,184.71,188.53,191.07,193.95,196.84,199.44,201.25,202.81,206.02
e,e,e,e,e,e,e,e,e,e,e,e,e,e,e,e,e,e,e,e,e,e,e,e,e,e,e,e,e,e,e,e,e,e,e,e,e,e,e,e,e,e,e,e,e,e,e,e,e,e,e,e,e,3.49,10.37,19.16,24.05,28.17,31.08,32.36,31.63,30.30,29.05,28.07,27.31,27.28,27.27,27.23,27.17,27.56,27.67,27.56,27.08,25.42,23.23,20.93,18.74,16.97,16.50,17.72,19.62,21.28,22.58,23.03,22.77,22.03,21.46,20.93,21.15,22.45,25.08,27.79,30.21,32.49,34.78,37.32,40.37,43.32,46.09,48.87,50.71,52.20,53.27,53.86,54.26,56.04,57.29,57.54,57.58,57.79,57.95,57.98,57.81,57.15,56.41,55.61,54.80,54.21,53.42,52.92,52.82,53.05,53.86,55.27,56.58,57.19,57.26,57.31,57.22,56.97,56.66,56.43,56.34,56.37,56.50,57.19,57.89,59.63,63.38,71.15,76.22,80.21,83.66,86.85,88.70,89.00,88.07,86.34,84.52,82.88,81.20,79.39,77.49,76.97,76.70,76.70,77.26,79.65,82.57,85.71,88.81,91.39,92.59,92.61,91.73,90.39,87.03,83.57,80.62,78.56,76.94,75.74,76.23,78.82,82.97,87.00,90.90,94.76,98.73,104.52,110.85,117.11,122.66,125.96,129.79,134.38,139.27,143.26,147.40,150.72,152.79,153.19,149.91,145.37,140.94,137.39,135.08,132.86,130.26,127.15,123.47,119.26,115.71,114.31,115.90,119.27,122.65,125.94,128.89,130.95,131.31,130.60,130.27,131.80,134.35,136.91,140.64,145.93,151.88,156.06,159.87,163.72,167.82,170.04,172.54,175.41,178.59,181.36,182.71,182.69,181.37,178.90,176.27,173.50,170.64,167.93,169.09,171.04,172.66,173.32,172.87,170.16,168.59,169.33,173.11,177.65,182.43,186.91,190.68,193.55,196.66,199.77,202.60,204.58,206.50,210.15
e,e,e,e,e,e,e,e,e,e,e,e,e,e,e,e,e,e,e,e,e,e,e,e,e,e,e,e,e,e,e,e,e,e,e,e,e,e,e,e,e,e,e,e,e,e,e,e,e,e,e,e,e,4.45,11.80,20.70,24.84,28.50,31.42,33.18,32.63,31.22,29.97,29.16,28.64,28.71,28.90,29.07,29.19,29.71,29.98,29.96,29.46,27.80,25.56,23.09,20.70,18.79,17.48,18.33,20.17,21.96,23.72,24.50,24.43,23.81,23.44,23.29,23.38,24.39,27.05,29.79,32.23,34.53,36.79,39.09,41.74,44.38,46.96,49.53,50.92,52.07,52.85,53.12,52.86,54.35,55.46,55.62,55.50,55.69,55.74,55.63,55.38,54.78,54.05,53.22,52.34,51.65,51.03,50.49,50.19,50.51,51.88,53.44,54.66,55.08,55.14,55.17,55.06,54.80,54.51,54.36,54.35,54.46,54.66,55.36,56.20,57.36,59.65,67.35,73.29,78.04,81.76,84.52,87.07,87.42,86.37,84.90,83.06,81.27,79.37,77.29,75.03,74.68,74.58,74.91,76.23,79.47,82.54,85.54,88.49,90.82,90.56,89.59,88.25,86.25,82.39,78.89,76.07,74.09,72.77,72.51,75.14,80.52,85.19,89.13,92.88,96.61,100.42,106.21,112.24,118.23,123.79,127.55,132.62,137.63,141.98,145.16,148.76,151.10,152.12,151.86,148.50,143.70,138.99,135.21,132.75,130.31,127.24,123.60,119.72,116.13,113.04,112.55,115.68,119.37,122.61,125.63,128.14,129.33,129.47,128.53,128.13,129.97,132.64,135.41,139.42,145.00,151.21,155.28,159.13,163.17,167.48,171.20,174.45,177.79,181.52,184.58,185.97,185.93,184.59,182.11,179.06,176.08,173.26,170.77,172.12,174.58,176.64,177.55,177.53,175.09,173.05,172.68,175.16,179.63,184.58,189.16,192.76,195.88,199.28,202.67,205.72,207.88,210.23,214.18
e,e,e,e,e,e,e,e,e,e,e,e,e,e,e,e,e,e,e,e,e,e,e,e,e,e,e,e,e,e,e,e,e,e,e,e,e,e,e,e,e,e,e,e,e,e,e,e,e,e,e,e,e,7.06,14.15,21.57,25.38,28.82,31.71,33.74,33.79,32.73,31.55,30.65,30.23,30.49,30.90,31.37,31.88,32.65,32.84,32.59,31.86,30.06,27.71,25.17,22.60,20.15,18.92,19.19,20.52,22.43,24.44,25.93,26.47,26.19,25.86,25.80,25.75,26.50,28.96,31.55,33.99,36.34,38.63,40.89,43.27,45.70,48.04,50.06,50.96,51.88,52.49,52.47,52.12,52.97,53.65,53.74,53.47,53.60,53.52,53.26,52.96,52.40,51.69,50.75,49.62,48.63,47.76,47.37,47.54,48.20,49.95,51.53,52.59,52.97,52.98,53.04,52.93,52.64,52.39,52.34,52.37,52.53,52.87,53.57,54.80,56.34,58.20,61.46,69.56,76.46,80.84,83.20,85.41,85.50,84.36,83.01,81.51,79.35,77.06,74.85,72.55,72.06,72.25,73.45,76.29,79.53,82.32,84.87,87.27,89.00,88.03,86.45,84.60,82.01,77.97,74.42,71.69,69.97,69.24,71.95,76.78,82.59,87.41,91.54,95.34,99.15,103.35,108.27,113.65,119.05,124.14,128.74,134.80,139.79,143.33,146.26,149.24,150.94,151.31,150.36,146.20,141.39,136.91,133.10,129.46,126.18,122.97,119.64,116.01,112.28,110.41,111.23,114.94,119.46,122.55,125.27,127.39,127.50,126.86,126.12,126.35,128.56,131.14,134.40,138.44,143.42,149.79,153.71,157.81,162.26,166.52,170.53,174.18,178.06,182.59,187.37,189.02,189.21,188.28,185.75,182.11,178.77,175.90,173.67,175.81,178.44,180.60,181.80,182.03,180.22,178.06,176.74,177.69,181.97,186.85,191.30,194.69,197.90,202.07,206.02,209.30,211.75,214.31,218.09
e,e,e,e,e,e,e,e,e,e,e,e,e,e,e,e,e,e,e,e,e,e,e,e,e,e,e,e,e,e,e,e,e,e,e,e,e,e,e,e,e,e,e,e,e,e,e,e,e,e,e,e,e,9.40,16.40,22.47,26.06,29.26,31.98,34.09,35.16,34.63,33.74,33.00,32.61,33.05,33.67,34.36,35.08,35.72,35.76,35.24,34.13,32.14,29.66,27.13,24.60,21.98,20.51,20.40,21.46,23.41,25.46,27.20,28.17,28.40,28.39,28.33,28.17,28.63,30.56,32.91,35.31,37.72,40.11,42.48,44.78,47.09,49.19,50.64,51.30,51.90,52.14,51.79,51.40,51.62,51.86,51.84,51.36,51.24,51.00,50.66,50.31,49.57,48.41,47.05,45.67,44.65,44.16,44.29,44.99,46.10,47.64,49.04,49.98,50.25,50.29,50.38,50.24,49.85,49.55,49.55,49.65,49.97,50.70,52.07,53.72,55.46,57.22,59.18,67.63,74.91,79.42,81.90,83.81,83.82,82.72,81.36,79.26,76.61,74.00,71.70,69.76,69.50,70.50,72.66,75.92,79.13,81.67,83.88,85.82,86.53,85.24,83.51,81.38,77.99,73.87,70.51,68.13,66.85,68.03,72.70,78.63,84.57,89.54,93.89,97.84,101.72,105.94,110.74,115.95,120.97,125.48,130.08,136.16,140.72,143.55,146.27,148.73,149.81,149.38,147.46,143.53,138.93,134.35,130.00,125.54,122.00,118.89,115.90,112.65,108.74,108.20,110.69,115.44,119.79,122.64,124.80,126.05,125.17,124.13,123.82,124.66,126.88,129.12,132.39,136.50,141.41,147.39,151.23,155.60,160.46,164.91,169.31,173.22,177.15,181.67,188.48,191.13,192.01,191.78,190.11,187.00,183.11,179.32,176.68,179.04,181.79,184.22,185.87,186.32,185.04,183.07,181.31,181.00,184.78,189.14,193.36,197.00,200.71,205.52,209.83,213.21,215.89,219.14,223.35
e,e,e,e,e,e,e,e,e,e,e,e,e,e,e,e,e,e,e,e,e,e,e,e,e,e,e,e,e,e,e,e,e,e,e,e,e,e,e,e,e,e,e,e,e,e,e,e,e,e,e,e,5.18,11.65,18.56,23.39,26.82,29.83,32.37,34.44,36.59,36.66,36.19,35.72,35.36,35.98,36.77,37.62,38.46,38.83,38.66,37.85,36.33,34.16,31.52,29.01,26.59,24.00,22.20,21.83,22.73,24.62,26.63,28.41,29.72,30.53,30.96,30.88,30.68,30.91,32.21,34.21,36.51,38.95,41.42,43.95,46.25,48.46,50.31,51.24,51.74,51.96,51.77,51.10,50.63,50.17,49.88,49.68,49.03,48.64,48.27,47.89,47.48,46.46,44.75,42.90,41.33,40.39,40.47,41.19,42.38,43.88,44.95,46.08,46.86,47.01,47.10,47.24,47.08,46.61,46.24,46.25,46.43,47.02,48.38,50.84,52.98,54.89,56.69,58.68,66.61,73.44,77.80,80.60,82.24,82.22,81.16,79.64,76.60,73.44,70.52,68.14,66.77,67.07,69.09,72.17,75.30,78.46,80.81,82.73,84.27,83.87,82.44,80.68,78.28,74.16,70.00,66.91,65.05,64.60,68.05,74.05,80.54,86.50,91.63,96.21,100.35,104.30,108.41,113.41,118.56,123.23,127.17,131.42,137.03,140.99,143.24,145.74,147.63,148.09,146.93,144.14,140.77,136.45,131.61,126.54,121.50,117.92,114.92,112.15,109.24,105.45,106.30,110.49,116.37,120.22,122.80,124.24,124.39,122.70,121.41,121.62,123.04,125.13,127.02,130.08,134.22,139.25,144.62,148.51,153.15,158.33,163.04,167.81,171.92,175.70,179.89,188.41,192.38,194.33,195.08,194.70,192.66,188.30,183.35,180.04,182.09,184.89,187.67,189.85,190.54,189.75,188.09,186.16,184.81,187.89,191.58,195.55,199.60,203.95,209.19,213.74,217.26,220.29,224.35,229.12
e,e,e,e,e,e,e,e,e,e,e,e,e,e,e,e,e,e,e,e,e,e,e,e,e,e,e,e,e,e,e,e,e,e,e,e,e,e,e,e,e,e,e,e,e,e,e,e,e,e,e,e,7.37,13.97,20.40,24.24,27.65,30.96,33.71,35.64,37.64,38.31,38.43,38.32,38.15,38.88,39.71,40.56,41.39,41.61,41.16,40.08,38.43,36.27,33.51,30.73,28.13,25.84,24.10,23.71,24.42,25.90,27.85,29.78,31.41,32.65,33.48,33.61,33.79,34.27,35.26,36.57,38.29,40.39,42.81,45.19,47.59,49.54,50.95,51.88,51.90,51.63,51.17,50.53,49.32,47.69,46.34,45.54,45.29,45.11,44.91,44.59,44.03,42.91,41.35,39.75,38.38,37.34,37.11,37.75,38.95,40.00,40.87,41.47,41.82,41.97,42.11,42.30,42.33,42.16,41.94,41.84,42.11,43.35,46.29,50.68,53.78,56.06,57.80,58.95,66.29,72.47,76.30,79.25,80.57,80.34,78.86,76.49,73.26,69.87,66.56,63.89,63.42,65.30,68.26,71.56,74.34,77.51,79.81,81.52,82.66,82.16,80.55,77.97,74.61,70.88,66.79,63.59,62.77,65.46,69.41,75.44,82.04,88.33,93.71,98.49,102.83,106.96,111.22,116.08,120.41,124.32,128.00,132.25,137.05,140.59,142.84,145.00,145.53,145.44,144.54,142.52,138.71,134.31,129.27,123.77,118.58,114.64,111.02,107.56,104.20,102.84,105.20,110.11,116.17,120.51,122.94,123.43,122.36,120.78,119.31,119.83,121.67,123.87,126.05,129.00,132.83,137.47,142.43,147.08,151.96,156.92,161.57,166.14,170.40,174.40,178.51,185.25,190.46,194.63,197.61,198.61,197.68,194.03,189.32,185.64,185.37,187.90,191.11,193.71,195.05,194.64,193.24,191.38,189.74,191.75,195.03,198.95,203.07,207.61,212.27,216.82,221.26,225.72,229.86,234.04
e,e,e,e,e,e,e,e,e,e,e,e,e,e,e,e,e,e,e,e,e,e,e,e,e,e,e,e,e,e,e,e,e,e,e,e,e,e,e,e,e,e,e,e,e,e,e,e,e,e,e,e,9.99,16.00,21.68,25.08,28.48,31.95,34.92,37.03,38.96,40.05,40.69,41.03,41.08,41.82,42.63,43.44,44.22,44.32,43.68,42.43,40.65,38.30,35.45,32.53,29.76,27.41,25.90,25.56,26.06,27.13,29.04,31.11,33.04,34.64,35.69,36.23,36.90,37.83,39.05,40.09,41.37,42.93,44.77,46.87,48.94,50.51,51.54,52.14,51.68,51.03,50.09,48.73,46.81,44.45,42.63,41.72,41.67,41.59,41.49,41.21,40.62,39.57,38.32,36.99,35.68,34.57,34.01,34.23,35.01,35.83,36.64,36.99,37.11,37.22,37.54,37.86,38.19,38.49,38.58,38.65,39.30,41.18,44.97,50.47,54.62,57.69,59.90,61.38,66.96,71.83,75.14,77.72,78.39,77.66,75.82,73.16,69.97,66.50,63.24,60.87,61.04,64.12,67.75,71.13,73.59,76.54,78.40,79.57,80.09,78.57,76.47,73.76,70.58,67.25,63.56,61.19,61.74,66.32,70.84,76.92,83.59,90.15,95.69,100.57,105.04,109.25,113.33,117.38,120.91,124.32,127.94,132.05,136.31,139.71,142.02,143.41,143.28,142.99,142.16,140.28,136.24,131.91,126.88,121.23,116.00,111.37,107.08,103.27,100.17,100.74,104.12,109.64,116.30,120.61,122.43,122.28,120.77,118.98,117.42,118.21,120.42,122.75,125.25,128.12,131.83,136.52,141.72,146.97,151.87,156.38,160.61,164.97,169.21,173.25,177.28,182.82,188.96,194.68,199.36,202.21,202.09,198.59,193.75,190.09,188.69,190.96,194.38,197.48,199.70,199.64,197.99,195.61,193.78,195.42,198.64,202.66,206.82,210.89,215.35,220.14,225.18,230.33,234.59,238.56
e,e,e,e,e,e,e,e,e,e,e,e,e,e,e,e,e,e,e,e,e,e,e,e,e,e,e,e,e,e,e,e,e,e,e,e,e,e,e,e,e,e,e,e,e,e,e,e,e,e,e,e,12.95,17.80,22.51,25.91,29.31,32.81,36.00,38.56,40.49,41.86,42.97,43.82,44.13,44.79,45.54,46.28,46.96,46.96,46.22,44.88,42.97,40.27,37.37,34.39,31.46,28.76,27.63,27.38,27.68,28.34,30.20,32.42,34.61,36.51,37.66,38.75,40.01,41.56,43.46,44.54,45.52,46.35,47.20,48.91,50.29,51.40,52.09,52.10,51.14,50.19,48.61,45.93,43.32,40.58,38.78,38.15,38.15,38.08,38.00,37.78,37.24,36.38,35.58,34.54,33.18,32.02,31.13,30.63,30.66,31.43,32.28,32.62,32.67,32.71,33.32,33.82,34.54,35.45,35.98,36.45,37.73,40.24,44.27,50.21,55.48,59.70,62.81,65.57,68.46,71.47,74.24,76.03,75.77,74.34,72.17,69.66,66.72,63.31,60.45,58.84,59.45,63.41,67.49,70.85,73.02,75.57,76.65,77.00,76.75,73.46,70.59,68.34,66.27,63.33,60.31,59.52,61.73,67.19,72.35,78.47,85.17,91.96,97.59,102.48,107.05,111.23,114.86,117.59,120.31,123.42,127.15,131.01,134.94,138.44,140.87,141.12,140.92,140.69,139.79,137.53,133.44,129.29,124.43,118.87,113.69,108.13,103.12,99.22,96.97,99.06,103.04,109.12,116.70,120.57,121.38,120.86,119.52,117.29,115.69,116.73,119.25,121.74,124.59,127.39,131.16,136.25,142.19,147.93,152.68,156.56,160.04,164.21,168.27,172.23,176.19,180.99,187.81,194.55,200.48,205.54,206.01,202.18,196.93,193.59,192.05,194.06,197.51,201.15,204.46,204.73,202.41,199.03,197.10,198.93,202.38,206.61,210.81,213.84,218.45,223.66,229.03,234.28,238.69,242.77
e,e,e,e,e,e,e,e,e,e,e,e,e,e,e,e,e,e,e,e,e,e,e,e,e,e,6.45,8.07,9.04,9.16,8.06,e,e,e,e,e,e,e,e,e,e,e,e,e,e,e,e,e,e,e,9.76,12.25,16.14,20.08,23.69,26.75,30.14,33.68,37.18,40.42,42.55,44.20,45.51,46.53,47.22,47.92,48.51,49.00,49.39,49.39,48.90,47.83,46.02,42.93,39.35,36.13,33.35,30.79,29.48,29.17,29.58,30.48,32.09,34.11,36.21,38.32,40.55,42.97,44.92,46.45,47.73,48.28,48.75,49.13,49.52,50.44,51.37,51.92,51.94,51.31,50.03,48.34,46.15,43.46,40.25,36.99,34.99,34.48,34.63,34.70,34.65,34.43,33.98,33.13,32.33,31.38,30.25,29.53,28.61,28.11,28.17,28.79,29.49,29.75,29.82,29.98,30.36,30.92,31.86,33.17,34.53,35.88,37.49,40.02,44.20,50.34,55.82,60.11,63.10,65.83,68.55,71.12,73.17,73.92,73.13,71.61,69.51,66.98,64.29,61.46,59.03,57.59,58.40,61.58,65.95,70.12,72.37,73.66,73.74,73.22,72.25,69.02,66.61,64.63,62.74,60.29,59.05,59.72,63.05,69.33,74.36,80.52,87.20,93.84,99.34,103.66,107.42,110.52,112.69,113.60,115.60,118.98,123.67,128.07,132.21,135.95,138.50,138.05,137.12,136.13,134.72,132.52,129.64,126.23,122.01,117.00,111.72,105.41,100.38,96.97,94.97,98.24,102.75,108.79,115.95,119.81,120.25,118.97,116.81,114.62,114.15,115.80,118.78,122.13,125.57,129.06,133.29,138.51,144.41,150.02,154.90,159.16,163.17,167.34,170.97,174.12,177.04,181.05,187.97,195.45,202.47,208.30,209.11,206.51,202.03,197.50,196.39,198.80,202.88,207.32,210.69,211.38,209.14,205.34,202.58,204.16,207.14,210.61,213.88,216.80,221.24,226.45,232.09,237.88,242.69,246.98
e,e,e,e,e,e,e,e,e,e,e,e,e,e,e,e,e,e,e,e,e,e,e,e,7.08,9.51,11.77,13.50,14.39,13.96,12.22,9.07,5.32,2.32,e,e,e,e,e,e,e,e,e,4.37,4.72,5.58,7.71,9.07,10.44,12.19,14.33,16.05,19.02,22.03,24.90,27.72,31.26,34.92,38.64,42.27,44.66,46.54,47.96,49.00,49.88,50.57,51.07,51.41,51.66,51.64,51.32,50.51,48.98,46.15,42.14,38.40,35.28,32.83,31.45,30.99,31.41,32.62,34.17,36.03,38.26,40.93,44.18,46.79,48.63,49.83,50.55,50.79,51.01,51.16,51.29,51.76,52.08,52.01,51.42,50.23,48.53,46.31,43.66,40.61,36.45,33.08,31.24,30.90,31.13,31.26,31.12,30.79,30.37,29.52,28.70,27.87,27.09,26.81,26.06,25.69,25.83,26.39,27.01,27.27,27.42,27.68,28.16,28.96,30.19,31.98,34.54,36.36,38.18,40.76,44.96,50.85,56.31,60.57,63.40,66.06,68.57,70.59,71.80,71.79,70.59,69.02,66.99,64.42,61.56,59.31,57.42,56.27,57.47,60.01,64.23,68.58,70.77,71.12,70.13,68.58,66.94,64.60,62.85,61.31,59.76,57.97,58.20,60.18,64.49,71.31,76.32,82.70,89.26,95.31,100.39,103.87,106.22,107.59,108.16,108.19,110.19,114.23,119.99,125.41,129.98,133.79,136.10,135.09,133.16,131.23,129.42,127.78,125.87,123.09,119.46,115.01,109.74,103.24,98.05,94.65,93.04,97.57,102.49,108.06,114.09,117.70,117.90,116.26,113.81,111.91,112.79,115.11,118.42,122.27,126.34,130.53,135.19,140.44,146.06,151.67,156.82,161.50,165.82,170.26,173.96,176.86,179.21,183.03,189.93,197.39,204.39,210.40,211.85,210.51,207.07,202.43,201.21,203.82,208.19,212.85,216.27,217.36,215.70,212.20,208.71,209.48,211.80,214.77,217.72,220.89,224.98,229.83,235.37,241.49,246.58,251.07
e,e,e,e,e,e,e,e,e,e,e,e,e,e,e,e,e,e,e,e,e,e,e,e,14.16,16.29,18.29,19.37,19.14,17.67,15.62,11.71,6.91,3.23,e,e,e,e,e,e,e,e,e,10.70,11.79,12.87,14.28,15.40,16.66,18.03,19.37,20.19,21.47,23.52,26.15,28.87,32.80,36.68,40.47,44.09,46.82,48.90,50.29,51.15,51.93,52.57,53.05,53.41,53.70,53.63,53.37,52.79,51.77,50.13,46.04,41.40,37.27,34.87,33.59,32.86,33.16,34.74,36.49,38.28,40.95,44.63,48.82,49.99,50.64,51.09,51.38,51.62,51.94,52.18,52.32,52.78,52.31,51.52,50.41,48.78,46.49,44.08,41.13,37.24,31.65,28.71,27.51,27.45,27.68,27.72,27.33,26.75,26.29,25.44,24.54,23.89,23.64,23.80,23.46,23.37,23.67,24.28,24.90,25.29,25.58,25.94,27.01,28.28,29.91,32.30,36.53,38.26,40.11,42.82,46.87,51.87,57.00,61.12,63.77,66.33,68.54,69.78,70.05,69.64,68.19,66.60,64.63,62.01,58.41,56.71,55.53,54.86,56.69,58.82,62.30,65.94,67.83,67.74,65.57,62.77,60.53,60.16,59.37,58.47,57.54,56.64,57.90,60.98,66.07,73.04,78.20,85.07,91.34,96.20,100.48,102.79,102.89,101.65,100.44,100.91,103.90,109.14,116.10,123.19,128.46,132.10,133.72,132.31,129.02,125.91,123.86,123.47,122.15,119.85,116.76,112.86,107.74,101.82,96.24,92.20,91.18,97.08,102.26,106.77,110.71,113.73,113.86,112.44,110.44,109.19,111.66,114.75,118.21,122.04,126.81,131.69,136.73,141.88,146.91,152.70,158.31,163.41,167.74,172.81,177.28,180.71,183.17,187.63,194.38,200.74,206.18,211.60,214.14,214.06,211.98,208.79,206.68,209.20,213.37,217.45,220.92,222.36,221.98,219.77,215.68,214.90,216.31,219.13,222.64,226.55,230.04,234.03,238.95,245.13,250.31,254.99
e,e,e,e,e,e,e,e,e,e,e,e,e,e,e,e,e,e,e,e,e,12.37,15.06,17.30,19.70,21.32,22.79,23.52,23.13,21.34,19.26,14.58,8.71,4.67,e,e,e,e,e,5.82,8.52,11.26,14.07,15.87,17.61,19.12,20.14,21.18,21.74,22.29,23.03,23.60,24.14,25.53,27.80,30.67,34.58,38.46,42.35,46.16,48.94,50.74,52.02,53.00,53.81,54.45,54.97,55.39,55.69,55.61,55.42,54.88,53.85,52.26,49.46,45.14,40.36,37.21,35.79,34.73,34.75,36.30,37.99,40.78,44.30,47.93,50.23,51.04,51.59,51.98,52.21,52.45,52.58,52.55,52.38,52.26,51.55,50.37,48.75,46.67,44.29,41.34,37.49,32.67,28.43,25.79,24.48,24.14,23.95,23.59,23.12,22.65,22.31,21.80,21.29,20.94,20.83,20.98,21.00,21.17,21.56,22.17,22.83,23.87,25.00,25.99,27.57,29.29,32.32,36.45,39.58,41.57,43.66,46.31,49.87,54.10,58.26,61.68,64.14,66.65,68.00,68.41,68.07,67.27,65.88,64.22,61.95,58.76,54.88,53.61,53.46,54.00,55.93,57.92,60.28,62.45,63.58,63.01,61.50,59.65,58.06,57.94,57.21,56.58,56.42,57.12,58.66,62.60,68.39,75.18,80.95,87.17,92.43,96.29,99.33,99.84,98.70,96.85,95.55,96.62,99.90,105.23,112.35,120.48,125.80,129.51,131.34,129.83,124.80,120.87,118.66,118.23,117.50,116.03,113.67,110.29,105.70,100.18,94.52,90.30,89.71,95.52,100.62,104.70,107.66,109.72,109.84,108.78,107.42,107.39,110.30,113.96,117.87,121.75,126.91,132.10,137.28,142.35,146.87,152.30,158.06,163.57,168.02,174.67,179.85,183.79,187.20,193.65,199.37,204.53,209.38,214.41,217.32,217.89,216.45,213.59,211.43,213.10,216.62,220.76,224.70,226.43,226.72,225.51,222.56,221.25,221.91,224.53,228.76,232.23,235.66,239.67,244.32,249.16,253.69,258.63
e,e,e,e,e,e,e,e,e,e,e,e,e,e,e,e,e,e,6.78,10.90,15.05,18.52,21.00,22.83,24.45,25.77,26.84,27.33,26.92,24.90,22.74,17.84,11.55,6.89,6.20,6.34,6.20,5.39,7.27,10.19,13.63,17.07,19.65,21.66,23.74,25.37,26.01,26.79,26.69,26.52,26.65,26.90,26.94,27.73,29.56,32.54,36.35,40.35,44.40,48.27,50.86,52.41,53.64,54.76,55.66,56.31,56.89,57.35,57.65,57.61,57.49,56.95,55.84,54.18,52.44,48.80,43.96,39.95,37.98,36.53,36.30,37.71,39.62,43.43,47.40,50.43,51.08,51.74,52.33,52.73,52.82,52.94,52.81,52.49,52.04,51.42,50.43,48.90,46.87,44.50,41.83,38.14,33.55,28.50,25.53,23.12,21.68,21.13,20.64,20.05,19.59,19.27,19.04,18.85,18.66,18.52,18.45,18.55,18.89,19.32,19.83,20.49,21.57,23.43,25.40,26.98,29.25,31.82,35.89,40.82,42.87,45.11,47.42,50.02,53.14,56.63,59.74,62.42,64.65,66.70,67.09,66.77,66.02,64.99,63.66,61.62,58.74,55.04,51.56,50.96,51.76,53.23,55.08,56.98,58.38,59.25,59.63,58.81,58.05,57.21,56.33,56.06,55.51,55.37,56.05,58.00,60.07,64.67,70.90,77.52,83.65,89.03,93.20,95.96,97.27,96.16,94.04,91.87,90.77,92.98,96.61,101.83,108.72,117.37,122.96,126.87,128.81,127.14,121.13,116.70,114.04,112.73,112.35,111.67,110.11,107.37,103.35,98.20,92.53,88.24,88.04,93.59,98.51,102.23,104.48,105.65,105.73,105.05,104.41,105.59,108.89,113.04,117.44,121.62,126.81,132.17,137.48,142.49,146.55,151.50,157.31,163.18,167.78,175.51,181.32,185.94,190.46,198.41,203.53,208.04,212.68,217.43,220.57,221.73,220.88,218.24,216.25,217.10,220.01,224.24,228.41,230.47,231.56,231.59,230.03,228.48,228.28,230.36,234.97,238.46,242.03,246.03,250.24,253.71,257.60,262.75
e,e,e,e,e,e,e,e,e,e,e,e,e,e,e,e,e,e,11.43,15.93,19.73,22.27,24.38,26.23,27.91,29.53,30.64,31.06,30.51,28.20,25.70,21.95,16.90,10.81,10.58,10.57,10.33,9.99,12.51,16.00,19.80,23.59,27.05,29.50,31.16,32.04,32.17,32.16,31.82,31.31,30.75,30.26,29.99,30.22,31.45,34.34,37.99,42.48,46.89,50.38,52.33,53.87,55.22,56.46,57.50,58.21,58.80,59.27,59.57,59.68,59.60,59.04,57.91,56.40,54.51,51.91,48.35,43.55,40.07,38.16,37.83,39.01,41.90,46.31,49.60,51.16,51.90,52.48,53.04,53.28,52.88,52.60,52.18,51.66,51.08,50.46,48.84,46.87,44.72,42.45,38.84,34.03,29.32,25.81,22.74,20.46,19.20,18.80,18.52,18.20,17.92,17.67,17.44,17.40,17.19,16.97,16.86,17.00,17.61,18.30,19.03,19.84,22.30,25.16,27.71,29.55,33.01,37.37,41.23,44.11,46.30,48.60,51.02,53.67,56.65,59.34,61.56,63.61,65.49,66.05,65.46,64.67,63.89,63.00,61.59,58.41,54.35,50.50,48.89,49.64,51.06,52.48,54.03,55.80,56.82,57.11,56.95,56.53,55.95,55.33,54.75,54.09,54.36,55.41,57.09,59.08,62.64,67.55,73.53,80.18,85.87,90.42,93.56,94.92,93.51,91.47,88.63,85.99,85.09,89.66,94.13,99.17,105.34,113.44,120.14,124.48,125.90,123.78,118.80,114.53,110.72,106.97,106.34,106.20,105.54,103.75,100.28,95.45,89.83,85.54,85.74,91.19,95.84,99.12,100.79,101.46,101.42,101.12,101.28,103.35,107.45,112.01,116.86,121.90,126.36,131.75,137.25,142.24,145.90,150.28,156.03,162.20,166.94,174.09,180.40,186.12,191.78,199.43,205.40,210.69,215.65,220.25,223.61,225.48,225.42,223.17,221.53,222.03,224.59,228.69,232.32,234.81,237.36,239.28,239.00,237.48,236.11,236.83,240.87,246.04,250.02,253.55,256.77,259.40,262.95,268.20
e,e,e,e,e,e,e,e,e,e,e,e,e,e,2.10,2.93,5.93,10.01,14.65,19.26,22.76,25.18,27.31,29.27,31.14,32.95,34.20,34.80,34.45,32.02,28.87,25.29,21.28,16.71,16.25,16.30,16.47,16.80,19.58,23.00,26.78,30.64,34.06,36.21,37.27,37.56,37.47,36.99,36.60,36.17,35.57,34.52,33.49,33.17,33.97,36.36,39.86,44.49,48.80,51.71,53.56,55.19,56.68,58.05,59.20,60.03,60.67,61.15,61.48,61.57,61.45,60.88,59.79,58.47,56.50,54.16,51.30,47.60,44.02,41.37,40.37,41.50,44.77,48.30,50.67,51.75,52.63,52.94,53.06,52.92,52.38,51.92,51.41,50.74,49.86,48.67,46.73,44.60,42.32,39.69,35.18,30.48,26.26,22.98,20.38,18.45,17.36,17.01,16.81,16.55,16.31,16.10,15.94,15.94,15.72,15.69,16.08,16.77,17.67,18.62,19.74,21.33,24.41,27.79,31.04,33.95,37.59,41.54,44.83,47.32,49.77,52.17,54.70,57.15,59.23,61.28,63.05,64.34,64.97,64.62,63.66,62.71,61.79,60.62,57.95,54.37,50.73,47.91,47.12,48.44,50.21,51.75,53.19,54.54,55.05,54.89,54.54,54.27,53.78,53.29,53.01,53.30,54.46,56.13,58.22,60.69,64.82,70.14,76.18,82.37,87.58,91.22,92.99,92.63,89.62,86.28,83.38,81.59,81.70,86.83,91.81,96.87,102.41,109.94,116.93,121.66,123.30,121.10,117.07,113.24,108.67,102.62,101.35,101.17,100.87,99.66,96.58,91.79,86.17,82.32,83.98,89.00,93.22,96.01,97.06,96.97,97.16,97.85,99.44,102.79,107.42,113.04,118.59,122.93,126.61,131.47,136.84,142.08,145.95,150.50,156.15,162.17,167.17,173.22,179.27,185.37,191.77,199.73,206.21,211.83,216.85,221.45,225.52,228.19,229.17,228.41,227.96,228.76,231.11,234.62,236.85,239.63,242.77,245.29,245.55,244.50,243.45,244.01,247.24,251.74,255.73,259.39,262.80,265.90,270.39,275.63
e,e,e,e,e,e,e,e,e,e,e,e,e,2.92,4.38,5.80,7.91,12.26,17.16,21.74,25.04,27.72,30.03,32.15,34.25,36.19,37.62,38.49,38.45,36.11,32.53,28.87,25.70,23.57,22.80,23.00,23.72,24.75,27.63,30.81,34.38,38.03,40.86,42.16,42.45,42.19,41.88,41.11,40.74,40.49,40.05,38.66,36.99,36.26,36.77,38.57,41.97,46.44,50.38,52.71,54.66,56.42,58.07,59.57,60.83,61.81,62.51,63.01,63.39,63.39,63.19,62.60,61.58,60.40,58.42,56.07,53.63,51.49,48.41,45.27,43.65,44.71,47.82,49.97,51.40,52.35,53.23,53.17,52.76,52.19,51.66,51.11,50.47,49.59,48.32,46.48,44.38,42.16,39.65,36.51,31.41,27.26,23.66,20.26,18.27,16.69,15.76,15.42,15.27,14.98,14.72,14.54,14.47,14.47,14.37,14.71,15.74,17.07,18.26,19.52,21.14,23.69,27.04,30.68,34.58,38.62,42.07,44.95,47.73,50.55,53.31,55.69,58.15,60.24,61.31,62.67,63.99,64.45,63.71,62.77,61.69,60.63,59.48,57.88,53.88,50.29,47.56,45.96,45.70,47.29,49.26,50.98,52.35,53.21,53.23,52.75,52.34,51.99,51.62,51.38,51.55,53.13,55.07,57.07,59.35,62.50,66.86,72.55,78.63,84.13,88.81,91.55,91.91,89.83,85.69,81.37,78.73,78.10,79.40,84.31,89.56,94.79,100.01,107.03,113.82,118.72,120.74,118.70,115.58,112.22,107.13,99.25,96.91,96.37,96.19,95.35,92.56,87.68,82.16,79.00,82.43,86.86,90.52,92.78,93.31,92.56,93.35,95.32,98.47,103.06,108.05,114.76,120.98,124.30,127.34,131.69,136.99,142.63,146.92,151.75,157.14,162.76,168.00,172.88,178.40,184.58,191.49,199.90,206.61,212.24,217.11,221.59,226.39,229.85,231.92,232.84,233.85,235.30,237.63,240.50,241.46,244.42,247.75,250.38,250.99,250.64,250.43,251.20,253.53,256.89,260.88,264.92,268.86,272.77,278.33,283.42
e,e,e,e,e,e,e,e,e,e,e,e,e,4.19,5.97,7.54,9.85,14.20,18.82,23.09,26.74,29.94,32.64,34.99,37.19,39.23,40.80,41.82,42.04,40.54,38.43,35.36,32.43,31.53,31.41,31.88,32.81,34.22,37.19,40.42,43.57,46.16,47.31,46.25,45.30,44.38,43.22,42.45,42.08,41.74,41.21,40.32,39.48,39.22,39.75,41.26,44.90,48.39,51.34,53.55,55.60,57.50,59.29,60.94,62.35,63.48,64.26,64.81,65.24,65.24,64.86,64.18,63.22,61.89,60.14,57.95,55.59,53.59,51.38,49.60,48.80,49.34,50.57,51.74,52.68,53.27,53.37,52.79,52.03,51.31,50.83,50.23,48.97,47.37,45.65,43.85,41.89,39.27,36.06,32.63,28.47,24.57,21.17,18.42,16.58,15.03,14.12,13.83,13.67,13.43,13.19,13.02,13.00,13.00,13.69,14.79,16.13,17.56,18.86,20.72,23.25,26.29,29.56,33.14,37.00,41.04,44.28,47.20,50.46,54.07,57.17,58.79,60.24,61.56,62.58,62.70,62.61,62.18,61.34,60.30,59.03,57.62,56.00,54.00,50.68,47.77,45.28,43.30,44.37,46.15,48.10,49.87,51.09,51.62,51.62,51.24,50.68,49.59,49.70,50.59,51.96,53.79,55.77,57.78,60.26,64.30,68.90,74.50,80.04,84.47,88.46,90.51,89.98,86.82,81.89,79.08,77.08,76.43,78.12,82.44,87.41,93.09,99.49,106.47,112.12,116.02,117.73,116.47,114.19,110.88,105.74,98.29,93.28,91.94,91.70,90.94,88.10,83.12,78.24,76.28,80.95,84.61,87.35,88.96,89.42,89.31,91.78,95.34,99.54,104.33,109.28,115.88,122.19,126.03,129.27,134.41,140.56,146.83,151.42,155.64,160.04,164.78,169.92,174.36,179.47,185.49,192.57,200.87,206.97,211.86,215.94,219.44,223.88,227.94,230.90,232.24,234.28,237.07,240.10,242.98,245.12,248.08,251.22,253.95,255.50,256.23,256.43,256.85,258.31,262.96,267.83,272.29,276.23,279.94,284.58,288.99
e,e,e,e,e,e,e,e,e,e,e,e,3.19,5.48,7.59,9.56,12.12,16.12,20.54,24.94,28.96,32.32,35.19,37.73,40.13,42.27,44.02,45.08,45.22,43.91,42.15,39.93,38.09,38.00,38.41,39.35,40.77,42.59,44.62,46.75,48.64,49.96,50.14,48.35,46.76,45.26,43.58,42.81,42.63,42.56,42.30,41.63,41.19,41.43,42.32,43.69,47.33,50.16,52.44,54.45,56.48,58.50,60.44,62.24,63.80,65.07,65.98,66.61,67.09,67.09,66.61,65.81,64.75,63.30,61.64,59.67,57.49,55.33,53.66,52.50,52.02,52.28,52.54,52.78,52.93,52.91,52.53,51.80,50.82,49.82,49.08,48.03,46.45,44.69,42.90,40.89,38.70,35.84,32.43,28.96,25.41,22.01,19.05,16.71,14.79,13.31,12.48,12.23,12.07,11.85,11.65,11.61,11.85,12.49,13.75,15.23,16.66,18.07,19.55,21.82,24.81,28.00,31.52,35.28,39.17,43.01,46.30,49.27,52.67,56.41,59.25,60.23,60.91,61.44,61.74,60.80,59.69,58.67,57.86,56.93,55.68,54.23,52.53,50.45,47.58,44.87,42.67,41.39,43.12,45.01,46.94,48.70,49.65,49.83,49.69,49.08,47.74,46.46,48.08,50.51,52.40,54.42,56.46,58.63,61.46,65.98,70.68,75.97,80.83,84.26,87.07,87.89,86.46,83.06,79.05,77.03,75.31,74.54,76.01,80.10,84.95,90.59,97.07,104.75,110.32,113.55,114.51,113.67,112.10,108.73,103.47,96.51,90.52,88.03,86.97,85.87,82.66,77.96,74.27,73.59,78.24,81.38,83.63,85.36,86.87,88.39,91.71,95.71,100.05,104.71,109.82,116.34,122.80,127.53,131.70,137.44,143.89,150.22,154.76,158.76,162.71,166.90,171.65,175.94,181.21,187.25,193.87,201.29,206.53,210.72,214.27,217.21,220.96,224.85,228.16,230.23,232.99,236.34,239.65,242.63,245.37,249.32,253.10,256.34,258.91,260.59,261.75,263.04,265.21,270.50,275.39,279.54,283.05,286.47,290.70,294.62
e,e,e,e,e,e,e,e,e,e,0.92,2.06,4.44,6.84,9.27,11.79,14.64,18.06,22.33,27.15,31.55,34.80,37.68,40.40,43.07,45.31,47.24,48.27,48.08,46.54,44.34,43.13,42.96,43.35,44.20,45.74,47.81,50.05,50.44,50.70,50.80,50.73,50.42,49.02,47.21,45.20,43.23,42.47,42.62,43.05,43.28,42.68,42.35,43.10,44.59,45.91,49.38,51.77,53.59,55.39,57.32,59.44,61.53,63.48,65.18,66.60,67.66,68.41,68.93,68.93,68.42,67.49,66.20,64.66,62.98,61.27,59.35,56.80,55.45,54.39,53.86,53.97,53.88,53.25,52.43,51.62,50.98,50.34,49.20,47.83,46.66,44.89,43.22,41.66,40.05,37.66,35.01,32.02,28.76,25.44,22.29,19.54,17.17,15.08,12.93,11.56,10.86,10.64,10.48,10.26,10.13,10.29,10.94,12.64,14.34,15.91,17.30,18.61,20.32,22.85,25.99,29.07,33.05,37.18,41.13,44.70,48.17,51.21,54.51,57.91,60.04,60.45,60.52,60.24,59.36,57.51,55.67,54.31,53.62,52.93,51.86,50.58,49.05,47.12,44.54,41.73,39.87,40.01,41.94,43.87,45.80,47.48,48.08,47.87,47.51,46.48,43.93,42.87,46.69,50.90,52.86,55.02,57.12,59.58,62.81,67.52,72.22,77.07,81.16,83.63,84.92,84.16,81.88,78.82,76.89,75.16,73.46,72.50,73.32,77.40,82.26,87.54,93.32,102.17,108.40,111.18,111.16,110.46,109.47,106.00,100.58,94.14,88.37,84.49,82.10,80.33,76.57,72.43,70.31,70.95,74.72,77.54,79.65,82.02,85.31,89.09,92.68,96.31,100.16,104.49,109.87,116.32,122.96,128.83,134.41,140.61,146.99,152.98,157.24,161.29,165.17,169.07,173.25,177.59,183.40,189.57,195.29,201.28,205.49,209.03,212.21,214.90,217.74,220.94,224.22,227.25,230.49,233.85,237.14,240.28,243.22,248.82,253.81,257.85,261.49,264.01,266.52,269.53,273.49,278.96,283.28,286.66,289.47,292.56,296.67,300.25
e,e,e,e,e,e,e,e,e,e,1.41,5.17,7.52,10.08,12.66,15.15,17.80,20.99,25.16,29.94,33.94,37.16,40.55,43.71,46.19,48.13,49.32,49.80,49.48,47.88,46.36,45.41,45.20,45.84,47.03,48.20,49.37,50.51,50.99,51.11,50.92,50.50,50.04,48.00,45.84,43.69,41.65,41.13,41.41,41.97,42.44,42.58,42.94,44.10,45.83,47.49,49.92,51.96,53.82,55.70,57.58,59.77,62.06,64.31,66.37,68.00,69.16,69.86,70.14,70.09,69.75,68.93,67.59,65.95,64.08,62.18,60.20,58.01,56.42,54.91,53.69,52.89,52.16,51.47,50.51,49.18,47.56,46.11,44.69,43.39,42.33,41.00,39.17,37.12,35.04,32.89,30.75,28.13,25.11,21.99,19.55,17.28,15.15,13.12,11.16,10.14,9.60,9.30,9.14,9.10,9.32,9.97,11.26,13.06,14.82,16.53,18.16,19.72,21.51,23.90,26.76,29.60,33.75,38.04,42.42,46.78,49.85,52.38,55.16,57.88,58.53,57.86,56.99,55.88,54.32,52.36,51.02,50.18,49.69,49.19,48.40,47.23,45.68,43.80,41.64,39.63,38.69,39.56,41.34,43.16,44.82,45.98,45.74,45.40,44.99,43.88,41.19,40.92,46.01,51.03,52.86,55.08,57.19,59.67,62.88,67.34,71.75,75.89,79.30,81.52,81.78,80.85,79.11,76.90,74.91,73.09,71.47,70.36,70.20,74.13,79.39,84.83,89.96,97.27,103.51,106.97,107.70,106.96,105.64,102.30,97.27,91.25,86.47,82.05,78.03,74.50,71.72,69.60,68.97,70.10,73.13,76.96,80.21,83.08,85.84,89.17,92.68,96.29,100.13,104.60,109.36,115.40,122.03,128.35,134.51,141.01,147.36,153.15,157.65,161.82,165.81,169.88,174.46,179.33,185.18,190.77,195.26,199.67,203.14,206.23,209.08,211.48,214.07,217.33,220.90,224.31,227.45,230.67,233.93,237.22,240.66,246.84,252.20,256.51,260.65,264.04,268.18,272.71,277.34,282.37,286.96,291.15,294.89,297.98,300.89,304.07
e,e,e,e,e,e,e,e,e,e,3.30,8.14,10.70,13.43,16.09,18.54,21.02,23.95,27.85,32.36,36.19,39.83,43.66,46.92,48.80,50.19,50.82,50.86,50.32,48.86,47.57,46.58,46.18,46.75,47.95,48.72,49.44,50.34,50.86,50.92,50.41,49.45,48.39,46.21,43.88,41.33,38.48,38.19,39.12,40.41,41.48,41.98,42.81,44.11,45.70,47.17,49.48,51.59,53.60,55.62,57.56,59.81,62.17,64.56,66.94,68.90,70.18,70.83,70.97,70.90,70.61,69.95,68.76,66.91,64.88,62.81,60.71,58.52,56.65,54.83,53.15,51.66,50.17,48.94,47.54,45.80,43.71,41.89,40.32,38.97,37.82,36.78,34.78,32.46,30.23,28.28,26.42,24.20,21.63,18.93,16.94,14.99,13.10,11.29,9.73,8.91,8.40,8.09,8.16,8.44,8.97,10.15,12.40,14.25,16.08,17.89,19.68,21.43,23.23,25.28,27.61,30.18,34.32,38.81,43.63,48.61,51.13,53.33,55.44,57.05,56.56,55.36,53.84,52.05,50.00,48.11,47.10,46.57,46.18,45.79,45.09,43.95,42.45,40.82,39.14,37.79,37.55,38.99,40.71,42.41,43.73,44.38,43.79,43.27,42.66,41.51,39.24,40.07,45.51,50.51,52.19,53.89,55.41,57.89,61.53,66.01,70.23,73.75,76.50,78.45,78.57,77.88,76.62,74.95,72.94,71.01,69.43,68.35,67.83,71.25,76.58,82.22,87.29,93.60,99.19,102.76,104.06,103.49,101.72,98.34,93.73,88.46,84.16,79.16,74.29,70.22,68.18,67.73,68.33,70.15,73.55,78.32,82.32,85.46,87.89,90.85,93.97,97.22,100.70,104.73,108.84,114.51,121.00,127.32,133.72,140.53,147.09,152.97,157.71,161.87,166.00,170.35,175.14,180.11,185.54,190.36,193.87,197.09,200.10,202.91,205.46,207.59,210.01,213.41,217.36,221.26,224.58,228.10,231.63,235.12,238.78,244.75,250.16,254.78,259.25,263.33,268.50,274.07,279.38,284.22,289.11,294.06,298.64,301.67,304.07,307.00
e,e,e,e,e,e,e,e,e,e,6.86,10.96,14.00,16.91,19.58,21.98,24.31,26.97,30.37,34.36,38.29,42.85,47.08,50.00,50.80,51.36,51.63,51.36,50.50,49.39,47.80,46.45,45.68,45.80,46.61,46.95,47.75,49.44,49.91,50.00,49.17,47.42,45.23,43.50,41.24,37.95,33.45,33.35,35.55,38.28,40.38,40.78,41.81,42.94,43.94,44.57,47.87,50.55,52.85,55.06,57.20,59.49,61.77,64.12,66.79,69.23,70.63,71.21,71.36,71.28,70.92,70.44,69.67,67.47,65.31,63.12,60.80,58.21,56.00,54.04,52.17,50.24,47.87,45.52,43.32,41.30,39.35,37.69,36.11,34.59,33.09,32.15,30.00,27.65,25.65,23.86,22.01,20.20,18.36,16.35,14.48,12.67,11.01,9.62,8.70,7.90,7.29,7.04,7.60,8.37,9.19,10.90,14.50,16.36,18.26,20.15,22.00,23.84,25.57,27.04,28.56,30.83,34.72,39.45,44.77,50.15,51.93,54.01,55.26,55.25,54.02,52.96,51.16,48.84,46.56,44.91,44.05,43.56,43.18,42.79,41.97,40.76,39.37,38.24,37.10,36.26,36.48,38.29,40.06,41.62,42.51,42.63,42.30,41.54,40.54,39.41,38.22,40.53,45.22,49.21,50.71,51.22,51.43,53.89,58.48,63.31,67.46,70.46,72.60,74.23,75.28,75.30,74.48,72.97,70.96,68.90,67.35,66.48,66.36,68.85,73.83,79.73,85.46,91.37,95.56,98.53,100.20,100.08,97.69,94.09,89.93,85.77,81.38,75.76,70.93,67.81,66.21,67.02,68.55,71.27,76.34,81.96,86.25,89.40,91.75,94.41,96.81,99.29,101.98,104.88,108.31,113.65,119.86,125.65,131.85,138.98,146.03,152.37,157.36,161.33,165.67,170.42,175.21,179.74,184.22,188.04,190.86,193.34,196.24,198.95,201.26,203.14,205.49,209.12,213.55,218.09,221.89,226.24,230.42,234.15,237.71,242.52,247.60,252.59,257.20,261.72,267.24,273.27,279.26,284.20,289.47,295.11,300.40,303.28,306.02,308.86
e,e,e,e,e,e,e,e,e,7.28,10.75,15.07,19.13,21.99,24.15,26.05,27.84,30.26,33.29,36.86,40.80,45.21,48.86,51.28,52.20,52.31,51.80,51.03,50.10,48.54,46.78,45.20,44.16,44.11,44.43,44.44,44.84,45.92,45.73,45.23,44.31,42.90,40.98,38.60,35.70,32.41,29.09,29.14,30.99,33.51,35.88,37.01,38.32,39.41,40.47,41.93,45.36,48.34,50.93,53.23,55.35,57.81,60.24,62.60,65.08,67.39,69.29,70.64,71.34,71.35,71.08,70.61,69.77,67.53,65.28,63.01,60.62,57.95,55.27,52.88,50.44,47.66,44.80,42.28,40.11,38.22,36.42,34.70,32.93,30.81,28.06,26.21,24.24,22.46,21.02,19.81,18.28,16.78,15.26,13.51,11.91,10.63,9.58,8.64,7.79,6.96,6.49,6.58,7.51,8.52,9.87,12.16,16.05,18.61,20.68,22.56,24.41,26.26,27.88,29.41,31.02,32.91,36.04,40.37,45.48,50.66,52.32,53.38,53.70,53.26,52.08,50.62,48.51,45.98,43.45,41.79,40.96,40.51,40.11,39.68,39.02,38.21,37.27,36.19,35.11,34.94,35.73,37.41,39.05,40.43,41.14,41.12,40.72,39.77,38.61,37.86,38.28,41.01,44.17,46.65,47.80,48.10,48.63,50.51,54.06,59.19,63.42,66.26,68.33,70.33,72.11,72.75,72.32,70.92,68.87,66.75,65.11,64.40,65.12,67.59,71.73,77.22,83.56,88.99,92.59,95.24,96.63,95.45,93.05,89.96,86.43,82.67,77.78,72.64,68.56,66.22,65.95,67.71,70.31,73.96,79.26,84.93,89.51,93.13,95.99,98.61,100.96,103.29,105.66,108.00,110.75,114.61,119.36,124.64,130.16,137.39,144.75,151.28,156.30,160.97,165.69,170.39,174.88,178.28,181.40,184.27,186.88,189.10,191.70,194.30,196.66,198.60,201.65,205.72,210.42,215.27,220.10,224.92,229.41,233.38,236.67,240.55,245.29,250.46,255.27,260.26,265.57,271.17,277.00,282.82,288.35,294.26,299.96,303.09,305.94,308.89
e,e,e,e,e,e,e,e,6.26,10.58,15.21,20.51,24.63,27.10,28.74,30.18,31.60,33.85,36.51,39.66,43.76,47.64,50.48,52.35,53.37,52.84,51.66,50.42,49.24,47.26,45.36,43.65,42.43,42.10,41.95,41.60,41.51,41.82,40.95,39.85,38.73,37.53,35.89,33.23,30.14,27.23,25.21,25.33,26.67,28.73,31.03,32.64,34.15,35.43,36.89,39.27,42.76,45.90,48.69,51.13,53.30,55.83,58.29,60.58,62.85,65.00,67.24,69.27,70.65,71.05,71.04,70.64,69.70,67.45,65.15,62.85,60.44,57.72,54.67,51.83,48.79,45.24,42.01,39.43,37.29,35.45,33.69,31.65,29.40,26.61,22.98,20.46,18.74,17.47,16.46,15.72,14.62,13.48,12.27,10.81,9.60,8.89,8.36,7.72,6.91,6.06,5.73,6.13,7.37,8.61,10.49,13.39,17.61,20.69,22.97,24.92,26.83,28.82,30.50,32.18,33.87,35.43,37.76,41.51,46.12,50.76,52.15,52.38,52.02,51.29,50.06,48.16,45.82,43.21,40.55,38.80,37.92,37.44,37.04,36.56,36.09,35.65,35.13,34.20,33.27,33.67,34.96,36.53,37.99,39.17,39.74,39.63,39.10,38.10,36.94,36.60,38.30,40.92,42.68,43.88,44.72,45.21,46.27,47.81,50.32,54.96,59.03,61.95,64.28,66.68,69.00,70.26,70.17,68.78,66.76,64.64,62.93,62.39,63.94,66.49,69.84,74.84,81.54,86.59,89.93,92.23,93.11,91.23,88.93,86.22,83.03,79.28,74.20,69.77,66.44,64.77,66.17,68.84,72.33,76.69,82.07,87.59,92.34,96.34,99.66,102.41,104.92,107.43,109.92,112.08,114.54,117.50,121.21,125.88,130.74,137.34,144.25,150.67,156.24,161.09,165.74,170.14,174.05,176.43,178.43,180.47,182.80,184.73,186.96,189.40,191.97,194.66,198.37,202.75,207.56,212.58,218.25,223.42,228.15,232.36,235.33,238.54,242.87,248.13,253.61,258.93,263.92,268.96,274.41,280.78,286.54,292.56,298.42,302.09,305.05,308.09
e,e,e,e,e,e,e,e,9.39,14.90,20.78,28.34,30.43,31.90,33.09,34.28,35.80,37.99,40.24,42.96,47.55,50.37,52.22,53.43,54.21,52.55,51.04,49.42,47.55,45.43,43.42,41.76,40.49,39.61,39.02,38.27,37.62,37.17,35.75,34.19,32.61,31.00,29.32,27.43,25.26,23.31,22.14,22.16,23.07,24.57,26.33,27.63,29.19,31.10,33.50,36.58,40.17,43.28,46.10,48.79,51.21,53.59,55.78,57.81,59.93,61.97,64.18,66.46,68.64,70.02,70.64,70.49,69.50,67.20,64.94,62.69,60.30,57.53,54.33,51.09,47.49,43.44,40.01,37.34,35.06,32.99,31.03,28.16,24.87,21.36,17.87,15.45,14.01,12.98,12.07,11.43,10.93,10.29,9.46,8.49,7.87,7.65,7.40,6.77,6.05,5.23,4.97,5.54,7.03,8.52,10.88,14.44,19.34,22.36,24.92,27.15,29.25,31.63,33.79,35.61,37.14,38.50,40.07,43.03,46.73,50.26,50.97,50.96,50.44,49.42,47.75,45.45,43.04,40.56,38.00,36.10,35.00,34.38,33.97,33.44,33.12,32.88,32.63,32.20,31.71,32.49,34.03,35.68,36.90,37.87,38.31,38.12,37.40,36.64,35.78,35.79,37.98,39.61,40.46,40.99,41.62,42.90,44.54,46.34,48.35,50.87,54.22,57.64,60.79,63.43,66.00,67.89,68.05,66.45,64.63,62.62,60.93,60.56,62.85,65.40,68.24,72.74,79.29,84.19,87.74,89.56,89.62,88.14,86.05,83.28,79.75,75.41,70.88,67.36,64.64,63.41,66.98,70.53,74.48,79.10,84.62,89.81,94.45,98.52,102.06,105.21,108.11,111.35,114.75,117.41,120.36,123.94,127.81,131.60,135.97,140.49,145.46,151.20,158.44,162.15,165.76,169.40,172.28,174.06,175.50,177.00,178.79,180.23,181.97,184.16,187.18,191.93,196.09,200.45,205.10,210.03,216.05,221.42,226.37,230.77,233.40,236.35,240.19,245.38,252.48,257.79,262.40,266.86,271.69,277.73,283.69,289.55,295.13,299.89,303.04,306.05
e,e,e,e,e,e,3.87,5.85,11.94,19.42,26.66,31.85,33.54,34.98,36.32,37.72,39.57,41.67,43.78,46.18,49.80,52.08,53.77,54.55,54.02,51.97,49.94,47.87,45.74,43.58,41.39,39.27,37.35,35.83,34.67,33.50,32.49,31.66,29.85,27.95,26.25,24.64,22.53,19.87,17.45,15.74,15.10,15.10,15.88,18.06,21.47,24.02,25.96,28.14,30.75,33.85,37.24,40.45,43.43,46.14,48.54,50.78,52.87,54.84,56.81,58.61,60.93,63.53,65.97,67.71,68.84,69.37,69.09,66.92,64.69,62.54,60.26,57.48,54.07,50.59,46.77,42.51,38.96,36.05,33.47,30.98,28.22,24.75,21.06,17.35,13.84,11.78,10.63,9.88,9.25,8.82,8.49,8.01,7.32,6.43,6.20,6.16,6.08,5.78,5.16,4.35,4.15,4.82,6.37,7.94,10.17,13.67,19.03,22.57,25.77,28.79,31.73,34.65,36.88,38.43,39.47,40.37,41.67,44.07,46.88,49.29,49.49,49.19,48.48,47.38,45.68,43.39,40.78,38.05,35.39,33.39,32.18,31.39,30.77,30.30,30.28,30.23,30.06,29.82,30.33,31.61,33.18,34.59,35.60,36.46,36.83,36.60,35.87,35.14,34.71,35.14,37.08,38.36,38.84,38.88,39.00,40.99,42.81,44.61,46.47,48.48,51.16,54.37,57.62,60.43,63.21,65.71,66.21,64.53,62.76,60.61,59.13,59.12,61.48,64.32,67.23,71.40,77.24,82.11,85.53,87.05,86.80,85.45,83.34,80.18,76.17,71.62,67.33,64.21,62.73,63.48,67.91,72.13,76.49,81.30,86.93,91.52,95.79,99.80,103.59,107.10,110.99,115.12,119.19,122.53,126.58,130.75,134.54,137.57,141.29,144.92,149.02,153.94,160.09,163.00,165.28,167.36,169.20,170.90,172.36,173.77,175.26,176.57,178.08,179.89,182.41,186.61,192.48,197.78,202.74,207.86,213.70,218.63,223.16,227.40,230.70,234.10,237.89,243.09,251.36,256.37,260.90,265.37,270.08,275.62,280.92,286.19,291.36,296.05,299.89,303.23
e,e,e,e,e,2.79,4.82,7.47,14.12,23.40,31.70,33.85,35.69,37.45,39.18,40.94,43.10,45.13,47.12,49.19,51.55,53.50,55.11,55.40,53.45,51.25,48.68,46.16,43.86,41.66,39.24,36.60,33.96,31.75,30.06,28.51,27.16,25.88,23.26,21.05,19.42,18.00,15.69,12.19,9.55,8.02,7.61,7.76,8.60,11.44,16.26,20.17,23.05,25.61,28.19,31.06,34.14,37.44,40.61,43.36,45.70,47.84,49.84,51.70,53.45,55.02,57.46,60.34,63.02,64.94,66.51,67.76,68.38,66.63,64.51,62.48,60.34,57.59,53.98,50.32,46.38,42.07,38.42,35.24,32.29,29.30,25.73,21.80,17.94,14.21,10.67,8.95,7.96,7.37,6.99,6.75,6.45,6.02,5.40,4.52,4.57,4.60,4.63,4.67,4.20,3.45,3.30,4.06,5.61,7.14,8.97,12.07,17.49,21.72,25.73,29.72,33.74,37.41,39.52,40.69,41.29,41.81,43.02,44.90,46.79,48.03,47.88,47.32,46.48,45.33,43.71,41.49,38.65,35.56,32.71,30.61,29.31,28.36,27.50,27.10,27.34,27.49,27.47,27.51,29.05,30.76,32.30,33.41,34.26,35.05,35.38,35.14,34.44,33.69,33.68,34.48,36.01,37.03,37.25,36.87,36.48,38.88,40.88,42.75,44.62,46.62,48.78,51.56,54.66,57.71,60.81,63.72,64.47,62.78,60.94,58.54,57.38,57.87,60.11,63.22,66.37,70.30,75.33,80.19,83.37,84.64,84.22,82.87,80.52,76.89,72.46,67.84,63.73,60.96,60.92,63.92,68.82,73.62,78.39,83.41,89.04,93.09,97.03,100.93,104.83,108.64,113.60,118.63,123.33,127.56,132.63,137.11,140.66,143.16,146.25,149.37,152.89,156.91,160.98,163.13,164.15,164.67,165.53,167.20,168.79,170.30,171.76,173.31,174.88,176.51,178.48,181.51,188.87,195.18,200.60,205.95,211.30,215.61,219.55,223.55,227.89,232.09,236.06,241.27,250.25,254.88,259.32,263.84,268.56,273.59,278.05,282.61,287.30,291.61,296.10,299.84
e,e,e,e,e,3.48,5.66,8.02,15.49,24.81,32.76,35.25,37.39,39.66,41.91,44.07,46.23,48.22,49.90,51.43,53.25,55.07,55.80,55.06,52.68,50.28,47.40,44.51,41.85,39.45,36.75,33.95,31.09,28.18,26.19,24.48,22.65,20.11,14.73,12.22,10.89,9.96,8.89,6.40,5.14,4.48,3.49,4.43,5.77,7.49,9.79,13.55,19.16,23.10,25.54,28.06,30.75,33.93,37.29,40.50,42.93,45.14,46.86,48.14,49.35,50.92,53.25,56.26,59.71,61.98,63.81,65.45,66.73,66.31,64.64,62.76,60.71,58.16,54.51,50.70,46.70,42.51,38.76,35.36,31.95,28.39,24.72,20.64,16.69,13.01,9.71,7.90,6.44,5.47,5.01,4.77,4.43,4.03,3.55,2.92,2.97,3.03,3.10,3.17,3.10,2.51,2.46,3.30,4.90,5.99,7.21,9.38,13.41,18.39,23.43,28.53,33.67,38.72,40.56,41.48,42.19,43.01,44.23,45.49,46.27,46.18,46.03,45.59,44.72,43.42,41.86,39.37,36.33,33.01,29.77,27.57,26.07,24.97,24.11,23.66,23.81,24.23,24.91,25.99,27.90,29.70,31.16,32.13,32.98,33.77,34.13,33.93,33.23,32.52,32.64,33.56,34.98,35.32,34.91,34.21,33.77,35.38,38.18,40.71,42.76,44.77,46.93,49.29,52.18,55.84,59.78,62.29,62.73,61.19,59.00,56.22,55.58,56.91,59.15,62.02,65.37,69.26,73.67,78.53,81.47,82.44,81.75,80.20,76.96,73.02,68.61,63.96,60.14,58.31,59.60,64.02,69.51,74.68,80.04,85.46,90.65,94.73,98.83,102.63,106.06,109.96,115.50,121.19,126.73,132.50,137.44,141.12,144.05,146.91,149.61,152.14,154.94,157.85,159.40,160.49,160.95,161.02,161.14,162.31,163.74,165.54,167.80,170.58,173.14,175.58,178.03,180.77,187.06,193.35,199.23,204.63,208.90,212.63,216.18,220.04,225.66,231.11,235.70,240.83,249.12,253.54,257.38,261.38,265.97,270.60,274.67,278.61,282.62,286.89,291.15,295.07
e,e,e,e,e,3.63,5.92,8.25,17.15,26.34,33.34,36.06,38.58,41.42,44.28,46.90,48.94,50.69,52.14,53.44,54.97,56.65,56.39,54.59,51.97,49.13,45.83,42.65,39.84,37.28,34.49,31.23,27.71,24.33,21.74,18.97,16.28,13.67,9.24,7.11,5.74,4.68,4.07,e,e,e,e,e,3.10,4.17,5.33,8.72,13.80,18.52,22.38,25.17,27.70,30.46,33.42,36.52,39.58,42.00,43.69,44.84,46.00,47.58,49.61,52.30,55.87,59.31,61.78,63.72,65.25,65.76,64.48,62.80,60.90,58.65,54.98,51.14,47.14,43.03,39.18,35.42,31.64,27.84,24.07,19.79,15.41,11.46,8.56,6.86,5.29,4.00,3.09,2.77,2.42,e,e,e,e,1.49,1.57,1.64,1.69,1.40,1.49,2.21,3.36,4.08,5.05,6.66,9.28,14.16,19.77,25.63,31.46,37.49,40.21,41.66,42.55,43.38,44.42,45.09,45.14,44.51,44.17,43.74,42.92,41.59,39.65,36.77,33.52,30.09,26.67,24.31,22.81,21.80,21.04,20.54,20.86,21.83,23.25,24.78,26.75,28.55,29.99,30.97,31.79,32.55,32.89,32.68,32.05,31.42,31.64,32.58,33.84,33.82,33.10,32.12,31.41,32.20,35.03,37.97,40.57,42.98,45.21,47.51,50.31,54.03,58.31,60.51,60.64,58.96,56.46,53.92,53.82,55.67,58.07,60.94,64.64,68.76,72.96,77.09,79.67,80.28,79.15,77.19,73.80,69.48,64.77,60.24,56.78,56.50,59.27,64.46,69.99,75.63,81.40,87.13,92.52,97.00,101.19,104.91,108.13,111.79,116.96,122.69,128.87,136.04,140.40,143.59,146.32,149.18,151.51,153.34,154.84,155.95,156.05,156.07,156.09,156.23,156.73,158.12,159.73,162.26,166.10,170.00,173.08,175.87,178.66,181.81,186.86,192.28,197.62,202.54,206.34,209.91,213.43,217.41,223.79,230.32,235.46,240.29,247.24,251.71,255.29,258.75,262.67,266.93,270.84,274.53,278.14,281.93,285.90,289.75
e,e,e,e,e,3.47,5.81,8.28,18.89,27.85,33.62,36.48,39.41,42.87,46.37,49.47,51.32,52.75,54.04,55.33,56.72,58.19,56.89,54.05,51.29,47.87,44.10,40.68,37.84,35.14,32.32,28.42,23.98,20.22,16.90,12.70,9.09,7.07,5.62,e,e,e,e,e,e,e,e,e,e,e,e,e,7.77,12.81,18.71,22.14,24.79,27.04,29.28,31.92,35.80,38.52,40.38,41.69,43.09,44.70,46.32,48.47,51.78,56.79,60.10,62.32,63.88,65.04,64.13,62.67,60.98,59.05,55.40,51.59,47.66,43.61,39.69,35.49,31.41,27.51,23.63,19.11,14.10,9.72,7.28,5.80,4.32,e,e,e,e,e,e,e,e,e,e,e,e,e,e,e,e,e,e,e,e,e,15.29,21.64,27.95,34.68,38.97,41.40,42.53,43.22,43.98,44.08,43.67,42.98,42.35,41.80,41.02,39.69,37.14,33.86,30.43,26.95,23.49,20.98,19.59,18.79,18.18,17.64,18.30,19.98,22.14,23.76,25.59,27.32,28.78,29.85,30.63,31.35,31.64,31.42,30.89,30.35,30.63,31.54,32.62,32.46,31.59,30.40,29.30,29.32,31.70,34.88,38.23,41.30,43.68,46.10,48.89,52.31,56.62,58.53,58.31,56.35,53.59,51.68,52.12,54.32,56.95,59.98,64.08,68.57,72.78,75.78,77.95,78.16,76.50,74.04,70.86,66.15,60.99,56.67,53.59,55.20,59.49,65.06,70.29,76.41,82.49,88.45,94.42,99.51,103.83,107.51,110.72,113.96,118.24,123.59,130.21,138.63,142.15,145.06,147.80,150.45,152.41,153.45,153.38,152.38,151.63,150.63,150.27,150.79,152.33,154.41,156.52,160.08,165.79,170.64,173.96,176.83,179.86,183.77,187.53,191.60,195.83,199.96,203.66,207.32,211.06,215.37,222.16,229.63,235.24,239.65,244.94,249.55,253.06,256.00,258.95,262.83,266.69,270.34,273.72,276.81,280.47,284.12
e,e,e,e,e,3.43,5.68,8.16,19.15,28.13,33.68,36.54,39.48,43.48,47.48,50.61,52.42,54.12,55.73,57.23,58.57,59.13,57.00,53.53,50.38,46.61,42.50,38.83,35.86,33.16,29.57,24.72,19.33,14.68,11.49,8.56,6.04,4.09,2.83,e,e,e,e,e,e,e,e,e,e,e,e,e,5.22,8.31,12.00,15.87,21.03,24.00,25.93,27.93,30.72,33.69,36.31,38.41,40.01,41.68,43.29,45.46,48.90,53.66,57.81,60.75,62.36,63.62,63.31,62.30,60.80,58.92,55.32,51.63,48.00,44.46,40.79,36.45,31.87,27.34,23.27,18.23,12.77,8.17,5.87,4.14,2.60,e,e,e,e,e,e,e,e,e,e,e,e,e,e,e,e,e,e,e,e,e,10.34,16.66,23.89,30.82,36.67,40.23,41.76,42.46,43.08,42.96,42.39,41.69,40.97,39.47,37.74,35.86,33.37,30.58,27.30,23.80,20.50,18.52,17.26,16.41,15.76,15.22,16.57,18.82,21.25,22.87,24.46,25.85,27.06,28.13,29.12,29.88,30.24,30.16,29.67,29.18,29.42,30.25,31.28,31.02,30.16,28.93,27.73,27.94,29.75,32.87,36.86,40.92,43.59,46.17,48.83,51.72,55.73,56.67,55.70,53.60,51.18,50.28,51.28,53.65,56.38,59.65,63.86,68.15,71.85,74.55,76.52,76.37,74.36,71.99,67.90,62.92,57.93,53.81,50.93,53.96,59.23,64.75,69.69,75.60,81.71,87.91,94.23,100.24,105.44,109.85,113.59,116.83,120.63,125.18,131.02,139.34,142.44,145.13,147.65,149.84,150.96,151.43,150.77,149.03,147.23,145.76,145.03,145.61,148.28,151.79,156.35,161.29,166.08,170.64,174.02,177.08,180.20,183.56,186.64,189.93,193.44,197.08,200.63,204.40,208.82,214.21,220.96,228.63,234.21,238.26,242.91,246.89,249.99,252.73,255.54,258.43,261.93,265.34,268.47,271.51,275.26,278.76
e,e,e,e,e,2.86,5.20,7.79,17.74,26.88,33.27,36.10,39.04,43.33,47.74,51.24,53.16,55.11,56.97,58.68,60.16,59.92,57.21,53.20,49.27,44.89,40.73,37.10,34.01,30.91,26.50,21.08,15.42,10.74,7.79,5.43,e,e,e,e,e,e,e,e,e,e,e,e,e,e,e,e,e,4.63,7.16,10.67,15.77,19.92,22.90,24.80,27.04,29.89,32.66,35.02,36.72,38.44,40.17,42.54,46.23,51.30,55.83,59.22,61.26,62.45,62.51,61.82,60.39,58.17,54.61,51.17,47.92,44.84,41.41,37.12,32.40,27.53,22.85,16.95,11.23,6.70,4.30,2.45,e,e,e,e,e,e,e,e,e,e,e,e,e,e,e,e,e,e,e,e,e,e,e,11.82,19.51,26.64,33.46,38.34,40.99,41.66,42.04,41.79,40.98,39.73,38.25,35.98,33.64,31.45,29.20,26.81,23.64,20.29,17.72,16.39,15.10,14.05,13.33,12.82,14.37,16.74,19.35,21.68,23.08,24.25,25.34,26.45,27.58,28.32,28.78,28.93,28.54,28.06,28.23,28.89,29.65,29.24,28.43,27.27,26.14,26.97,28.68,31.89,36.30,40.86,43.69,46.37,48.97,51.54,55.15,55.17,53.61,51.55,49.50,49.29,50.61,53.04,55.99,59.34,63.54,67.69,71.12,73.57,75.13,74.67,72.46,69.89,65.05,59.99,55.23,51.21,49.40,53.24,58.69,63.86,68.74,74.41,80.41,86.80,93.77,100.49,106.29,111.54,116.41,119.75,123.25,127.46,132.82,139.94,142.75,145.15,147.06,148.07,148.52,148.10,146.78,144.70,142.56,141.01,140.86,142.48,146.14,150.78,156.62,161.96,165.73,169.58,172.76,175.79,178.95,182.53,185.17,187.92,190.96,194.36,197.89,201.92,206.90,212.97,219.74,226.94,232.33,236.31,240.44,243.94,246.76,249.23,251.66,253.93,257.11,260.34,263.37,266.26,270.17,273.84
e,e,e,e,e,1.76,4.35,7.19,14.62,24.09,32.36,35.14,38.08,42.41,47.14,51.33,53.55,55.72,57.75,59.65,61.48,60.58,57.53,53.05,47.95,42.68,38.78,35.50,32.28,28.40,23.11,17.48,12.27,8.42,5.83,3.34,e,e,e,e,e,e,e,e,e,e,e,e,e,e,e,e,e,1.80,4.22,6.54,8.97,14.78,20.22,22.57,24.81,27.15,29.42,31.51,33.21,34.97,36.97,39.71,43.77,49.73,54.17,57.74,60.59,61.53,61.72,61.22,59.75,56.79,53.25,50.19,47.43,44.73,41.55,37.51,33.01,28.09,22.37,15.26,9.49,5.31,2.58,0.72,e,e,e,e,e,e,e,e,e,e,e,e,e,e,e,e,e,e,e,e,e,e,e,7.14,14.82,22.14,29.32,35.73,40.21,40.83,40.88,40.58,39.43,37.07,34.16,31.31,28.70,26.42,24.61,22.54,19.43,16.42,15.18,14.58,13.11,11.71,10.91,10.45,11.68,13.70,16.45,20.21,21.44,22.53,23.64,24.80,26.03,26.67,27.24,27.74,27.50,27.00,27.06,27.47,27.73,27.13,26.40,25.42,24.54,26.40,28.50,31.95,36.56,41.11,44.00,46.72,49.32,51.76,54.89,54.03,52.04,50.21,48.56,48.75,50.11,52.50,55.80,59.05,63.12,67.18,70.59,72.84,73.80,73.06,70.81,67.76,62.33,57.37,52.90,48.88,49.05,53.03,57.86,62.36,67.44,72.83,78.57,85.10,93.06,100.22,106.36,112.57,119.18,122.72,126.09,130.44,135.63,140.43,143.07,145.13,146.01,145.11,145.06,143.45,141.37,139.39,137.59,136.39,137.80,141.43,145.93,151.41,157.34,162.09,164.73,167.44,170.16,172.92,176.10,180.66,183.11,185.56,188.41,191.81,195.44,199.90,205.31,211.64,218.51,224.54,229.58,233.78,237.51,240.72,243.37,245.52,247.29,249.32,252.21,255.34,258.40,261.04,265.20,269.35
e,e,e,e,e,e,2.33,4.87,9.72,17.41,26.15,32.97,36.02,40.07,44.99,50.25,52.81,55.20,57.49,59.55,60.95,59.84,56.52,51.68,46.20,40.91,37.01,33.71,30.28,25.38,19.59,14.20,9.85,7.12,4.97,2.85,e,e,e,e,e,e,e,e,e,e,e,e,e,e,e,e,e,e,e,e,5.76,9.51,13.78,17.56,21.91,24.56,26.62,28.46,30.11,32.09,34.68,38.18,42.89,49.28,53.61,56.90,59.54,60.56,60.74,59.90,57.90,54.56,51.33,48.68,46.32,43.93,41.18,37.28,32.61,27.02,19.58,12.60,7.30,e,e,e,e,e,e,e,e,e,e,e,e,e,e,e,e,e,e,e,e,e,e,e,e,e,e,4.86,10.80,17.63,24.41,30.76,35.64,37.17,35.49,33.90,32.17,29.99,27.62,25.33,22.70,19.63,16.43,14.60,12.65,11.02,10.55,10.38,9.85,9.36,9.08,8.62,9.33,10.51,12.20,14.83,17.60,20.07,22.01,23.25,24.35,25.06,25.71,26.30,26.44,25.93,25.72,25.73,25.64,25.07,24.29,23.54,23.28,25.53,28.13,32.11,37.07,41.44,44.31,47.07,49.67,51.95,53.85,52.92,51.14,49.38,47.62,47.86,49.08,51.33,54.84,58.63,62.50,66.24,69.62,72.05,72.84,72.10,69.68,65.26,59.87,54.84,50.40,46.89,48.57,52.27,56.53,60.91,66.51,72.23,78.11,84.67,92.65,99.76,105.93,112.61,120.17,123.40,126.78,131.85,137.75,141.15,143.01,143.87,143.72,142.57,140.75,138.27,135.74,133.55,132.10,134.10,137.61,141.91,146.33,151.20,155.85,159.57,161.99,164.02,166.04,168.28,171.11,175.29,179.11,182.56,186.00,189.88,194.15,198.84,204.23,210.35,216.72,222.16,226.54,230.07,233.23,236.13,238.65,240.84,242.79,245.03,247.98,251.18,254.37,257.32,260.40,263.71
e,e,e,e,e,e,e,e,5.97,11.52,19.29,28.28,33.03,37.35,42.16,47.77,51.52,54.23,56.66,58.75,59.85,58.42,54.87,49.84,44.14,39.18,35.29,31.71,27.76,22.17,16.09,11.21,7.83,5.89,4.02,e,e,e,e,e,e,e,e,e,e,e,e,e,e,e,e,e,e,e,e,e,e,5.12,8.21,12.28,17.43,21.28,23.90,25.63,27.34,29.70,33.02,37.29,42.45,48.99,53.04,55.88,58.10,59.24,59.11,57.92,55.63,52.22,49.46,47.26,45.25,43.10,40.56,36.67,31.62,25.19,16.56,9.44,e,e,e,e,e,e,e,e,e,e,e,e,e,e,e,e,e,e,e,e,e,e,e,e,e,e,e,e,7.24,13.70,19.94,25.90,30.74,32.85,30.15,27.63,25.20,22.59,20.32,18.49,16.17,13.09,9.60,8.18,7.15,6.51,6.53,6.60,6.83,7.10,7.28,6.89,7.29,7.96,8.92,10.52,13.71,16.94,19.73,21.71,22.71,23.52,24.26,24.94,25.36,24.87,24.43,24.07,23.65,23.09,22.26,21.75,22.18,24.88,27.94,32.33,37.51,41.63,44.49,47.26,49.80,51.84,52.71,51.82,50.29,48.63,46.85,46.94,48.02,50.10,53.38,57.86,61.76,65.32,68.65,71.11,71.81,70.92,68.15,62.71,57.45,52.54,48.27,45.17,47.91,51.37,55.34,59.94,66.10,72.01,77.95,84.42,92.09,99.06,105.40,112.35,120.08,123.39,126.91,132.29,138.44,141.29,142.38,142.17,140.92,138.92,135.60,132.30,129.46,127.59,127.90,132.50,137.57,142.24,146.30,150.26,153.64,156.40,158.56,160.16,161.72,163.58,166.18,170.35,175.42,179.93,184.13,188.51,193.33,198.24,203.44,208.95,214.40,219.40,223.36,226.46,229.20,231.61,233.88,236.11,238.40,240.92,243.97,247.22,250.53,253.79,256.18,258.76
e,e,e,e,e,e,e,e,4.50,7.54,11.99,19.35,28.54,34.15,38.35,43.02,49.43,52.63,54.93,56.85,58.00,55.97,52.28,47.34,41.63,37.45,33.65,29.40,24.36,18.67,12.67,8.68,6.41,4.67,2.76,e,e,e,e,e,e,e,e,e,e,e,e,e,e,e,e,e,e,e,e,e,e,2.31,4.68,6.88,10.25,16.74,21.27,23.13,25.09,28.10,32.35,37.37,42.57,48.81,52.31,54.44,56.02,57.30,56.40,54.87,52.80,49.78,47.75,46.05,44.35,42.32,39.58,35.49,29.70,22.22,13.44,5.50,e,e,e,e,e,e,e,e,e,e,e,e,e,e,e,e,e,e,e,e,e,e,e,e,e,e,e,e,4.42,10.78,16.34,21.54,25.79,27.75,25.46,22.84,19.53,15.25,12.04,10.30,8.85,7.25,5.64,4.94,4.27,3.78,3.85,3.92,4.39,4.99,5.45,5.26,5.73,6.53,7.53,8.63,10.07,12.73,16.31,20.18,21.18,22.10,22.97,23.74,24.26,23.83,23.23,22.57,21.86,21.25,20.37,20.14,21.29,24.64,28.10,32.68,37.81,41.59,44.43,47.17,49.55,51.23,51.51,50.70,49.42,47.97,46.38,46.02,46.96,48.86,51.14,56.51,60.85,64.52,67.73,69.94,70.60,69.29,65.84,60.11,55.07,50.62,46.80,43.91,46.94,50.29,54.47,59.78,66.53,72.35,78.15,84.32,91.20,97.97,104.80,111.69,118.31,122.47,126.35,131.26,136.71,140.40,140.82,139.85,137.38,133.26,129.11,125.00,122.07,121.50,126.05,131.82,137.38,142.10,145.42,148.15,150.47,152.44,154.15,155.70,157.25,159.01,161.63,166.64,172.51,178.02,183.16,188.08,193.19,198.32,203.10,207.36,211.24,215.97,220.00,223.17,225.82,227.41,229.21,231.45,234.22,237.08,240.24,243.52,246.88,250.38,252.98,255.17
e,e,e,e,e,e,e,e,e,4.43,7.60,12.82,21.42,28.56,34.48,39.67,45.80,49.72,52.40,54.15,54.99,53.08,49.54,44.85,39.59,35.53,31.26,26.31,20.54,14.35,9.98,6.99,4.87,2.85,e,e,e,e,e,e,e,e,e,e,e,e,e,e,e,e,e,e,e,e,e,e,e,e,e,3.28,6.26,10.92,15.01,18.46,23.18,26.98,31.43,36.50,41.93,47.87,51.11,52.98,54.25,55.09,53.86,52.17,50.27,48.05,46.22,44.61,43.03,41.15,37.27,33.07,26.82,18.68,10.93,4.17,e,e,e,e,e,e,e,e,e,e,e,e,e,e,e,e,e,e,e,e,e,e,e,e,e,e,e,e,e,e,12.74,18.47,22.97,24.98,22.71,18.78,14.44,10.76,8.23,6.52,5.03,e,e,e,e,e,e,e,2.17,2.88,3.54,3.66,4.32,5.24,6.28,7.28,8.32,10.19,12.87,16.25,19.62,21.13,22.01,22.71,23.14,22.81,22.23,21.51,20.73,19.76,19.21,19.59,21.27,24.79,28.24,32.63,37.56,41.42,44.04,46.56,48.72,50.14,50.30,49.42,48.15,46.78,45.36,45.33,46.39,48.14,50.03,55.42,60.02,63.80,66.78,68.99,68.90,66.73,62.84,57.99,53.28,49.16,45.63,42.90,46.07,49.47,53.95,59.73,66.17,71.84,77.35,83.05,89.30,95.43,102.10,109.00,115.69,120.77,124.89,129.08,133.36,137.03,136.02,133.99,130.87,126.40,123.06,120.07,118.59,119.60,124.96,130.19,135.35,139.97,143.26,145.28,147.15,148.80,150.17,151.44,153.47,156.40,160.54,166.58,172.53,178.09,183.27,188.14,193.19,198.11,202.36,205.78,208.70,211.64,214.93,218.58,222.50,224.07,225.74,227.88,230.66,233.52,236.62,239.83,243.13,246.64,249.38,251.52
e,e,e,e,e,e,e,e,e,e,e,e,14.29,22.24,29.83,35.94,41.35,46.02,49.22,50.90,51.50,49.90,46.64,42.28,37.49,33.30,28.41,22.75,16.48,10.34,7.74,5.63,3.44,1.14,e,e,e,e,e,e,e,e,e,e,e,e,e,e,e,e,e,e,e,e,e,e,e,e,e,e,e,e,8.63,13.20,19.83,24.49,29.39,34.76,40.57,46.14,49.40,51.35,52.54,52.83,51.47,49.71,47.94,46.36,44.61,42.98,41.28,39.08,34.10,29.84,23.39,15.01,8.55,e,e,e,e,e,e,e,e,e,e,e,e,e,e,e,e,e,e,e,e,e,e,e,e,e,e,e,e,e,e,e,9.38,15.63,20.56,22.71,20.28,15.20,10.18,7.46,5.77,4.07,e,e,e,e,e,e,e,e,e,e,e,e,3.13,4.20,5.32,6.39,7.30,8.40,9.93,12.19,17.10,19.42,20.75,21.70,21.99,21.79,21.24,20.47,19.64,18.36,18.32,19.38,21.45,24.96,28.24,32.34,37.00,41.06,43.48,45.72,47.63,48.92,48.94,47.98,46.71,45.42,44.22,44.75,46.03,47.68,49.38,54.78,59.50,63.30,66.05,67.84,66.87,63.97,59.94,56.11,51.64,47.63,44.28,41.95,45.26,48.81,53.56,59.54,65.29,70.69,75.94,81.28,87.02,92.56,98.88,105.79,112.93,118.73,123.06,126.65,129.84,132.96,130.79,127.89,124.35,120.01,117.65,116.12,116.35,118.86,123.97,128.22,132.58,136.82,140.23,141.94,143.73,145.41,146.84,148.22,151.00,155.23,160.86,167.65,173.50,178.85,183.83,188.57,193.32,197.71,201.30,203.95,205.92,207.05,209.45,213.31,218.18,220.22,222.24,224.55,227.29,230.05,233.03,236.09,239.26,242.75,245.59,247.77
e,e,e,e,e,e,e,e,e,e,e,e,9.40,15.53,22.65,29.72,35.47,40.81,44.52,46.49,47.33,46.12,43.35,39.41,34.79,30.21,24.62,18.31,11.98,8.01,6.38,4.64,2.51,0.31,e,e,e,e,e,e,e,e,e,e,e,e,e,e,e,e,e,e,e,e,e,e,e,e,e,e,e,e,4.96,7.83,11.41,17.03,23.81,30.93,37.48,42.41,46.37,49.21,50.75,50.59,49.38,47.76,45.99,44.26,42.60,40.94,38.40,34.34,29.22,25.00,18.96,11.40,6.08,e,e,e,e,e,e,e,e,e,e,e,e,e,e,e,e,e,e,e,e,e,e,e,e,e,e,e,e,e,e,e,6.87,12.47,17.70,20.15,17.30,12.56,8.11,5.68,3.98,2.28,e,e,e,e,e,e,e,e,e,e,e,e,2.52,3.86,5.20,6.57,7.07,7.73,8.60,9.68,11.44,14.86,18.25,20.60,20.79,20.75,20.17,19.19,18.11,16.98,17.72,19.42,21.55,24.86,27.83,31.56,35.95,40.15,42.58,44.51,46.18,47.67,47.10,46.19,45.07,43.91,43.21,44.36,45.93,47.62,49.31,55.40,59.95,63.44,66.02,65.89,64.12,61.33,57.94,54.61,50.04,45.50,42.11,41.00,44.61,48.50,53.29,58.83,63.40,68.13,73.33,78.85,84.34,89.78,95.66,102.55,110.44,116.24,120.73,124.36,127.13,128.66,126.89,123.97,120.28,116.19,113.98,113.40,114.93,118.45,122.63,125.94,128.94,131.98,135.44,137.74,140.12,142.62,145.27,148.28,152.29,157.21,162.96,169.41,175.08,180.20,185.01,189.81,193.73,196.95,199.52,201.36,201.79,202.37,204.07,206.88,210.42,213.87,217.64,221.14,223.96,226.68,229.45,232.22,235.12,238.66,241.51,243.74
e,e,e,e,e,e,e,e,e,e,e,e,5.90,10.38,16.25,23.27,29.24,33.69,37.12,39.80,42.10,41.66,39.33,35.63,31.12,26.34,20.71,14.71,9.06,5.71,4.17,2.77,e,e,e,e,e,e,e,e,e,e,e,e,e,e,e,e,e,e,e,e,e,e,e,e,e,e,e,e,e,e,e,3.92,6.11,10.79,16.26,22.79,30.73,37.11,42.04,45.45,47.32,47.63,46.86,45.52,43.85,42.11,40.01,37.62,33.91,28.30,23.12,19.00,14.23,8.80,4.51,e,e,e,e,e,e,e,e,e,e,e,e,e,e,e,e,e,e,e,e,e,e,e,e,e,e,e,e,e,e,e,5.07,10.12,14.94,17.42,14.68,10.58,6.59,3.85,2.15,e,e,e,e,e,e,e,e,e,e,e,e,e,2.63,3.87,4.91,5.89,6.32,6.89,7.56,8.25,8.95,11.50,14.98,18.30,19.04,18.92,18.31,17.38,16.33,16.26,17.56,19.46,21.56,24.57,27.40,30.82,34.86,39.05,41.44,43.31,44.88,46.20,45.56,44.53,43.36,42.44,42.69,44.17,45.83,47.57,49.46,56.53,60.76,63.58,65.66,64.40,62.22,59.36,56.08,52.88,48.27,43.68,40.55,40.26,44.01,48.14,52.65,57.33,61.27,65.95,71.45,77.46,83.39,88.90,94.11,100.37,108.22,114.54,118.75,121.96,124.25,124.96,123.23,119.90,115.90,112.23,110.14,110.76,113.17,116.69,120.45,123.29,125.84,128.45,131.47,134.43,138.04,141.88,145.65,149.73,154.44,159.78,165.63,171.67,176.97,181.57,185.80,189.97,192.22,193.80,194.91,195.72,196.36,197.50,199.40,202.00,205.02,208.94,213.14,216.99,220.02,222.43,224.94,227.57,230.41,233.70,236.62,239.12
e,e,e,e,e,e,e,e,e,e,e,e,e,e,10.40,16.81,22.87,25.93,28.76,32.21,36.22,36.68,34.78,31.27,26.90,22.07,16.72,11.51,6.90,3.48,e,e,e,e,e,e,e,e,e,e,e,e,e,e,e,e,e,e,e,e,e,e,e,e,e,e,e,e,e,e,e,e,e,e,e,e,8.27,13.03,22.03,30.46,36.51,40.52,42.85,44.14,44.04,43.07,41.54,39.78,37.03,33.53,28.53,21.79,16.68,12.77,9.59,6.74,3.42,e,e,e,e,e,e,e,e,e,e,e,e,e,e,e,e,e,e,e,e,e,e,e,e,e,e,e,e,e,e,e,e,8.18,12.33,14.69,12.32,8.97,5.34,e,e,e,e,e,e,e,e,e,e,e,e,e,1.73,1.85,2.99,3.93,4.46,4.78,5.32,5.97,6.67,7.37,8.08,8.96,11.53,15.39,17.00,16.71,16.08,15.38,14.67,16.01,17.72,19.62,21.67,24.35,27.09,30.28,33.97,38.07,40.35,42.24,43.72,44.65,44.16,42.94,41.69,41.07,42.42,44.06,45.73,47.56,49.77,57.83,61.69,63.64,65.03,63.12,60.74,57.73,54.29,50.98,46.34,42.00,39.35,39.67,43.44,47.73,51.86,55.60,59.26,64.22,70.20,76.80,83.41,89.00,93.49,98.83,106.14,113.16,116.88,119.38,121.06,121.29,119.39,115.57,111.31,108.22,106.23,107.98,111.03,114.21,117.87,120.53,123.17,125.84,128.32,132.04,137.11,142.40,147.11,151.92,157.05,162.67,168.60,174.22,178.97,182.85,186.17,189.19,189.44,189.23,188.81,188.67,190.41,192.68,195.24,198.02,200.95,204.80,208.76,212.53,215.80,217.81,220.05,222.61,225.45,228.35,231.35,234.18
e,e,e,e,e,e,e,e,e,e,e,e,e,e,5.97,11.28,16.95,20.93,24.13,26.87,29.31,29.93,28.68,25.90,22.06,17.63,12.72,8.20,4.50,1.62,e,e,e,e,e,e,e,e,e,e,e,e,e,e,e,e,e,e,e,e,e,e,e,e,e,e,e,e,e,e,e,e,e,e,e,e,5.18,8.31,12.51,18.67,26.09,32.41,36.54,39.22,40.32,39.96,38.38,36.03,33.32,28.33,22.49,17.13,12.71,9.76,7.32,4.99,2.52,e,e,e,e,e,e,e,e,e,e,e,e,e,e,e,e,e,e,e,e,e,e,e,e,e,e,e,e,e,e,e,e,6.30,10.58,12.59,10.64,7.66,4.14,e,e,e,e,e,e,e,e,e,e,e,e,e,0.96,1.52,2.28,2.86,3.28,3.75,4.39,5.11,5.86,6.61,7.47,8.47,10.15,12.50,14.70,14.56,13.97,13.90,15.31,17.00,18.81,20.85,23.17,25.61,28.06,31.21,35.07,39.22,40.81,42.14,43.09,43.35,42.62,41.57,40.66,40.43,42.18,43.69,45.54,47.84,50.60,58.31,61.93,63.23,63.46,61.80,59.34,56.21,52.54,48.59,43.68,40.10,38.55,39.47,43.10,47.16,51.39,55.58,59.48,64.95,71.30,77.98,84.24,89.30,93.52,98.15,104.08,111.00,114.19,115.62,115.96,115.35,112.79,109.49,106.35,104.20,102.47,103.61,106.91,111.51,115.41,118.45,121.87,125.57,128.94,133.84,139.48,144.89,149.49,154.55,159.97,165.71,171.56,176.98,180.68,183.17,184.57,184.93,183.80,182.75,182.26,182.85,185.77,189.23,192.42,195.31,198.14,201.42,205.02,208.65,211.97,213.98,216.06,218.33,220.79,223.40,226.28,229.16
e,e,e,e,e,e,e,e,e,e,e,e,e,e,3.06,7.18,11.62,15.22,18.48,21.17,22.37,22.62,21.63,19.47,16.27,12.84,8.90,e,e,e,e,e,e,e,e,e,e,e,e,e,e,e,e,e,e,e,e,e,e,e,e,e,e,e,e,e,e,e,e,e,e,e,e,e,e,e,e,4.35,5.83,10.32,16.46,22.39,27.27,31.80,33.83,33.83,32.31,30.08,27.49,22.15,16.56,12.76,9.77,7.69,5.78,3.81,1.75,e,e,e,e,e,e,e,e,e,e,e,e,e,e,e,e,e,e,e,e,e,e,e,e,e,e,e,e,e,e,e,e,e,7.92,10.17,8.55,6.07,3.11,e,e,e,e,e,e,e,e,e,e,e,e,e,e,e,e,1.78,2.24,2.86,3.58,4.33,5.12,5.96,6.96,8.07,9.27,10.67,12.59,12.56,12.70,13.75,16.22,18.28,20.40,22.69,25.18,27.58,30.23,33.43,36.97,40.22,41.43,42.42,42.89,42.44,41.51,40.26,39.64,40.08,41.70,42.79,44.82,47.89,51.77,58.75,61.91,62.67,62.12,60.37,57.54,54.09,50.11,45.50,41.24,38.52,37.75,39.20,42.51,46.44,50.76,55.26,59.46,65.16,71.61,78.16,84.06,88.73,92.82,96.91,101.52,107.34,109.94,110.76,110.38,109.22,106.63,104.15,102.10,100.65,99.55,101.38,105.52,111.05,115.46,118.80,122.52,126.76,131.23,136.46,142.40,148.08,152.88,157.98,163.21,168.31,173.29,178.52,181.08,182.32,182.21,180.71,179.46,178.38,178.05,178.99,182.15,186.00,189.59,192.74,195.47,198.42,201.66,204.89,207.81,209.89,212.02,214.25,216.59,218.98,221.68,224.55
e,e,e,e,e,e,e,e,e,e,e,e,e,e,1.50,4.35,6.81,8.88,11.94,15.15,15.41,14.81,13.78,12.10,9.63,7.73,5.25,e,e,e,e,e,e,e,e,e,e,e,e,e,e,e,e,e,e,e,e,e,e,e,e,e,e,e,e,e,e,e,e,e,e,e,e,e,e,e,e,1.06,1.64,5.00,7.53,10.70,15.41,22.21,24.91,25.06,23.70,22.20,19.83,15.12,10.70,8.66,7.74,6.44,4.88,3.12,1.11,e,e,e,e,e,e,e,e,e,e,e,e,e,e,e,e,e,e,e,e,e,e,e,e,e,e,e,e,e,e,e,e,e,4.47,7.46,6.10,4.23,2.22,e,e,e,e,e,e,e,e,e,e,e,e,e,e,e,e,0.67,1.32,2.09,2.86,3.63,4.46,5.39,6.55,7.76,8.85,9.78,10.67,10.69,12.17,14.75,17.37,19.83,22.45,25.08,27.62,30.17,33.46,36.77,39.56,41.09,42.19,43.03,43.06,41.86,40.78,39.01,38.62,39.98,41.00,41.42,43.62,47.72,53.23,59.13,61.67,61.98,60.99,58.84,55.38,51.45,47.08,41.77,38.99,37.20,36.97,38.86,41.73,45.58,50.00,54.68,59.23,64.93,71.21,77.48,82.97,87.40,91.48,95.15,98.50,102.35,104.34,104.93,104.37,102.92,100.86,99.47,98.48,97.50,97.39,101.01,106.51,112.58,117.73,121.29,124.88,129.22,134.97,139.79,145.80,151.87,157.14,162.09,166.75,170.52,173.95,178.98,180.35,180.42,179.18,176.53,176.27,175.84,175.88,176.86,179.43,182.98,186.77,190.29,192.92,195.77,198.64,201.23,203.35,205.59,207.94,210.37,212.79,215.04,217.49,220.30
e,e,e,e,e,e,e,e,e,e,e,e,e,e,e,1.96,3.64,5.60,7.36,8.54,8.53,8.11,6.82,5.14,3.67,3.15,e,e,e,e,e,e,e,e,e,e,e,e,e,e,e,e,e,e,e,e,e,e,e,e,e,e,e,e,e,e,e,e,e,e,e,e,e,e,e,e,e,e,e,e,4.03,6.42,9.02,12.94,14.25,14.46,14.06,13.40,12.44,10.12,7.72,6.34,5.87,4.67,3.29,e,e,e,e,e,e,e,e,e,e,e,e,e,e,e,e,e,e,e,e,e,e,e,e,e,e,e,e,e,e,e,e,e,e,e,e,e,e,e,e,e,e,e,e,e,e,e,e,e,e,e,e,e,e,e,e,e,0.61,1.38,2.15,2.99,3.93,5.00,6.01,7.05,7.95,8.66,9.27,9.82,12.22,15.80,19.14,21.75,24.46,27.31,30.33,33.64,36.89,39.66,41.56,41.98,43.07,43.17,42.45,41.19,39.63,37.73,37.40,38.81,39.48,40.42,43.32,47.98,53.59,59.03,60.94,60.67,59.20,56.28,52.49,47.88,43.10,39.67,37.65,36.26,36.23,38.21,40.68,44.69,49.21,53.73,58.29,63.50,68.95,74.90,81.81,86.24,90.22,93.78,96.91,99.51,100.28,100.34,99.95,98.91,97.70,96.66,95.87,95.46,97.72,103.60,110.05,115.57,120.22,123.80,128.06,133.31,139.53,144.86,150.12,155.14,159.75,163.36,167.19,170.21,172.40,174.65,174.83,174.41,173.57,172.45,172.36,172.41,173.17,174.92,177.75,181.34,185.05,188.61,191.71,194.29,195.99,197.24,198.46,200.18,202.13,204.45,207.44,211.87,214.65,217.33
e,e,e,e,e,e,e,e,e,e,e,e,e,e,e,e,e,e,e,e,e,e,e,e,e,e,e,e,e,e,e,e,e,e,e,e,e,e,e,e,e,e,e,e,e,e,e,e,e,e,e,e,e,e,e,e,e,e,e,e,e,e,e,e,e,e,e,e,e,e,e,e,4.11,5.90,6.57,6.88,7.02,7.02,6.97,6.13,5.06,4.28,3.95,e,e,e,e,e,e,e,e,e,e,e,e,e,e,e,e,e,e,e,e,e,e,e,e,e,e,e,e,e,e,e,e,e,e,e,e,e,e,e,e,e,e,e,e,e,e,e,e,e,e,e,e,e,e,e,e,e,e,e,e,e,e,2.36,3.36,4.45,5.36,6.21,7.01,7.78,8.52,9.76,12.80,16.91,20.69,23.46,26.23,29.38,33.06,36.95,40.08,42.42,43.72,43.49,43.76,43.06,41.80,40.50,38.53,36.47,36.03,37.31,37.91,39.50,43.06,48.07,53.47,58.29,59.66,58.89,56.93,53.43,48.85,44.04,39.88,37.82,36.24,35.38,35.78,37.84,40.16,44.38,48.97,53.27,57.57,62.24,67.02,72.76,80.88,85.44,89.36,92.78,95.68,97.00,96.86,96.51,96.17,95.36,94.67,93.91,93.73,94.91,98.94,106.08,113.03,118.31,122.62,126.44,131.53,137.62,143.70,149.03,153.68,157.84,161.58,164.13,166.54,168.24,169.12,169.49,168.95,168.39,168.04,168.03,168.17,168.61,170.15,173.00,176.25,179.88,183.53,187.06,190.30,192.29,193.01,193.45,194.46,196.18,197.73,199.67,202.55,207.32,211.41,214.59
e,e,e,e,e,e,e,e,e,e,e,e,e,e,e,e,e,e,e,e,e,e,e,e,e,e,e,e,e,e,e,e,e,e,e,e,e,e,e,e,e,e,e,e,e,e,e,e,e,e,e,e,e,e,e,e,e,e,e,e,e,e,e,e,e,e,e,e,e,e,e,e,1.13,2.18,3.41,3.90,3.93,4.33,4.33,3.54,2.75,2.53,1.96,e,e,e,e,e,e,e,e,e,e,e,e,e,e,e,e,e,e,e,e,e,e,e,e,e,e,e,e,e,e,e,e,e,e,e,e,e,e,e,e,e,e,e,e,e,e,e,e,e,e,e,e,e,e,e,e,e,e,e,e,e,e,1.76,2.74,3.68,4.54,5.18,6.05,7.26,8.70,10.84,14.16,18.13,21.91,24.82,27.64,31.21,35.84,39.97,42.90,44.99,46.14,45.91,44.19,42.58,41.15,39.79,37.52,35.24,34.46,35.39,36.34,38.71,42.81,47.90,52.71,56.64,57.57,56.43,53.96,50.22,44.10,39.84,37.88,36.26,34.71,34.58,35.75,37.92,40.43,44.92,49.56,53.55,57.21,61.32,65.67,71.39,80.29,85.16,89.06,92.32,94.90,94.89,94.30,93.76,93.27,92.36,91.72,91.16,92.26,96.55,101.36,108.25,115.04,120.60,124.86,129.28,135.42,142.19,147.23,151.77,156.07,159.69,162.35,164.31,164.43,163.94,163.41,163.33,162.75,162.60,162.79,163.13,163.61,164.29,166.71,171.11,174.96,178.62,182.26,185.68,188.52,189.45,189.51,189.99,191.79,194.35,195.52,196.72,198.45,200.65,207.53,212.12
e,e,e,e,e,e,e,e,e,e,e,e,e,e,e,e,e,e,e,e,e,e,e,e,e,e,e,e,e,e,e,e,e,e,e,e,e,e,e,e,e,e,e,e,e,e,e,e,e,e,e,e,e,e,e,e,e,e,e,e,e,e,e,e,e,e,e,e,e,e,e,e,e,e,e,e,e,e,e,e,e,e,e,e,e,e,e,e,e,e,e,e,e,e,e,e,e,e,e,e,e,e,e,e,e,e,e,e,e,e,e,e,e,e,e,e,e,e,e,e,e,e,e,e,e,e,e,e,e,e,e,e,e,e,e,e,e,e,e,e,e,e,e,e,e,e,1.95,2.78,4.00,5.14,6.39,7.83,9.46,12.32,15.75,19.39,22.80,25.70,28.83,32.88,37.96,42.21,45.43,47.53,48.34,47.57,45.26,42.98,40.82,38.70,36.35,34.05,33.16,33.99,35.49,38.01,41.95,46.82,51.78,54.13,54.56,53.19,50.13,45.02,40.60,37.71,36.12,34.61,33.49,34.14,35.96,38.18,41.43,46.26,50.82,54.41,57.76,61.87,66.02,71.48,80.31,85.10,89.02,91.87,93.43,93.03,92.19,90.95,89.42,87.96,87.78,89.12,92.46,98.06,103.50,110.11,116.59,122.23,126.64,131.75,137.72,143.68,148.14,152.06,155.81,159.01,161.32,162.18,161.47,160.12,158.73,158.04,157.94,157.97,158.06,158.22,158.80,159.77,162.53,167.43,172.69,176.94,180.72,183.94,186.27,187.00,187.22,188.03,190.16,192.17,193.06,194.12,195.70,197.52,202.08,207.65
e,e,e,e,e,e,e,e,e,e,e,e,e,e,e,e,e,e,e,e,e,e,e,e,e,e,e,e,e,e,e,e,e,e,e,e,e,e,e,e,e,e,e,e,e,e,e,e,e,e,e,e,e,e,e,e,e,e,e,e,e,e,e,e,e,e,e,e,e,e,e,e,e,e,e,e,e,e,e,e,e,e,e,e,e,e,e,e,e,e,e,e,e,e,e,e,e,e,e,e,e,e,e,e,e,e,e,e,e,e,e,e,e,e,e,e,e,e,e,e,e,e,e,e,e,e,e,e,e,e,e,e,e,e,e,e,e,e,e,e,e,e,e,e,e,e,1.27,2.19,3.76,5.37,6.96,8.57,10.48,13.87,17.43,20.81,23.80,26.57,30.05,34.56,39.95,44.29,47.68,49.67,50.10,48.93,46.24,43.28,40.34,37.60,35.18,32.91,31.94,32.66,34.59,37.10,40.61,45.03,50.03,51.20,51.13,49.44,45.89,40.35,37.77,35.98,34.36,32.91,32.57,33.94,36.21,38.48,42.37,47.40,51.86,55.23,58.47,62.81,67.02,72.22,80.46,85.00,88.76,91.10,91.64,90.74,89.37,87.43,85.22,83.54,84.59,88.01,93.21,99.45,105.32,111.82,118.09,123.63,128.16,133.97,139.53,144.38,148.27,151.59,154.77,157.48,159.30,158.89,157.60,155.87,154.12,153.14,153.49,153.61,153.52,153.45,154.06,155.51,158.68,163.83,170.28,175.04,179.02,182.12,183.94,184.70,185.13,186.18,188.33,189.70,190.47,191.56,193.19,195.08,197.29,202.92
e,e,e,e,e,e,e,e,e,e,e,e,e,e,e,e,e,e,e,e,e,e,e,e,e,e,e,e,e,e,e,e,e,e,e,e,e,e,e,e,e,e,e,e,e,e,e,e,e,e,e,e,e,e,e,e,e,e,e,e,e,e,e,e,e,e,e,e,e,e,e,e,e,e,e,e,e,e,e,e,e,e,e,e,e,e,e,e,e,e,e,e,e,e,e,e,e,e,e,e,e,e,e,e,e,e,e,e,e,e,e,e,e,e,e,e,e,e,e,e,e,e,e,e,e,e,e,e,e,e,e,e,e,e,e,e,e,e,e,e,e,e,e,e,e,e,0.99,2.51,4.18,5.82,7.40,9.16,11.86,15.43,19.17,22.62,25.27,27.69,31.46,36.36,41.94,46.32,49.32,50.76,50.79,49.87,46.64,42.83,39.29,36.64,34.12,31.86,30.78,31.25,33.18,35.56,38.35,41.78,46.14,47.55,47.03,44.70,41.01,38.14,36.08,34.21,32.46,31.12,32.25,34.17,36.43,38.81,42.79,47.58,51.98,55.60,59.14,64.08,68.84,73.96,80.67,84.71,87.80,89.48,89.39,87.16,84.34,82.04,80.58,79.84,83.97,89.02,94.58,100.53,106.40,113.31,119.65,124.77,129.20,135.68,140.84,144.56,147.71,150.38,153.06,155.01,155.57,153.63,151.73,150.18,149.16,148.87,149.28,149.36,149.22,149.11,149.67,152.09,156.08,161.43,168.03,172.81,177.01,180.28,181.65,182.54,182.99,183.78,185.39,186.65,187.64,188.90,190.60,192.64,195.14,198.56
e,e,e,e,e,e,e,e,e,e,e,e,e,e,e,e,e,e,e,e,e,e,e,e,e,e,e,e,e,e,e,e,e,e,e,e,e,e,e,e,e,e,e,e,e,e,e,e,e,e,e,e,e,e,e,e,e,e,e,e,e,e,e,e,e,e,e,e,e,e,e,e,e,e,e,e,e,e,e,e,e,e,e,e,e,e,e,e,e,e,e,e,e,e,e,e,e,e,e,e,e,e,e,e,e,e,e,e,e,e,e,e,e,e,e,e,e,e,e,e,e,e,e,e,e,e,e,e,e,e,e,e,e,e,e,e,e,e,e,e,e,e,e,e,e,e,e,2.16,3.86,5.55,7.31,9.39,12.64,16.81,21.06,24.91,27.91,31.27,35.30,39.78,44.43,48.59,50.62,51.33,51.09,50.24,46.52,42.37,38.64,35.94,33.25,31.02,29.83,29.96,31.51,33.99,36.57,39.28,42.34,43.30,42.81,40.97,38.14,36.12,34.15,32.15,30.51,30.16,32.06,34.26,36.54,38.94,42.71,47.16,51.41,55.24,59.32,65.01,70.25,75.11,80.29,83.59,85.63,86.20,85.21,82.86,80.44,78.78,78.14,78.58,84.18,89.92,95.47,100.94,106.63,113.64,120.09,125.22,129.80,136.41,141.05,143.84,146.25,148.72,150.92,152.12,151.77,149.38,147.18,145.65,144.88,144.70,144.98,145.07,145.06,145.15,146.42,149.74,154.33,159.76,166.02,170.90,174.93,177.88,179.26,180.23,180.56,180.94,181.94,183.56,185.02,186.61,188.46,190.61,193.29,196.10
e,e,e,e,e,e,e,e,e,e,e,e,e,e,e,e,e,e,e,e,e,e,e,e,e,e,e,e,e,e,e,e,e,e,e,e,e,e,e,e,e,e,e,e,e,e,e,e,e,e,e,e,e,e,e,e,e,e,e,e,e,e,e,e,e,e,e,e,e,e,e,e,e,e,e,e,e,e,e,e,e,e,e,e,e,e,e,e,e,e,e,e,e,e,e,e,e,e,e,e,e,e,e,e,e,e,e,e,e,e,e,e,e,e,e,e,e,e,e,e,e,e,e,e,e,e,e,e,e,e,e,e,e,e,e,e,e,e,e,e,e,e,e,e,e,e,e,1.53,3.27,5.07,7.05,9.49,13.17,18.12,23.05,27.52,31.21,35.72,39.89,43.66,47.11,50.74,51.66,51.66,51.23,50.39,46.22,41.91,38.15,35.36,32.49,30.29,28.99,28.76,29.86,32.43,34.95,37.10,38.79,39.08,38.78,37.76,36.04,34.12,31.99,29.98,28.76,29.71,31.95,34.26,36.56,38.92,42.36,46.47,50.59,54.59,59.20,65.54,71.13,75.69,79.49,82.00,82.91,82.29,80.43,78.43,77.12,76.45,76.65,78.37,84.76,90.76,96.08,100.95,106.44,113.43,119.98,125.29,129.97,136.29,140.43,142.58,144.36,146.78,148.44,148.88,147.83,145.48,143.20,141.61,140.80,140.44,140.50,140.58,140.78,141.32,143.79,147.94,153.01,158.53,164.29,169.12,172.73,175.12,176.53,177.38,177.44,177.45,178.11,180.40,182.53,184.53,186.53,188.77,191.60,194.52
e,e,e,e,e,e,e,e,e,e,e,e,e,e,e,e,e,e,e,e,e,e,e,e,e,e,e,e,e,e,e,e,e,e,e,e,e,e,e,e,e,e,e,e,e,e,e,e,e,e,e,e,e,e,e,e,e,e,e,e,e,e,e,e,e,e,e,e,e,e,e,e,e,e,e,e,e,e,e,e,e,e,e,e,e,e,e,e,e,e,e,e,e,e,e,e,e,e,e,e,e,e,e,e,e,e,e,e,e,e,e,e,e,e,e,e,e,e,e,e,e,e,e,e,e,e,e,e,e,e,e,e,e,e,e,e,e,e,e,e,e,e,e,e,e,e,e,0.98,3.01,5.07,7.17,9.68,13.76,19.32,25.28,30.93,35.55,39.17,42.69,46.23,49.65,51.55,51.97,51.85,51.44,50.71,46.17,41.59,37.67,34.78,31.86,29.73,28.32,27.83,29.08,31.05,33.08,34.97,36.55,36.70,36.28,35.23,33.56,31.68,29.04,27.86,28.48,30.17,32.05,34.10,36.27,38.53,41.72,45.77,49.94,53.98,58.39,64.41,69.83,74.23,77.58,79.70,79.93,78.88,77.12,75.17,74.39,74.33,75.28,78.28,85.49,91.44,96.15,100.31,105.86,112.86,119.45,124.71,128.61,133.46,137.45,140.29,142.13,144.26,145.01,144.57,143.20,141.14,139.23,137.54,136.18,135.43,135.09,135.00,135.54,137.25,141.94,146.81,152.23,158.17,163.63,167.28,169.91,171.54,171.96,171.53,170.88,171.13,173.14,176.96,180.26,182.81,184.80,187.04,190.05,193.45
e,e,e,e,e,e,e,e,e,e,e,e,e,e,e,e,e,e,e,e,e,e,e,e,e,e,e,e,e,e,e,e,e,e,e,e,e,e,e,e,e,e,e,e,e,e,e,e,e,e,e,e,e,e,e,e,e,e,e,e,e,e,e,e,e,e,e,e,e,e,e,e,e,e,e,e,e,e,e,e,e,e,e,e,e,e,e,e,e,e,e,e,e,e,e,e,e,e,e,e,e,e,e,e,e,e,e,e,e,e,e,e,e,e,e,e,e,e,e,e,e,e,e,e,e,e,e,e,e,e,e,e,e,e,e,e,e,e,e,e,e,e,e,e,e,e,e,e,e,5.44,7.59,10.15,14.88,20.88,27.28,33.41,38.54,41.67,44.86,48.06,50.97,51.96,52.16,51.99,51.49,50.46,45.64,40.83,36.69,33.56,30.88,28.91,27.49,26.85,28.19,29.74,31.33,32.92,34.46,34.38,33.80,32.65,30.86,28.41,26.75,26.94,28.71,30.66,32.38,34.24,36.23,38.35,41.27,45.10,49.17,53.20,57.47,63.00,68.24,72.59,75.56,77.51,77.34,75.93,74.06,72.12,72.01,72.92,74.86,78.35,85.89,91.66,95.89,99.55,104.78,111.53,118.04,123.27,126.66,130.35,133.91,137.01,139.23,141.24,141.56,140.73,139.26,137.47,135.70,133.72,131.67,130.18,129.43,129.52,130.79,133.61,140.35,145.88,151.62,157.90,162.76,165.76,167.54,168.27,168.07,167.01,166.03,166.29,168.63,172.66,176.69,180.16,182.88,184.87,187.73,191.85
e,e,e,e,e,e,e,e,e,e,e,e,e,e,e,e,e,e,e,e,e,e,e,e,e,e,e,e,e,e,e,e,e,e,e,e,e,e,e,e,e,e,e,e,e,e,e,e,e,e,e,e,e,e,e,e,e,e,e,e,e,e,e,e,e,e,e,e,e,e,e,e,e,e,e,e,e,e,e,e,e,e,e,e,e,e,e,e,e,e,e,e,e,e,e,e,e,e,e,e,e,e,e,e,e,e,e,e,e,e,e,e,e,e,e,e,e,e,e,e,e,e,e,e,e,e,e,e,e,e,e,e,e,e,e,e,e,e,e,e,e,e,e,e,e,e,e,e,e,6.09,8.23,10.82,16.39,22.70,29.10,35.19,40.50,43.43,46.53,49.31,51.37,52.07,52.26,52.09,51.41,49.78,44.75,39.75,35.34,31.86,29.63,27.92,26.55,25.84,27.23,28.48,29.67,30.94,32.48,32.10,31.33,30.03,27.99,24.53,24.97,26.94,29.33,31.18,32.89,34.59,36.37,38.33,40.96,44.46,48.32,52.29,56.46,61.37,66.44,70.83,73.46,75.40,75.03,73.33,71.19,69.26,69.90,72.05,75.15,78.55,86.03,91.54,95.39,98.70,103.32,109.63,115.94,121.17,124.27,127.02,129.95,132.97,135.83,137.85,138.11,137.24,135.83,134.28,132.48,130.08,127.24,124.77,123.59,124.15,126.42,130.31,138.96,145.09,151.14,157.71,161.73,164.48,165.50,165.24,164.70,163.48,162.45,162.56,164.46,167.71,172.12,176.80,180.79,182.34,184.80,189.84
e,e,e,e,e,e,e,e,e,e,e,e,e,e,e,e,e,e,e,e,e,e,e,e,e,e,e,e,e,e,e,e,e,e,e,e,e,e,e,e,e,e,e,e,e,e,e,e,e,e,e,e,e,e,e,e,e,e,e,e,e,e,e,e,e,e,e,e,e,e,e,e,e,e,e,e,e,e,e,e,e,e,e,e,e,e,e,e,e,e,e,e,e,e,e,e,e,e,e,e,e,e,e,e,e,e,e,e,e,e,e,e,e,e,e,e,e,e,e,e,e,e,e,e,e,e,e,e,e,e,e,e,e,e,e,e,e,e,e,e,e,e,e,e,e,e,e,e,e,7.21,10.50,14.12,19.53,25.39,30.72,35.38,39.41,41.31,43.72,46.61,49.65,50.84,51.52,51.37,50.12,47.36,43.00,38.44,34.11,30.42,28.57,26.96,25.59,24.87,26.21,27.42,28.53,29.50,30.25,29.28,28.16,26.57,24.46,23.12,25.04,27.61,29.94,31.70,33.40,35.10,36.83,38.64,41.07,44.34,47.92,51.63,55.65,59.90,64.25,68.35,71.67,73.61,73.24,71.56,69.45,67.42,68.88,71.62,74.84,78.29,85.64,91.03,94.70,97.60,100.60,106.17,112.08,117.14,120.97,123.74,126.82,129.91,132.07,134.43,134.83,133.96,132.46,130.42,127.22,124.19,121.77,119.99,119.72,121.38,124.75,129.54,137.99,144.44,150.56,156.78,161.00,162.68,162.91,162.21,161.07,159.40,157.73,157.06,158.22,161.61,166.21,170.79,174.81,177.99,179.69,185.75
e,e,e,e,e,e,e,e,e,e,e,e,e,e,e,e,e,e,e,e,e,e,e,e,e,e,e,e,e,e,e,e,e,e,e,e,e,e,e,e,e,e,e,e,e,e,e,e,e,e,e,e,e,e,e,e,e,e,e,e,e,e,e,e,e,e,e,e,e,e,e,e,e,e,e,e,e,e,e,e,e,e,e,e,e,e,e,e,e,e,e,e,e,e,e,e,e,e,e,e,e,e,e,e,e,e,e,e,e,e,e,e,e,e,e,e,e,e,e,e,e,e,e,e,e,e,e,e,e,e,e,e,e,e,e,e,e,e,e,e,e,e,e,e,e,e,e,e,e,10.32,14.05,17.69,22.35,27.46,31.81,35.13,37.32,38.15,39.95,42.71,46.10,48.04,49.42,49.57,48.19,45.03,41.17,37.06,32.97,29.24,27.53,25.93,24.58,23.90,25.17,26.34,27.28,27.86,27.91,26.69,25.15,23.33,21.56,22.16,25.18,28.18,30.51,32.21,33.91,35.60,37.28,39.02,41.40,44.44,47.71,51.14,55.23,59.13,62.86,66.49,70.04,71.54,71.10,69.49,67.45,65.97,68.06,71.16,74.47,77.92,84.77,90.13,93.87,96.40,98.46,102.78,107.97,113.12,117.44,120.86,124.24,127.24,129.01,131.23,131.53,130.45,128.50,125.88,122.00,118.72,116.65,115.76,116.78,119.38,123.48,129.00,136.96,143.62,149.82,155.63,159.53,160.32,159.84,158.58,156.83,154.69,152.65,151.77,152.93,156.47,161.24,165.83,169.93,174.03,175.90,181.60
e,e,e,e,e,e,e,e,e,e,e,e,e,e,e,e,e,e,e,e,e,e,e,e,e,e,e,e,e,e,e,e,e,e,e,e,e,e,e,e,e,e,e,e,e,e,e,e,e,e,e,e,e,e,e,e,e,e,e,e,e,e,e,e,e,e,e,e,e,e,e,e,e,e,e,e,e,e,e,e,e,e,e,e,e,e,e,e,e,e,e,e,e,e,e,e,e,e,e,e,e,e,e,e,e,e,e,e,e,e,e,e,e,e,e,e,e,e,e,e,e,e,e,e,e,e,e,e,e,e,e,e,e,e,e,e,e,e,e,e,e,e,e,e,e,e,e,e,e,15.99,19.23,21.63,24.76,28.73,32.23,34.30,33.93,33.68,34.95,37.27,40.22,43.25,45.60,46.40,45.45,42.83,39.23,35.59,31.95,28.40,26.49,24.80,23.50,22.93,24.10,25.26,25.91,25.96,25.42,24.39,22.37,20.37,19.45,21.78,25.39,28.62,31.02,32.72,34.42,36.08,37.73,39.47,42.00,44.81,47.72,50.88,55.32,59.25,62.51,65.43,68.64,69.11,68.53,67.05,65.11,65.01,67.48,70.68,74.01,77.42,83.30,88.75,92.86,95.06,97.07,99.50,103.53,109.12,113.59,118.48,122.36,125.07,126.84,128.33,128.23,126.63,123.77,120.46,116.84,113.81,111.98,112.22,115.01,118.35,122.72,128.78,135.85,142.61,148.88,154.21,157.11,157.26,156.13,154.19,151.80,149.17,147.10,146.74,148.85,152.54,157.46,162.23,166.49,170.58,173.80,177.39
e,e,e,e,e,e,e,e,e,e,e,e,e,e,e,e,e,e,e,e,e,e,e,e,e,e,e,e,e,e,e,e,e,e,e,e,e,e,e,e,e,e,e,e,e,e,e,e,e,e,e,e,e,e,e,e,e,e,e,e,e,e,e,e,e,e,e,e,e,e,e,e,e,e,e,e,e,e,e,e,e,e,e,e,e,e,e,e,e,e,e,e,e,e,e,e,e,e,e,e,e,e,e,e,e,e,e,e,e,e,e,e,e,e,e,e,e,e,e,e,e,e,e,e,e,e,e,e,e,e,e,e,e,e,e,e,e,e,e,e,e,e,e,e,e,e,e,9.91,15.37,19.30,22.22,24.37,25.80,28.57,30.74,31.25,29.09,28.54,29.41,31.31,33.94,37.41,40.28,41.80,41.82,40.47,37.66,34.73,31.59,28.12,25.24,23.36,22.26,22.01,23.13,24.17,24.48,24.07,23.15,22.15,20.30,18.95,19.18,22.16,25.89,29.21,31.77,33.51,35.17,36.81,38.44,40.15,42.92,45.62,48.39,51.46,55.60,59.42,62.45,64.68,66.25,66.36,65.60,64.18,62.61,63.55,66.51,69.87,73.12,76.31,80.58,86.40,91.50,93.48,95.28,97.44,100.94,105.99,111.51,116.62,120.48,123.07,124.67,125.60,125.07,123.18,120.08,115.91,112.41,109.80,108.68,110.48,113.73,117.68,122.58,128.76,135.97,142.24,147.82,152.50,154.76,154.57,152.58,149.46,146.17,143.41,142.14,142.82,145.59,149.17,153.84,158.65,163.29,167.82,171.80,175.40
e,e,e,e,e,e,e,e,e,e,e,e,e,e,e,e,e,e,e,e,e,e,e,e,e,e,e,e,e,e,e,e,e,e,e,e,e,e,e,e,e,e,e,e,e,e,e,e,e,e,e,e,e,e,e,e,e,e,e,e,e,e,e,e,e,e,e,e,e,e,e,e,e,e,e,e,e,e,e,e,e,e,e,e,e,e,e,e,e,e,e,e,e,e,e,e,e,e,e,e,e,e,e,e,e,e,e,e,e,e,e,e,e,e,e,e,e,e,e,e,e,e,e,e,e,e,e,e,e,e,e,e,e,e,e,e,e,e,e,e,e,e,e,e,e,e,3.18,11.25,17.78,21.34,23.60,25.06,24.92,26.36,27.04,26.18,23.23,22.65,23.34,25.00,27.49,31.24,34.80,37.05,37.90,37.88,36.04,33.81,31.06,27.64,24.01,21.86,20.93,21.06,22.19,22.97,22.96,22.26,21.11,19.96,18.49,17.99,19.34,22.72,26.47,29.80,32.46,34.37,36.02,37.66,39.29,40.98,43.89,46.59,49.27,52.18,55.94,59.36,62.00,63.56,63.73,63.51,62.55,61.27,60.32,62.16,65.50,68.98,72.21,75.19,78.20,83.63,88.92,91.19,93.13,95.56,98.91,103.50,109.80,114.70,118.46,121.03,122.33,122.75,121.60,119.23,115.96,111.57,108.29,106.15,105.81,109.05,112.73,117.20,122.57,128.89,136.30,142.14,146.91,150.65,152.18,151.62,148.78,144.51,140.40,137.73,137.50,139.29,142.52,146.01,150.42,155.24,160.24,165.27,169.93,173.80
e,e,e,e,e,e,e,e,e,e,e,e,e,e,e,e,e,e,e,e,e,e,e,e,e,e,e,e,e,e,e,e,e,e,e,e,e,e,e,e,e,e,e,e,e,e,e,e,e,e,e,e,e,e,e,e,e,e,e,e,e,e,e,e,e,e,e,e,e,e,e,e,e,e,e,e,e,e,e,e,e,e,e,e,e,e,e,e,e,e,e,e,e,e,e,e,e,e,e,e,e,e,e,e,e,e,e,e,e,e,e,e,e,e,e,e,e,e,e,e,e,e,e,e,e,e,e,e,e,e,e,e,e,e,e,e,e,e,e,e,e,e,e,e,e,e,3.25,10.43,18.09,21.27,22.06,21.52,20.21,19.97,18.96,17.27,15.50,15.32,16.23,18.08,20.80,24.70,29.42,32.40,33.65,34.81,34.15,32.53,29.96,26.49,22.86,20.38,19.44,20.00,21.28,21.51,21.27,20.61,19.52,17.87,17.02,17.58,19.87,23.45,27.15,30.34,32.94,35.30,37.03,38.71,40.38,42.06,44.87,47.77,50.43,52.95,56.37,58.80,60.58,61.52,61.25,60.53,59.32,58.40,58.54,61.07,64.50,68.04,71.35,74.24,77.01,80.20,83.71,87.34,90.31,93.67,97.52,102.14,108.34,112.51,116.13,118.84,119.60,119.57,117.40,114.08,110.53,107.42,104.64,103.02,103.47,107.69,112.18,117.07,122.67,129.27,136.69,142.41,146.37,148.57,149.07,147.98,144.37,139.19,134.54,132.34,133.41,136.26,139.58,143.12,147.39,152.19,157.42,162.99,168.32,172.34
e,e,e,e,e,e,e,e,e,e,e,e,e,e,e,e,e,e,e,e,e,e,e,e,e,e,e,e,e,e,e,e,e,e,e,e,e,e,e,e,e,e,e,e,e,e,e,e,e,e,e,e,e,e,e,e,e,e,e,e,e,e,e,e,e,e,e,e,e,e,e,e,e,e,e,e,e,e,e,e,e,e,e,e,e,e,e,e,e,e,e,e,e,e,e,e,e,e,e,e,e,e,e,e,e,e,e,e,e,e,e,e,e,e,e,e,e,e,e,e,e,e,e,e,e,e,e,e,e,e,e,e,e,e,e,e,e,e,e,e,e,e,e,e,e,e,e,10.13,16.73,18.68,17.75,15.22,12.87,12.15,11.49,10.63,9.57,9.46,10.44,11.98,13.78,16.22,20.17,24.21,28.08,32.07,32.18,30.28,27.02,23.07,20.39,18.30,17.44,17.97,19.50,19.87,19.59,18.81,17.73,15.89,15.97,17.49,20.09,24.05,27.81,30.89,33.39,35.82,37.91,39.74,41.42,43.10,45.84,48.43,50.81,53.00,55.12,56.66,57.82,58.28,57.53,56.83,56.25,56.47,57.94,60.65,63.83,67.17,70.42,73.24,75.71,78.18,81.11,84.95,88.89,92.90,97.09,101.64,107.20,111.12,114.06,115.85,116.10,115.24,113.00,110.14,107.30,104.66,101.74,100.56,102.01,106.71,111.65,116.89,122.76,129.60,136.98,141.83,144.71,145.91,145.23,143.12,138.73,133.27,129.17,128.04,129.72,133.06,137.02,141.52,146.15,151.12,156.50,162.26,167.86,171.84
e,e,e,e,e,e,e,e,e,e,e,e,e,e,e,e,e,e,e,e,e,e,e,e,e,e,e,e,e,e,e,e,e,e,e,e,e,e,e,e,e,e,e,e,e,e,e,e,e,e,e,e,e,e,e,e,e,e,e,e,e,e,e,e,e,e,e,e,e,e,e,e,e,e,e,e,e,e,e,e,e,e,e,e,e,e,e,e,e,e,e,e,e,e,e,e,e,e,e,e,e,e,e,e,e,e,e,e,e,e,e,e,e,e,e,e,e,e,e,e,e,e,e,e,e,e,e,e,e,e,e,e,e,e,e,e,e,e,e,e,e,e,e,e,e,e,e,9.76,14.67,15.18,12.72,8.65,5.51,e,e,e,e,e,5.54,6.69,7.46,8.16,10.71,15.31,21.37,27.48,28.11,26.08,22.50,18.60,17.21,15.88,15.19,15.51,17.21,17.95,17.73,16.86,15.80,14.15,15.18,17.45,20.07,24.37,28.32,31.44,33.87,36.29,38.74,40.72,42.40,44.05,46.60,48.69,50.67,52.49,53.20,53.94,54.55,54.61,53.54,53.08,53.48,55.02,57.71,60.48,63.37,66.43,69.53,72.32,74.60,76.97,79.85,83.64,88.32,92.71,97.06,101.51,106.22,109.92,112.01,112.63,112.32,110.67,108.75,106.77,104.82,102.31,99.04,98.35,100.96,105.91,111.16,116.69,122.80,129.76,136.82,140.73,142.67,143.08,141.10,137.59,132.50,127.22,124.17,124.19,126.54,130.48,135.32,140.85,145.90,151.03,156.43,162.12,167.73,171.60
e,e,e,e,e,e,e,e,e,e,e,e,e,e,e,e,e,e,e,e,e,e,e,e,e,e,e,e,e,e,e,e,e,e,e,e,e,e,e,e,e,e,e,e,e,e,e,e,e,e,e,e,e,e,e,e,e,e,e,e,e,e,e,e,e,e,e,e,e,e,e,e,e,e,e,e,e,e,e,e,e,e,e,e,e,e,e,e,e,e,e,e,e,e,e,e,e,e,e,e,e,e,e,e,e,e,e,e,e,e,e,e,e,e,e,e,e,e,e,e,e,e,e,e,e,e,e,e,e,e,e,e,e,e,e,e,e,e,e,e,e,e,e,e,e,e,e,8.22,12.04,11.51,8.84,5.36,2.36,e,e,e,e,e,2.72,3.88,4.99,5.29,6.72,8.93,11.50,13.66,14.39,14.23,13.58,12.87,12.81,12.81,12.67,12.63,13.94,14.93,15.03,14.41,13.50,13.42,14.96,17.12,19.42,23.57,28.26,31.92,34.54,37.11,39.48,41.49,43.20,44.71,46.37,47.94,49.40,50.58,50.88,51.06,51.08,50.86,50.28,50.31,51.79,54.26,57.30,60.41,63.29,66.14,69.03,71.87,74.56,77.28,80.58,84.97,89.51,93.38,97.38,101.69,105.51,108.28,109.65,109.64,108.44,106.87,105.52,104.11,102.31,99.60,96.02,96.18,100.40,105.40,110.74,116.49,122.65,129.12,134.61,138.59,140.68,140.47,136.86,130.96,125.50,121.58,120.11,120.69,125.10,131.19,137.09,142.48,147.42,152.28,157.20,162.24,167.26,170.89
e,e,e,e,e,e,e,e,e,e,e,e,e,e,e,e,e,e,e,e,e,e,e,e,e,e,e,e,e,e,e,e,e,e,e,e,e,e,e,e,e,e,e,e,e,e,e,e,e,e,e,e,e,e,e,e,e,e,e,e,e,e,e,e,e,e,e,e,e,e,e,e,e,e,e,e,e,e,e,e,e,e,e,e,e,e,e,e,e,e,e,e,e,e,e,e,e,e,e,e,e,e,e,e,e,e,e,e,e,e,e,e,e,e,e,e,e,e,e,e,e,e,e,e,e,e,e,e,e,e,e,e,e,e,e,e,e,e,e,e,e,e,e,e,e,e,e,5.11,8.71,8.12,5.78,e,e,e,e,e,e,e,e,e,e,e,e,4.79,5.80,6.32,7.22,7.87,8.33,8.71,9.06,9.46,9.54,9.38,9.97,11.28,12.06,12.18,11.78,12.80,14.85,17.22,19.65,23.56,28.09,31.76,34.49,37.12,39.54,41.46,42.96,44.18,45.38,46.67,47.80,48.60,48.88,48.87,48.69,48.42,48.19,48.92,50.99,53.92,57.27,60.60,63.56,66.34,69.07,71.96,74.91,77.95,81.63,86.42,90.66,94.11,97.58,101.26,104.28,106.24,107.03,106.55,104.68,103.13,101.92,100.70,98.98,95.27,92.97,94.63,99.81,105.13,110.56,116.42,122.42,128.16,132.54,135.85,137.15,135.83,131.07,125.20,120.56,117.92,117.73,119.34,125.55,133.10,139.25,144.01,148.55,153.09,157.72,162.48,166.74,169.98
e,e,e,e,e,e,e,e,e,e,e,e,e,e,e,e,e,e,e,e,e,e,e,e,e,e,e,e,e,e,e,e,e,e,e,e,e,e,e,e,e,e,e,e,e,e,e,e,e,e,e,e,e,e,e,e,e,e,e,e,e,e,e,e,e,e,e,e,e,e,e,e,e,e,e,e,e,e,e,e,e,e,e,e,e,e,e,e,e,e,e,e,e,e,e,e,e,e,e,e,e,e,e,e,e,e,e,e,e,e,e,e,e,e,e,e,e,e,e,e,e,e,e,e,e,e,e,e,e,e,e,e,e,e,e,e,e,e,e,e,e,e,e,e,e,e,e,e,e,4.96,e,e,e,e,e,e,e,e,e,e,e,e,e,e,e,e,e,5.03,5.43,5.60,5.74,5.98,6.06,5.92,5.63,7.22,8.85,10.02,10.41,12.24,14.79,17.59,20.40,24.02,27.82,31.14,33.95,36.57,39.11,40.88,42.04,42.90,43.89,45.06,46.00,46.58,47.05,47.12,47.00,46.85,46.90,48.43,50.79,53.87,57.48,60.95,64.05,66.84,69.48,72.42,75.49,78.82,82.84,87.87,91.72,94.82,97.66,100.41,102.70,103.93,104.25,103.43,101.05,99.47,98.12,96.83,95.11,89.98,89.98,93.50,99.23,105.02,110.53,116.40,122.09,126.95,130.53,132.68,132.61,129.91,124.39,120.06,116.97,115.56,116.51,119.50,127.26,135.74,141.60,145.44,149.43,153.63,158.09,162.75,166.17,168.85
e,e,e,e,e,e,e,e,e,e,e,e,e,e,e,e,e,e,e,e,e,e,e,e,e,e,e,e,e,e,e,e,e,e,e,e,e,e,e,e,e,e,e,e,e,e,e,e,e,e,e,e,e,e,e,e,e,e,e,e,e,e,e,e,e,e,e,e,e,e,e,e,e,e,e,e,e,e,e,e,e,e,e,e,e,e,e,e,e,e,e,e,e,e,e,e,e,e,e,e,e,e,e,e,e,e,e,e,e,e,e,e,e,e,e,e,e,e,e,e,e,e,e,e,e,e,e,e,e,e,e,e,e,e,e,e,e,e,e,e,e,e,e,e,e,e,e,e,e,2.85,e,e,e,e,e,e,e,e,e,e,e,e,e,e,e,e,e,2.25,2.58,2.97,2.97,3.66,3.66,2.88,3.14,3.06,4.13,6.13,8.29,11.56,14.54,17.33,20.11,23.49,26.84,29.93,32.71,35.23,37.54,39.47,40.86,41.61,42.41,43.34,44.03,44.42,44.94,45.27,45.36,45.67,46.95,48.60,51.08,54.25,57.85,61.23,64.35,67.31,70.19,73.18,76.17,79.43,83.27,87.86,91.46,94.39,96.89,99.02,100.62,101.50,101.61,100.82,98.94,96.88,95.14,93.29,90.87,86.83,88.87,93.35,98.83,104.57,110.22,115.92,121.11,125.12,127.57,128.55,127.47,124.25,119.77,116.40,114.19,114.03,117.35,122.75,130.38,137.67,142.65,146.10,150.04,154.22,158.36,161.89,164.67,165.85
e,e,e,e,e,e,e,e,e,e,e,e,e,e,e,e,e,e,e,e,e,e,e,e,e,e,e,e,e,e,e,e,e,e,e,e,e,e,e,e,e,e,e,e,e,e,e,e,e,e,e,e,e,e,e,e,e,e,e,e,e,e,e,e,e,e,e,e,e,e,e,e,e,e,e,e,e,e,e,e,e,e,e,e,e,e,e,e,e,e,e,e,e,e,e,e,e,e,e,e,e,e,e,e,e,e,e,e,e,e,e,e,e,e,e,e,e,e,e,e,e,e,e,e,e,e,e,e,e,e,e,e,e,e,e,e,e,e,e,e,e,e,e,e,e,e,e,e,e,e,e,e,e,e,e,e,e,e,e,e,e,e,e,e,e,e,e,e,e,e,e,e,e,e,e,e,e,e,e,10.54,13.65,16.43,19.28,22.41,25.47,28.41,31.17,33.60,35.75,37.74,39.24,39.96,40.73,41.51,42.01,42.27,42.88,43.50,44.10,45.05,46.98,48.75,51.38,54.63,58.23,61.53,64.68,67.74,70.75,73.76,76.73,79.98,83.66,87.81,91.03,93.62,95.81,97.63,98.86,99.32,99.19,98.37,96.67,94.41,92.19,89.73,86.92,84.64,88.32,93.48,98.76,104.41,110.03,115.29,119.71,122.78,124.26,124.07,122.08,118.56,115.04,112.59,111.85,113.55,118.62,125.28,132.53,138.99,143.65,146.84,150.55,154.45,158.15,160.80,162.68,162.22
e,e,e,e,e,e,e,e,e,e,e,e,e,e,e,e,e,e,e,e,e,e,e,e,e,e,e,e,e,e,e,e,e,e,e,e,e,e,e,e,e,e,e,e,e,e,e,e,e,e,e,e,e,e,e,e,e,e,e,e,e,e,e,e,e,e,e,e,e,e,e,e,e,e,e,e,e,e,e,e,e,e,e,e,e,e,e,e,e,e,e,e,e,e,e,e,e,e,e,e,e,e,e,e,e,e,e,e,e,e,e,e,e,e,e,e,e,e,e,e,e,e,e,e,e,e,e,e,e,e,e,e,e,e,e,e,e,e,e,e,e,e,e,e,e,e,e,e,e,e,e,e,e,e,e,e,e,e,e,e,e,e,e,e,e,e,e,e,e,e,e,e,e,e,e,e,e,e,e,9.17,12.07,14.80,17.85,20.73,23.66,26.56,29.30,31.62,33.73,35.67,37.15,37.93,38.84,39.54,39.92,40.12,40.88,41.82,43.25,45.05,46.98,48.90,51.67,55.02,58.61,61.86,65.04,68.12,71.13,74.15,77.15,80.46,84.02,87.72,90.40,92.49,94.40,96.22,97.46,97.40,96.99,96.09,94.25,92.08,89.28,86.14,83.27,83.51,88.40,93.92,99.05,104.55,109.98,114.49,117.83,119.88,120.57,119.23,116.41,112.82,110.19,108.62,110.00,114.22,120.38,127.02,133.62,139.64,144.60,147.70,150.95,154.28,157.38,159.44,160.15,157.90
e,e,e,e,e,e,e,e,e,e,e,e,e,e,e,e,e,e,e,e,e,e,e,e,e,e,e,e,e,e,e,e,e,e,e,e,e,e,e,e,e,e,e,e,e,e,e,e,e,e,e,e,e,e,e,e,e,e,e,e,e,e,e,e,e,e,e,e,e,e,e,e,e,e,e,e,e,e,e,e,e,e,e,e,e,e,e,e,e,e,e,e,e,e,e,e,e,e,e,e,e,e,e,e,e,e,e,e,e,e,e,e,e,e,e,e,e,e,e,e,e,e,e,e,e,e,e,e,e,e,e,e,e,e,e,e,e,e,e,e,e,e,e,e,e,e,e,e,e,e,e,e,e,e,e,e,e,e,e,e,e,e,e,e,e,e,e,e,e,e,e,e,e,e,e,e,e,e,e,6.11,8.99,11.45,13.51,16.73,20.38,23.66,26.49,29.21,31.46,33.28,34.63,35.54,36.51,37.25,37.95,38.80,40.11,41.15,42.70,44.69,46.80,48.87,51.79,55.21,58.75,61.95,64.98,67.93,70.90,74.00,77.10,80.36,83.71,87.08,89.89,91.85,93.56,95.12,95.68,95.25,94.70,93.76,91.77,89.03,85.69,82.45,80.32,83.07,88.88,94.72,99.82,104.72,109.02,112.26,114.30,115.02,113.88,112.15,109.85,107.34,106.19,106.17,108.94,114.27,121.11,127.32,133.65,139.75,145.19,148.73,151.71,154.25,156.11,156.50,154.70,151.80
e,e,e,e,e,e,e,e,e,e,e,e,e,e,e,e,e,e,e,e,e,e,e,e,e,e,e,e,e,e,e,e,e,e,e,e,e,e,e,e,e,e,e,e,e,e,e,e,e,e,e,e,e,e,e,e,e,e,e,e,e,e,e,e,e,e,e,e,e,e,e,e,e,e,e,e,e,e,e,e,e,e,e,e,e,e,e,e,e,e,e,e,e,e,e,e,e,e,e,e,e,e,e,e,e,e,e,e,e,e,e,e,e,e,e,e,e,e,e,e,e,e,e,e,e,e,e,e,e,e,e,e,e,e,e,e,e,e,e,e,e,e,e,e,e,e,e,e,e,e,e,e,e,e,e,e,e,e,e,e,e,e,e,e,e,e,e,e,e,e,e,e,e,e,e,e,e,e,e,e,6.00,7.84,8.82,12.33,16.35,20.11,23.43,26.50,28.88,30.66,32.03,33.18,34.22,35.13,36.23,37.65,39.35,40.52,42.15,44.19,46.28,48.53,51.58,55.08,58.66,61.88,64.82,67.69,70.61,73.76,76.91,80.08,83.20,86.23,89.09,91.09,92.72,94.01,93.94,93.24,92.46,91.25,88.91,85.72,82.19,79.33,78.38,83.12,89.44,95.41,100.42,104.56,107.53,109.31,109.82,109.02,107.03,105.46,103.96,102.62,102.69,104.31,108.29,114.35,121.65,127.45,133.60,139.80,145.64,149.56,152.25,153.82,154.20,153.11,149.82,146.67
