302.69,298.77,294.53,289.88,285.94,282.57,279.63,276.91,273.58,270.92,269.75,270.86,273.55,276.92,282.13,289.10,293.36,297.23,302.29,308.22,313.49,318.63,324.86,331.40,337.30,341.12,344.65,348.42,352.47,356.14,359.67,363.97,368.65,372.93,377.07,381.61,386.47,391.52,396.17,400.72,405.64,410.70,415.09,418.86,421.38,423.18,424.88,426.64,427.90,428.81,429.48,429.93,430.19,430.20,429.87,429.05,428.32,427.21,425.85,424.37,422.81,421.16,419.62,418.22,416.89,417.00,417.51,418.30,419.26,420.33,421.27,422.06,422.57,422.34,422.01,421.21,419.68,417.15,413.74,411.07,408.74,406.40,404.01,401.24,397.21,391.91,386.11,381.26,376.40,371.53,366.74,362.08,357.77,353.51,349.11,344.47,339.39,333.67,328.05,323.86,320.19,316.78,313.47,310.06,305.86,302.02,298.50,295.42,293.15,291.18,289.18,287.30,285.76,284.82,283.82,282.83,282.02,281.91,282.42,283.25,284.47,286.31,287.62,288.71,288.83,287.28,283.28,279.07,274.39,269.58,265.90,261.19,254.89,247.77,240.85,234.21,227.82,221.72,215.99,210.77,207.46,204.48,201.30,197.51,193.15,188.93,184.83,180.78,176.38,171.90,167.34,162.80,158.64,155.78,152.84,149.67,146.24,142.70,139.43,136.37,133.44,130.44,127.76,125.14,122.55,120.02,117.94,115.68,113.47,111.54,110.03,106.65,102.79,99.16,96.40,93.62,90.98,88.59,86.57,84.53,82.47,80.63,79.17,78.22,77.27,76.37,75.46,74.39,73.37,72.35,71.35,70.33,68.54,67.95,67.78,67.73,67.76,67.86,67.95,68.02,68.04,67.68,67.24,66.73,66.19,65.65,65.06,64.57,64.28,64.34,64.36,64.41,64.48,64.54,64.56,64.62,64.69,64.74,64.76,64.83,64.92,65.03,65.18,65.35,65.55,65.75,65.92,66.07,65.99,65.47,64.55,63.39,62.31,61.20,60.36,60.07,60.15,60.18,60.15,60.04,59.79,59.48,59.16,58.90,58.74,58.50,58.19,57.85,57.40,56.32,55.13,53.93,52.73,51.43,50.16,49.30
305.29,301.64,297.87,293.51,289.37,285.86,283.07,280.76,278.27,275.67,273.85,273.92,275.88,278.98,284.03,290.72,294.54,298.47,303.58,309.49,314.75,320.26,326.78,333.39,339.08,342.38,345.52,348.95,352.87,357.28,361.43,366.06,370.72,374.66,378.77,382.96,387.14,391.35,396.37,401.23,406.22,411.27,416.08,419.72,422.15,423.82,425.19,426.15,426.75,427.18,427.53,427.82,427.86,427.57,426.90,425.84,425.07,424.10,422.76,420.94,418.76,416.89,415.53,414.57,413.58,413.50,413.76,414.33,415.20,416.31,417.31,418.35,419.30,419.43,419.91,420.01,419.25,417.08,414.30,412.13,410.13,407.96,405.59,403.30,400.21,395.86,389.66,384.63,379.83,375.03,370.03,365.02,360.72,356.44,351.85,346.98,342.08,336.45,330.80,326.51,322.83,319.08,315.38,311.71,307.34,302.98,298.76,294.58,290.10,286.16,283.42,281.68,280.54,279.07,277.85,276.97,276.51,276.62,277.35,278.44,279.90,281.83,283.03,283.98,284.21,283.28,280.50,277.10,273.07,268.79,265.32,261.08,255.19,248.43,241.91,235.37,229.26,223.52,218.09,212.81,208.95,205.53,202.17,198.50,194.05,189.76,185.64,181.64,177.42,173.08,168.59,164.04,159.69,156.50,153.37,150.15,146.78,143.30,139.96,136.83,133.89,130.87,128.16,125.37,122.49,119.67,117.43,114.93,112.41,110.14,108.84,105.83,102.39,99.14,96.51,93.87,91.29,88.87,86.75,84.60,82.41,80.48,78.97,78.00,77.04,76.13,75.21,74.16,73.15,72.17,71.25,70.39,69.06,68.47,68.27,68.28,68.29,68.43,68.46,68.35,68.11,67.61,67.08,66.53,65.96,65.42,64.84,64.30,63.91,63.85,63.88,63.94,64.01,64.05,64.09,64.15,64.21,64.26,64.29,64.36,64.42,64.49,64.61,64.76,64.95,65.13,65.28,65.44,65.13,64.41,63.38,62.33,61.28,60.22,59.37,58.92,58.93,58.91,58.85,58.77,58.65,58.43,58.24,58.09,57.93,57.73,57.48,57.11,56.51,55.32,54.09,52.95,51.88,50.78,49.75,48.99
307.67,304.33,301.04,297.03,292.68,288.92,286.09,284.11,282.36,280.02,277.86,277.06,278.37,281.26,285.80,291.46,295.25,299.46,304.66,310.43,315.57,321.39,327.88,334.28,339.76,342.84,345.68,348.82,352.65,357.77,362.42,366.88,371.22,375.49,379.55,383.36,386.91,390.48,395.89,401.14,406.34,411.58,416.96,420.47,422.79,424.23,425.04,424.95,424.87,424.93,425.14,425.29,425.21,424.65,423.67,422.44,421.62,420.88,419.54,417.19,414.22,412.12,410.96,410.49,410.06,409.83,409.87,410.27,411.12,412.42,413.49,414.70,416.00,416.47,417.68,418.61,418.64,417.09,415.04,413.17,411.33,409.37,407.04,404.76,402.42,399.16,392.92,387.60,382.89,378.21,372.98,367.84,363.62,359.33,354.51,349.30,344.38,338.92,333.40,328.88,325.47,321.52,317.53,313.84,309.91,305.32,300.58,295.37,288.47,282.37,278.90,277.29,276.30,274.04,272.43,271.63,271.56,271.70,272.49,273.77,275.44,277.39,278.48,279.19,279.41,279.04,277.78,275.06,271.66,268.04,264.59,260.84,255.38,248.97,242.74,236.37,230.39,224.93,219.94,214.94,210.40,206.40,202.75,199.08,194.58,190.25,186.13,182.16,177.99,173.70,169.31,164.84,160.37,157.01,153.76,150.49,147.17,143.74,140.38,137.23,134.29,131.28,128.48,125.45,122.22,119.09,116.68,113.92,111.03,108.35,106.84,104.36,101.65,99.01,96.47,93.93,91.39,88.98,86.82,84.58,82.35,80.42,78.97,78.04,77.04,76.04,75.03,74.03,73.04,72.12,71.32,70.67,70.21,69.53,69.09,68.99,68.89,68.97,68.85,68.51,67.96,67.42,66.88,66.31,65.71,65.17,64.63,64.08,63.61,63.36,63.41,63.49,63.54,63.55,63.62,63.70,63.74,63.76,63.83,63.90,63.93,63.95,64.02,64.18,64.34,64.49,64.65,64.80,64.32,63.55,62.63,61.70,60.71,59.77,58.93,58.27,58.15,58.05,57.96,57.89,57.80,57.59,57.41,57.26,57.10,56.95,56.75,56.33,55.57,54.36,53.15,52.09,51.16,50.23,49.38,48.67
309.95,307.05,303.91,300.59,296.62,292.63,289.21,287.48,286.10,284.10,282.01,280.76,281.43,283.85,287.60,292.11,295.95,300.41,305.56,311.00,315.84,321.51,327.27,333.02,338.54,341.52,344.26,347.32,351.14,356.41,361.34,365.78,369.99,374.40,378.86,382.75,386.29,389.91,395.32,400.85,406.27,411.68,417.51,421.00,422.73,423.19,422.93,422.74,422.59,422.61,422.77,422.87,422.57,421.73,420.56,419.44,418.17,417.30,415.60,412.50,409.88,408.00,406.49,405.29,404.52,404.41,404.59,405.26,406.61,408.40,410.04,411.55,412.92,414.14,415.49,416.58,417.33,417.71,415.87,414.03,412.20,410.32,407.89,405.43,402.95,399.92,395.05,389.93,385.26,380.62,375.52,370.09,365.94,361.94,357.41,351.90,346.85,341.57,336.44,332.27,328.22,323.90,319.67,315.77,311.94,307.65,303.27,298.46,291.95,285.84,281.11,277.50,274.48,271.38,269.19,268.00,267.60,266.95,267.47,268.77,270.63,272.72,274.29,275.20,275.53,275.44,275.32,273.25,270.26,266.87,263.67,260.04,254.95,249.00,243.07,237.05,231.34,226.15,221.43,216.58,211.68,207.07,202.79,198.77,194.55,190.38,186.30,182.29,178.12,173.87,169.55,165.18,160.81,157.41,154.14,150.87,147.54,143.87,140.41,137.25,134.36,131.40,128.19,124.88,121.66,118.82,116.57,113.72,110.73,108.01,105.46,102.99,100.58,98.20,95.76,93.27,90.88,88.60,86.44,84.25,82.07,80.22,78.90,77.92,76.92,75.91,74.91,73.90,73.06,72.42,71.92,71.50,71.09,70.57,70.14,69.85,69.55,69.21,68.80,68.30,67.71,67.17,66.63,66.08,65.52,64.98,64.44,63.87,63.32,62.92,62.92,62.98,63.05,63.10,63.12,63.19,63.25,63.30,63.32,63.35,63.36,63.36,63.38,63.59,63.76,63.92,64.07,64.17,63.77,63.07,62.18,61.25,60.31,59.48,58.74,58.06,57.59,57.30,57.13,57.05,56.91,56.74,56.58,56.42,56.27,56.12,55.98,55.61,54.83,53.81,52.80,51.83,50.90,49.98,49.17,48.42
312.08,309.54,306.71,303.69,300.20,296.45,292.94,290.99,289.63,288.06,286.50,285.35,285.60,287.20,289.78,293.01,296.68,301.31,306.40,311.51,315.98,320.41,325.68,331.18,336.18,339.52,342.67,346.09,350.19,355.74,360.75,365.09,369.17,373.57,378.17,382.24,386.05,390.05,395.85,401.51,407.39,413.37,418.99,422.05,422.68,421.91,420.88,420.54,420.32,420.29,420.42,420.42,419.96,418.99,417.76,416.68,415.19,413.99,412.13,409.23,406.92,404.84,402.88,401.23,400.39,400.31,400.49,401.15,402.51,404.63,406.80,408.69,410.26,411.92,413.34,414.64,415.86,417.10,416.28,414.67,412.76,410.80,408.31,405.68,403.00,399.99,395.82,391.07,386.57,382.12,377.36,371.83,367.66,363.88,359.81,354.72,349.24,343.88,338.96,334.84,330.62,326.08,321.59,317.50,313.90,309.87,305.71,301.17,295.28,289.44,284.14,279.34,274.90,271.24,268.34,265.95,264.01,262.87,263.03,263.91,265.30,266.97,268.85,270.52,271.67,272.15,272.76,271.40,269.01,266.05,263.01,259.23,254.43,248.96,243.33,237.40,231.64,226.46,221.90,217.00,211.86,207.10,202.68,198.32,194.19,190.14,186.15,182.17,178.03,173.82,169.55,165.20,160.76,157.54,154.37,151.09,147.68,143.89,140.39,137.19,134.23,131.16,127.74,124.67,122.05,119.75,117.37,114.27,111.00,108.03,104.85,102.05,99.49,97.09,94.69,92.28,90.07,87.98,85.87,83.74,81.64,79.93,78.72,77.72,76.72,75.77,74.91,74.15,73.51,73.04,72.67,72.33,71.95,71.52,70.99,70.37,69.82,69.18,68.60,68.05,67.49,66.95,66.41,65.85,65.29,64.75,64.21,63.64,63.07,62.58,62.48,62.50,62.57,62.62,62.65,62.71,62.76,62.78,62.78,62.78,62.80,62.82,62.82,62.99,63.15,63.31,63.45,63.53,63.21,62.57,61.70,60.77,59.95,59.24,58.58,57.89,57.25,56.77,56.43,56.18,56.05,55.90,55.75,55.59,55.44,55.28,55.17,54.89,54.32,53.42,52.50,51.57,50.65,49.75,48.97,48.20
314.10,311.83,309.45,306.44,303.48,300.36,297.18,294.63,292.99,291.95,291.27,290.65,290.65,291.16,292.26,294.12,297.44,302.18,307.20,311.98,316.00,318.35,323.32,328.87,332.90,336.99,340.96,345.07,349.69,355.64,360.55,364.75,368.67,372.93,377.48,381.82,386.13,390.78,397.26,402.92,409.47,416.33,421.20,423.53,422.65,420.44,418.89,418.35,418.04,417.99,418.09,417.94,417.38,416.40,415.21,414.13,412.58,410.88,409.04,407.09,405.08,402.44,399.95,398.07,397.37,397.26,397.33,397.75,398.75,401.07,403.73,406.08,407.93,409.79,411.23,412.76,414.27,415.50,416.34,415.14,413.06,410.93,408.38,405.58,402.68,399.51,395.49,391.25,387.05,382.88,378.64,373.16,368.89,365.27,361.82,357.72,351.56,345.91,341.08,336.76,332.73,328.08,323.35,319.06,315.82,312.01,307.95,303.58,298.47,293.16,287.83,282.48,277.13,273.12,269.39,265.16,260.72,259.33,259.07,259.17,259.56,260.34,262.39,265.31,267.84,269.12,270.12,269.52,267.88,265.49,262.56,258.42,253.84,248.87,243.51,237.49,231.41,226.06,221.55,216.46,211.16,206.61,202.46,197.75,193.56,189.60,185.74,181.85,177.76,173.60,169.36,164.97,160.34,157.45,154.46,151.17,147.61,143.83,140.32,137.06,133.94,130.62,127.17,124.75,123.19,121.64,118.91,115.41,111.73,108.33,104.85,101.44,98.39,95.75,93.35,91.03,89.03,87.18,85.17,83.09,81.11,79.54,78.47,77.46,76.46,75.62,75.02,74.71,74.32,73.94,73.55,73.17,72.78,72.39,71.67,70.64,69.79,68.94,68.28,67.76,67.30,66.76,66.22,65.64,65.03,64.49,63.95,63.41,62.87,62.33,62.08,62.05,62.10,62.11,62.19,62.26,62.27,62.21,62.21,62.21,62.25,62.30,62.30,62.38,62.52,62.67,62.81,62.89,62.65,62.05,61.19,60.26,59.62,59.05,58.46,57.76,57.07,56.43,55.82,55.29,55.22,55.07,54.92,54.76,54.61,54.45,54.30,54.18,54.01,53.16,52.25,51.32,50.41,49.56,48.78,48.01
316.27,314.00,311.67,309.14,306.49,303.66,300.73,297.98,296.00,294.89,294.41,294.18,294.13,294.23,294.76,296.00,298.64,303.02,307.67,311.93,315.21,317.92,321.89,326.32,330.38,335.06,339.81,344.67,349.83,355.88,360.98,365.37,369.53,374.13,379.27,384.06,389.01,394.52,401.01,407.52,413.93,419.52,422.77,422.87,421.32,419.12,417.26,416.33,415.78,415.63,415.70,415.35,414.80,413.99,412.92,411.70,410.25,408.71,407.12,405.48,403.43,400.90,398.24,395.98,395.14,395.01,395.02,395.38,396.40,399.26,401.76,403.95,405.90,407.85,409.61,411.23,412.68,413.97,415.11,415.10,414.03,412.09,409.74,407.25,404.49,401.29,397.32,393.14,388.99,384.91,380.89,375.74,370.83,366.97,364.11,360.36,354.32,348.46,343.33,339.05,335.27,330.86,326.18,321.65,318.16,314.31,310.15,305.68,300.83,296.12,291.49,286.25,279.81,275.94,272.00,267.44,262.51,259.41,258.02,257.37,257.32,257.94,259.08,260.85,262.73,264.33,265.87,266.24,265.84,264.59,261.90,258.14,253.71,248.57,242.70,236.87,231.24,226.46,222.66,218.64,213.00,207.94,203.54,199.07,193.85,189.30,185.28,181.50,177.02,172.39,167.87,163.57,159.58,156.80,154.04,151.10,147.93,144.09,140.33,136.78,133.51,130.28,127.63,125.47,123.64,121.80,119.29,116.10,112.60,109.14,105.57,102.02,98.81,95.98,93.25,90.62,88.46,86.56,84.60,82.66,80.80,79.31,78.29,77.38,76.76,76.29,75.90,75.54,75.20,74.83,74.45,74.03,73.25,72.40,71.43,70.39,69.54,68.73,68.06,67.46,66.85,66.21,65.75,65.32,64.84,64.30,63.76,63.19,62.62,62.08,61.64,61.54,61.61,61.66,61.69,61.72,61.69,61.63,61.63,61.67,61.71,61.74,61.79,61.82,61.94,62.09,62.23,62.26,62.05,61.48,60.65,59.87,59.29,58.73,58.17,57.57,56.88,56.20,55.56,54.97,54.55,54.28,54.09,53.93,53.78,53.62,53.43,53.28,53.17,52.76,51.97,51.09,50.22,49.37,48.54,47.69
319.41,316.98,314.51,312.25,309.72,307.06,304.32,301.50,299.62,298.77,298.57,298.46,298.17,297.78,297.70,298.32,300.37,304.24,308.41,312.19,315.03,317.94,321.46,325.42,329.66,335.00,340.12,345.34,350.84,356.94,362.40,367.19,371.79,376.92,382.66,387.93,393.29,399.14,405.67,412.35,417.92,421.79,423.46,422.01,419.78,417.42,415.40,414.22,413.52,413.25,413.21,412.67,411.98,411.18,410.24,409.05,407.66,406.38,405.09,403.65,401.71,399.21,396.50,394.10,392.92,392.75,392.73,393.07,394.10,397.08,399.53,401.74,403.84,405.82,407.78,409.52,411.05,412.41,413.64,414.22,413.92,412.69,411.29,409.26,406.72,403.65,399.95,396.00,391.94,387.89,383.93,379.26,374.10,369.75,366.52,363.16,357.91,352.27,346.88,342.31,338.89,335.10,330.82,326.14,322.32,318.37,314.25,309.76,304.50,300.01,295.70,290.63,283.98,279.60,275.26,270.58,265.56,260.91,258.26,256.63,255.80,255.65,256.29,257.31,258.67,260.29,261.83,262.89,263.41,263.05,260.96,257.52,253.37,248.49,242.89,237.40,231.96,227.41,223.95,220.51,215.13,210.01,205.33,200.58,194.71,189.56,185.07,181.00,176.33,171.58,167.10,163.04,159.39,156.70,154.14,151.58,148.94,145.47,141.45,137.61,134.22,130.53,128.20,126.20,124.23,122.18,119.84,116.80,113.32,109.70,106.11,102.67,99.51,96.60,93.71,90.97,88.68,86.67,84.68,82.68,80.76,79.25,78.30,77.68,77.34,77.07,76.79,76.40,76.07,75.69,75.19,74.50,73.47,72.35,71.22,70.18,69.31,68.53,67.82,67.15,66.43,65.76,65.30,64.88,64.41,63.89,63.40,62.90,62.37,61.85,61.31,61.11,61.13,61.18,61.16,61.15,61.13,61.08,61.08,61.13,61.17,61.20,61.25,61.28,61.36,61.49,61.63,61.65,61.45,60.89,60.11,59.47,58.95,58.41,57.87,57.33,56.67,55.99,55.33,54.71,54.07,53.65,53.33,53.10,52.92,52.76,52.57,52.41,52.30,52.17,51.59,50.79,49.86,48.86,48.00,47.10
323.84,321.06,318.22,315.91,313.25,310.58,307.98,305.26,304.06,303.91,304.11,303.76,302.98,301.99,301.25,301.20,302.81,305.99,309.52,312.88,315.67,318.53,322.36,326.76,331.37,337.45,342.40,347.43,353.01,359.12,365.14,370.60,375.93,381.85,388.18,393.97,399.43,404.91,411.54,417.45,421.24,422.84,422.97,420.87,417.99,415.20,413.23,412.00,411.24,410.86,410.62,409.88,408.82,407.86,407.00,406.11,404.72,403.82,402.87,401.52,399.93,397.32,394.73,392.50,390.72,390.47,390.46,390.83,391.84,394.37,396.95,399.43,401.72,403.66,405.65,407.59,409.35,410.81,411.84,412.23,412.34,412.51,413.09,411.72,409.50,406.78,403.61,400.17,396.26,392.13,388.05,384.03,379.17,373.98,369.08,366.17,362.61,357.77,352.17,346.86,343.96,341.29,337.87,333.19,328.93,324.81,320.89,316.52,309.97,305.15,300.66,295.83,290.13,284.37,279.37,274.81,270.22,264.29,260.18,257.30,255.24,253.45,254.15,255.00,256.04,257.28,258.08,259.47,260.48,260.65,259.65,256.44,252.74,248.74,244.44,239.50,233.91,229.07,225.47,221.93,217.63,213.05,208.08,202.34,196.34,190.56,185.18,180.31,175.74,171.32,167.31,163.67,159.96,157.37,154.97,152.77,150.88,148.35,144.08,139.91,136.48,131.55,128.91,126.92,125.03,122.89,120.64,117.53,113.83,109.90,106.41,103.42,100.56,97.71,94.91,92.32,89.97,87.78,85.63,83.28,81.09,79.44,78.56,78.49,78.28,78.00,77.68,77.29,76.91,76.48,75.72,74.43,73.36,72.22,71.10,70.05,69.13,68.34,67.57,66.81,66.05,65.42,64.87,64.29,63.65,63.18,62.82,62.49,62.12,61.65,61.11,60.79,60.66,60.67,60.60,60.58,60.58,60.57,60.57,60.58,60.62,60.67,60.68,60.75,60.78,60.85,61.00,61.07,60.83,60.28,59.57,59.08,58.61,58.10,57.55,57.01,56.46,55.80,55.14,54.51,53.82,53.22,52.67,52.25,52.02,51.87,51.71,51.56,51.41,51.33,51.08,50.39,49.27,47.92,47.04,46.14
329.04,326.94,324.63,321.72,318.15,315.28,313.51,312.34,311.96,312.17,312.35,311.71,310.90,309.72,308.34,307.00,306.42,308.16,310.78,313.67,316.37,319.34,323.40,328.33,333.85,339.82,344.67,349.75,355.63,362.32,369.70,376.52,382.65,388.25,394.03,399.19,404.30,409.80,416.19,420.27,422.50,422.99,421.81,419.16,416.01,412.86,410.12,407.90,406.48,405.69,405.26,404.53,403.76,403.04,402.36,401.68,400.76,399.99,399.09,397.84,396.08,393.74,391.41,389.27,387.29,386.70,386.68,387.22,388.42,391.44,394.17,396.74,399.22,401.50,403.54,405.25,406.68,407.89,408.01,408.10,408.52,409.54,411.16,411.23,410.59,409.34,407.14,403.87,400.32,396.55,392.59,388.56,384.24,379.55,374.63,370.16,366.10,361.58,356.59,351.40,348.24,345.68,342.73,338.88,335.91,332.52,328.65,324.13,318.52,313.07,307.21,301.27,295.67,290.15,284.79,279.56,274.33,268.56,263.53,259.61,256.51,253.61,252.34,252.27,252.80,253.43,253.91,254.49,254.74,254.48,253.58,251.26,248.61,245.80,242.84,238.23,232.85,228.03,224.29,220.65,216.67,212.09,206.80,200.72,195.52,189.98,183.98,177.70,173.35,169.53,166.22,163.26,160.10,158.03,155.96,153.95,152.25,150.24,146.41,142.39,138.82,134.06,130.39,127.73,125.70,123.53,121.34,118.35,114.65,110.49,107.14,104.34,101.73,99.18,96.70,94.16,91.62,89.15,86.86,84.55,82.23,80.37,79.31,79.27,79.14,78.90,78.56,78.14,77.63,76.95,75.96,74.58,73.32,72.11,70.97,69.92,69.04,68.22,67.43,66.64,65.83,65.13,64.45,63.79,63.15,62.65,62.20,61.76,61.34,60.96,60.55,60.31,60.20,60.16,60.12,60.11,60.11,60.11,60.11,60.11,60.16,60.21,60.21,60.25,60.26,60.29,60.35,60.34,60.19,59.79,59.21,58.70,58.23,57.72,57.19,56.69,56.15,55.56,54.95,54.31,53.62,52.95,52.34,51.80,51.35,51.07,50.85,50.67,50.52,50.44,50.24,49.61,48.51,47.08,46.07,45.15
334.19,332.96,331.40,328.39,324.52,321.88,321.03,321.21,321.46,321.80,321.80,320.93,319.85,318.24,316.18,313.79,311.32,311.41,312.72,314.78,317.27,320.63,325.02,330.43,336.66,342.32,347.27,352.62,358.90,366.18,374.73,382.63,389.32,394.44,399.49,403.99,408.82,414.38,419.80,422.25,423.11,422.59,420.41,417.33,413.97,410.21,406.04,402.99,400.96,399.78,399.21,398.53,398.00,397.53,397.06,396.52,395.89,395.20,394.39,393.33,391.50,389.36,387.26,385.27,383.30,382.30,382.25,383.08,384.72,388.09,391.16,394.00,396.66,399.29,401.32,402.71,403.54,404.01,403.53,403.40,403.94,405.30,407.41,408.89,410.06,410.64,409.70,407.08,404.08,400.75,397.04,393.09,389.25,385.18,380.59,375.00,370.35,365.79,361.15,356.44,353.11,350.47,347.81,344.76,342.90,340.35,336.90,332.58,327.68,321.51,314.67,307.87,301.86,296.11,290.42,284.72,278.99,273.31,267.49,262.58,258.41,254.36,250.97,249.47,249.07,249.04,249.20,249.04,248.56,247.81,246.86,245.34,243.64,241.85,239.95,235.75,230.90,226.34,222.50,218.83,215.05,210.30,204.66,198.62,194.15,188.62,181.94,174.56,170.53,167.24,164.49,162.01,159.28,157.64,156.00,154.36,152.90,151.30,148.04,144.33,140.72,136.34,131.79,128.51,126.32,124.17,122.04,119.29,115.75,111.46,108.15,105.50,103.12,100.86,98.65,96.21,93.61,90.96,88.43,86.10,83.69,81.69,80.47,80.35,80.18,79.87,79.43,78.90,78.25,77.34,76.17,74.78,73.39,72.09,70.89,69.81,68.97,68.12,67.31,66.51,65.67,64.89,64.10,63.37,62.73,62.16,61.61,61.05,60.56,60.28,60.02,59.87,59.80,59.74,59.74,59.74,59.74,59.74,59.74,59.74,59.78,59.83,59.84,59.84,59.83,59.82,59.81,59.74,59.67,59.44,59.01,58.47,58.00,57.49,56.98,56.51,55.97,55.44,54.83,54.13,53.44,52.75,52.09,51.46,50.83,50.37,49.98,49.71,49.54,49.42,49.20,48.61,47.59,46.24,45.09,44.14
338.93,338.64,337.95,336.28,333.86,332.48,332.54,333.06,333.44,333.49,333.09,332.17,330.05,327.29,324.47,321.84,318.82,317.05,316.24,316.59,318.64,322.95,328.00,333.71,339.96,345.17,350.66,356.74,363.56,371.19,380.18,388.29,394.88,399.55,403.91,408.11,412.99,418.55,421.40,423.12,422.97,421.17,418.70,415.47,411.86,406.90,400.02,396.88,394.56,393.18,392.57,391.94,391.28,390.96,390.74,390.19,389.27,388.63,388.09,387.42,385.94,383.74,381.73,380.06,378.48,377.00,376.88,378.20,380.80,383.83,387.72,391.26,394.08,396.95,398.85,399.81,399.70,398.34,398.28,398.19,398.37,399.12,400.78,403.30,406.37,409.18,410.02,409.32,407.24,404.32,401.15,397.70,394.13,390.41,386.39,381.49,376.84,371.56,366.36,362.69,359.66,356.91,354.27,351.66,349.74,348.03,345.89,342.67,337.12,330.13,323.62,317.09,309.77,302.10,296.02,290.60,285.15,278.83,272.33,266.47,261.10,255.61,250.50,246.67,244.39,243.69,243.36,243.05,242.40,241.40,240.41,239.24,238.03,236.72,235.18,231.67,227.98,224.15,220.28,216.77,213.17,208.04,201.98,196.68,192.42,185.99,178.36,170.89,167.36,164.37,161.72,159.18,156.35,154.74,153.72,152.94,152.01,150.76,148.14,144.93,141.53,137.50,132.71,129.20,126.91,124.81,122.77,120.49,117.38,113.17,109.66,107.16,104.98,102.86,100.75,98.59,96.28,93.69,90.66,88.03,85.61,83.68,82.43,82.16,81.68,81.03,80.27,79.48,78.73,77.69,76.42,75.03,73.64,72.27,70.92,69.69,68.90,68.06,67.22,66.40,65.61,64.77,63.94,63.14,62.40,61.73,61.12,60.51,60.01,59.83,59.71,59.62,59.56,59.55,59.55,59.55,59.55,59.55,59.55,59.55,59.56,59.59,59.65,59.65,59.61,59.57,59.56,59.48,59.46,59.38,59.14,58.60,58.13,57.62,57.10,56.64,56.09,55.60,54.88,53.94,53.31,52.62,51.94,51.25,50.57,49.87,49.13,48.60,48.38,48.11,47.82,47.23,46.34,45.39,44.07,43.09
342.25,342.77,342.78,343.20,342.88,342.59,342.57,342.57,342.37,342.16,341.84,341.27,339.59,337.03,334.23,331.43,327.51,324.24,321.66,320.24,320.98,325.39,330.41,335.89,341.82,347.64,354.06,360.95,368.03,374.42,384.04,392.37,398.74,403.26,407.43,411.57,416.01,420.53,422.55,423.24,422.33,419.93,416.47,413.25,408.42,402.47,396.23,392.56,389.84,387.68,385.86,384.34,382.81,381.95,381.65,381.62,381.34,381.36,381.41,381.19,380.01,378.10,376.23,374.55,372.90,370.67,369.88,370.86,373.69,378.04,383.14,388.01,392.02,394.55,395.70,395.53,394.39,392.79,392.96,393.03,393.29,394.00,395.59,398.22,401.47,404.71,406.60,407.12,406.59,405.57,404.57,401.83,398.75,395.44,391.87,387.70,383.56,379.03,374.63,371.38,367.19,363.82,361.03,358.65,357.12,355.52,353.49,350.41,345.10,338.02,330.89,323.73,316.34,308.19,301.40,295.43,289.81,283.68,277.48,270.95,264.31,257.97,251.93,246.85,242.82,239.79,237.49,236.08,235.01,234.17,233.85,233.30,232.52,231.71,231.02,228.31,225.17,221.75,218.20,214.76,210.97,205.59,199.54,195.02,190.73,184.17,176.65,169.65,165.89,162.41,159.10,155.94,153.09,151.82,151.10,150.55,149.81,148.94,147.04,144.51,141.52,137.62,132.77,129.27,127.08,125.07,123.06,120.97,118.29,114.71,111.30,109.01,106.94,104.79,102.63,100.70,98.83,96.56,93.36,90.18,87.57,85.53,84.12,83.78,83.05,82.09,81.01,80.02,79.13,77.97,76.62,75.20,73.80,72.41,71.02,69.73,68.85,67.96,67.08,66.21,65.41,64.59,63.75,62.94,62.17,61.44,60.74,60.15,59.71,59.52,59.44,59.36,59.31,59.31,59.31,59.31,59.33,59.36,59.36,59.36,59.36,59.37,59.41,59.41,59.36,59.31,59.30,59.23,59.21,59.17,59.04,58.71,58.26,57.77,57.27,56.77,56.26,55.76,55.01,54.00,53.16,52.42,51.79,51.19,50.46,49.65,48.76,47.97,47.37,46.74,46.37,45.80,44.98,44.13,42.98,41.97
344.25,345.75,346.80,349.54,351.43,352.17,351.86,351.23,350.36,349.85,349.57,349.23,348.35,346.35,343.77,340.77,336.11,331.86,327.95,324.95,324.02,327.90,332.46,337.49,343.06,349.97,357.40,364.98,372.11,377.08,387.07,395.41,401.55,406.17,410.42,414.62,418.46,421.63,423.45,423.09,421.52,418.73,414.13,410.63,404.59,398.12,393.53,389.34,386.19,383.08,379.79,377.09,374.41,372.70,372.12,372.61,373.18,373.99,374.67,374.87,374.00,372.45,370.71,368.86,366.75,363.67,362.29,362.98,365.89,371.75,378.02,384.27,389.68,391.97,392.34,391.04,388.98,387.52,387.60,387.88,388.45,389.40,391.07,393.47,396.34,399.36,401.91,403.22,404.16,405.14,406.42,404.81,402.71,400.07,396.95,393.59,390.15,386.67,383.28,380.14,374.79,370.71,367.62,365.23,363.95,362.15,359.79,356.55,351.63,344.80,337.10,329.21,321.76,313.75,306.30,299.59,293.60,287.95,282.29,275.30,267.56,260.60,253.98,248.15,242.65,237.17,232.38,229.37,227.57,226.82,227.33,227.48,227.20,226.94,227.18,225.35,222.59,219.45,216.21,212.78,208.62,203.15,197.42,193.53,189.05,182.69,175.68,169.30,165.13,161.01,156.88,152.96,150.00,148.94,148.29,147.73,147.07,146.58,145.39,143.55,141.00,137.10,132.38,129.05,127.03,125.12,123.13,121.14,118.86,116.05,112.93,110.85,108.84,106.62,104.42,102.66,101.14,99.19,95.98,92.32,89.46,87.27,85.71,85.22,84.25,83.00,81.67,80.54,79.50,78.24,76.82,75.37,73.98,72.59,71.20,69.88,68.86,67.92,66.98,66.07,65.20,64.41,63.56,62.73,61.95,61.18,60.42,59.87,59.52,59.28,59.19,59.11,59.07,59.07,59.07,59.07,59.10,59.16,59.16,59.16,59.17,59.17,59.16,59.16,59.10,59.06,59.05,58.97,58.96,58.92,58.84,58.77,58.37,57.92,57.43,56.90,56.43,55.91,55.18,54.20,53.05,52.22,51.63,51.10,50.36,49.50,48.54,47.54,46.52,45.52,45.04,44.46,43.65,42.80,41.88,40.90
342.29,345.83,349.96,354.72,358.29,360.06,360.17,359.88,359.23,358.18,356.85,355.43,354.35,352.43,349.64,346.04,342.12,338.77,335.17,331.52,328.71,330.53,333.76,338.18,343.81,352.30,360.46,367.95,374.59,380.20,388.81,396.17,402.18,407.64,412.39,416.77,420.14,422.24,423.87,422.86,420.73,417.48,412.19,406.75,401.26,396.27,392.21,388.36,384.73,380.95,377.01,373.42,369.55,366.72,365.32,365.51,366.28,367.39,368.36,368.78,368.25,366.77,365.03,362.82,359.18,355.26,354.73,356.85,360.43,365.75,372.23,378.98,385.10,388.62,389.19,387.97,385.72,383.37,382.17,382.65,383.94,385.41,387.38,389.50,392.16,395.14,397.69,398.91,399.78,400.63,401.76,402.96,403.85,403.13,400.66,398.49,395.67,392.11,388.24,384.81,380.96,376.68,372.73,369.65,367.19,364.80,362.22,358.91,353.70,347.49,341.16,333.67,323.96,316.54,309.28,302.33,295.89,290.58,284.89,277.88,270.05,262.59,255.73,249.54,243.84,238.24,231.12,225.80,222.17,220.42,221.17,222.03,222.64,223.17,223.82,223.08,220.94,217.93,214.46,210.89,206.07,201.10,196.42,192.38,187.38,181.44,175.11,169.05,164.88,160.67,156.32,152.00,148.40,146.38,145.17,144.47,144.01,143.82,143.10,141.72,139.44,135.34,131.29,128.46,126.61,124.80,122.91,121.01,118.98,116.69,114.31,112.26,110.23,108.14,106.19,104.36,102.53,100.35,97.39,94.03,90.93,88.63,87.29,86.15,84.79,83.36,82.03,81.04,79.87,78.56,77.16,75.75,74.36,72.97,71.61,70.31,69.19,68.19,67.21,66.23,65.27,64.32,63.36,62.45,61.63,60.86,60.18,59.70,59.38,59.09,58.95,58.89,58.88,58.88,58.88,58.88,58.89,58.90,58.90,58.95,58.98,58.96,58.90,58.90,58.85,58.80,58.79,58.72,58.70,58.66,58.60,58.58,58.41,58.05,57.56,57.02,56.56,56.04,55.47,54.71,53.16,52.19,51.36,50.65,50.10,49.20,48.22,47.20,46.14,45.14,44.42,43.64,42.75,41.84,40.97,40.22
338.28,343.75,350.65,357.08,362.69,366.06,367.03,366.97,366.62,365.59,364.06,362.35,360.75,358.49,355.35,351.36,347.31,344.03,340.73,337.46,334.74,335.83,338.21,341.84,346.88,354.30,362.42,369.99,376.70,383.29,390.54,396.99,403.00,409.42,414.06,418.11,421.00,422.59,424.01,422.75,420.56,417.37,411.99,406.23,401.24,397.01,393.35,389.26,385.07,380.84,376.48,371.65,366.52,362.30,359.57,358.85,359.01,359.91,360.82,361.19,360.80,359.17,357.32,355.15,351.80,349.14,349.83,352.77,356.54,361.10,367.49,374.70,381.56,385.22,386.07,385.34,383.50,381.03,378.76,378.98,380.43,382.11,384.05,386.07,388.51,391.24,393.67,394.80,395.63,396.50,397.70,399.93,402.24,403.16,402.35,401.34,399.38,396.78,393.74,390.51,386.86,382.14,377.30,373.08,369.49,366.30,363.25,359.57,353.46,348.01,342.64,335.62,325.34,318.30,311.11,303.93,297.12,291.97,286.27,279.39,271.64,263.81,256.69,250.20,244.26,238.52,230.70,224.80,220.37,217.43,216.49,217.17,217.83,218.62,219.87,219.65,218.08,215.52,212.21,208.22,203.42,198.96,194.87,190.81,185.62,179.94,174.14,168.65,164.63,160.43,155.97,151.46,147.53,144.41,142.24,140.96,140.41,140.30,139.83,138.67,136.53,132.80,129.72,127.49,125.85,124.16,122.34,120.50,118.58,116.55,114.47,112.58,110.66,108.60,106.42,104.45,102.54,100.42,97.80,94.79,91.88,89.61,88.14,86.69,85.16,83.72,82.43,81.33,80.04,78.70,77.33,75.94,74.58,73.20,71.84,70.57,69.44,68.42,67.42,66.41,65.41,64.40,63.38,62.40,61.49,60.63,60.02,59.61,59.33,59.02,58.83,58.70,58.65,58.65,58.68,58.68,58.68,58.68,58.68,58.73,58.75,58.73,58.68,58.65,58.61,58.57,58.54,58.49,58.46,58.40,58.35,58.35,58.27,58.04,57.67,57.19,56.69,56.19,55.69,55.01,53.46,52.32,51.32,50.40,49.58,48.62,47.70,46.75,45.77,44.85,44.03,43.16,42.23,41.31,40.45,39.84
333.05,340.33,349.71,357.55,365.36,370.65,372.78,372.94,372.98,372.36,371.18,369.69,367.36,364.50,360.96,356.74,352.04,348.25,345.19,342.90,341.56,342.83,344.69,347.45,351.47,356.14,363.68,371.42,378.57,386.30,392.22,397.84,403.96,411.36,415.52,418.91,421.32,422.77,423.98,422.73,420.80,418.01,412.94,407.96,403.43,399.49,396.14,391.43,386.65,382.10,377.49,371.24,364.84,359.09,354.73,352.61,351.63,351.95,352.54,352.64,352.26,350.40,348.41,346.57,344.66,344.58,346.70,350.10,353.75,357.45,363.49,371.06,378.62,381.75,382.96,382.99,381.93,379.85,376.70,376.36,377.58,379.27,380.95,382.94,385.17,387.52,389.73,390.76,391.61,392.62,394.05,396.14,398.80,401.15,402.63,402.75,401.79,400.79,399.39,396.74,392.43,387.13,381.39,375.78,371.13,367.03,363.32,359.03,351.71,347.08,342.39,335.86,326.13,319.31,312.10,304.69,297.57,292.46,286.77,280.12,272.58,264.47,257.12,250.36,244.15,238.25,230.78,225.47,220.94,216.74,212.92,212.79,212.91,213.58,215.49,215.41,214.37,212.45,209.55,205.02,200.70,196.74,192.96,188.93,183.80,178.28,172.91,168.14,164.35,160.21,155.73,151.17,147.15,142.85,139.50,137.35,136.44,136.26,135.87,134.78,132.73,129.75,127.81,126.26,124.84,123.30,121.54,119.71,117.83,115.89,113.82,112.16,110.41,108.31,105.61,103.46,101.61,99.74,97.52,94.92,92.48,90.32,88.51,86.96,85.42,84.08,82.86,81.46,80.07,78.73,77.39,76.01,74.69,73.32,71.97,70.70,69.62,68.60,67.60,66.60,65.59,64.58,63.53,62.48,61.47,60.47,59.91,59.58,59.33,59.02,58.78,58.55,58.39,58.40,58.47,58.49,58.49,58.49,58.49,58.49,58.49,58.49,58.49,58.41,58.39,58.36,58.29,58.29,58.23,58.15,58.09,58.09,58.02,57.94,57.76,57.37,56.83,56.35,55.85,55.18,53.88,52.56,51.42,50.30,48.90,47.89,47.05,46.25,45.41,44.63,43.80,42.91,41.98,41.06,40.20,39.65
330.70,338.72,348.11,356.84,365.05,371.06,374.57,376.75,377.62,377.75,377.03,375.25,372.72,370.01,366.80,362.92,358.62,353.70,349.40,346.60,346.55,348.30,350.38,352.74,355.49,359.18,365.77,373.01,380.20,388.08,393.31,398.78,405.07,412.31,416.28,419.41,421.71,423.20,423.77,422.61,420.93,418.48,414.05,410.41,406.78,403.11,399.34,394.63,389.62,384.66,379.64,373.64,367.14,360.92,355.21,350.13,347.76,346.70,345.82,344.53,344.14,343.50,342.73,341.77,340.41,341.47,344.58,348.67,352.59,356.09,360.52,366.53,373.47,377.48,379.20,380.09,379.94,378.06,375.11,374.25,374.90,376.40,377.54,379.03,380.89,382.88,384.35,385.60,387.00,388.58,390.35,392.48,395.16,397.98,400.49,401.59,401.71,401.37,400.55,399.08,394.55,388.73,382.59,376.89,371.79,367.05,362.25,356.86,349.83,345.55,340.80,334.47,325.85,318.28,310.85,303.53,296.53,290.87,285.49,279.26,272.00,263.83,256.73,249.87,243.21,236.64,229.82,225.27,221.38,217.39,212.73,210.41,209.25,209.19,210.18,209.85,209.08,207.51,204.92,201.03,197.64,194.31,190.70,186.38,181.48,176.51,171.68,167.18,163.34,159.30,155.00,150.57,146.45,142.19,138.47,135.27,132.46,131.49,130.92,130.14,128.77,126.73,125.47,124.32,123.09,121.69,120.08,118.44,116.65,114.65,113.02,111.38,109.27,106.67,104.07,101.93,99.89,98.07,96.64,94.73,92.66,90.62,88.76,87.22,85.71,84.29,82.91,81.47,80.07,78.73,77.39,76.00,74.64,73.29,72.02,70.82,69.69,68.62,67.60,66.60,65.59,64.53,63.50,62.46,61.41,60.40,59.89,59.58,59.34,59.08,58.85,58.51,58.25,58.20,58.23,58.23,58.26,58.30,58.30,58.30,58.27,58.23,58.23,58.16,58.13,58.10,58.03,58.03,57.97,57.89,57.83,57.83,57.76,57.68,57.59,57.44,56.95,56.48,55.98,55.39,54.53,52.83,51.51,50.36,48.71,47.70,46.82,46.01,45.22,44.44,43.57,42.65,41.75,40.92,40.12,39.55
329.62,338.12,347.23,356.26,364.98,371.85,376.58,380.18,381.94,382.79,382.64,381.23,378.37,375.27,371.98,368.49,364.46,359.18,354.27,350.99,351.04,353.25,355.70,358.10,360.34,363.58,368.69,374.68,381.30,389.12,393.99,399.34,405.65,412.82,416.89,419.87,422.05,423.52,423.49,422.28,420.76,418.72,415.21,412.38,409.52,406.27,402.34,397.88,392.69,387.32,381.92,376.18,369.73,363.25,356.59,349.33,346.12,343.80,341.56,339.08,338.25,338.07,337.79,337.22,336.40,338.82,342.70,347.16,351.36,354.65,358.05,362.89,368.98,373.21,375.22,376.68,377.33,376.35,373.33,371.92,371.96,373.06,373.74,374.78,376.40,378.26,379.34,380.73,382.42,384.37,386.49,388.72,391.39,394.38,397.44,399.71,400.91,401.25,400.94,400.25,395.15,389.12,382.98,377.27,371.50,366.03,360.29,354.17,347.86,343.78,338.61,332.18,324.76,316.73,309.02,301.66,294.78,288.91,283.72,277.59,270.41,262.55,255.87,248.86,241.74,234.80,228.97,225.07,221.59,217.72,212.55,209.05,206.81,205.69,205.47,204.92,204.16,202.74,200.43,197.18,194.41,191.58,188.24,183.86,179.33,174.77,170.33,166.13,162.29,158.27,154.04,149.69,145.57,141.25,137.26,133.51,129.78,127.85,126.77,125.95,124.98,123.63,122.64,121.60,120.42,119.18,117.76,116.41,114.93,113.20,111.79,109.73,107.32,104.75,102.25,100.12,97.96,96.13,95.12,93.86,92.27,90.44,88.48,86.77,85.21,83.85,82.61,81.31,79.94,78.64,77.35,76.00,74.61,73.30,72.06,70.88,69.72,68.66,67.62,66.60,65.59,64.53,63.51,62.48,61.40,60.40,59.91,59.61,59.37,59.14,58.84,58.45,58.13,58.01,58.01,58.01,58.03,58.08,58.08,58.08,58.03,57.98,57.98,57.90,57.88,57.85,57.78,57.78,57.72,57.64,57.58,57.58,57.51,57.43,57.38,57.36,57.01,56.59,56.12,55.59,54.99,53.23,51.76,50.44,48.76,47.71,46.73,45.84,45.02,44.22,43.34,42.44,41.56,40.79,40.04,39.47
329.95,338.65,347.14,355.83,365.20,373.08,378.83,383.17,385.89,387.44,387.97,387.68,384.32,380.24,376.45,373.36,369.49,364.68,359.89,356.13,355.00,357.62,360.63,363.53,366.10,369.49,372.54,376.43,381.82,389.34,394.23,399.48,405.65,412.82,417.34,420.31,422.35,423.71,423.14,421.71,420.25,418.69,416.41,413.80,411.56,408.92,405.12,401.21,395.88,390.09,384.33,378.90,372.66,366.14,358.96,350.42,346.96,343.53,340.03,336.61,334.84,334.29,333.69,332.94,332.65,336.69,341.07,345.55,350.07,353.11,356.15,360.24,365.25,368.93,371.00,372.70,374.04,374.74,371.34,369.36,368.75,369.18,369.52,370.18,371.69,373.66,374.74,376.18,377.89,379.96,382.47,384.85,387.48,390.31,393.38,397.04,399.32,400.36,400.46,400.12,394.05,388.15,382.48,376.86,370.15,363.86,357.36,350.91,345.78,341.75,335.76,328.92,322.77,314.60,306.55,299.02,292.25,286.52,281.40,275.04,267.72,260.55,254.52,247.28,239.68,232.69,228.24,224.85,221.55,217.69,212.37,208.81,205.73,203.20,201.44,200.69,199.66,198.16,196.12,193.51,191.00,188.50,185.55,181.36,177.36,173.08,168.87,164.98,161.19,157.11,152.83,148.50,144.47,139.98,135.86,132.10,128.54,125.47,123.51,122.27,121.40,120.43,119.26,118.00,116.76,115.66,114.48,113.54,112.63,111.54,110.07,107.11,104.49,102.54,100.13,98.01,95.79,93.89,92.89,92.22,91.27,89.74,87.60,85.55,83.80,82.67,81.93,80.97,79.67,78.45,77.26,76.00,74.61,73.34,72.10,70.88,69.72,68.70,67.65,66.60,65.59,64.58,63.58,62.54,61.47,60.46,59.97,59.67,59.44,59.21,58.77,58.36,58.03,57.82,57.82,57.82,57.82,57.82,57.82,57.82,57.78,57.72,57.72,57.65,57.62,57.59,57.52,57.52,57.46,57.38,57.32,57.32,57.25,57.17,57.12,57.12,57.02,56.70,56.27,55.79,55.24,53.79,52.17,50.56,49.08,47.93,46.78,45.73,44.82,43.98,43.13,42.27,41.44,40.66,39.96,39.41
329.93,339.13,348.28,355.95,365.23,373.34,379.51,384.90,388.46,390.68,391.79,392.05,390.00,387.24,383.39,378.51,374.20,369.93,365.29,360.86,358.06,361.40,365.56,369.54,372.66,375.12,378.08,381.99,386.76,391.47,395.57,400.25,405.77,412.18,417.14,420.80,422.89,423.31,422.15,420.32,418.64,417.19,415.56,414.05,412.33,410.10,407.12,403.25,398.84,393.21,386.68,381.45,375.56,369.38,362.62,354.82,348.92,344.73,341.22,337.48,332.44,330.46,329.10,328.17,328.88,333.29,338.10,342.86,347.31,350.77,354.16,357.99,362.20,365.61,367.42,369.00,370.60,372.26,370.39,368.03,366.29,365.83,365.78,365.97,366.97,368.57,369.83,371.75,373.92,376.31,378.84,380.97,383.15,385.51,388.31,392.50,395.17,397.00,398.01,398.07,392.75,387.44,381.98,376.04,368.39,361.46,354.83,348.66,343.73,338.14,331.94,325.57,319.43,310.52,302.50,295.40,289.20,283.66,277.57,271.09,264.54,258.37,253.03,246.03,238.19,230.61,226.55,223.27,220.12,216.60,211.90,208.39,205.20,202.41,200.17,198.23,196.20,194.24,192.37,190.31,188.13,185.73,182.87,179.20,175.44,171.52,167.50,163.45,159.26,154.77,150.41,146.30,142.28,138.06,134.19,130.69,127.50,124.47,122.17,120.28,118.59,116.94,115.19,113.62,112.39,111.67,110.74,110.03,108.99,107.13,104.77,102.51,100.53,98.80,97.03,95.22,93.29,91.62,90.71,90.00,88.95,87.49,85.63,83.72,82.07,81.04,80.43,79.55,78.51,77.45,76.40,75.38,74.31,73.25,72.10,70.87,69.67,68.65,67.62,66.58,65.53,64.53,63.49,62.45,61.44,60.61,60.04,59.70,59.48,59.16,58.70,58.26,57.87,57.57,57.62,57.63,57.63,57.62,57.57,57.57,57.52,57.47,57.47,57.39,57.37,57.34,57.27,57.27,57.20,57.13,57.07,57.07,56.99,56.95,56.91,56.86,56.79,56.64,56.36,55.92,55.38,54.27,52.68,50.94,49.51,48.22,47.05,45.96,44.90,43.82,42.97,42.16,41.37,40.59,39.89,39.37
329.55,339.26,349.14,355.91,364.78,372.88,379.46,385.76,390.16,393.13,394.94,395.89,395.15,393.78,390.32,384.49,379.70,375.51,370.98,366.28,362.29,365.87,370.72,375.48,379.13,380.91,384.31,388.51,392.75,395.52,398.85,402.74,407.25,412.40,417.20,421.27,423.26,422.58,420.75,418.41,416.56,415.28,414.18,413.54,412.34,410.57,408.28,404.74,401.23,395.93,388.98,383.78,378.34,372.53,366.17,359.00,351.01,346.18,342.69,338.84,331.93,328.35,325.62,323.84,324.89,329.47,334.62,339.65,344.05,347.86,351.55,355.24,358.88,362.12,363.81,365.21,366.81,369.04,369.08,366.80,364.20,362.70,361.63,361.31,361.82,363.01,364.44,366.90,369.63,372.45,375.15,376.79,378.26,379.93,382.29,386.70,389.96,392.82,394.89,395.31,391.40,386.77,381.42,375.19,366.63,359.24,352.65,346.79,341.86,334.70,328.25,322.10,315.37,306.06,298.43,292.02,286.46,281.15,274.55,268.08,262.09,256.69,251.83,245.28,237.73,230.14,225.70,221.90,218.54,215.26,211.20,207.97,205.05,202.40,200.00,197.38,194.44,191.73,189.48,187.44,185.39,183.06,180.32,177.05,173.50,169.89,166.11,162.09,157.57,152.95,148.85,145.21,141.21,137.46,133.92,130.66,127.78,125.07,122.62,120.27,117.93,115.70,113.40,111.35,109.78,108.94,107.99,107.19,105.97,103.84,101.09,99.53,98.17,96.70,95.37,93.64,91.82,90.25,89.33,88.46,87.24,85.78,84.14,82.41,80.81,79.79,79.16,78.25,77.34,76.35,75.40,74.57,73.72,72.81,71.75,70.58,69.47,68.49,67.53,66.53,65.47,64.45,63.41,62.40,61.48,60.78,60.12,59.72,59.48,59.08,58.63,58.18,57.73,57.36,57.40,57.41,57.41,57.40,57.32,57.31,57.27,57.21,57.21,57.13,57.11,57.08,57.01,57.01,56.95,56.88,56.83,56.81,56.74,56.71,56.68,56.61,56.53,56.51,56.36,56.01,55.51,54.72,53.22,51.38,49.87,48.52,47.33,46.18,44.98,43.75,42.86,42.07,41.28,40.51,39.84,39.36
328.57,338.75,349.23,355.45,363.43,371.24,378.29,385.19,390.44,394.33,397.11,399.10,399.35,399.07,396.79,391.97,386.74,381.77,377.25,373.08,368.95,371.76,376.31,381.20,385.27,387.05,391.51,396.13,399.88,402.85,405.58,408.37,411.30,414.38,417.84,421.66,423.24,421.33,418.66,415.68,413.76,412.88,412.18,411.79,411.16,409.98,408.02,405.42,402.58,397.82,391.23,385.73,380.86,375.46,369.25,362.13,353.16,347.82,344.18,340.52,334.84,329.50,324.33,320.42,320.48,325.09,330.44,335.66,340.16,344.01,347.79,351.44,354.92,358.16,360.02,361.19,362.39,364.56,366.91,365.54,362.66,359.91,356.61,355.72,355.85,356.65,358.17,361.23,364.61,368.05,371.28,372.08,372.38,372.98,374.65,378.87,383.26,387.56,390.83,391.60,389.97,386.10,380.75,374.34,364.94,357.39,351.02,345.47,340.34,331.89,324.99,318.39,310.20,301.24,294.65,289.29,284.39,279.38,273.38,267.13,261.13,255.98,251.17,245.42,239.13,232.73,226.61,221.21,216.97,213.65,210.13,207.63,205.54,203.57,201.42,199.24,195.70,191.78,188.12,185.10,182.77,180.51,178.00,174.88,171.52,168.10,164.66,161.12,156.51,152.37,149.16,146.44,142.49,139.50,136.37,133.27,130.55,128.47,126.13,123.68,121.23,118.80,116.09,113.28,110.65,108.73,107.21,105.74,104.40,103.20,101.18,99.98,99.03,98.04,96.66,94.52,92.37,90.57,89.45,88.28,86.91,85.39,83.78,82.20,80.54,79.34,78.48,77.43,76.32,75.23,74.27,73.48,72.63,71.72,70.74,69.75,68.98,68.18,67.34,66.42,65.40,64.33,63.35,62.46,61.67,60.98,60.23,59.73,59.40,58.95,58.55,58.11,57.65,57.22,57.17,57.16,57.16,57.14,57.07,57.06,57.01,56.96,56.96,56.88,56.86,56.82,56.76,56.76,56.69,56.65,56.63,56.56,56.48,56.46,56.43,56.35,56.27,56.26,56.20,56.03,55.62,55.11,53.79,51.92,50.07,48.81,47.58,46.33,45.05,43.81,42.85,41.98,41.15,40.38,39.80,39.40
327.41,336.94,347.83,354.36,361.49,368.72,375.81,382.69,388.94,393.54,396.97,400.11,401.35,401.83,400.83,398.13,394.96,389.96,384.82,380.17,376.42,377.74,381.78,386.69,390.77,393.55,398.45,402.98,406.26,408.85,411.13,413.39,415.61,417.70,420.37,421.18,420.23,417.81,414.91,412.40,410.93,410.37,410.02,409.79,409.33,408.42,406.89,405.00,402.69,398.57,392.61,387.01,382.23,377.08,371.20,364.36,355.29,349.53,345.58,342.07,337.43,331.60,325.31,319.88,317.84,321.32,326.18,331.30,335.87,339.84,343.47,346.88,350.11,353.09,354.85,356.36,358.16,360.78,363.79,363.87,361.66,357.76,352.16,350.42,350.23,350.94,352.64,356.24,359.98,363.50,366.44,367.02,366.99,367.28,368.69,372.59,377.16,381.26,384.56,386.87,387.02,384.50,379.86,373.48,364.25,356.64,350.26,344.75,339.42,331.42,324.45,317.50,309.07,300.30,293.86,288.55,283.65,278.78,273.75,268.12,262.32,257.22,252.87,248.23,243.35,238.25,232.46,226.32,220.87,216.29,212.20,209.13,207.02,205.27,203.18,200.94,197.19,192.90,188.70,185.00,181.59,178.68,176.07,173.29,169.99,166.95,164.12,161.34,157.71,154.53,151.98,149.80,147.09,144.77,141.83,138.55,135.48,132.93,130.10,127.30,124.70,122.22,119.26,116.19,113.31,111.03,109.49,108.27,107.32,106.54,105.22,104.27,103.22,101.85,100.12,97.68,95.45,93.54,91.92,90.30,88.65,87.00,85.38,83.71,82.41,81.21,80.02,78.71,77.58,76.46,75.35,74.24,72.65,71.37,70.27,69.30,68.49,67.68,66.89,66.09,65.24,64.24,63.37,62.58,61.81,61.12,60.36,59.77,59.34,58.87,58.48,58.05,57.58,57.14,56.99,56.92,56.90,56.89,56.81,56.80,56.75,56.70,56.70,56.62,56.60,56.57,56.50,56.50,56.44,56.40,56.38,56.31,56.23,56.20,56.17,56.10,56.02,56.00,55.96,55.86,55.63,55.26,54.22,52.49,50.21,48.89,47.66,46.43,45.16,43.88,42.77,41.85,41.07,40.30,39.78,39.38
326.29,334.82,345.81,352.96,359.33,365.81,372.61,379.19,386.21,391.40,395.46,399.78,402.13,403.44,403.81,403.39,402.55,398.11,392.71,387.58,383.86,383.49,386.94,391.90,396.12,400.15,404.95,409.02,411.88,414.07,416.01,417.89,419.65,421.13,422.48,420.26,416.98,414.22,411.26,409.30,408.25,407.88,407.80,407.62,407.23,406.50,405.37,404.01,402.17,398.72,393.55,387.97,383.09,378.10,372.55,365.97,357.17,351.11,346.86,343.48,339.74,333.94,327.08,320.42,316.30,318.01,321.92,326.74,331.33,335.49,338.94,342.05,344.97,347.60,349.39,351.47,354.06,357.23,360.49,362.01,360.62,355.72,348.53,345.60,344.94,345.76,347.61,351.49,355.38,358.77,361.25,361.78,361.72,362.05,363.50,367.10,371.50,375.09,378.16,381.77,383.33,382.38,378.81,372.68,364.19,356.57,350.08,344.50,339.09,332.02,325.25,318.25,310.20,301.49,294.70,289.02,283.92,278.92,274.69,269.75,264.34,259.39,255.50,251.82,248.17,244.34,239.51,233.09,226.60,220.70,215.74,211.74,209.06,207.09,205.01,202.55,198.88,194.54,189.98,185.63,181.09,177.44,174.62,172.06,168.88,166.26,164.02,161.91,159.35,157.12,155.09,153.29,151.81,150.06,147.42,144.18,140.82,137.66,134.31,131.11,128.24,125.74,122.62,119.44,116.51,114.12,112.75,111.96,111.43,110.90,110.16,109.37,108.12,106.34,104.31,101.67,99.31,97.14,94.90,92.89,90.99,89.22,87.56,85.89,85.01,83.90,82.44,80.89,79.67,78.43,77.09,75.57,73.23,71.46,70.11,69.06,68.18,67.34,66.59,65.90,65.20,64.22,63.38,62.62,61.87,61.19,60.44,59.80,59.29,58.82,58.42,57.98,57.52,57.07,56.81,56.69,56.65,56.63,56.55,56.54,56.50,56.44,56.44,56.37,56.34,56.31,56.24,56.24,56.18,56.14,56.13,56.05,55.97,55.94,55.92,55.84,55.76,55.74,55.71,55.63,55.57,55.32,54.59,53.03,50.25,48.88,47.67,46.49,45.26,43.96,42.72,41.74,40.99,40.22,39.75,39.34
325.50,332.91,343.00,351.09,356.97,362.43,368.14,374.08,380.85,386.41,391.34,396.79,400.72,403.44,405.39,406.75,406.64,404.18,400.50,395.89,390.35,388.33,391.09,396.30,401.57,406.73,410.15,412.95,415.54,417.83,419.69,421.16,422.37,423.54,421.14,418.67,415.90,412.74,409.62,407.48,406.17,405.57,405.43,405.17,404.80,404.20,403.26,402.05,400.59,397.91,393.73,388.45,383.30,378.28,372.85,366.23,358.11,352.19,347.86,344.50,341.30,336.21,329.34,321.96,317.00,315.74,317.78,321.78,326.29,330.75,334.20,337.03,339.48,341.76,344.33,347.14,350.26,353.77,357.48,359.86,358.83,353.47,347.31,342.22,340.48,341.80,343.65,346.93,350.43,353.57,355.82,356.30,356.41,357.26,359.38,362.83,366.79,370.42,373.58,376.35,378.53,379.31,377.36,372.03,365.36,357.87,351.08,345.34,340.27,334.09,328.12,322.07,315.43,306.42,298.42,291.86,286.52,280.53,276.12,271.71,267.21,262.95,259.08,255.50,252.32,249.51,245.91,239.93,233.45,227.18,221.43,216.50,212.15,208.78,206.79,204.04,201.01,196.97,191.78,186.65,181.61,177.63,174.51,171.50,168.88,166.62,164.55,162.51,160.31,158.45,156.73,155.07,153.54,152.10,150.44,148.30,145.42,142.31,138.91,135.34,131.87,129.27,126.13,122.87,119.84,117.51,116.43,115.76,115.30,114.87,114.28,113.40,112.22,110.74,108.95,106.34,103.38,100.31,97.40,95.33,93.41,91.58,89.86,88.69,88.05,87.14,85.82,84.21,82.48,80.72,78.95,77.09,74.65,72.41,70.56,69.23,68.54,67.81,67.11,66.41,65.71,64.48,63.29,62.34,61.69,61.05,60.35,59.76,59.29,58.82,58.38,57.92,57.46,57.00,56.58,56.48,56.44,56.38,56.30,56.29,56.24,56.19,56.19,56.11,56.09,56.06,55.99,55.99,55.93,55.89,55.87,55.79,55.72,55.69,55.66,55.58,55.51,55.49,55.45,55.39,55.37,55.25,54.87,53.46,49.93,48.71,47.58,46.45,45.27,44.07,42.85,41.74,40.80,40.09,39.67,39.28
324.19,330.62,339.19,348.22,354.20,359.11,363.93,369.22,375.29,380.60,385.73,391.69,397.13,401.46,405.10,408.13,409.24,408.41,406.14,402.48,397.26,394.73,396.29,400.71,406.38,410.62,413.48,416.04,418.69,421.20,422.80,423.43,423.33,422.89,419.73,417.33,414.80,411.64,408.54,406.08,404.35,403.35,403.04,402.70,402.31,401.70,400.74,399.45,397.91,395.58,392.10,387.02,381.93,377.18,371.94,364.95,358.16,352.84,348.71,345.46,342.64,338.75,332.02,323.74,318.14,314.71,314.14,316.10,320.03,325.03,328.93,331.87,334.12,336.31,339.69,343.37,347.15,350.94,354.10,356.39,356.21,352.66,347.03,340.89,336.91,335.96,338.20,341.31,344.59,347.45,349.31,349.90,350.88,352.74,355.61,358.94,362.40,365.56,368.33,370.67,372.91,374.58,374.39,371.49,366.11,359.35,352.62,346.54,341.57,336.43,331.33,326.10,320.46,312.40,304.01,296.70,290.88,285.13,279.66,274.91,270.77,266.82,262.89,259.21,256.03,253.41,250.50,245.66,239.49,232.62,226.27,221.06,216.09,211.77,208.66,205.70,202.81,199.00,193.90,188.21,182.52,178.14,174.84,171.67,169.16,166.97,164.91,162.80,160.62,158.70,156.91,155.28,153.96,152.96,152.22,151.11,148.91,146.30,143.03,139.43,135.84,132.96,129.83,126.58,123.55,121.27,120.20,119.57,119.14,118.70,118.03,117.13,115.83,114.16,112.33,110.09,107.53,104.55,101.04,98.12,96.08,94.47,93.04,92.07,91.34,90.37,89.08,87.45,85.41,83.33,81.23,79.09,76.68,74.03,71.67,69.91,69.06,68.33,67.62,66.92,66.22,64.75,63.27,62.12,61.41,60.80,60.17,59.64,59.20,58.74,58.28,57.79,57.31,56.85,56.42,56.27,56.20,56.13,56.08,56.05,56.01,55.97,55.93,55.89,55.85,55.81,55.77,55.74,55.67,55.63,55.62,55.54,55.46,55.43,55.41,55.33,55.29,55.25,55.20,55.13,55.13,55.07,54.88,53.59,49.74,48.56,47.44,46.32,45.19,44.03,42.86,41.72,40.70,40.01,39.66,39.32
322.54,328.09,334.88,344.62,351.04,355.79,359.87,364.53,369.62,374.34,379.30,385.43,392.24,398.21,403.54,408.17,410.80,411.38,410.39,407.98,404.21,401.79,402.04,405.14,410.63,413.02,415.76,418.65,421.56,424.34,425.56,425.09,423.27,420.67,418.29,416.12,413.69,410.77,407.76,404.94,402.69,401.17,400.49,400.05,399.59,398.91,397.83,396.40,394.58,392.32,389.30,384.39,379.56,375.22,370.24,362.88,357.70,353.19,349.41,346.34,343.79,341.25,334.75,325.59,319.50,314.47,311.04,310.31,313.22,318.71,323.25,326.57,328.84,331.12,335.20,339.74,344.23,348.29,350.47,352.25,353.13,352.39,347.06,340.48,333.80,329.32,331.93,335.02,338.08,340.56,341.98,342.86,345.11,348.27,351.91,355.23,358.18,360.63,362.77,364.89,366.90,368.96,370.49,370.67,366.42,360.75,354.32,347.87,342.91,338.87,334.66,330.14,325.26,318.76,310.51,302.61,296.16,291.19,284.36,278.80,274.58,270.75,266.78,262.95,259.50,256.59,254.00,250.55,244.89,237.43,230.59,225.35,220.32,215.38,210.64,207.48,204.40,200.76,196.11,189.97,183.62,178.83,175.41,172.24,169.55,167.26,165.09,162.85,160.53,158.34,156.32,154.62,153.57,153.03,153.12,153.01,151.69,149.79,146.81,143.40,139.96,136.71,133.59,130.43,127.46,125.23,124.02,123.36,122.93,122.42,121.57,120.62,119.10,117.04,115.03,113.30,111.60,109.23,105.38,101.44,99.26,97.93,96.82,95.77,94.73,93.57,92.22,90.57,88.36,86.07,83.73,81.33,78.97,76.00,73.16,70.90,69.70,68.86,68.13,67.43,66.71,65.01,63.30,61.95,61.09,60.48,59.93,59.48,59.07,58.61,58.14,57.63,57.12,56.66,56.28,56.07,55.95,55.88,55.88,55.81,55.78,55.76,55.68,55.68,55.62,55.58,55.57,55.49,55.41,55.38,55.36,55.28,55.21,55.18,55.15,55.08,55.08,55.02,54.94,54.88,54.88,54.80,54.70,53.49,49.57,48.38,47.21,46.09,45.01,43.86,42.77,41.65,40.60,39.93,39.67,39.39
320.32,325.15,330.85,338.86,346.29,352.05,356.17,360.19,364.02,367.94,372.66,379.04,386.05,392.64,399.09,405.33,409.73,411.56,412.24,411.71,409.08,407.23,407.60,409.65,412.61,414.95,417.61,420.87,424.50,427.28,427.89,425.94,422.52,419.33,417.10,414.93,412.60,409.95,407.04,404.19,401.42,398.81,396.56,395.56,394.86,394.22,393.45,392.35,390.54,387.88,384.31,379.75,375.48,371.50,367.11,361.28,356.99,352.95,349.47,346.66,344.17,341.67,335.46,326.71,320.77,315.56,310.70,307.61,307.76,311.53,316.17,320.43,323.80,326.46,330.04,334.56,339.49,343.94,346.17,348.48,349.97,349.68,345.29,338.20,330.53,324.73,325.36,327.80,329.60,330.89,332.13,334.19,338.11,342.64,347.12,351.28,353.91,355.96,357.72,359.40,361.46,363.50,365.25,366.26,364.57,360.32,354.59,348.52,344.20,340.90,337.21,333.13,328.80,323.10,315.93,308.28,301.04,295.77,289.41,282.90,277.23,273.75,270.27,266.72,263.01,259.17,256.14,252.95,248.08,241.41,234.08,228.17,222.93,218.08,213.37,209.42,205.80,201.98,197.39,190.81,184.60,179.67,175.91,172.69,169.52,166.83,164.46,162.20,159.83,157.71,155.65,153.69,152.15,151.34,151.75,152.73,153.30,151.69,149.66,146.96,143.59,140.24,137.06,134.04,131.33,129.25,127.85,127.00,126.39,125.74,124.89,123.44,121.67,119.73,117.72,115.94,114.25,112.50,110.52,108.36,106.46,104.39,101.93,99.45,97.89,96.42,94.78,92.89,90.71,88.44,86.07,83.59,80.69,77.79,74.91,72.27,70.52,69.45,68.64,67.88,66.96,65.26,63.53,61.97,60.78,60.16,59.69,59.28,58.88,58.42,57.95,57.47,57.00,56.54,56.15,55.90,55.76,55.68,55.63,55.55,55.52,55.50,55.42,55.42,55.37,55.32,55.31,55.24,55.16,55.12,55.10,55.03,55.00,54.96,54.90,54.82,54.82,54.76,54.69,54.62,54.62,54.41,54.05,52.65,48.93,47.54,46.32,45.25,44.32,43.27,42.19,41.10,40.16,39.79,39.54,39.30
317.68,321.87,326.63,332.99,340.11,346.46,351.50,355.54,358.50,361.77,366.19,372.59,380.52,387.47,394.21,401.05,406.89,409.88,412.14,413.62,413.16,412.18,412.86,414.44,416.05,417.75,420.34,423.71,427.34,429.58,429.22,426.11,421.76,418.39,416.23,414.05,411.73,409.20,406.42,403.61,400.55,397.21,393.73,391.37,389.73,388.53,387.53,386.86,385.14,382.36,378.67,374.70,370.99,367.32,363.47,359.14,355.51,351.95,348.85,346.36,343.94,341.58,335.81,327.63,321.84,316.36,310.52,305.47,302.59,305.01,309.27,313.74,317.74,321.55,325.30,329.67,334.42,338.95,341.50,343.84,345.39,345.45,342.21,335.37,327.32,320.32,318.15,319.29,320.88,322.43,323.77,326.75,331.42,336.50,341.32,345.77,348.53,350.60,352.29,353.84,355.84,357.78,359.47,360.66,360.27,356.97,352.33,347.56,344.41,341.94,338.81,335.18,331.38,326.52,320.43,313.23,305.57,299.96,293.68,286.67,280.11,276.10,273.06,269.91,266.27,262.02,258.29,254.95,250.50,244.44,236.79,230.39,224.87,219.92,215.17,210.82,206.84,202.87,198.30,191.30,185.13,180.14,176.21,172.94,169.57,166.49,163.70,161.16,158.71,156.49,154.35,152.31,150.53,149.64,150.30,151.89,153.49,153.05,151.85,149.82,147.02,143.86,140.65,137.73,135.27,133.47,132.04,131.00,130.16,129.31,128.18,126.44,124.56,122.69,120.73,118.82,117.07,115.61,114.58,113.32,111.63,109.32,106.39,103.27,101.13,99.13,97.09,95.06,92.90,90.65,88.31,85.80,82.53,79.26,76.19,73.50,71.54,70.16,69.19,68.32,67.18,65.49,63.75,62.07,60.61,59.92,59.48,59.09,58.69,58.26,57.79,57.33,56.88,56.44,56.03,55.74,55.56,55.48,55.38,55.30,55.27,55.24,55.17,55.17,55.11,55.07,55.06,54.98,54.92,54.89,54.85,54.77,54.77,54.72,54.64,54.57,54.57,54.51,54.43,54.34,54.16,53.77,53.25,51.85,48.45,46.54,45.16,44.13,43.30,42.37,41.38,40.48,39.82,39.61,39.41,39.19
314.63,318.28,322.23,327.01,332.63,339.17,345.93,350.62,353.07,355.81,359.86,366.09,375.60,382.68,388.94,395.44,402.42,406.51,410.25,413.87,416.52,416.68,417.85,419.49,420.83,421.34,423.89,427.14,430.09,431.30,429.63,425.66,420.99,417.82,415.65,413.44,411.07,408.51,405.88,403.18,400.03,396.29,391.93,387.47,384.23,381.93,380.21,380.03,378.51,375.85,372.43,369.30,366.12,362.71,359.36,356.52,353.33,350.26,347.60,345.47,343.15,341.02,335.83,328.37,322.73,316.89,310.49,303.84,297.68,299.12,302.53,306.53,310.76,316.40,320.93,325.04,329.06,333.40,336.48,338.40,339.50,339.84,337.93,332.02,324.18,316.07,310.36,309.59,311.93,315.07,316.77,320.44,325.03,329.87,334.57,338.83,342.12,344.61,346.52,348.21,350.07,351.83,353.20,353.96,353.73,350.92,347.74,345.11,343.64,342.07,339.53,336.37,333.08,329.10,324.08,317.51,309.79,303.78,297.24,290.12,283.21,277.86,275.22,272.54,269.29,265.13,260.46,256.57,252.20,246.58,238.78,232.06,226.19,220.97,216.12,211.72,207.56,203.47,198.89,191.49,185.26,180.27,176.32,173.00,169.68,166.22,162.83,159.74,157.20,154.72,152.48,150.52,148.74,147.94,148.75,150.55,152.39,153.92,153.43,152.03,150.28,147.56,144.33,141.48,139.27,137.86,136.54,135.34,134.22,133.10,131.43,129.61,127.76,125.90,124.04,121.92,120.04,118.58,117.65,116.49,114.93,112.86,110.24,107.22,104.43,101.72,99.19,97.11,94.95,92.73,90.43,87.96,84.49,80.45,77.04,74.61,72.75,70.98,69.77,68.76,67.38,65.68,63.98,62.25,60.59,59.75,59.29,58.90,58.51,58.13,57.67,57.20,56.77,56.37,55.91,55.57,55.37,55.28,55.13,55.04,55.01,54.99,54.91,54.91,54.86,54.81,54.80,54.72,54.71,54.67,54.59,54.52,54.51,54.46,54.38,54.31,54.31,54.25,54.17,54.02,53.49,52.89,52.32,51.08,48.13,45.38,43.75,42.75,41.97,41.19,40.35,39.81,39.58,39.42,39.26,39.06
309.91,313.04,316.70,321.98,326.74,331.99,337.53,341.44,345.05,349.90,355.97,362.92,371.08,378.95,386.52,393.79,400.77,405.48,409.72,413.82,417.59,418.97,420.73,422.67,424.47,426.12,428.10,430.16,431.75,431.31,428.73,424.78,420.61,417.73,415.47,413.23,410.84,408.21,405.35,402.65,399.29,395.19,390.70,386.59,383.20,379.84,375.90,373.48,371.54,369.27,366.44,363.54,360.86,358.07,355.23,352.49,349.52,347.01,344.89,342.99,340.67,337.81,333.28,327.55,322.48,316.93,310.74,303.45,295.16,294.37,297.41,301.73,306.20,310.92,315.74,320.52,325.05,329.00,332.19,334.23,335.32,335.52,333.86,328.22,321.20,313.85,306.80,304.02,304.57,307.06,310.06,314.20,318.99,323.66,327.82,331.46,334.61,337.20,339.26,340.82,341.83,342.56,343.16,343.66,343.62,342.55,341.29,340.21,339.57,339.01,337.52,335.36,332.93,329.51,325.02,319.31,312.61,306.20,299.51,292.27,284.93,278.39,275.74,273.28,270.45,266.81,261.63,257.21,252.65,247.13,239.19,232.26,226.25,220.97,216.17,211.76,207.41,203.02,198.12,190.75,185.05,180.33,176.35,172.89,169.33,165.68,162.08,158.67,155.75,153.03,150.69,148.74,147.01,146.52,147.70,150.04,152.78,154.87,155.68,155.60,154.70,151.95,148.83,146.07,143.85,142.22,140.99,139.71,138.37,136.94,135.24,133.49,131.71,129.91,128.15,126.37,124.67,123.09,121.69,120.01,117.87,115.40,112.62,109.28,106.29,103.35,100.54,98.13,96.00,93.86,91.75,89.57,85.85,81.43,77.97,75.82,74.02,72.24,70.68,69.21,67.63,65.88,64.17,62.44,60.75,59.71,59.18,58.75,58.32,57.94,57.52,57.08,56.64,56.25,55.78,55.44,55.22,55.10,54.99,54.87,54.79,54.73,54.66,54.66,54.60,54.56,54.55,54.47,54.46,54.41,54.34,54.26,54.26,54.21,54.13,54.06,54.06,53.89,53.58,53.15,52.61,52.00,51.40,50.27,47.81,45.03,42.72,41.23,40.67,40.28,39.90,39.60,39.37,39.17,39.01,38.84
305.33,308.08,311.37,316.53,320.86,325.63,330.80,334.53,339.30,345.56,352.84,360.31,367.92,377.03,385.99,393.77,400.38,405.36,409.80,414.07,418.36,420.83,423.21,425.49,427.62,429.76,431.33,432.45,432.81,431.07,427.87,424.05,420.33,417.59,415.21,412.89,410.46,407.80,404.90,402.28,399.09,395.30,391.28,387.29,383.73,379.71,374.48,370.33,367.31,364.31,361.03,358.25,355.84,353.34,350.70,348.00,345.36,343.27,341.33,339.22,336.80,333.62,329.95,325.90,321.48,316.30,310.33,302.72,293.19,290.58,292.71,296.80,301.38,305.74,310.60,315.69,320.56,324.55,327.71,329.81,330.93,331.09,329.68,324.50,318.17,311.33,303.51,299.56,298.81,300.56,303.96,308.17,313.06,317.64,321.48,324.84,327.74,330.12,331.97,333.24,333.78,333.97,334.17,334.59,334.82,334.98,334.93,334.73,334.58,334.96,334.56,333.42,331.70,328.58,324.64,319.83,314.13,307.66,300.92,293.66,286.07,278.63,276.00,273.62,270.93,267.45,262.04,257.33,252.54,246.85,238.72,231.83,225.77,220.45,215.77,211.40,206.91,202.21,196.98,189.92,184.58,180.08,176.14,172.59,168.90,165.15,161.44,157.88,154.65,151.56,149.01,147.02,145.28,145.25,146.79,149.47,152.69,155.43,157.51,158.81,158.99,156.56,153.72,151.04,148.69,146.76,145.31,143.88,142.38,140.75,139.07,137.39,135.70,134.01,132.37,130.85,129.25,127.54,125.72,123.46,120.78,117.87,114.78,111.18,107.90,104.79,101.85,99.13,96.99,94.89,92.81,90.65,86.81,82.34,78.98,77.05,75.31,73.59,71.84,70.03,68.14,66.36,64.61,62.85,61.14,59.82,59.22,58.75,58.30,57.90,57.45,56.98,56.53,56.12,55.66,55.30,55.05,54.91,54.83,54.69,54.58,54.50,54.40,54.40,54.35,54.30,54.29,54.21,54.20,54.16,54.08,54.00,54.00,53.95,53.87,53.79,53.66,53.34,52.86,52.25,51.69,51.17,50.66,49.49,46.69,43.83,41.51,40.13,39.78,39.63,39.54,39.38,39.15,38.94,38.78,38.61
301.11,303.63,306.42,310.34,314.86,320.54,326.87,331.44,337.22,343.66,350.71,358.34,366.84,377.83,388.18,396.02,401.74,406.45,410.74,414.83,418.82,422.17,425.23,427.89,430.07,431.57,432.99,433.61,433.00,430.57,427.17,423.57,420.17,417.33,414.81,412.34,409.82,407.20,404.60,402.14,399.74,397.29,394.66,390.22,386.35,382.30,377.32,372.42,367.34,361.85,356.49,353.71,351.22,348.47,345.59,342.89,340.78,338.86,336.53,333.57,330.90,328.08,325.58,323.07,319.39,314.67,308.89,301.36,291.91,288.17,288.57,291.51,296.00,301.05,305.61,310.34,315.21,319.95,322.86,324.92,326.12,326.40,325.34,320.94,315.04,308.18,300.31,296.50,295.43,296.42,298.76,302.47,307.28,311.89,315.78,319.44,321.94,323.64,324.74,325.52,326.19,326.63,327.07,327.66,328.29,328.80,328.85,328.53,328.38,329.58,330.32,330.20,328.95,325.72,322.43,318.55,313.75,307.72,301.09,293.96,286.39,278.51,275.97,273.49,270.48,266.57,261.36,256.73,251.64,245.39,237.02,230.51,224.52,219.19,214.75,210.48,205.91,200.90,195.36,188.98,183.70,179.32,175.56,172.01,168.37,164.64,160.96,157.48,154.11,150.44,147.49,145.40,143.57,144.19,146.08,148.76,151.75,155.38,158.68,161.40,163.01,161.47,159.14,156.52,153.89,151.56,149.44,147.71,146.15,144.52,142.89,141.26,139.69,138.19,136.70,135.29,133.66,131.80,129.67,126.77,123.66,120.30,116.68,112.99,109.23,105.98,103.13,100.16,97.97,95.81,93.54,90.98,87.18,83.14,80.11,78.28,76.64,75.07,73.37,71.41,69.03,67.25,65.43,63.62,61.85,60.15,59.47,59.01,58.55,58.09,57.51,56.95,56.45,55.99,55.53,55.13,54.86,54.72,54.64,54.50,54.39,54.29,54.14,54.14,54.09,54.04,54.03,53.96,53.94,53.90,53.83,53.75,53.74,53.69,53.62,53.52,53.04,52.53,51.97,51.35,50.74,50.42,50.19,48.76,44.33,41.27,40.00,39.65,39.53,39.37,39.28,39.12,38.91,38.74,38.59,38.39
296.80,300.02,303.90,308.67,315.34,322.52,329.26,334.21,339.54,345.50,352.22,359.83,370.81,381.25,390.54,398.15,403.22,407.73,411.85,415.69,419.34,423.02,426.58,429.48,431.29,432.72,434.15,434.52,433.38,430.71,427.40,424.01,420.76,417.82,415.31,412.94,410.74,408.73,406.99,404.98,402.91,400.81,398.66,394.52,390.18,385.49,380.23,375.17,370.10,364.15,357.55,352.61,349.26,346.06,342.88,339.89,337.43,334.94,332.25,329.27,326.24,323.18,320.43,317.77,314.46,310.49,305.62,299.26,291.22,287.19,286.31,287.64,290.71,295.44,299.74,304.17,308.52,312.28,314.95,317.76,319.91,320.73,319.72,315.79,310.48,304.42,297.97,293.90,291.93,292.21,294.78,298.04,301.85,305.74,309.47,312.98,315.28,316.78,317.71,318.37,319.10,319.57,319.88,320.13,320.37,320.73,321.13,321.56,321.98,323.29,324.22,324.38,323.48,321.10,318.34,315.00,310.81,305.06,299.11,292.34,285.00,277.73,274.86,272.25,268.92,264.33,259.35,254.74,249.35,242.77,234.88,228.56,222.87,217.80,213.40,209.03,204.47,199.21,193.15,187.05,182.12,178.10,174.65,171.22,167.63,164.00,160.33,156.65,152.96,149.17,146.05,143.75,141.90,142.26,144.38,147.51,150.76,155.28,159.58,163.29,165.97,166.38,165.38,162.95,159.61,156.44,154.05,152.07,150.25,148.42,147.00,145.58,144.14,142.66,141.11,139.52,137.79,135.75,133.21,130.03,126.48,122.68,118.73,114.82,110.50,106.98,104.19,101.39,98.96,96.47,93.72,90.60,87.38,84.34,81.85,79.97,78.31,76.82,75.03,72.82,70.19,68.21,66.35,64.56,62.82,61.05,59.95,59.26,58.79,58.29,57.67,57.11,56.56,56.02,55.52,55.07,54.77,54.63,54.51,54.32,54.20,54.11,53.99,53.91,53.83,53.79,53.78,53.70,53.69,53.65,53.57,53.49,53.49,53.36,53.10,52.73,52.19,51.68,51.24,50.87,50.49,50.24,49.48,47.23,42.23,40.19,39.48,39.36,39.28,39.16,39.04,38.89,38.70,38.50,38.34,38.17
293.86,298.03,303.04,309.25,318.07,326.51,333.34,338.38,343.05,348.47,354.87,362.37,375.13,384.47,392.42,399.91,404.52,408.83,412.73,416.26,419.58,423.54,427.52,430.60,432.07,433.57,435.07,435.40,434.13,431.45,428.27,425.05,421.88,418.84,416.32,414.13,412.29,410.84,409.86,408.29,406.51,404.61,402.59,398.86,394.21,388.95,383.37,378.13,373.29,367.38,360.20,353.30,349.15,345.55,342.16,339.02,336.12,332.92,329.76,326.82,323.76,320.58,317.47,314.29,310.69,306.74,302.44,297.28,290.96,286.96,284.83,284.31,285.55,289.67,293.68,297.81,301.68,304.67,307.32,310.71,313.56,314.85,313.94,310.58,306.00,300.80,295.61,290.67,287.72,287.52,290.48,293.61,296.58,299.77,303.21,306.35,308.48,309.86,310.69,311.27,312.00,312.42,312.58,312.55,312.44,312.58,313.27,314.42,315.61,317.09,318.07,318.27,317.54,315.96,313.57,310.59,306.92,301.59,296.34,289.84,282.72,276.56,273.45,270.40,266.54,261.46,256.77,252.03,246.38,239.68,232.37,226.21,220.87,216.14,211.76,207.29,202.68,197.21,190.81,184.90,180.41,176.76,173.56,170.25,166.73,163.18,159.49,155.61,151.67,147.87,144.63,142.07,140.09,140.30,142.63,146.14,149.62,154.74,159.88,164.46,168.03,170.07,170.25,168.31,164.82,161.07,158.51,156.37,154.37,152.36,151.09,149.77,148.36,146.86,145.31,143.56,141.69,139.45,136.53,133.04,129.09,124.98,120.92,116.88,112.08,108.21,105.34,102.74,100.15,97.42,94.33,90.81,88.03,85.81,83.79,81.87,80.16,78.67,76.77,74.37,71.50,69.15,67.22,65.47,63.76,61.99,60.49,59.54,59.02,58.48,57.87,57.30,56.73,56.13,55.55,55.05,54.73,54.57,54.40,54.19,54.04,53.94,53.85,53.69,53.59,53.54,53.52,53.45,53.43,53.39,53.32,53.25,53.15,52.89,52.47,51.92,51.45,51.01,50.71,50.56,50.40,50.18,48.72,45.61,40.58,39.59,39.22,39.11,39.02,38.95,38.82,38.66,38.48,38.26,38.11,37.94
294.84,300.09,305.42,313.51,323.35,332.03,338.48,343.04,347.34,352.44,358.58,365.88,377.50,385.56,392.91,400.73,405.24,409.28,412.83,416.00,419.02,423.43,427.68,430.85,432.33,433.99,435.59,436.35,435.80,433.52,430.38,427.21,424.09,420.95,418.23,416.26,414.70,413.34,412.46,411.15,409.82,408.30,405.93,402.56,398.08,392.79,387.04,381.26,376.07,370.45,364.02,357.02,352.64,348.90,345.60,342.85,339.81,335.94,332.03,328.72,326.65,324.01,321.06,317.36,311.77,305.66,300.59,296.09,291.62,287.96,284.42,281.68,280.69,284.01,287.63,291.38,295.20,298.98,302.26,305.27,307.64,309.01,308.44,306.15,302.57,297.98,292.74,285.41,281.61,281.53,284.56,288.44,291.56,294.49,297.41,299.86,301.82,302.98,303.56,303.99,304.57,304.84,305.00,305.22,305.25,305.34,305.96,307.28,309.46,311.70,312.86,312.87,311.86,310.43,307.97,305.08,301.88,297.44,292.61,285.98,279.00,274.66,271.79,267.49,262.53,257.66,253.37,248.12,242.30,235.99,229.08,223.13,218.14,213.74,209.46,205.04,200.15,194.60,188.47,182.71,178.74,175.36,172.17,168.91,165.48,161.93,158.20,154.27,150.33,146.61,143.25,140.31,137.90,138.73,141.32,144.75,148.08,153.00,158.67,164.01,168.24,170.37,170.82,170.13,168.25,164.95,162.27,160.21,158.35,156.38,154.95,153.33,151.70,150.18,148.93,147.20,145.15,142.65,139.53,135.40,131.16,127.13,123.44,119.59,114.58,110.20,106.83,104.33,101.89,99.34,96.45,93.09,90.01,87.80,85.91,84.10,82.33,80.63,78.71,76.31,73.09,70.06,67.92,66.17,64.47,62.69,61.03,59.88,59.21,58.67,58.06,57.49,56.94,56.38,55.65,55.08,54.73,54.56,54.34,54.17,53.98,53.80,53.66,53.50,53.40,53.33,53.27,53.19,53.18,53.14,53.07,53.06,52.59,52.09,51.66,51.36,51.13,50.87,50.65,50.49,50.34,50.12,47.94,44.19,40.00,39.46,39.11,38.90,38.77,38.69,38.60,38.44,38.24,38.07,37.91,37.72
296.99,302.76,308.60,317.94,327.79,335.99,341.88,346.15,350.64,355.78,361.76,368.70,378.60,385.71,392.61,400.26,404.78,408.78,412.18,415.10,417.79,421.87,426.76,430.75,432.46,434.19,435.87,437.12,437.54,436.27,433.77,430.84,427.71,424.58,421.28,418.91,417.15,415.76,414.64,413.41,412.18,410.76,408.70,405.36,401.05,395.93,390.14,383.95,378.31,372.77,366.81,359.19,355.04,351.96,349.40,347.09,344.10,340.48,336.72,333.28,330.82,327.96,324.87,321.21,316.14,308.74,302.82,298.04,293.65,289.38,285.18,281.46,278.88,279.42,282.41,285.86,289.44,293.11,296.62,299.83,302.50,304.33,304.15,302.26,298.94,294.27,288.23,280.76,277.07,276.94,279.46,283.07,286.09,288.90,291.54,293.44,294.82,295.59,295.95,296.30,296.97,297.60,298.12,298.51,298.69,298.84,299.39,300.62,302.85,305.52,307.13,307.53,306.80,305.34,302.94,300.11,296.93,292.55,287.44,281.59,276.00,272.39,268.24,263.36,258.49,254.16,249.61,244.07,238.18,232.10,225.68,220.28,215.58,211.26,206.93,202.46,197.34,191.75,185.96,180.76,177.15,173.91,170.70,167.39,163.96,160.25,156.38,152.44,148.53,144.79,141.29,138.07,135.21,136.24,139.26,143.03,146.25,150.26,155.27,159.69,162.92,166.50,168.59,169.21,168.38,166.22,164.33,162.80,161.17,159.12,157.86,156.17,154.38,152.72,151.46,149.82,147.78,145.21,142.00,138.02,133.79,129.97,126.76,123.11,118.43,113.49,109.04,106.26,103.91,101.57,99.05,96.18,92.95,90.46,88.30,86.32,84.47,82.63,80.60,78.07,74.64,71.15,68.74,66.88,65.17,63.43,61.72,60.37,59.45,58.91,58.33,57.73,57.10,56.45,55.68,55.08,54.73,54.56,54.33,54.16,53.96,53.74,53.56,53.40,53.25,53.12,53.01,52.93,52.92,52.83,52.65,52.47,52.08,51.69,51.37,51.15,50.99,50.81,50.61,50.43,50.27,50.08,47.24,42.95,39.77,39.41,39.06,38.76,38.56,38.48,38.37,38.22,38.03,37.88,37.69,37.50
299.62,305.73,312.19,322.36,331.70,339.07,344.30,348.39,353.25,358.55,364.39,370.92,378.85,385.22,391.76,398.99,403.61,407.66,411.04,413.83,416.26,419.69,425.09,430.02,432.27,434.06,435.84,437.63,439.11,439.11,437.51,434.93,431.83,428.71,424.83,421.86,419.69,418.13,416.62,415.36,414.04,412.59,411.01,407.68,403.53,398.57,392.80,386.34,380.22,374.58,368.89,360.92,357.32,355.14,353.47,351.56,348.78,345.70,342.39,338.93,335.55,332.19,328.81,325.29,321.48,313.53,306.89,301.38,296.34,291.04,286.51,282.38,278.61,275.70,277.57,280.54,283.86,287.28,290.81,294.41,297.69,300.16,300.39,298.57,295.14,290.09,283.02,276.32,273.10,272.90,274.77,277.78,280.55,283.23,285.69,287.17,287.91,288.28,288.50,288.79,289.56,290.61,291.51,291.99,292.28,292.51,293.08,294.25,296.40,299.33,301.42,302.37,302.09,300.55,298.23,295.36,291.91,287.26,281.81,277.08,273.11,269.48,263.81,258.78,254.45,250.60,245.54,239.88,234.00,228.06,222.21,217.43,212.95,208.59,204.20,199.65,194.38,188.83,183.42,178.96,175.59,172.35,169.02,165.56,161.98,158.14,154.20,150.30,146.48,142.70,139.08,135.64,132.41,133.36,136.79,141.03,144.26,147.16,150.99,153.84,155.51,160.53,164.82,166.86,166.86,165.95,165.14,164.30,162.97,160.97,159.95,158.21,156.28,154.48,153.14,151.63,149.69,147.20,144.04,140.54,136.53,132.98,130.22,126.83,122.70,117.38,111.88,108.53,106.10,103.92,101.78,99.48,96.25,93.40,90.84,88.55,86.53,84.55,82.33,79.60,76.09,72.36,69.64,67.58,65.88,64.20,62.56,61.05,59.82,59.18,58.62,57.98,57.27,56.51,55.73,55.11,54.73,54.56,54.33,54.16,53.96,53.73,53.50,53.35,53.14,52.94,52.79,52.70,52.67,52.50,52.19,51.82,51.65,51.49,51.31,51.09,50.93,50.77,50.59,50.37,50.21,49.98,46.58,41.92,39.70,39.38,39.02,38.66,38.37,38.28,38.14,37.99,37.83,37.68,37.46,37.28
302.09,308.79,316.20,326.23,334.58,340.83,345.25,349.29,354.14,359.35,364.97,371.09,377.15,383.16,389.49,396.04,401.10,405.23,408.80,411.92,414.65,417.52,421.66,426.28,430.42,432.31,434.57,437.05,439.39,440.58,439.89,438.00,435.22,431.91,428.47,425.35,422.64,420.39,418.59,416.99,415.41,413.74,411.92,409.36,405.25,400.01,394.15,387.89,381.44,375.14,369.25,364.10,361.83,359.98,358.19,356.49,354.19,351.08,347.65,344.19,340.42,336.79,332.89,328.63,324.02,317.87,311.37,305.08,299.42,293.13,288.17,283.89,279.73,274.75,272.86,273.95,277.40,282.15,285.50,289.11,292.77,296.00,296.77,294.73,290.84,285.29,277.93,271.53,268.46,268.40,270.55,273.56,275.81,277.95,280.14,281.66,282.50,283.03,283.36,283.55,283.79,284.32,284.79,284.95,285.14,285.23,286.23,288.53,292.31,295.28,297.29,298.21,297.93,296.44,293.96,290.46,286.08,281.39,277.29,273.27,268.87,263.52,258.91,254.65,250.39,245.84,240.49,235.16,229.48,223.60,218.44,214.00,209.48,204.99,200.75,196.25,191.17,185.98,181.10,177.38,174.04,170.26,166.16,162.25,157.90,154.43,151.16,147.51,143.98,140.43,136.86,133.36,130.23,130.61,133.81,138.25,141.95,144.61,147.11,148.87,150.01,152.70,159.02,162.98,163.88,163.07,162.60,162.16,161.54,160.58,159.46,157.20,154.99,153.34,152.40,151.01,149.30,147.22,144.75,141.70,138.41,135.22,132.29,129.60,125.91,121.57,116.85,112.17,108.65,106.09,103.99,101.83,99.29,96.36,93.51,90.86,88.20,85.89,83.22,80.20,76.99,73.70,70.69,68.28,66.61,65.07,63.87,62.47,60.92,59.54,58.90,58.27,57.63,56.95,56.13,55.30,54.77,54.56,54.33,54.16,53.96,53.73,53.50,53.35,53.14,52.94,52.78,52.59,52.42,52.23,52.03,51.81,51.60,51.43,51.27,51.09,50.88,50.71,50.55,50.36,50.15,49.35,45.98,41.71,39.64,39.32,38.96,38.58,38.23,38.04,37.93,37.77,37.57,37.42,37.25,37.08
303.62,310.81,318.97,328.17,335.60,341.21,345.41,349.42,354.20,359.24,364.54,370.14,375.00,380.18,385.90,392.06,397.49,401.84,405.51,408.75,411.83,414.67,418.05,422.12,426.79,429.79,432.87,435.98,438.95,441.19,441.46,440.19,437.67,434.30,431.06,427.93,425.00,422.37,420.27,418.40,416.61,414.77,412.75,410.53,406.45,401.10,395.21,389.03,382.41,376.30,371.33,368.41,367.33,366.08,364.51,362.83,360.18,356.76,353.11,349.55,345.67,341.65,337.28,332.35,326.59,320.92,314.69,308.35,302.32,295.07,289.46,284.93,280.75,275.05,270.68,269.45,271.34,275.63,279.05,283.23,287.50,291.20,292.99,290.82,285.96,279.26,271.94,266.07,263.15,263.26,266.05,269.14,271.19,272.90,274.54,275.83,276.63,277.12,277.38,277.48,277.48,277.33,277.05,276.71,276.90,277.43,279.06,282.08,286.65,290.57,293.16,294.31,294.01,291.95,288.80,284.95,280.71,276.56,272.28,267.82,263.09,257.98,253.86,249.75,245.48,240.89,235.52,230.21,224.75,219.32,214.62,210.26,205.81,201.42,197.30,192.88,187.98,183.13,178.74,175.48,171.98,167.63,162.78,158.29,153.86,150.84,148.22,145.16,141.90,138.45,134.91,131.38,128.04,128.15,130.83,134.84,138.67,141.24,143.26,144.65,145.67,147.91,155.32,159.87,160.72,159.87,159.16,158.60,158.04,157.32,156.16,154.24,152.38,150.93,150.02,148.80,147.23,145.46,143.68,141.30,138.71,136.02,133.37,131.00,127.75,124.09,120.22,116.23,111.99,108.69,106.13,104.00,101.71,98.84,95.83,92.79,89.63,86.83,83.84,80.72,77.63,74.59,71.69,69.34,67.75,66.53,65.63,64.33,62.59,60.75,59.56,58.76,58.11,57.39,56.37,55.40,54.79,54.56,54.33,54.16,53.96,53.73,53.50,53.35,53.14,52.94,52.77,52.54,52.31,52.12,51.96,51.77,51.57,51.38,51.21,51.05,50.82,50.65,50.49,50.32,50.09,48.70,45.38,41.55,39.57,39.26,38.91,38.55,38.21,37.98,37.80,37.61,37.39,37.20,37.05,36.89
304.45,312.03,320.77,328.64,335.20,340.56,344.95,348.97,353.61,358.41,363.32,368.33,372.50,376.51,381.32,387.30,393.02,397.71,401.44,404.63,408.11,411.29,414.31,417.66,421.80,426.67,430.82,434.55,437.97,441.14,442.39,441.70,439.41,436.09,432.85,429.82,426.92,424.12,421.72,419.64,417.68,415.69,413.53,411.29,407.25,401.93,396.05,389.87,383.23,377.93,374.73,373.57,373.56,373.13,372.00,370.23,366.60,362.65,358.71,354.99,351.20,346.72,341.89,336.36,329.18,323.00,317.14,311.29,305.08,296.90,290.46,285.62,281.69,276.29,270.41,266.55,265.59,268.05,271.75,276.90,281.98,285.91,289.07,286.84,280.65,272.30,265.28,260.12,257.34,257.63,261.31,264.56,266.65,268.00,268.92,269.76,270.41,270.72,270.78,270.78,270.78,269.82,268.54,267.59,267.81,269.23,271.65,275.09,279.80,285.36,289.01,290.58,290.25,287.16,282.98,278.98,275.68,272.50,266.88,261.13,256.15,252.75,248.68,244.27,239.92,235.80,230.62,225.08,219.87,215.16,210.76,206.29,202.00,197.88,193.85,189.53,184.80,180.28,176.35,173.33,169.52,164.59,159.02,153.85,149.87,147.34,145.36,143.13,140.12,136.68,133.17,129.63,125.84,125.91,127.83,130.96,134.64,137.27,139.44,140.97,142.21,145.37,153.16,157.30,157.40,156.41,155.03,153.95,152.97,151.88,150.72,149.81,148.77,147.55,146.39,145.38,143.91,142.35,141.26,139.72,137.78,135.73,133.68,131.37,128.54,125.36,122.37,120.59,115.94,111.62,108.22,106.04,103.64,100.95,97.87,94.44,90.89,87.47,84.26,81.17,78.08,75.15,72.66,70.67,69.22,68.45,67.74,66.50,64.71,62.62,60.54,59.40,58.70,57.82,56.50,55.43,54.79,54.56,54.33,54.16,53.96,53.73,53.50,53.35,53.14,52.94,52.77,52.54,52.31,52.12,51.95,51.71,51.55,51.35,51.15,50.99,50.76,50.58,50.43,50.26,50.03,48.03,44.80,41.44,39.51,39.19,38.88,38.58,38.28,38.04,37.75,37.48,37.25,37.02,36.86,36.70
302.84,310.04,318.26,325.94,332.49,337.99,342.69,347.25,352.13,356.62,360.83,365.01,368.88,372.76,376.89,381.43,386.70,392.14,396.49,400.02,403.99,407.57,410.60,413.79,417.83,422.50,427.21,431.92,436.47,440.53,442.36,441.89,439.73,436.86,433.76,430.78,427.96,425.32,422.83,420.57,418.40,416.24,413.98,411.64,407.76,403.00,398.16,393.17,388.13,384.34,382.13,380.53,379.34,378.02,376.42,374.44,371.26,367.61,363.68,359.57,355.04,350.88,346.01,339.88,331.85,324.51,318.23,312.46,306.54,299.34,291.80,285.98,282.05,276.89,271.00,265.96,262.84,262.83,266.65,271.13,275.73,279.90,282.47,279.77,273.87,266.54,260.60,255.65,252.28,251.52,254.27,258.70,261.79,263.72,264.67,264.92,265.23,265.84,266.52,266.81,266.48,264.63,262.18,260.02,259.41,262.38,265.98,269.52,273.59,278.00,281.03,282.47,282.33,279.64,276.34,272.73,268.87,264.21,259.27,254.61,250.42,246.88,242.94,239.09,235.14,230.87,225.65,220.49,215.55,211.06,207.55,203.38,199.10,194.86,190.78,186.36,181.86,177.64,173.85,170.39,165.68,160.81,155.83,150.40,146.75,144.30,142.37,140.35,137.74,134.81,131.50,127.77,123.64,122.91,124.66,127.69,130.54,132.92,134.38,135.22,135.94,138.17,142.56,146.43,149.11,150.44,148.77,147.69,146.91,146.04,145.38,144.65,143.80,142.88,142.02,141.16,140.20,139.17,138.13,136.78,135.23,133.47,131.56,129.64,127.95,126.03,123.93,122.00,119.09,115.09,110.99,107.68,105.04,102.29,99.28,95.91,92.01,88.47,85.36,82.42,79.24,77.00,75.20,73.81,72.76,71.69,70.56,69.12,67.31,65.12,62.89,60.90,59.26,58.01,56.64,55.48,54.79,54.57,54.39,54.18,53.96,53.73,53.50,53.35,53.14,52.94,52.77,52.54,52.31,52.12,51.95,51.71,51.55,51.35,51.15,50.99,50.76,50.54,50.36,50.20,50.02,47.38,44.04,41.04,39.51,39.19,38.99,38.77,38.47,38.24,37.94,37.67,37.43,37.15,36.89,36.67
300.55,307.11,314.77,322.34,329.18,334.94,339.74,344.35,349.66,354.15,357.92,361.37,365.06,368.88,372.68,376.52,381.41,387.45,392.57,396.78,401.20,404.91,408.06,411.26,415.09,419.49,424.51,429.86,435.26,440.08,442.05,441.75,439.84,437.26,434.22,431.26,428.52,426.06,423.57,421.23,418.93,416.63,414.32,411.95,408.44,404.37,400.40,396.75,392.91,389.92,388.03,386.37,384.67,382.70,380.51,378.27,375.49,371.96,367.89,363.40,358.39,354.19,349.14,342.58,334.11,325.91,319.15,313.25,307.45,300.96,292.70,286.25,282.36,277.47,271.44,265.63,261.01,258.68,262.22,266.05,270.04,273.88,275.70,272.57,267.14,260.92,255.72,251.04,247.43,246.15,248.36,252.78,256.05,258.11,258.98,258.84,259.07,260.36,262.11,263.12,262.37,260.05,256.98,253.93,251.98,255.31,259.80,264.09,268.03,271.35,273.60,274.66,274.48,272.14,269.27,265.77,261.52,256.32,251.90,248.02,244.53,241.27,237.72,234.14,230.21,225.69,220.63,215.79,211.33,207.44,204.51,200.46,196.11,191.68,187.32,182.88,178.62,174.53,170.53,166.34,161.59,157.18,152.75,147.21,143.72,141.22,139.24,137.38,135.16,132.48,129.11,125.08,120.79,119.47,121.24,124.42,126.78,128.83,129.83,130.27,130.64,132.00,134.00,136.98,140.34,142.77,141.48,140.61,140.09,139.66,139.45,139.20,138.84,138.34,137.73,137.09,136.48,135.78,134.86,133.73,132.40,130.91,129.31,127.63,126.58,125.56,124.31,122.61,120.90,117.31,112.95,109.03,106.27,103.49,100.68,97.67,93.90,90.48,87.52,84.77,81.88,80.01,78.49,77.37,76.51,75.21,73.72,72.05,70.13,67.87,65.41,62.82,60.42,58.53,57.03,55.67,54.85,54.60,54.42,54.19,53.96,53.74,53.53,53.35,53.14,52.94,52.77,52.54,52.31,52.12,51.95,51.71,51.53,51.34,51.14,50.96,50.75,50.52,50.33,50.12,49.66,46.79,43.51,40.78,39.53,39.26,39.13,38.96,38.66,38.43,38.13,37.86,37.61,37.31,37.00,36.74
297.37,302.97,310.04,317.61,325.10,331.28,335.92,339.94,345.93,350.83,354.48,357.34,360.98,364.83,368.78,372.84,377.44,383.87,389.96,395.28,400.09,403.59,407.01,410.43,413.91,417.97,422.95,428.54,434.41,439.82,441.38,441.18,439.68,437.19,434.11,431.13,428.48,426.20,423.87,421.55,419.19,416.83,414.51,412.19,409.34,406.11,402.79,400.67,397.53,394.43,392.00,390.79,389.45,387.10,384.18,381.59,379.16,375.53,371.11,366.26,361.10,356.43,350.99,344.25,335.83,327.18,319.85,313.53,307.66,301.51,293.04,286.40,282.60,278.01,271.67,265.63,260.34,255.89,258.62,261.83,265.06,267.83,268.72,265.21,260.45,255.49,250.59,246.25,242.86,241.69,243.88,246.77,249.18,250.80,251.48,251.19,251.66,254.12,257.53,259.77,258.51,256.26,253.26,249.71,245.78,247.97,252.96,258.84,263.33,265.59,266.87,267.24,266.69,264.65,261.68,257.90,253.51,248.95,244.83,241.33,238.43,236.01,233.15,229.49,225.09,220.17,215.55,210.96,207.25,204.41,201.68,197.51,193.01,188.29,183.36,179.02,175.01,170.82,166.15,160.88,157.18,153.77,149.82,144.33,140.80,138.08,135.94,134.15,132.32,129.58,125.81,121.33,117.14,115.47,117.51,121.14,123.45,125.05,125.93,126.35,126.57,127.13,128.06,129.33,130.96,132.95,132.87,132.50,132.31,132.60,132.78,133.39,133.87,133.97,133.56,133.21,132.74,132.14,131.41,130.53,129.23,127.97,126.89,125.26,124.22,123.65,123.21,122.19,120.98,117.92,113.91,109.99,107.28,104.51,102.06,99.79,96.76,93.77,91.00,88.52,86.42,84.49,82.76,81.44,80.52,79.07,77.31,75.37,73.25,70.94,68.15,65.28,62.35,59.47,57.72,56.05,55.00,54.65,54.43,54.19,53.96,53.75,53.59,53.37,53.14,52.94,52.77,52.54,52.31,52.12,51.95,51.71,51.49,51.30,51.12,50.90,50.74,50.52,50.33,50.00,48.85,46.29,43.28,40.70,39.60,39.43,39.32,39.15,38.85,38.62,38.32,38.06,37.81,37.50,37.19,36.93
294.78,299.44,305.06,312.98,319.38,325.30,330.88,335.20,339.86,344.74,349.41,353.32,357.30,362.11,367.33,372.72,378.57,385.42,391.64,396.89,401.32,405.26,408.84,412.23,415.70,420.19,425.01,430.12,435.29,439.73,440.62,439.98,438.24,435.68,432.89,430.24,427.83,425.66,423.34,421.06,418.75,416.41,414.14,411.91,409.48,406.89,404.26,402.33,399.81,397.21,394.83,392.94,391.10,388.63,385.76,382.96,380.52,376.89,372.54,367.79,362.66,357.44,351.37,343.84,333.95,326.24,319.49,313.21,306.90,299.72,291.90,285.90,282.07,277.52,271.44,265.55,260.13,255.16,254.57,256.54,259.35,261.50,261.41,258.40,254.36,250.09,246.13,241.83,238.43,237.13,238.90,241.51,243.43,244.52,244.78,244.43,245.36,247.75,250.86,253.42,253.42,251.36,247.69,243.17,240.38,242.45,246.80,251.99,256.37,259.06,260.44,260.62,259.71,257.05,253.58,249.58,245.38,241.85,238.83,236.10,233.55,231.11,227.99,224.21,219.97,215.55,211.42,207.67,204.41,201.46,198.19,194.07,189.10,183.84,179.01,174.81,170.04,165.36,161.14,157.33,154.34,150.96,146.76,141.45,137.83,134.97,132.69,130.82,128.87,125.88,122.04,117.66,113.45,111.68,112.87,115.82,118.85,120.91,122.24,122.90,123.08,123.41,123.64,123.76,123.93,124.39,124.20,124.23,124.51,125.05,125.89,126.94,127.82,128.40,128.66,128.53,128.10,127.34,126.17,124.88,124.03,123.57,123.35,122.68,122.23,121.94,121.60,120.85,119.71,117.28,114.10,110.78,108.12,105.67,103.51,101.56,99.49,97.72,95.74,93.53,91.18,89.21,87.49,85.92,84.39,82.57,80.62,78.49,76.11,73.36,70.75,67.99,64.95,61.60,58.92,56.82,55.43,54.71,54.48,54.25,54.02,53.80,53.60,53.37,53.14,52.94,52.77,52.54,52.31,52.12,51.95,51.71,51.48,51.30,51.12,50.89,50.74,50.52,50.31,49.83,47.98,45.46,42.98,40.93,39.72,39.60,39.51,39.34,39.04,38.81,38.52,38.25,38.00,37.69,37.38,37.12
292.38,296.36,300.82,308.43,314.03,319.93,326.34,330.98,334.82,339.89,345.53,350.51,355.21,361.03,367.43,374.03,380.84,387.77,393.93,399.14,403.51,407.65,411.19,414.54,418.22,423.47,427.95,432.25,436.34,439.22,439.28,438.12,436.11,433.49,431.02,428.77,426.67,424.63,422.39,420.18,417.94,415.69,413.47,411.35,409.23,407.10,404.97,403.04,400.95,398.69,396.25,393.69,391.37,388.86,386.13,383.19,380.72,377.25,373.14,368.66,363.56,357.73,351.04,342.83,331.66,324.94,318.63,312.27,305.61,297.22,290.30,285.13,281.26,276.65,270.92,265.21,259.76,254.61,251.17,251.63,253.79,255.61,254.67,252.02,248.51,244.71,241.37,237.26,234.10,232.81,234.06,236.56,238.21,238.96,238.92,238.47,239.55,241.51,243.91,246.20,246.84,244.71,240.72,236.18,235.28,237.54,241.17,245.31,249.21,252.09,253.45,253.46,252.36,249.19,245.55,241.69,237.96,235.32,233.17,231.03,228.74,226.17,222.76,218.94,215.02,211.23,207.57,204.44,201.40,198.19,194.49,190.10,184.76,179.26,174.55,170.06,164.97,160.38,156.87,154.34,151.62,148.06,143.69,138.84,135.14,132.08,129.60,127.58,125.45,122.22,118.41,114.36,110.48,108.69,109.04,111.09,114.18,116.28,117.79,118.59,118.77,118.93,118.73,118.22,117.56,117.03,116.87,117.26,117.91,118.62,119.83,121.00,122.00,122.82,123.61,123.62,123.19,122.28,120.84,119.31,118.81,118.91,119.28,119.49,119.66,119.70,119.50,118.84,117.74,116.07,113.90,111.37,108.91,106.87,105.00,103.26,101.90,101.03,99.73,97.89,95.57,93.44,91.57,89.75,87.84,85.68,83.51,81.19,78.60,75.54,73.05,70.42,67.40,63.84,60.38,57.81,55.94,54.76,54.53,54.29,54.06,53.82,53.56,53.27,53.03,52.84,52.69,52.48,52.27,52.10,51.93,51.71,51.48,51.30,51.12,50.89,50.74,50.52,50.24,49.57,47.33,44.92,42.90,41.29,39.95,39.83,39.72,39.54,39.25,39.00,38.71,38.44,38.19,37.88,37.57,37.31
290.21,294.08,298.32,304.05,310.04,316.65,323.34,327.98,332.84,338.62,344.77,350.40,356.53,363.15,370.17,377.39,384.00,390.28,396.24,401.85,407.11,410.69,413.81,417.17,421.44,427.92,431.73,434.73,437.24,437.70,436.66,435.00,432.86,430.30,428.07,426.24,424.54,422.75,420.75,418.66,416.58,414.49,412.32,410.34,408.37,406.35,404.26,402.33,400.32,397.86,394.92,392.06,389.58,387.10,384.46,381.53,379.06,376.04,372.51,368.47,363.37,356.81,349.60,341.14,329.58,323.53,317.01,310.16,303.44,293.92,288.15,283.98,280.08,275.26,269.90,264.35,258.89,253.84,249.32,247.91,248.82,250.76,249.27,246.44,243.01,239.33,235.70,232.26,229.97,229.08,229.71,232.06,233.78,234.66,234.67,234.02,234.43,235.59,237.02,237.97,237.39,234.56,231.19,228.96,230.63,233.43,236.50,239.50,242.26,244.42,245.16,244.83,243.92,240.75,237.81,234.93,232.15,229.95,227.91,225.87,223.67,221.06,217.55,213.90,210.43,207.30,204.04,200.83,197.59,194.23,190.52,185.10,179.76,174.72,169.97,164.20,160.11,157.03,154.45,151.97,148.71,144.81,140.64,136.82,133.06,129.67,126.82,124.57,122.29,118.91,115.27,111.85,109.16,107.39,107.27,108.32,109.74,110.66,111.59,112.24,112.47,112.38,112.27,112.07,111.88,111.90,112.52,113.24,114.01,114.82,115.68,116.39,116.99,117.59,118.43,118.44,117.92,117.02,115.93,114.69,114.20,114.14,114.35,115.01,115.66,116.25,116.46,115.65,114.69,113.98,113.06,111.53,109.62,108.12,106.58,104.94,103.68,102.68,101.62,100.43,99.09,96.56,94.04,91.98,90.43,88.02,85.56,83.03,80.35,77.39,74.72,72.15,69.32,65.93,62.27,59.13,56.55,54.76,54.53,54.29,54.06,53.79,53.43,52.94,52.68,52.54,52.45,52.28,52.16,52.03,51.88,51.71,51.48,51.30,51.12,50.89,50.74,50.52,50.08,49.17,47.17,45.09,43.33,41.84,40.39,40.18,39.97,39.75,39.50,39.21,38.90,38.63,38.38,38.07,37.76,37.50
289.96,293.43,299.35,304.57,310.54,317.05,323.58,328.69,333.79,339.75,346.27,352.76,359.21,365.79,372.76,380.06,386.33,392.62,398.73,404.52,409.71,413.09,416.24,420.18,425.63,430.84,434.26,436.21,436.73,435.40,433.65,431.79,429.77,427.44,425.28,423.63,422.13,420.52,418.74,416.85,414.90,412.88,410.82,408.99,407.12,405.21,403.28,401.38,398.56,395.35,392.08,389.00,386.52,384.14,381.78,379.44,377.07,374.33,371.05,367.11,362.27,355.18,347.43,338.79,327.68,321.56,314.81,307.61,300.51,291.69,286.45,282.44,278.39,273.78,268.64,263.35,258.24,253.74,249.17,246.07,244.46,244.01,242.53,238.91,235.70,233.38,231.11,228.89,227.22,226.29,226.25,228.27,229.52,230.13,230.13,229.33,229.52,230.22,230.88,230.80,229.38,226.82,224.73,224.41,226.69,229.26,231.55,233.37,234.77,235.94,236.42,235.99,234.55,232.05,229.56,227.35,225.50,223.85,222.09,220.20,218.04,215.37,212.31,209.11,206.07,203.35,200.14,196.79,193.30,189.60,185.41,180.15,175.10,170.23,165.37,160.41,156.85,154.17,151.87,148.99,145.41,141.67,138.03,134.78,131.18,127.52,124.34,121.93,118.95,115.57,112.33,109.53,107.50,105.94,105.53,106.00,106.84,107.24,107.83,108.28,108.40,108.28,108.14,107.93,107.62,107.18,107.38,107.99,108.94,110.12,111.30,112.01,112.55,113.09,113.79,113.53,112.93,112.16,111.30,110.36,109.90,109.80,110.00,110.77,111.55,112.26,112.70,112.47,111.96,111.68,111.24,110.26,108.78,107.57,106.37,105.10,103.98,103.06,102.06,100.99,99.93,97.56,95.24,93.25,91.58,89.22,86.55,83.87,81.21,78.42,75.68,73.02,70.20,67.00,63.48,60.09,57.05,54.81,54.57,54.24,53.90,53.53,53.07,52.56,52.28,52.15,52.10,51.98,51.90,51.78,51.63,51.52,51.33,51.18,51.04,50.84,50.65,50.43,49.89,48.87,47.16,45.41,43.82,42.38,40.98,40.71,40.42,40.08,39.71,39.40,39.09,38.80,38.53,38.26,37.95,37.70
291.19,293.96,301.26,306.44,312.32,318.57,324.85,330.56,335.63,341.64,348.49,355.75,362.12,368.48,375.24,382.42,388.41,394.90,401.27,407.09,411.82,415.15,418.62,423.27,429.61,433.04,436.02,436.96,435.53,432.86,430.61,428.66,426.77,424.66,422.58,421.04,419.67,418.22,416.58,414.89,413.05,411.11,409.22,407.50,405.71,403.90,402.10,399.81,395.96,392.01,388.54,385.34,383.02,380.86,378.84,377.12,374.90,372.28,369.01,365.02,360.53,353.09,344.83,336.02,325.82,319.45,312.52,305.12,297.68,290.16,285.30,281.29,277.21,272.90,267.91,262.82,258.03,253.98,249.57,245.07,240.99,237.79,236.22,231.99,229.16,228.23,227.40,226.22,224.95,223.84,223.20,224.64,225.25,225.49,225.45,224.60,224.72,225.03,225.01,224.09,222.01,219.93,219.05,220.13,222.43,224.77,226.48,227.37,227.54,227.65,227.69,226.98,224.87,223.12,221.13,219.54,218.53,217.47,216.03,214.29,212.17,209.53,207.05,204.37,201.72,199.19,195.95,192.44,188.71,184.67,180.04,175.37,170.68,165.91,161.03,157.38,154.14,151.44,149.05,145.70,141.89,138.47,135.43,132.46,129.03,125.21,121.77,119.14,115.47,112.28,109.55,107.31,105.66,104.33,103.73,103.82,104.45,104.58,104.92,105.15,105.14,105.06,104.81,104.45,103.86,102.82,102.33,102.68,103.70,105.12,106.65,107.47,108.06,108.62,109.19,108.69,108.13,107.56,106.90,106.24,105.83,105.70,105.93,106.77,107.62,108.35,108.92,109.37,109.31,109.23,108.98,108.36,107.34,106.33,105.41,104.56,103.57,102.80,101.81,100.66,99.52,97.43,95.51,93.68,91.81,89.59,86.83,84.13,81.57,78.97,76.20,73.41,70.55,67.53,64.27,60.83,57.50,54.84,54.56,54.12,53.66,53.17,52.63,52.17,51.87,51.73,51.72,51.65,51.57,51.45,51.32,51.25,51.11,51.00,50.90,50.74,50.51,50.28,49.71,48.67,47.26,45.80,44.33,42.91,41.62,41.30,40.92,40.46,39.93,39.60,39.28,38.97,38.68,38.45,38.15,37.88
296.07,297.29,301.71,306.88,313.04,319.46,325.82,331.92,336.95,343.24,350.48,357.79,363.97,370.62,377.51,384.36,390.60,397.26,403.67,409.27,413.26,416.60,421.06,426.15,431.12,434.31,436.20,435.86,433.37,430.46,428.05,425.98,423.98,421.72,420.14,418.67,417.34,416.10,414.36,412.65,410.97,409.31,407.61,405.85,404.15,402.43,400.49,395.83,391.38,387.47,384.17,381.22,379.49,377.94,376.31,374.43,372.37,369.40,365.66,361.35,357.26,349.97,341.38,332.38,323.86,317.55,310.73,303.56,296.46,290.08,285.87,282.48,279.08,274.87,269.94,264.64,259.39,254.75,249.85,244.99,240.58,236.87,233.87,230.85,228.83,227.62,226.05,224.18,222.68,221.52,220.58,220.59,220.66,220.67,220.53,220.07,220.08,219.87,219.21,217.89,215.32,213.16,212.20,213.00,215.65,218.89,221.33,222.51,222.39,221.43,219.71,217.50,215.16,213.56,212.59,211.96,211.46,210.94,209.74,208.11,206.13,203.83,201.74,199.49,197.00,194.21,190.96,187.33,183.48,179.46,175.27,171.23,166.84,162.32,157.97,154.61,151.50,148.47,145.38,141.88,137.98,134.81,132.13,129.02,125.29,121.74,118.36,115.07,111.59,109.23,107.21,105.30,103.50,102.25,101.65,101.62,101.95,101.93,102.05,102.15,102.13,101.99,101.53,100.92,100.22,99.43,98.89,98.94,99.41,100.16,101.14,101.88,102.55,103.22,103.93,103.80,103.72,103.60,103.14,102.67,102.28,102.06,102.21,103.45,104.73,105.66,106.21,106.56,106.45,106.39,106.24,105.86,105.57,104.73,103.89,103.17,102.28,101.66,100.72,99.36,97.54,95.39,93.50,91.78,90.09,87.97,85.56,83.26,81.03,78.58,75.81,72.99,70.13,67.23,64.26,61.20,57.84,54.73,54.21,53.74,53.27,52.79,52.25,51.78,51.48,51.35,51.34,51.33,51.21,51.10,51.00,50.93,50.83,50.75,50.64,50.48,50.25,50.02,49.56,48.79,47.73,46.32,44.81,43.40,42.26,41.89,41.43,40.89,40.30,39.82,39.47,39.17,38.87,38.64,38.34,38.04
302.80,302.19,303.59,307.27,312.86,319.47,326.43,332.72,338.25,344.61,351.64,358.85,365.26,372.53,379.64,386.11,392.84,399.57,405.77,411.00,414.65,418.27,423.50,428.72,432.40,435.28,435.93,434.60,431.79,428.93,426.35,424.00,421.83,419.73,418.30,416.89,415.58,414.32,412.42,411.02,409.51,407.80,406.09,404.46,402.62,400.44,397.71,392.97,389.28,385.92,382.61,379.48,377.52,375.79,374.03,372.10,369.46,365.81,361.72,357.63,353.72,347.02,339.06,330.76,323.24,317.23,311.03,304.70,298.47,292.43,287.85,284.24,281.05,277.06,272.07,266.49,260.75,255.37,250.09,245.10,240.90,237.71,234.92,232.76,230.98,229.32,227.28,225.18,223.17,221.27,219.54,218.27,217.15,216.38,215.89,215.09,214.99,214.57,213.64,212.17,209.71,207.90,207.12,207.61,209.82,212.34,214.18,214.95,214.48,213.51,211.33,208.73,206.72,205.64,205.25,205.09,204.89,204.61,203.61,202.29,200.69,198.80,196.90,194.68,191.99,188.77,185.31,182.05,178.69,175.11,171.33,167.83,163.87,159.66,155.57,152.11,148.87,145.68,142.31,138.11,134.04,130.89,128.20,124.79,121.15,117.75,114.51,111.32,108.10,106.64,105.07,103.08,101.68,100.67,100.00,99.62,99.46,99.29,99.30,99.33,99.30,99.27,98.79,98.06,97.24,96.55,96.06,96.04,96.33,96.75,97.43,98.01,98.55,99.10,99.66,99.67,99.72,99.59,98.93,98.39,97.98,97.93,98.44,100.01,101.60,102.76,103.43,103.71,103.63,103.60,103.52,103.32,103.32,102.85,102.28,101.72,100.99,99.99,98.52,96.71,94.81,92.86,91.12,89.47,87.81,85.94,83.77,81.63,79.50,77.20,74.67,72.05,69.36,66.65,63.88,61.06,57.82,54.68,54.00,53.43,52.89,52.37,51.86,51.37,51.06,50.94,50.97,51.00,50.88,50.76,50.69,50.64,50.57,50.49,50.39,50.23,49.97,49.66,49.22,48.63,47.89,46.70,45.29,43.91,42.86,42.44,41.92,41.31,40.67,40.07,39.68,39.36,39.05,38.76,38.45,38.12
310.69,308.15,306.54,307.79,312.23,318.90,326.67,333.12,339.47,345.76,352.26,359.29,366.18,374.24,381.65,387.70,395.07,401.80,407.63,412.42,415.99,420.12,425.90,431.03,433.49,436.03,435.39,433.28,430.59,427.96,425.20,422.52,420.14,418.38,416.90,415.54,414.22,412.80,410.74,409.81,408.47,406.58,404.72,403.28,401.20,398.29,394.55,391.13,388.95,386.43,383.03,379.43,376.71,374.32,372.15,370.19,366.60,362.12,357.78,354.16,350.29,344.43,337.68,330.56,323.59,318.00,312.66,307.48,302.40,296.28,290.68,286.29,283.02,279.31,274.17,268.30,262.07,255.88,250.31,245.40,241.80,239.75,238.15,236.60,234.72,232.51,230.18,228.12,225.44,222.50,219.75,217.35,214.72,212.82,211.77,210.17,209.90,209.42,208.41,206.90,204.86,203.65,203.16,203.34,204.60,205.42,205.87,205.84,204.99,204.63,202.80,200.54,199.22,198.84,198.74,198.74,198.70,198.48,197.65,196.72,195.64,194.15,192.28,189.84,186.77,183.10,179.36,176.75,174.22,171.33,167.95,164.90,161.41,157.55,153.55,149.77,146.27,142.97,139.52,134.37,130.22,127.04,124.18,120.48,117.20,113.93,110.88,108.17,105.20,104.59,103.27,100.99,100.27,99.56,98.75,97.92,97.16,96.83,96.76,96.73,96.64,96.75,96.39,95.63,94.69,93.99,93.60,93.68,93.99,94.32,94.85,95.20,95.50,95.78,96.01,96.01,95.94,95.54,94.48,93.71,93.28,93.53,94.65,96.51,98.29,99.68,100.56,100.79,100.81,100.82,100.79,100.72,100.72,100.72,100.53,100.10,99.53,97.88,95.57,93.22,91.61,89.99,88.49,86.90,85.16,83.60,81.62,79.50,77.35,75.19,73.03,70.74,68.33,65.86,63.24,60.57,57.56,54.66,53.89,53.18,52.53,51.96,51.49,50.94,50.62,50.51,50.59,50.66,50.55,50.44,50.39,50.39,50.31,50.23,50.12,49.95,49.64,49.22,48.75,48.29,47.83,46.97,45.75,44.44,43.44,42.96,42.39,41.73,41.04,40.34,39.89,39.54,39.21,38.83,38.51,38.15
318.87,315.77,312.87,311.55,313.31,317.60,324.15,332.82,339.54,345.86,352.35,359.49,366.67,375.21,382.88,388.93,396.89,403.06,408.48,413.30,417.38,422.56,427.67,431.72,433.98,436.17,435.07,432.73,430.07,427.39,424.72,422.04,419.68,418.06,416.48,414.99,413.50,411.96,410.29,409.42,408.40,406.94,404.98,403.12,401.30,399.43,397.42,395.09,392.98,390.72,387.84,383.25,379.63,376.79,374.33,371.72,368.98,364.78,360.24,356.11,351.94,346.72,340.49,333.50,326.29,320.50,314.99,309.73,304.76,299.78,292.88,287.28,283.84,280.08,274.77,268.84,262.60,256.27,250.65,246.92,244.89,244.06,242.70,241.32,239.31,236.73,234.16,231.53,229.27,227.07,224.60,222.10,219.49,216.81,214.10,211.46,209.99,208.60,206.89,204.48,201.70,200.43,199.98,199.78,199.95,199.73,199.32,198.75,197.90,197.26,196.10,194.85,194.11,193.88,193.78,193.75,193.73,193.60,192.88,191.91,190.62,188.79,186.33,183.80,181.19,178.44,175.44,173.02,170.73,168.27,165.23,162.22,158.66,154.80,151.00,147.37,143.79,139.82,135.32,130.71,128.58,127.14,125.67,123.50,121.37,119.03,116.11,112.39,108.68,107.02,105.37,103.40,102.29,101.18,100.07,99.08,98.36,97.64,96.81,95.96,95.11,94.33,94.12,93.38,92.24,91.44,91.19,91.32,91.63,91.94,92.32,92.57,92.70,92.74,92.77,92.49,92.00,91.34,90.52,89.80,89.48,89.83,90.95,92.86,94.48,95.81,96.73,97.02,97.23,97.37,97.42,97.40,97.40,97.28,96.99,96.39,95.13,93.40,91.54,89.74,88.22,86.75,85.44,84.00,82.33,80.62,78.78,76.89,74.92,72.76,70.79,68.82,66.72,64.40,62.04,59.69,57.12,54.66,53.89,53.18,52.50,51.85,51.23,50.58,50.23,50.11,50.14,50.22,50.19,50.15,50.13,50.13,50.01,49.85,49.64,49.37,49.01,48.61,48.20,47.78,47.32,46.77,45.95,44.96,44.01,43.39,42.73,42.03,41.29,40.54,40.00,39.58,39.21,38.83,38.46,38.12
326.52,323.32,319.76,316.72,316.28,318.24,322.93,331.77,338.92,345.46,351.93,358.93,366.59,375.73,383.84,390.04,398.40,404.16,409.25,414.07,418.40,424.50,429.14,432.36,434.48,435.93,434.53,432.13,429.53,426.85,424.20,421.59,419.32,417.80,416.20,414.66,413.10,411.53,410.14,409.22,408.34,407.18,405.30,403.43,401.94,400.78,399.78,398.22,396.13,393.79,390.99,386.42,382.45,379.19,376.36,373.48,370.94,367.07,362.68,358.31,353.87,348.95,343.05,336.11,328.41,322.43,316.65,311.18,306.23,301.92,294.60,288.31,284.30,280.21,274.91,268.97,262.66,256.24,251.84,249.63,248.86,248.71,247.57,246.02,243.83,241.06,238.00,234.99,232.81,231.02,229.01,226.82,224.30,221.32,217.95,214.86,212.58,210.59,208.43,205.53,201.75,199.57,198.35,197.45,196.32,195.08,193.85,192.71,191.86,191.06,190.19,189.35,188.68,188.43,188.20,188.03,187.89,187.64,186.96,185.95,184.57,182.71,180.37,178.05,175.89,173.91,171.67,169.56,167.51,165.30,162.47,159.30,155.68,151.90,148.29,144.71,141.18,137.80,134.53,131.00,130.16,129.53,128.53,127.04,125.34,123.36,120.57,116.64,112.52,109.69,107.50,105.73,104.44,103.22,102.01,100.89,99.97,98.88,97.69,96.47,95.22,93.91,93.41,92.51,91.24,90.17,89.54,89.25,89.23,89.37,89.51,89.59,89.58,89.49,89.36,89.11,88.58,87.87,87.18,86.43,86.14,86.41,87.35,89.11,90.59,91.92,92.93,93.21,93.52,93.75,93.89,93.95,93.87,93.62,93.20,92.46,90.96,89.36,87.82,86.34,84.90,83.58,82.31,80.87,79.17,77.49,75.73,74.02,72.31,70.41,68.62,66.86,64.96,62.82,60.65,58.60,56.52,54.63,53.86,53.13,52.41,51.70,51.01,50.29,49.88,49.69,49.66,49.76,49.76,49.75,49.74,49.69,49.52,49.31,49.06,48.77,48.41,48.02,47.63,47.21,46.77,46.38,45.82,45.12,44.37,43.67,42.96,42.21,41.41,40.64,40.04,39.57,39.19,38.82,38.44,38.09
