4.18,4.20,4.20,4.20,4.24,4.28,4.30,4.30,4.30,4.33,4.37,4.40,4.40,4.40,4.40,4.41,4.49,4.50,4.50,4.50,4.50,4.57,4.60,4.60,4.60,4.60,4.64,4.68,4.70,4.70,4.70,4.73,4.77,4.80,4.80,4.80,4.80,4.80,4.80,4.80,4.80,4.80,4.80,4.80,4.80,4.80,4.80,4.80,4.84,4.86,4.86,4.86,4.86,4.86,4.87,4.90,4.90,4.90,4.90,4.91,5.01,5.41,6.00,6.72,7.52,8.37,9.22,11.28,15.57,19.57,22.36,24.84,27.39,29.81,30.79,31.62,32.45,33.14,33.80,33.76,33.40,33.05,33.06,32.66,32.39,32.53,33.29,34.47,36.21,38.34,40.56,41.46,41.77,41.45,40.49,38.89,35.05,30.46,25.35,19.71,17.46,16.38,16.22,16.74,17.44,18.44,19.39,19.95,19.58,18.42,17.05,15.68,14.47,13.56,12.22,10.86,9.85,9.81,9.77,9.74,9.69,9.66,9.62,9.60,9.61,9.64,9.69,9.70,9.71,9.75,9.80,9.98,9.99,9.90,9.82,9.78,9.74,9.69,9.62,9.57,9.54,9.48,9.41,9.36,9.33,9.27,9.20,9.12,9.04,8.99,8.95,8.91,8.83,8.75,8.65,8.52,8.39,8.16,7.93,7.70,7.47,7.29,7.17,7.07,6.95,6.79,6.71,6.64,6.54,6.42,6.31,6.23,6.11,5.97,5.89,5.80,5.79,5.82,5.83,5.87,5.87,5.79,5.67,5.81,5.82,5.84,5.88,5.91,5.99,6.06,6.14,6.22,6.30,6.35,6.41,6.48,6.51,6.58,6.64,6.72,6.88,6.96,6.93,6.87,6.82,6.79,6.72,6.66,6.64,6.72,6.65,6.63,6.62,6.59,6.59,6.55,6.49,6.41,6.30,6.15,5.98,5.75,5.41,5.20,5.14,5.16,5.20,5.23,5.28,5.32,5.35,5.40,5.43,5.47,5.51,5.54,5.59,5.62,5.66,5.71,5.73,5.78,5.80,5.82,5.90,5.90,5.92,5.96,6.00,6.03,6.08,6.12,6.15,6.20,6.23,6.27
4.15,4.20,4.20,4.20,4.20,4.24,4.30,4.30,4.30,4.30,4.32,4.40,4.40,4.40,4.40,4.41,4.49,4.50,4.50,4.50,4.50,4.57,4.60,4.60,4.60,4.60,4.60,4.64,4.70,4.70,4.70,4.70,4.72,4.80,4.80,4.80,4.80,4.80,4.80,4.80,4.80,4.80,4.80,4.80,4.80,4.80,4.80,4.80,4.80,4.80,4.80,4.80,4.80,4.80,4.82,4.90,4.90,4.90,4.90,4.90,4.90,5.09,5.56,6.28,7.13,7.98,8.94,10.98,15.00,19.48,22.51,25.10,27.69,30.01,30.97,31.83,32.57,32.87,32.95,32.71,32.26,31.75,31.50,31.03,30.57,30.32,30.53,31.77,34.58,37.89,40.44,41.29,41.44,41.07,40.21,38.48,34.84,30.47,25.41,19.40,16.48,14.93,14.47,14.84,15.69,16.59,17.23,17.43,16.97,16.15,15.11,13.91,12.62,11.63,10.53,9.86,9.80,9.80,9.73,9.70,9.68,9.60,9.60,9.60,9.63,9.70,9.70,9.70,9.74,9.80,9.80,9.80,9.80,9.77,9.70,9.70,9.64,9.56,9.50,9.50,9.43,9.35,9.30,9.30,9.22,9.15,9.07,8.99,8.91,8.90,8.86,8.78,8.70,8.63,8.55,8.47,8.39,8.16,7.93,7.70,7.47,7.24,7.07,6.91,6.76,6.60,6.52,6.44,6.37,6.28,6.13,6.03,5.92,5.78,5.70,5.70,5.70,5.70,5.70,5.70,5.76,5.83,5.90,5.90,5.97,6.00,6.02,6.10,6.18,6.26,6.33,6.41,6.49,6.50,6.54,6.62,6.70,6.77,6.81,6.85,7.01,7.24,7.25,7.21,7.20,7.12,7.04,7.01,7.03,7.10,7.04,7.01,6.98,6.91,6.91,6.91,6.87,6.78,6.63,6.47,6.27,5.99,5.61,5.30,5.20,5.20,5.21,5.29,5.30,5.34,5.40,5.40,5.47,5.50,5.53,5.60,5.60,5.66,5.70,5.71,5.79,5.80,5.80,5.82,5.90,5.90,5.95,6.00,6.01,6.09,6.10,6.14,6.20,6.20,6.27,6.30
4.12,4.15,4.20,4.20,4.20,4.21,4.24,4.29,4.30,4.30,4.31,4.34,4.39,4.40,4.40,4.40,4.43,4.48,4.50,4.50,4.50,4.53,4.57,4.60,4.60,4.60,4.60,4.64,4.70,4.70,4.70,4.70,4.72,4.80,4.80,4.80,4.80,4.80,4.80,4.80,4.80,4.80,4.80,4.80,4.80,4.80,4.80,4.80,4.80,4.80,4.80,4.80,4.80,4.80,4.81,4.83,4.88,4.90,4.90,4.90,4.90,4.97,5.26,5.84,6.69,7.58,8.62,10.45,13.72,18.20,21.60,24.62,27.52,29.99,30.89,31.41,31.76,31.91,31.94,31.72,31.30,30.72,29.83,29.72,29.58,29.19,28.61,30.02,33.57,37.67,40.50,41.25,41.19,40.60,39.40,36.64,33.25,29.26,24.64,19.32,16.13,13.77,12.65,12.92,13.77,14.39,14.77,14.80,14.29,13.56,12.74,11.84,10.85,10.51,10.08,9.80,9.73,9.73,9.67,9.63,9.61,9.54,9.48,9.50,9.54,9.57,9.57,9.57,9.61,9.67,9.67,9.67,9.67,9.64,9.57,9.57,9.51,9.46,9.43,9.38,9.30,9.25,9.22,9.17,9.09,9.05,9.01,8.93,8.85,8.79,8.73,8.65,8.58,8.54,8.49,8.41,8.33,8.15,7.93,7.72,7.53,7.30,7.09,6.89,6.68,6.48,6.35,6.25,6.17,6.09,5.94,5.84,5.73,5.59,5.51,5.55,5.60,5.62,5.57,5.77,5.85,5.90,5.97,6.02,6.10,6.16,6.22,6.29,6.37,6.45,6.52,6.60,6.63,6.67,6.73,6.81,6.89,6.97,7.03,7.08,7.13,7.36,7.48,7.53,7.52,7.44,7.36,7.33,7.35,7.42,7.35,7.33,7.32,7.29,7.29,7.25,7.19,7.10,6.95,6.79,6.56,6.25,5.86,5.55,5.32,5.22,5.27,5.30,5.34,5.38,5.41,5.46,5.49,5.53,5.57,5.60,5.65,5.69,5.70,5.71,5.79,5.80,5.83,5.87,5.90,5.95,5.98,6.02,6.07,6.10,6.14,6.18,6.21,6.26,6.29,6.33
4.10,4.12,4.17,4.19,4.20,4.20,4.21,4.26,4.29,4.30,4.30,4.30,4.36,4.39,4.40,4.40,4.40,4.45,4.48,4.50,4.50,4.50,4.54,4.58,4.60,4.60,4.60,4.63,4.67,4.70,4.70,4.70,4.72,4.77,4.79,4.80,4.79,4.77,4.77,4.79,4.80,4.80,4.80,4.80,4.80,4.80,4.80,4.80,4.80,4.80,4.80,4.80,4.80,4.80,4.80,4.80,4.88,4.90,4.90,4.90,4.90,4.90,5.04,5.44,6.24,7.20,8.25,9.76,12.16,16.35,19.82,23.03,26.13,29.02,30.20,30.75,30.96,31.02,30.99,30.58,29.87,28.93,27.72,28.06,28.30,27.90,26.78,28.43,32.45,37.12,40.47,41.05,40.85,39.89,38.05,34.73,31.45,27.83,23.52,18.14,14.54,12.17,11.11,11.27,11.89,12.23,12.39,12.36,11.97,11.49,11.00,10.47,9.87,9.87,9.81,9.74,9.67,9.67,9.60,9.56,9.53,9.47,9.40,9.41,9.44,9.44,9.44,9.44,9.48,9.54,9.54,9.54,9.56,9.55,9.47,9.45,9.38,9.34,9.33,9.25,9.19,9.16,9.12,9.04,8.97,8.94,8.91,8.83,8.76,8.68,8.60,8.53,8.45,8.44,8.39,8.32,8.24,8.11,7.93,7.75,7.57,7.34,7.10,6.87,6.64,6.41,6.23,6.10,6.00,5.90,5.74,5.65,5.54,5.41,5.37,5.48,5.58,5.61,5.56,5.80,5.87,5.91,6.01,6.11,6.21,6.31,6.41,6.49,6.56,6.64,6.71,6.76,6.78,6.85,6.93,7.00,7.08,7.16,7.23,7.29,7.29,7.48,7.66,7.79,7.84,7.76,7.68,7.65,7.67,7.74,7.70,7.68,7.68,7.68,7.65,7.59,7.51,7.42,7.27,7.09,6.85,6.52,6.09,5.78,5.49,5.31,5.30,5.33,5.37,5.41,5.44,5.50,5.52,5.56,5.60,5.60,5.68,5.70,5.71,5.74,5.79,5.82,5.86,5.91,5.93,5.98,6.02,6.05,6.10,6.13,6.17,6.21,6.24,6.30,6.32,6.36
4.10,4.10,4.11,4.18,4.20,4.20,4.20,4.21,4.27,4.30,4.30,4.30,4.31,4.36,4.40,4.40,4.40,4.40,4.45,4.50,4.50,4.50,4.50,4.53,4.60,4.60,4.60,4.60,4.62,4.69,4.70,4.70,4.70,4.71,4.78,4.80,4.77,4.71,4.71,4.77,4.80,4.80,4.80,4.80,4.80,4.80,4.80,4.80,4.80,4.80,4.80,4.80,4.80,4.80,4.80,4.80,4.88,4.90,4.90,4.90,4.90,4.90,4.91,5.10,5.80,6.85,7.84,8.89,10.27,13.82,17.03,20.13,23.31,26.94,28.83,29.81,30.18,30.19,30.11,29.27,27.89,26.25,25.09,26.00,26.70,26.44,25.07,27.02,31.21,36.19,40.33,40.66,40.40,38.90,36.07,32.75,29.43,26.12,21.98,15.66,11.51,10.06,9.92,9.94,10.07,10.12,10.13,10.13,10.09,10.05,10.00,9.93,9.81,9.81,9.75,9.67,9.61,9.61,9.54,9.47,9.41,9.41,9.33,9.31,9.31,9.31,9.31,9.31,9.35,9.41,9.41,9.41,9.46,9.48,9.40,9.33,9.26,9.21,9.20,9.12,9.11,9.07,8.99,8.92,8.84,8.81,8.78,8.71,8.63,8.55,8.47,8.40,8.32,8.31,8.27,8.19,8.11,8.03,7.94,7.80,7.57,7.34,7.10,6.87,6.64,6.41,6.18,6.01,5.86,5.71,5.55,5.46,5.34,5.23,5.30,5.51,5.64,5.69,5.69,5.78,5.81,5.87,6.02,6.17,6.32,6.47,6.60,6.68,6.75,6.83,6.88,6.89,6.96,7.04,7.12,7.19,7.27,7.35,7.43,7.48,7.48,7.57,7.76,7.98,8.16,8.08,8.00,7.97,7.99,8.06,8.06,8.06,8.06,8.06,7.98,7.91,7.83,7.74,7.58,7.37,7.13,6.81,6.28,5.97,5.71,5.49,5.31,5.38,5.40,5.44,5.49,5.50,5.57,5.60,5.60,5.60,5.68,5.70,5.73,5.79,5.80,5.86,5.90,5.92,5.99,6.00,6.05,6.10,6.11,6.18,6.20,6.24,6.29,6.30,6.37,6.40
4.10,4.10,4.11,4.18,4.20,4.20,4.20,4.20,4.23,4.27,4.30,4.30,4.30,4.32,4.36,4.40,4.40,4.40,4.42,4.45,4.50,4.50,4.50,4.51,4.55,4.59,4.60,4.60,4.61,4.64,4.68,4.70,4.70,4.70,4.73,4.74,4.73,4.70,4.70,4.73,4.74,4.75,4.80,4.80,4.80,4.80,4.80,4.80,4.80,4.80,4.80,4.80,4.80,4.80,4.80,4.80,4.83,4.87,4.90,4.90,4.90,4.90,4.90,4.97,5.26,6.21,7.19,8.18,9.26,11.27,14.00,17.02,20.15,23.51,25.07,25.98,26.43,26.43,26.13,25.33,24.23,23.07,22.62,24.12,25.50,25.72,23.84,24.27,28.57,34.74,40.14,40.31,39.51,37.35,33.97,30.65,27.37,24.11,19.71,12.33,10.37,9.73,9.70,9.75,9.83,9.84,9.84,9.84,9.84,9.84,9.81,9.77,9.74,9.70,9.66,9.61,9.54,9.49,9.46,9.40,9.34,9.34,9.27,9.21,9.19,9.19,9.19,9.22,9.26,9.29,9.29,9.29,9.33,9.37,9.34,9.26,9.19,9.12,9.07,9.00,8.99,8.94,8.86,8.79,8.75,8.71,8.66,8.58,8.55,8.48,8.40,8.32,8.20,8.19,8.14,8.06,7.98,7.91,7.83,7.72,7.57,7.34,7.10,6.90,6.70,6.47,6.23,6.02,5.83,5.63,5.43,5.29,5.20,5.19,5.45,5.60,5.62,5.60,5.64,5.72,5.81,5.92,6.07,6.18,6.33,6.48,6.63,6.75,6.87,6.97,7.03,7.08,7.15,7.23,7.31,7.39,7.46,7.54,7.59,7.63,7.67,7.75,7.91,8.11,8.32,8.38,8.36,8.32,8.31,8.38,8.43,8.44,8.43,8.38,8.35,8.25,8.13,8.01,7.90,7.64,7.39,7.07,6.53,6.22,5.93,5.66,5.41,5.40,5.40,5.44,5.50,5.50,5.57,5.60,5.62,5.66,5.69,5.73,5.77,5.81,5.85,5.89,5.93,5.97,6.00,6.04,6.08,6.12,6.16,6.19,6.24,6.27,6.31,6.35,6.39,6.43
4.10,4.10,4.10,4.17,4.19,4.20,4.20,4.20,4.20,4.25,4.30,4.30,4.30,4.30,4.33,4.40,4.40,4.40,4.40,4.42,4.50,4.50,4.50,4.50,4.50,4.56,4.59,4.60,4.60,4.60,4.65,4.69,4.70,4.70,4.70,4.70,4.70,4.70,4.70,4.70,4.70,4.71,4.78,4.79,4.80,4.80,4.80,4.80,4.80,4.80,4.80,4.80,4.80,4.80,4.80,4.80,4.80,4.84,4.89,4.90,4.90,4.90,4.90,4.90,4.90,5.58,6.48,7.44,8.35,9.28,11.35,14.01,16.92,19.93,21.23,22.03,22.49,22.51,22.11,21.48,20.82,20.36,20.70,22.65,24.48,25.04,22.78,21.71,25.72,32.52,38.90,39.09,38.06,35.58,31.91,28.51,25.26,21.46,16.59,9.99,9.74,9.65,9.63,9.71,9.77,9.78,9.78,9.78,9.78,9.76,9.72,9.67,9.66,9.59,9.57,9.53,9.47,9.39,9.38,9.34,9.27,9.26,9.20,9.13,9.07,9.06,9.06,9.12,9.16,9.16,9.16,9.17,9.22,9.26,9.26,9.19,9.12,9.04,8.97,8.89,8.86,8.81,8.74,8.68,8.66,8.61,8.53,8.48,8.46,8.40,8.32,8.23,8.09,8.06,8.01,7.93,7.86,7.80,7.72,7.65,7.55,7.33,7.12,6.93,6.74,6.51,6.28,6.05,5.81,5.58,5.35,5.17,5.14,5.28,5.55,5.60,5.55,5.51,5.60,5.68,5.81,5.97,6.11,6.21,6.35,6.51,6.66,6.81,6.95,7.06,7.16,7.25,7.34,7.42,7.50,7.58,7.66,7.72,7.75,7.79,7.86,7.94,8.06,8.24,8.46,8.62,8.68,8.67,8.62,8.68,8.77,8.81,8.78,8.73,8.71,8.59,8.43,8.29,8.20,7.91,7.65,7.33,6.78,6.48,6.17,5.86,5.57,5.44,5.42,5.45,5.50,5.52,5.58,5.61,5.64,5.70,5.72,5.77,5.81,5.83,5.89,5.91,5.96,6.00,6.02,6.08,6.11,6.15,6.20,6.22,6.27,6.31,6.34,6.40,6.40,6.45
4.10,4.10,4.10,4.11,4.17,4.20,4.20,4.20,4.20,4.25,4.30,4.30,4.30,4.30,4.33,4.40,4.40,4.40,4.40,4.42,4.50,4.50,4.50,4.50,4.50,4.51,4.57,4.60,4.60,4.60,4.61,4.65,4.70,4.70,4.70,4.70,4.70,4.70,4.70,4.70,4.70,4.70,4.71,4.78,4.80,4.80,4.80,4.80,4.80,4.80,4.80,4.80,4.80,4.80,4.80,4.80,4.80,4.81,4.84,4.90,4.90,4.90,4.90,4.90,4.90,5.03,5.68,6.59,7.45,8.38,9.52,11.24,13.62,16.38,17.78,18.53,18.86,18.92,18.73,18.40,18.30,18.72,19.85,21.94,23.75,24.26,21.96,19.87,22.76,28.92,35.59,36.13,35.59,33.50,29.95,26.30,23.06,17.62,11.90,9.85,9.73,9.65,9.63,9.70,9.71,9.71,9.71,9.71,9.71,9.65,9.62,9.59,9.53,9.52,9.47,9.42,9.40,9.33,9.31,9.27,9.20,9.13,9.12,9.06,8.99,8.93,8.93,8.99,9.03,9.03,9.03,9.09,9.12,9.13,9.13,9.12,9.06,8.98,8.90,8.83,8.76,8.69,8.63,8.62,8.55,8.48,8.43,8.41,8.34,8.27,8.19,8.11,8.02,7.96,7.88,7.80,7.73,7.72,7.66,7.58,7.49,7.33,7.16,6.96,6.74,6.51,6.28,6.05,5.81,5.58,5.35,5.13,5.24,5.60,5.52,5.41,5.39,5.46,5.60,5.68,5.81,5.97,6.12,6.26,6.41,6.57,6.72,6.88,6.97,7.09,7.24,7.38,7.52,7.62,7.69,7.77,7.85,7.87,7.91,7.98,8.06,8.13,8.22,8.37,8.59,8.74,8.93,8.98,8.93,8.94,9.08,9.13,9.12,9.11,9.04,8.91,8.75,8.60,8.46,8.17,7.90,7.58,7.04,6.73,6.42,6.11,5.81,5.53,5.49,5.49,5.52,5.58,5.60,5.64,5.69,5.70,5.77,5.79,5.83,5.89,5.90,5.96,5.99,6.02,6.08,6.10,6.15,6.19,6.21,6.27,6.29,6.33,6.39,6.40,6.40,6.45
4.08,4.10,4.10,4.10,4.13,4.17,4.20,4.20,4.20,4.22,4.26,4.30,4.30,4.30,4.32,4.36,4.39,4.40,4.40,4.41,4.45,4.49,4.50,4.50,4.50,4.50,4.56,4.60,4.60,4.60,4.60,4.65,4.70,4.70,4.70,4.70,4.70,4.70,4.70,4.70,4.70,4.70,4.70,4.74,4.78,4.80,4.80,4.80,4.80,4.80,4.80,4.80,4.80,4.80,4.80,4.80,4.80,4.80,4.82,4.86,4.89,4.90,4.90,4.90,4.90,4.90,5.20,5.79,6.61,7.50,8.41,9.60,11.12,12.87,14.64,15.61,15.93,16.08,16.31,16.82,17.62,18.69,20.08,22.07,23.23,22.98,21.00,18.53,19.96,24.40,30.11,31.98,32.01,30.29,27.07,23.25,18.32,13.63,10.31,9.76,9.64,9.57,9.58,9.65,9.65,9.65,9.65,9.64,9.60,9.57,9.53,9.49,9.45,9.41,9.37,9.35,9.34,9.26,9.22,9.18,9.13,9.05,9.05,9.00,8.92,8.85,8.85,8.88,8.90,8.90,8.90,8.97,9.00,9.00,9.00,9.00,8.97,8.92,8.83,8.72,8.64,8.58,8.54,8.50,8.43,8.38,8.34,8.30,8.22,8.17,8.11,8.04,7.96,7.85,7.75,7.69,7.65,7.61,7.55,7.47,7.39,7.27,7.15,6.97,6.74,6.51,6.28,6.05,5.83,5.63,5.40,5.17,5.22,5.48,5.36,5.32,5.35,5.45,5.60,5.72,5.86,6.02,6.17,6.32,6.45,6.58,6.74,6.89,7.01,7.15,7.31,7.46,7.61,7.71,7.80,7.91,7.99,8.03,8.09,8.17,8.25,8.33,8.40,8.51,8.67,8.87,9.09,9.22,9.25,9.25,9.39,9.47,9.48,9.44,9.36,9.23,9.07,8.91,8.72,8.46,8.19,7.83,7.25,6.94,6.63,6.34,6.06,5.75,5.57,5.52,5.56,5.60,5.64,5.67,5.71,5.75,5.79,5.83,5.87,5.91,5.94,5.98,6.02,6.06,6.10,6.14,6.18,6.20,6.21,6.29,6.30,6.34,6.40,6.40,6.44,6.47
4.04,4.09,4.10,4.10,4.10,4.13,4.19,4.20,4.20,4.20,4.22,4.29,4.30,4.30,4.30,4.31,4.38,4.40,4.40,4.40,4.40,4.46,4.49,4.50,4.50,4.50,4.55,4.59,4.60,4.60,4.60,4.64,4.69,4.70,4.70,4.70,4.70,4.70,4.70,4.70,4.70,4.70,4.70,4.70,4.74,4.79,4.79,4.79,4.79,4.79,4.79,4.79,4.79,4.79,4.80,4.80,4.80,4.80,4.80,4.81,4.89,4.90,4.90,4.90,4.90,4.90,4.90,5.13,5.81,6.63,7.52,8.37,9.14,9.89,11.83,12.98,13.40,13.73,14.61,16.02,17.63,19.18,20.62,22.27,22.63,21.56,19.85,17.27,17.36,19.95,24.26,26.91,27.24,25.65,22.64,19.22,13.40,10.32,9.75,9.68,9.53,9.49,9.53,9.59,9.59,9.58,9.57,9.56,9.49,9.48,9.43,9.38,9.37,9.30,9.29,9.28,9.26,9.20,9.12,9.09,9.07,8.99,8.98,8.93,8.86,8.79,8.78,8.77,8.77,8.78,8.79,8.85,8.87,8.87,8.87,8.88,8.88,8.84,8.75,8.61,8.52,8.48,8.45,8.38,8.31,8.28,8.24,8.17,8.10,8.08,8.04,7.96,7.88,7.74,7.64,7.58,7.57,7.49,7.42,7.34,7.26,7.19,7.11,6.96,6.74,6.51,6.29,6.06,5.85,5.68,5.45,5.22,5.16,5.25,5.19,5.27,5.35,5.46,5.62,5.77,5.92,6.07,6.22,6.37,6.47,6.60,6.75,6.91,7.06,7.21,7.36,7.51,7.67,7.77,7.89,8.03,8.12,8.20,8.29,8.36,8.44,8.52,8.59,8.66,8.76,8.99,9.22,9.41,9.53,9.55,9.86,10.09,10.16,10.04,9.86,9.61,9.39,9.22,8.98,8.75,8.47,8.07,7.45,7.14,6.83,6.55,6.30,5.99,5.68,5.56,5.60,5.61,5.68,5.71,5.74,5.80,5.81,5.86,5.90,5.92,5.99,6.01,6.05,6.10,6.10,6.18,6.20,6.20,6.22,6.29,6.31,6.35,6.40,6.41,6.48,6.51
4.01,4.04,4.10,4.10,4.10,4.11,4.13,4.19,4.20,4.20,4.21,4.22,4.28,4.30,4.30,4.30,4.32,4.37,4.40,4.40,4.40,4.42,4.46,4.50,4.50,4.50,4.51,4.55,4.60,4.60,4.60,4.61,4.64,4.70,4.70,4.70,4.70,4.70,4.70,4.70,4.70,4.70,4.70,4.70,4.71,4.72,4.72,4.72,4.72,4.72,4.72,4.72,4.72,4.76,4.80,4.80,4.80,4.80,4.80,4.81,4.89,4.90,4.90,4.90,4.90,4.90,4.90,4.96,5.16,5.84,6.66,7.48,8.23,8.88,9.90,10.81,11.62,12.45,14.60,16.47,18.18,19.81,21.10,21.80,21.50,20.19,18.09,15.71,15.32,16.79,19.48,19.61,19.09,16.82,13.26,12.36,10.77,9.87,9.62,9.55,9.45,9.46,9.51,9.52,9.52,9.48,9.45,9.44,9.42,9.37,9.33,9.30,9.25,9.23,9.22,9.20,9.14,9.13,9.06,9.02,9.00,8.92,8.86,8.83,8.79,8.72,8.66,8.65,8.65,8.66,8.72,8.74,8.75,8.75,8.75,8.81,8.78,8.71,8.63,8.54,8.46,8.39,8.33,8.25,8.23,8.18,8.12,8.04,8.03,7.98,7.91,7.83,7.75,7.66,7.58,7.50,7.44,7.37,7.29,7.21,7.14,7.06,6.98,6.88,6.74,6.51,6.33,6.12,5.90,5.68,5.45,5.22,5.09,5.08,5.12,5.25,5.38,5.53,5.68,5.83,5.95,6.07,6.22,6.37,6.51,6.66,6.82,6.97,7.12,7.24,7.36,7.51,7.67,7.81,7.95,8.10,8.24,8.38,8.48,8.55,8.63,8.71,8.74,8.79,8.88,9.11,9.35,9.54,9.68,9.80,10.91,11.72,12.02,11.74,11.07,10.24,9.71,9.53,9.24,9.00,8.73,8.33,7.71,7.40,7.09,6.79,6.49,6.19,5.88,5.68,5.61,5.67,5.69,5.74,5.78,5.80,5.86,5.89,5.93,5.98,6.00,6.05,6.09,6.10,6.10,6.18,6.20,6.22,6.28,6.30,6.35,6.39,6.41,6.47,6.49,6.54
4.00,4.03,4.10,4.10,4.10,4.10,4.11,4.15,4.19,4.20,4.20,4.20,4.25,4.28,4.30,4.30,4.30,4.34,4.38,4.40,4.40,4.40,4.43,4.47,4.50,4.50,4.50,4.52,4.56,4.60,4.60,4.60,4.61,4.66,4.69,4.70,4.70,4.70,4.70,4.70,4.70,4.70,4.70,4.70,4.70,4.70,4.70,4.70,4.70,4.70,4.70,4.70,4.70,4.73,4.77,4.80,4.80,4.80,4.80,4.81,4.85,4.88,4.90,4.90,4.90,4.90,4.90,4.90,4.92,5.28,5.90,6.61,7.33,7.95,8.61,9.46,10.45,11.46,13.88,16.21,18.33,20.13,21.11,21.24,20.18,18.06,15.48,13.58,13.14,13.69,14.54,14.08,13.57,12.08,9.85,9.82,9.75,9.65,9.53,9.42,9.37,9.41,9.46,9.46,9.42,9.38,9.36,9.35,9.32,9.28,9.24,9.20,9.16,9.16,9.14,9.10,9.05,9.02,8.98,8.94,8.91,8.86,8.78,8.74,8.70,8.65,8.57,8.56,8.54,8.53,8.61,8.62,8.62,8.62,8.62,8.70,8.68,8.62,8.55,8.47,8.39,8.32,8.24,8.16,8.13,8.07,8.00,7.96,7.92,7.86,7.78,7.71,7.66,7.59,7.51,7.42,7.32,7.24,7.16,7.10,7.05,6.97,6.89,6.82,6.72,6.55,6.36,6.15,5.91,5.68,5.45,5.22,5.06,5.02,5.13,5.28,5.42,5.55,5.70,5.86,5.98,6.11,6.26,6.42,6.57,6.71,6.84,6.99,7.15,7.27,7.40,7.55,7.71,7.86,8.00,8.13,8.28,8.44,8.57,8.67,8.78,8.86,8.90,8.96,9.04,9.21,9.43,9.64,10.00,10.88,12.56,13.78,14.36,14.21,13.58,12.43,11.27,10.31,9.59,9.27,8.98,8.58,7.96,7.65,7.35,7.04,6.73,6.42,6.11,5.85,5.69,5.70,5.73,5.77,5.81,5.84,5.89,5.92,5.96,6.00,6.00,6.07,6.10,6.11,6.14,6.19,6.22,6.26,6.30,6.34,6.38,6.42,6.45,6.50,6.53,6.57
4.00,4.03,4.10,4.10,4.10,4.10,4.10,4.10,4.17,4.20,4.20,4.20,4.20,4.26,4.30,4.30,4.30,4.30,4.34,4.40,4.40,4.40,4.40,4.43,4.50,4.50,4.50,4.50,4.51,4.59,4.60,4.60,4.60,4.60,4.67,4.70,4.70,4.70,4.70,4.70,4.70,4.70,4.70,4.70,4.70,4.70,4.70,4.70,4.70,4.70,4.70,4.70,4.70,4.70,4.72,4.79,4.80,4.80,4.80,4.80,4.80,4.86,4.90,4.90,4.90,4.90,4.90,4.90,4.90,4.90,5.23,5.78,6.43,7.05,7.67,8.56,9.62,10.63,12.75,15.52,18.20,20.18,20.78,20.47,18.57,15.42,12.49,11.25,10.99,10.81,9.89,9.89,9.84,9.80,9.78,9.71,9.62,9.55,9.45,9.30,9.30,9.35,9.39,9.38,9.31,9.30,9.29,9.27,9.20,9.19,9.14,9.10,9.09,9.09,9.04,8.99,8.98,8.91,8.89,8.85,8.80,8.80,8.72,8.64,8.60,8.59,8.51,8.49,8.45,8.41,8.48,8.49,8.49,8.49,8.50,8.57,8.59,8.56,8.48,8.41,8.33,8.25,8.17,8.09,8.02,7.94,7.89,7.88,7.81,7.73,7.65,7.59,7.59,7.52,7.44,7.34,7.19,7.12,7.04,6.99,6.98,6.90,6.82,6.75,6.67,6.59,6.37,6.15,5.91,5.68,5.45,5.23,5.07,5.03,5.18,5.34,5.45,5.55,5.71,5.86,6.02,6.17,6.32,6.47,6.63,6.74,6.84,7.00,7.15,7.31,7.46,7.61,7.77,7.92,8.04,8.13,8.29,8.44,8.60,8.75,8.90,8.98,9.06,9.14,9.22,9.30,9.50,9.76,10.45,12.42,14.51,16.06,16.93,17.08,16.79,15.48,13.56,11.46,10.08,9.58,9.23,8.83,8.21,7.91,7.60,7.29,6.98,6.67,6.37,6.06,5.80,5.71,5.77,5.80,5.83,5.90,5.90,5.96,6.00,6.00,6.00,6.07,6.10,6.13,6.20,6.20,6.26,6.30,6.31,6.39,6.40,6.44,6.50,6.50,6.57,6.60
4.00,4.01,4.04,4.09,4.10,4.10,4.10,4.10,4.17,4.20,4.20,4.20,4.20,4.26,4.30,4.30,4.30,4.30,4.31,4.34,4.40,4.40,4.40,4.41,4.43,4.49,4.50,4.50,4.50,4.53,4.58,4.60,4.60,4.60,4.62,4.67,4.70,4.70,4.70,4.70,4.70,4.70,4.70,4.70,4.70,4.70,4.70,4.70,4.70,4.70,4.70,4.70,4.70,4.70,4.71,4.73,4.78,4.80,4.80,4.80,4.80,4.82,4.86,4.90,4.90,4.90,4.90,4.90,4.90,4.90,5.01,5.19,5.47,6.09,6.75,7.66,8.74,9.79,11.63,14.51,17.29,19.07,19.42,17.70,14.76,11.71,10.75,10.34,10.22,10.13,9.83,9.78,9.74,9.73,9.72,9.64,9.52,9.42,9.33,9.23,9.23,9.28,9.31,9.26,9.24,9.23,9.20,9.16,9.13,9.08,9.05,9.03,9.03,8.98,8.94,8.91,8.86,8.83,8.79,8.75,8.73,8.73,8.66,8.58,8.53,8.52,8.45,8.39,8.35,8.34,8.36,8.36,8.36,8.38,8.43,8.46,8.46,8.43,8.36,8.33,8.27,8.19,8.10,7.97,7.89,7.85,7.81,7.76,7.68,7.60,7.55,7.52,7.47,7.39,7.31,7.23,7.13,7.05,6.94,6.86,6.85,6.77,6.70,6.62,6.54,6.47,6.34,6.15,5.91,5.69,5.51,5.37,5.19,5.03,5.18,5.34,5.48,5.62,5.77,5.93,6.08,6.21,6.32,6.47,6.63,6.77,6.91,7.06,7.22,7.37,7.51,7.61,7.77,7.92,8.06,8.20,8.35,8.51,8.66,8.80,8.90,9.03,9.16,9.29,9.42,9.49,9.65,10.23,11.53,13.99,16.25,18.01,19.18,19.71,19.57,18.41,16.47,14.04,11.72,10.24,9.46,9.02,8.41,8.10,7.79,7.48,7.18,6.92,6.62,6.31,6.02,5.78,5.79,5.83,5.88,5.90,5.90,5.96,6.00,6.01,6.06,6.09,6.13,6.18,6.20,6.25,6.29,6.32,6.37,6.40,6.44,6.48,6.51,6.57,6.59,6.63
4.00,4.00,4.00,4.06,4.09,4.10,4.10,4.10,4.15,4.18,4.20,4.20,4.20,4.24,4.28,4.30,4.30,4.30,4.30,4.32,4.40,4.40,4.40,4.40,4.41,4.48,4.50,4.50,4.50,4.50,4.55,4.58,4.60,4.60,4.60,4.64,4.67,4.67,4.67,4.67,4.68,4.70,4.70,4.70,4.70,4.70,4.70,4.70,4.70,4.70,4.70,4.70,4.70,4.70,4.70,4.70,4.78,4.80,4.80,4.80,4.80,4.80,4.83,4.87,4.90,4.90,4.90,4.90,4.90,4.90,4.90,4.90,4.97,5.39,5.91,6.75,7.82,8.90,10.36,12.56,14.56,15.69,15.85,14.24,11.90,9.86,9.84,9.83,9.80,9.76,9.73,9.68,9.65,9.63,9.62,9.54,9.42,9.31,9.22,9.17,9.19,9.22,9.21,9.17,9.17,9.15,9.11,9.06,9.04,8.99,8.97,8.96,8.93,8.88,8.85,8.81,8.76,8.74,8.69,8.67,8.66,8.63,8.58,8.51,8.46,8.43,8.38,8.31,8.27,8.26,8.24,8.23,8.23,8.26,8.33,8.33,8.33,8.31,8.26,8.24,8.19,8.12,8.03,7.90,7.80,7.75,7.71,7.63,7.58,7.51,7.45,7.42,7.34,7.29,7.22,7.14,7.07,6.99,6.85,6.76,6.72,6.65,6.57,6.49,6.41,6.34,6.26,6.11,5.92,5.72,5.54,5.50,5.31,5.03,5.18,5.34,5.49,5.65,5.80,5.96,6.11,6.24,6.35,6.51,6.66,6.80,6.94,7.09,7.25,7.40,7.54,7.64,7.80,7.95,8.10,8.23,8.38,8.54,8.69,8.83,8.93,9.09,9.24,9.40,9.54,9.62,9.76,10.74,12.69,15.44,17.86,19.71,21.03,21.82,21.85,20.86,19.02,16.51,13.73,11.50,10.08,9.25,8.63,8.32,8.01,7.70,7.40,7.14,6.84,6.53,6.23,5.92,5.85,5.87,5.90,5.90,5.93,5.97,6.01,6.04,6.09,6.12,6.16,6.21,6.23,6.28,6.32,6.35,6.40,6.43,6.48,6.51,6.54,6.60,6.62,6.67
4.00,4.00,4.00,4.00,4.06,4.10,4.10,4.10,4.10,4.15,4.20,4.20,4.20,4.20,4.23,4.30,4.30,4.30,4.30,4.32,4.40,4.40,4.40,4.40,4.41,4.48,4.50,4.50,4.50,4.50,4.50,4.55,4.60,4.60,4.60,4.60,4.60,4.60,4.60,4.60,4.64,4.70,4.70,4.70,4.70,4.70,4.70,4.70,4.70,4.70,4.70,4.70,4.70,4.70,4.70,4.70,4.78,4.80,4.80,4.80,4.80,4.80,4.80,4.82,4.90,4.90,4.90,4.90,4.90,4.90,4.90,4.90,4.90,4.92,5.14,5.83,6.86,7.94,8.97,9.72,10.13,10.18,10.19,10.11,9.96,9.79,9.71,9.71,9.70,9.68,9.61,9.60,9.55,9.51,9.49,9.42,9.34,9.22,9.11,9.10,9.18,9.15,9.11,9.10,9.10,9.04,9.01,8.99,8.91,8.90,8.90,8.88,8.81,8.80,8.75,8.71,8.69,8.62,8.60,8.60,8.58,8.51,8.50,8.45,8.37,8.31,8.30,8.24,8.20,8.19,8.11,8.11,8.11,8.13,8.21,8.21,8.21,8.21,8.19,8.12,8.10,8.06,7.98,7.90,7.75,7.65,7.58,7.51,7.50,7.44,7.37,7.29,7.21,7.20,7.16,7.08,7.00,6.92,6.79,6.67,6.60,6.52,6.44,6.36,6.29,6.21,6.13,6.05,5.94,5.78,5.55,5.62,5.43,5.03,5.18,5.34,5.49,5.65,5.80,5.96,6.11,6.26,6.42,6.57,6.73,6.84,6.94,7.09,7.25,7.40,7.56,7.71,7.86,8.02,8.14,8.23,8.38,8.54,8.69,8.85,9.00,9.15,9.31,9.46,9.61,9.68,9.83,11.28,13.93,16.78,19.34,21.18,22.49,23.43,23.65,22.87,21.23,18.88,16.10,13.34,11.06,9.50,8.89,8.58,8.27,7.96,7.65,7.34,7.04,6.73,6.42,6.11,5.95,5.90,5.90,5.90,5.98,6.00,6.03,6.10,6.10,6.17,6.20,6.22,6.30,6.30,6.35,6.40,6.41,6.48,6.50,6.54,6.60,6.60,6.67,6.70
3.97,4.00,4.00,4.00,4.02,4.06,4.10,4.10,4.10,4.12,4.15,4.20,4.20,4.20,4.21,4.25,4.29,4.30,4.30,4.31,4.34,4.38,4.40,4.40,4.40,4.43,4.48,4.50,4.50,4.50,4.50,4.55,4.60,4.60,4.60,4.60,4.60,4.60,4.60,4.60,4.62,4.64,4.64,4.68,4.70,4.70,4.70,4.70,4.70,4.70,4.70,4.70,4.70,4.70,4.70,4.70,4.73,4.77,4.80,4.80,4.80,4.80,4.80,4.81,4.84,4.88,4.90,4.90,4.90,4.90,4.90,4.90,4.90,4.90,5.06,5.42,6.07,7.10,8.15,9.04,9.63,9.83,9.79,9.78,9.76,9.72,9.64,9.64,9.61,9.57,9.54,9.49,9.46,9.44,9.42,9.30,9.21,9.12,9.04,9.04,9.07,9.06,9.04,9.03,8.99,8.95,8.92,8.87,8.84,8.84,8.81,8.77,8.74,8.69,8.66,8.62,8.57,8.54,8.54,8.51,8.47,8.44,8.39,8.36,8.31,8.24,8.24,8.18,8.12,8.07,8.04,8.00,8.01,8.05,8.08,8.08,8.08,8.10,8.13,8.05,8.00,7.94,7.87,7.84,7.69,7.59,7.51,7.44,7.39,7.32,7.24,7.17,7.14,7.10,7.03,6.95,6.88,6.80,6.70,6.59,6.47,6.39,6.35,6.30,6.22,6.14,6.07,5.99,5.90,5.78,5.55,5.51,5.32,5.03,5.18,5.34,5.52,5.71,5.86,5.97,6.11,6.27,6.42,6.57,6.73,6.87,7.00,7.15,7.31,7.43,7.56,7.71,7.87,8.02,8.16,8.29,8.44,8.60,8.75,8.89,9.00,9.16,9.31,9.46,9.62,9.74,10.24,12.02,14.85,17.76,20.19,22.11,23.63,24.87,25.48,24.86,23.32,21.00,17.84,14.97,12.24,10.07,9.08,8.77,8.50,8.22,7.91,7.60,7.29,6.98,6.67,6.36,6.11,5.99,5.96,5.96,5.99,6.04,6.07,6.11,6.15,6.19,6.23,6.27,6.30,6.35,6.38,6.42,6.46,6.49,6.54,6.58,6.61,6.66,6.69,6.70
3.95,4.00,4.00,4.00,4.00,4.03,4.08,4.10,4.10,4.10,4.12,4.18,4.19,4.20,4.20,4.21,4.27,4.29,4.30,4.30,4.30,4.36,4.39,4.40,4.40,4.40,4.44,4.48,4.50,4.50,4.50,4.53,4.58,4.60,4.60,4.60,4.60,4.60,4.60,4.60,4.60,4.60,4.60,4.65,4.69,4.70,4.70,4.70,4.70,4.70,4.70,4.70,4.70,4.70,4.70,4.70,4.70,4.74,4.78,4.80,4.80,4.80,4.80,4.80,4.80,4.85,4.89,4.90,4.90,4.90,4.90,4.90,4.90,4.92,5.04,5.19,5.53,6.32,7.36,8.39,9.22,9.70,9.68,9.68,9.67,9.64,9.58,9.56,9.51,9.47,9.45,9.39,9.36,9.35,9.33,9.19,9.09,9.02,8.98,8.98,8.98,8.98,8.97,8.94,8.89,8.86,8.82,8.78,8.78,8.76,8.71,8.67,8.65,8.59,8.56,8.52,8.48,8.48,8.46,8.42,8.37,8.35,8.29,8.26,8.23,8.17,8.15,8.10,8.04,7.98,7.98,7.90,7.91,7.95,7.95,7.95,7.95,7.98,8.04,7.96,7.90,7.83,7.77,7.75,7.62,7.52,7.45,7.37,7.27,7.20,7.14,7.07,7.05,6.98,6.92,6.85,6.77,6.70,6.62,6.51,6.36,6.29,6.26,6.21,6.13,6.05,5.98,5.90,5.82,5.73,5.52,5.39,5.21,5.05,5.21,5.36,5.55,5.75,5.90,6.00,6.14,6.29,6.45,6.60,6.74,6.88,7.04,7.19,7.35,7.46,7.58,7.74,7.89,8.03,8.17,8.33,8.48,8.64,8.79,8.93,9.03,9.18,9.34,9.49,9.64,9.80,10.70,12.74,15.62,18.50,20.84,22.87,24.65,26.23,27.15,26.86,25.51,23.15,19.62,16.58,13.52,10.86,9.30,8.99,8.72,8.45,8.14,7.83,7.52,7.22,6.93,6.62,6.31,6.11,6.02,6.00,6.02,6.07,6.11,6.13,6.19,6.22,6.26,6.31,6.32,6.38,6.41,6.45,6.50,6.52,6.57,6.60,6.62,6.69,6.70,6.71
3.95,4.00,4.00,4.00,4.00,4.00,4.02,4.09,4.10,4.10,4.10,4.11,4.18,4.20,4.20,4.20,4.21,4.27,4.30,4.30,4.30,4.31,4.36,4.40,4.40,4.40,4.41,4.44,4.50,4.50,4.50,4.51,4.53,4.60,4.60,4.60,4.60,4.60,4.60,4.60,4.60,4.60,4.60,4.61,4.66,4.70,4.70,4.70,4.70,4.70,4.70,4.70,4.70,4.70,4.70,4.70,4.70,4.71,4.74,4.80,4.80,4.80,4.80,4.80,4.80,4.81,4.86,4.90,4.90,4.90,4.90,4.90,4.91,4.98,5.06,5.19,5.37,5.62,6.56,7.59,8.61,9.46,9.59,9.61,9.58,9.52,9.51,9.45,9.42,9.39,9.32,9.31,9.26,9.22,9.21,9.12,8.99,8.92,8.91,8.91,8.91,8.91,8.88,8.82,8.81,8.76,8.72,8.71,8.71,8.65,8.62,8.59,8.52,8.51,8.46,8.42,8.41,8.41,8.35,8.32,8.29,8.22,8.21,8.16,8.12,8.11,8.04,8.02,7.97,7.91,7.91,7.84,7.82,7.82,7.82,7.82,7.82,7.86,7.91,7.83,7.82,7.77,7.69,7.62,7.54,7.46,7.38,7.30,7.15,7.12,7.07,7.00,6.93,6.85,6.82,6.79,6.71,6.63,6.56,6.44,6.30,6.22,6.15,6.08,6.00,5.93,5.85,5.77,5.69,5.61,5.45,5.24,5.12,5.12,5.27,5.43,5.59,5.75,5.90,6.05,6.20,6.35,6.51,6.66,6.76,6.88,7.04,7.19,7.35,7.50,7.65,7.80,7.95,8.06,8.17,8.33,8.48,8.64,8.79,8.94,9.09,9.24,9.40,9.55,9.71,9.86,11.22,13.43,16.16,18.89,21.23,23.41,25.50,27.45,28.58,28.86,27.85,25.39,21.51,18.17,14.93,11.95,9.55,9.24,8.94,8.64,8.33,8.02,7.71,7.44,7.18,6.87,6.56,6.27,6.06,6.00,6.07,6.10,6.13,6.19,6.20,6.26,6.29,6.32,6.39,6.40,6.45,6.49,6.51,6.58,6.60,6.60,6.62,6.69,6.70,6.74
3.92,3.96,4.00,4.00,4.00,4.00,4.01,4.09,4.10,4.10,4.10,4.10,4.18,4.20,4.20,4.20,4.20,4.23,4.27,4.30,4.30,4.30,4.32,4.36,4.40,4.40,4.40,4.42,4.45,4.50,4.50,4.50,4.51,4.55,4.59,4.60,4.60,4.60,4.60,4.60,4.60,4.60,4.60,4.60,4.62,4.65,4.65,4.65,4.65,4.65,4.65,4.65,4.68,4.70,4.70,4.70,4.70,4.70,4.71,4.75,4.79,4.80,4.80,4.80,4.80,4.80,4.82,4.86,4.90,4.90,4.90,4.90,4.91,4.99,5.10,5.24,5.38,5.50,6.02,6.84,7.84,8.83,9.39,9.49,9.48,9.44,9.40,9.36,9.32,9.28,9.25,9.21,9.17,9.13,9.08,9.01,8.90,8.85,8.85,8.85,8.85,8.82,8.78,8.74,8.70,8.67,8.65,8.64,8.60,8.56,8.52,8.48,8.45,8.41,8.37,8.35,8.34,8.30,8.26,8.22,8.19,8.15,8.11,8.07,8.05,8.04,7.96,7.95,7.91,7.84,7.80,7.76,7.72,7.69,7.69,7.69,7.72,7.76,7.79,7.75,7.71,7.65,7.59,7.55,7.47,7.40,7.32,7.23,7.08,7.02,6.96,6.89,6.85,6.74,6.69,6.67,6.59,6.52,6.44,6.35,6.24,6.16,6.05,5.95,5.88,5.80,5.72,5.64,5.57,5.48,5.33,5.15,5.09,5.17,5.29,5.44,5.59,5.75,5.90,6.06,6.21,6.37,6.52,6.67,6.80,6.94,7.09,7.25,7.36,7.50,7.66,7.81,7.97,8.09,8.23,8.38,8.54,8.65,8.79,8.95,9.10,9.26,9.41,9.56,9.72,9.87,11.48,13.75,16.34,18.96,21.41,23.83,26.15,28.26,29.54,29.99,29.45,27.61,23.59,19.62,16.03,12.80,9.81,9.50,9.19,8.88,8.57,8.26,7.96,7.67,7.39,7.08,6.77,6.46,6.20,6.05,6.09,6.13,6.17,6.21,6.25,6.28,6.32,6.36,6.40,6.44,6.48,6.50,6.51,6.59,6.60,6.62,6.66,6.70,6.74,6.78
3.90,3.92,3.98,4.00,4.00,4.00,4.01,4.08,4.09,4.10,4.10,4.10,4.17,4.19,4.20,4.20,4.20,4.20,4.24,4.30,4.30,4.30,4.30,4.33,4.40,4.40,4.40,4.40,4.41,4.48,4.49,4.50,4.50,4.50,4.56,4.59,4.60,4.60,4.60,4.60,4.60,4.60,4.60,4.60,4.60,4.60,4.60,4.60,4.60,4.60,4.60,4.60,4.66,4.69,4.70,4.70,4.70,4.70,4.70,4.71,4.79,4.80,4.80,4.80,4.80,4.80,4.80,4.82,4.88,4.88,4.89,4.90,4.92,5.01,5.15,5.30,5.43,5.52,5.67,6.22,7.07,8.09,9.04,9.31,9.37,9.35,9.29,9.27,9.23,9.18,9.16,9.10,9.07,9.04,8.97,8.88,8.81,8.78,8.78,8.78,8.77,8.72,8.68,8.68,8.60,8.58,8.58,8.55,8.49,8.47,8.43,8.38,8.38,8.30,8.28,8.28,8.26,8.19,8.17,8.13,8.08,8.08,8.01,7.98,7.98,7.96,7.90,7.87,7.83,7.77,7.69,7.68,7.64,7.58,7.57,7.57,7.62,7.67,7.67,7.67,7.61,7.54,7.48,7.47,7.40,7.33,7.25,7.17,7.02,6.92,6.85,6.78,6.77,6.64,6.58,6.54,6.47,6.39,6.32,6.25,6.17,6.10,5.95,5.84,5.76,5.69,5.61,5.53,5.45,5.37,5.23,5.09,5.09,5.22,5.31,5.46,5.61,5.76,5.90,6.06,6.22,6.38,6.52,6.67,6.83,6.98,7.14,7.29,7.39,7.52,7.67,7.83,7.97,8.12,8.27,8.43,8.58,8.68,8.81,8.96,9.12,9.27,9.43,9.58,9.73,9.88,11.65,13.95,16.43,18.95,21.51,24.11,26.63,28.89,30.29,30.83,30.66,29.41,25.49,20.93,16.99,13.55,10.11,9.75,9.43,9.13,8.83,8.52,8.21,7.90,7.59,7.28,6.98,6.67,6.38,6.15,6.12,6.17,6.21,6.23,6.29,6.30,6.35,6.40,6.40,6.48,6.50,6.51,6.52,6.59,6.61,6.65,6.70,6.72,6.78,6.81
3.90,3.91,3.92,3.99,4.00,4.00,4.00,4.02,4.08,4.10,4.10,4.10,4.12,4.16,4.20,4.20,4.20,4.20,4.24,4.30,4.30,4.30,4.30,4.33,4.40,4.40,4.40,4.40,4.40,4.42,4.47,4.50,4.50,4.50,4.52,4.56,4.60,4.60,4.60,4.60,4.60,4.60,4.60,4.60,4.60,4.60,4.60,4.60,4.60,4.60,4.60,4.60,4.61,4.66,4.70,4.70,4.70,4.70,4.70,4.71,4.79,4.80,4.80,4.80,4.80,4.80,4.80,4.81,4.82,4.82,4.87,4.90,4.92,5.06,5.22,5.33,5.44,5.58,5.73,5.94,6.41,7.27,8.32,8.97,9.24,9.24,9.22,9.16,9.13,9.10,9.04,9.02,8.97,8.93,8.90,8.76,8.73,8.72,8.72,8.72,8.66,8.63,8.62,8.61,8.53,8.52,8.49,8.44,8.42,8.36,8.33,8.32,8.32,8.24,8.22,8.19,8.14,8.12,8.07,8.03,8.02,8.02,7.94,7.92,7.90,7.84,7.82,7.77,7.73,7.70,7.63,7.62,7.57,7.50,7.44,7.44,7.50,7.54,7.54,7.54,7.53,7.48,7.40,7.34,7.32,7.27,7.19,7.11,6.95,6.86,6.78,6.71,6.65,6.56,6.48,6.41,6.34,6.26,6.23,6.19,6.11,6.03,5.89,5.78,5.70,5.62,5.55,5.47,5.39,5.31,5.22,5.13,5.13,5.23,5.37,5.52,5.67,5.81,5.90,6.06,6.26,6.42,6.52,6.67,6.83,6.98,7.14,7.29,7.43,7.58,7.74,7.89,7.98,8.12,8.27,8.43,8.58,8.72,8.87,9.03,9.18,9.34,9.49,9.65,9.79,9.88,11.74,14.05,16.47,18.89,21.49,24.11,26.74,29.27,30.73,31.43,31.27,29.98,26.76,21.97,17.77,14.14,10.56,10.00,9.62,9.34,9.09,8.78,8.47,8.16,7.85,7.54,7.23,6.92,6.62,6.33,6.21,6.19,6.23,6.28,6.30,6.30,6.35,6.40,6.40,6.48,6.50,6.53,6.58,6.60,6.65,6.69,6.71,6.78,6.79,6.84
3.90,3.90,3.90,3.95,3.98,4.00,4.00,4.00,4.04,4.08,4.10,4.10,4.10,4.13,4.17,4.20,4.20,4.20,4.22,4.26,4.30,4.30,4.30,4.32,4.36,4.39,4.40,4.40,4.40,4.40,4.47,4.50,4.50,4.50,4.50,4.55,4.60,4.60,4.60,4.60,4.60,4.60,4.60,4.60,4.60,4.60,4.60,4.60,4.60,4.60,4.60,4.60,4.60,4.63,4.67,4.70,4.70,4.70,4.70,4.70,4.75,4.78,4.80,4.80,4.80,4.80,4.80,4.80,4.80,4.80,4.83,4.89,4.96,5.08,5.23,5.36,5.49,5.64,5.76,5.88,6.14,6.68,7.56,8.43,8.95,9.11,9.11,9.07,9.03,9.00,8.95,8.92,8.88,8.84,8.79,8.67,8.66,8.66,8.65,8.61,8.57,8.56,8.54,8.51,8.46,8.43,8.39,8.35,8.31,8.27,8.26,8.24,8.21,8.17,8.13,8.09,8.05,8.02,7.97,7.96,7.95,7.91,7.87,7.83,7.79,7.75,7.72,7.68,7.66,7.64,7.56,7.52,7.48,7.43,7.36,7.36,7.39,7.41,7.41,7.41,7.44,7.39,7.30,7.26,7.22,7.18,7.13,7.04,6.89,6.79,6.72,6.63,6.52,6.44,6.39,6.33,6.25,6.18,6.13,6.08,6.00,5.92,5.81,5.71,5.63,5.52,5.44,5.36,5.28,5.21,5.13,5.13,5.18,5.27,5.43,5.58,5.72,5.83,5.95,6.10,6.29,6.45,6.56,6.72,6.87,7.01,7.14,7.29,7.45,7.60,7.76,7.91,8.02,8.16,8.32,8.47,8.63,8.78,8.92,9.05,9.20,9.36,9.51,9.66,9.82,9.96,11.91,14.19,16.45,18.70,21.28,23.96,26.73,29.48,30.99,31.99,31.96,30.61,27.67,22.76,18.39,14.64,11.05,10.16,9.75,9.54,9.30,8.99,8.68,8.37,8.07,7.79,7.49,7.18,6.87,6.56,6.34,6.26,6.26,6.30,6.30,6.33,6.37,6.41,6.44,6.49,6.52,6.56,6.60,6.64,6.68,6.72,6.75,6.80,6.83,6.87
3.90,3.90,3.90,3.90,3.96,3.99,4.00,4.00,4.00,4.04,4.09,4.10,4.10,4.10,4.13,4.19,4.20,4.20,4.20,4.22,4.29,4.30,4.30,4.30,4.30,4.38,4.40,4.40,4.40,4.40,4.46,4.50,4.50,4.50,4.50,4.55,4.59,4.60,4.60,4.60,4.60,4.60,4.60,4.60,4.60,4.60,4.60,4.60,4.60,4.60,4.60,4.60,4.60,4.60,4.62,4.70,4.70,4.70,4.70,4.70,4.70,4.76,4.80,4.80,4.80,4.80,4.80,4.80,4.80,4.80,4.80,4.88,5.01,5.10,5.24,5.40,5.55,5.70,5.78,5.92,6.07,6.26,6.84,7.79,8.56,8.96,8.99,8.99,8.94,8.89,8.88,8.81,8.79,8.75,8.67,8.60,8.59,8.59,8.56,8.49,8.49,8.49,8.46,8.39,8.38,8.33,8.29,8.27,8.20,8.19,8.19,8.16,8.09,8.09,8.03,7.99,7.97,7.90,7.89,7.89,7.86,7.79,7.79,7.74,7.69,7.68,7.61,7.59,7.59,7.57,7.50,7.42,7.39,7.37,7.29,7.29,7.28,7.28,7.28,7.28,7.35,7.30,7.19,7.18,7.11,7.09,7.05,6.97,6.83,6.73,6.65,6.56,6.41,6.32,6.29,6.26,6.18,6.10,6.03,5.95,5.87,5.80,5.73,5.65,5.55,5.40,5.31,5.23,5.16,5.09,5.03,5.13,5.25,5.35,5.49,5.65,5.76,5.86,6.01,6.16,6.31,6.47,6.62,6.77,6.93,7.05,7.15,7.30,7.46,7.61,7.76,7.91,8.07,8.22,8.37,8.53,8.68,8.84,8.95,9.06,9.21,9.36,9.51,9.66,9.83,10.07,12.07,14.28,16.36,18.46,20.96,23.72,26.66,29.61,31.15,32.47,32.65,31.30,28.32,23.36,18.90,15.07,11.51,10.27,9.85,9.71,9.49,9.19,8.88,8.57,8.28,8.04,7.73,7.43,7.12,6.81,6.51,6.36,6.31,6.31,6.31,6.37,6.40,6.43,6.50,6.51,6.56,6.60,6.62,6.69,6.71,6.75,6.80,6.81,6.87,6.90
3.86,3.90,3.90,3.90,3.92,3.95,4.00,4.00,4.00,4.01,4.04,4.10,4.10,4.10,4.11,4.13,4.19,4.20,4.20,4.21,4.23,4.28,4.30,4.30,4.30,4.32,4.37,4.40,4.40,4.40,4.42,4.46,4.50,4.50,4.50,4.52,4.55,4.60,4.60,4.60,4.60,4.60,4.60,4.60,4.60,4.60,4.60,4.60,4.60,4.60,4.60,4.60,4.60,4.60,4.62,4.70,4.70,4.70,4.70,4.70,4.70,4.72,4.76,4.80,4.80,4.80,4.80,4.80,4.80,4.80,4.84,4.92,5.02,5.16,5.31,5.46,5.60,5.70,5.83,5.98,6.11,6.23,6.51,7.13,7.93,8.69,8.91,8.88,8.84,8.81,8.75,8.73,8.69,8.62,8.55,8.53,8.53,8.50,8.45,8.43,8.43,8.39,8.35,8.32,8.27,8.24,8.20,8.15,8.13,8.13,8.09,8.05,8.03,7.97,7.94,7.90,7.85,7.83,7.83,7.80,7.75,7.73,7.67,7.64,7.61,7.55,7.53,7.53,7.50,7.45,7.43,7.36,7.33,7.30,7.23,7.17,7.16,7.16,7.16,7.16,7.22,7.20,7.11,7.06,7.03,6.99,6.93,6.85,6.81,6.69,6.59,6.50,6.34,6.26,6.19,6.13,6.05,5.98,5.90,5.82,5.75,5.73,5.66,5.59,5.49,5.33,5.20,5.10,5.05,5.03,5.12,5.22,5.34,5.46,5.56,5.71,5.82,5.92,6.07,6.17,6.31,6.47,6.62,6.77,6.93,7.07,7.21,7.37,7.52,7.67,7.81,7.91,8.07,8.22,8.37,8.53,8.68,8.84,8.98,9.12,9.27,9.37,9.51,9.66,9.84,10.12,11.93,14.00,16.06,18.20,20.57,23.41,26.54,29.67,31.22,32.61,33.17,32.22,28.30,23.45,19.09,15.25,11.64,10.29,9.85,9.77,9.69,9.43,9.13,8.83,8.52,8.23,7.93,7.62,7.31,7.00,6.75,6.50,6.37,6.37,6.37,6.39,6.43,6.48,6.50,6.56,6.59,6.62,6.67,6.70,6.75,6.78,6.81,6.87,6.89,6.94
3.85,3.90,3.90,3.90,3.90,3.94,4.00,4.00,4.00,4.00,4.02,4.06,4.09,4.10,4.10,4.11,4.16,4.19,4.20,4.20,4.20,4.25,4.28,4.30,4.30,4.30,4.34,4.38,4.40,4.40,4.40,4.43,4.47,4.50,4.50,4.50,4.52,4.56,4.56,4.56,4.56,4.56,4.56,4.59,4.60,4.60,4.60,4.60,4.60,4.60,4.60,4.60,4.60,4.60,4.61,4.66,4.69,4.70,4.70,4.70,4.70,4.70,4.73,4.76,4.76,4.79,4.80,4.80,4.80,4.80,4.86,4.95,5.06,5.22,5.35,5.49,5.63,5.74,5.89,6.02,6.14,6.25,6.41,6.74,7.36,8.16,8.75,8.77,8.75,8.71,8.66,8.63,8.59,8.53,8.46,8.46,8.44,8.40,8.36,8.36,8.34,8.29,8.25,8.22,8.17,8.14,8.10,8.06,8.06,8.04,8.00,7.95,7.93,7.88,7.84,7.81,7.76,7.76,7.74,7.70,7.66,7.63,7.58,7.54,7.51,7.46,7.46,7.44,7.40,7.36,7.33,7.28,7.25,7.21,7.16,7.08,7.04,7.03,7.03,7.06,7.11,7.10,7.04,6.97,6.94,6.88,6.81,6.76,6.73,6.63,6.53,6.43,6.28,6.19,6.12,6.04,5.96,5.88,5.81,5.73,5.66,5.63,5.56,5.49,5.40,5.27,5.12,5.03,5.02,5.08,5.21,5.32,5.43,5.56,5.66,5.79,5.88,5.98,6.14,6.21,6.35,6.50,6.65,6.78,6.93,7.08,7.24,7.39,7.55,7.70,7.84,7.95,8.10,8.26,8.40,8.53,8.68,8.84,8.99,9.15,9.30,9.38,9.51,9.66,9.83,10.08,11.80,13.82,15.87,17.98,20.31,23.25,26.53,29.73,31.28,32.73,33.31,32.31,28.26,23.52,19.21,15.37,11.77,10.32,9.85,9.80,9.78,9.60,9.36,9.08,8.77,8.46,8.15,7.85,7.54,7.23,6.97,6.67,6.47,6.40,6.40,6.42,6.46,6.51,6.54,6.59,6.62,6.66,6.70,6.73,6.78,6.81,6.85,6.90,6.93,6.97
3.85,3.90,3.90,3.90,3.90,3.94,4.00,4.00,4.00,4.00,4.00,4.00,4.08,4.10,4.10,4.10,4.10,4.16,4.20,4.20,4.20,4.20,4.25,4.30,4.30,4.30,4.30,4.34,4.40,4.40,4.40,4.40,4.42,4.50,4.50,4.50,4.50,4.50,4.50,4.50,4.50,4.50,4.50,4.57,4.60,4.60,4.60,4.60,4.60,4.60,4.60,4.60,4.60,4.60,4.60,4.60,4.68,4.70,4.70,4.70,4.70,4.70,4.70,4.70,4.70,4.77,4.80,4.80,4.80,4.80,4.86,4.97,5.13,5.28,5.37,5.49,5.64,5.80,5.95,6.05,6.16,6.32,6.47,6.56,6.84,7.44,8.52,8.67,8.65,8.60,8.60,8.52,8.50,8.46,8.40,8.40,8.33,8.30,8.30,8.30,8.22,8.20,8.17,8.10,8.10,8.04,8.00,8.00,8.00,7.93,7.90,7.87,7.80,7.80,7.74,7.70,7.70,7.70,7.63,7.60,7.58,7.50,7.50,7.45,7.40,7.40,7.40,7.34,7.30,7.28,7.21,7.20,7.15,7.10,7.10,7.02,6.94,6.90,6.91,6.99,7.00,7.00,6.98,6.90,6.83,6.75,6.70,6.69,6.62,6.54,6.46,6.37,6.21,6.13,6.05,5.98,5.90,5.82,5.74,5.67,5.59,5.51,5.43,5.36,5.28,5.20,5.05,5.00,5.06,5.21,5.28,5.42,5.54,5.63,5.78,5.87,5.95,6.05,6.20,6.28,6.41,6.57,6.71,6.79,6.93,7.08,7.24,7.39,7.55,7.70,7.86,8.01,8.17,8.32,8.44,8.53,8.68,8.84,8.99,9.15,9.30,9.38,9.51,9.66,9.82,9.97,11.67,13.72,15.79,17.79,20.17,23.22,26.59,29.80,31.34,32.83,33.16,31.76,28.21,23.56,19.27,15.45,11.90,10.35,9.85,9.80,9.79,9.71,9.57,9.34,9.03,8.72,8.41,8.10,7.79,7.48,7.17,6.86,6.59,6.40,6.40,6.47,6.50,6.52,6.60,6.60,6.65,6.70,6.71,6.79,6.80,6.84,6.90,6.90,6.97,7.00
3.82,3.85,3.90,3.90,3.90,3.91,3.95,3.99,4.00,4.00,4.00,4.00,4.08,4.10,4.10,4.10,4.10,4.16,4.20,4.20,4.20,4.20,4.22,4.25,4.30,4.30,4.30,4.31,4.35,4.39,4.40,4.40,4.41,4.44,4.49,4.50,4.50,4.50,4.50,4.50,4.50,4.50,4.50,4.53,4.57,4.60,4.60,4.60,4.60,4.60,4.60,4.60,4.60,4.60,4.60,4.60,4.63,4.67,4.70,4.70,4.70,4.70,4.70,4.70,4.70,4.73,4.77,4.80,4.80,4.80,4.90,5.04,5.18,5.29,5.41,5.55,5.71,5.86,5.97,6.09,6.23,6.38,6.48,6.60,6.80,7.14,7.73,8.34,8.55,8.52,8.47,8.44,8.40,8.36,8.33,8.28,8.25,8.24,8.22,8.17,8.14,8.10,8.06,8.03,7.98,7.95,7.94,7.93,7.88,7.85,7.80,7.76,7.73,7.68,7.65,7.64,7.63,7.58,7.55,7.51,7.46,7.44,7.39,7.35,7.34,7.33,7.28,7.25,7.21,7.17,7.14,7.09,7.05,7.02,6.97,6.94,6.88,6.84,6.84,6.87,6.87,6.87,6.86,6.84,6.76,6.68,6.62,6.57,6.54,6.47,6.40,6.31,6.21,6.09,5.99,5.90,5.77,5.69,5.62,5.54,5.46,5.38,5.31,5.26,5.22,5.14,5.03,5.03,5.12,5.27,5.35,5.49,5.60,5.69,5.85,5.93,6.04,6.16,6.27,6.39,6.50,6.63,6.77,6.85,6.99,7.15,7.30,7.46,7.56,7.70,7.86,8.01,8.17,8.32,8.46,8.58,8.69,8.84,8.99,9.13,9.24,9.36,9.51,9.66,9.81,9.92,11.56,13.56,15.62,17.72,20.10,23.15,26.49,29.61,31.20,32.66,32.85,31.24,27.64,23.29,19.23,15.50,11.90,10.35,9.85,9.78,9.73,9.70,9.61,9.45,9.22,8.91,8.60,8.32,8.05,7.74,7.43,7.12,6.82,6.57,6.48,6.49,6.53,6.57,6.60,6.65,6.68,6.72,6.77,6.79,6.84,6.88,6.90,6.90,6.97,7.00
3.80,3.82,3.87,3.90,3.90,3.90,3.91,3.97,3.99,4.00,4.00,4.00,4.06,4.09,4.10,4.10,4.10,4.15,4.18,4.20,4.20,4.20,4.20,4.23,4.30,4.30,4.30,4.30,4.31,4.39,4.40,4.40,4.40,4.40,4.48,4.50,4.50,4.50,4.50,4.50,4.50,4.50,4.50,4.50,4.54,4.57,4.57,4.57,4.57,4.57,4.58,4.60,4.60,4.60,4.60,4.60,4.60,4.64,4.68,4.70,4.70,4.70,4.70,4.70,4.70,4.70,4.74,4.77,4.77,4.82,4.94,5.09,5.22,5.32,5.46,5.60,5.74,5.90,6.00,6.14,6.28,6.41,6.51,6.65,6.80,6.96,7.23,7.92,8.32,8.43,8.37,8.35,8.30,8.26,8.24,8.18,8.17,8.16,8.13,8.07,8.05,8.01,7.96,7.94,7.88,7.87,7.86,7.83,7.78,7.75,7.71,7.66,7.64,7.59,7.57,7.56,7.54,7.48,7.45,7.41,7.37,7.34,7.29,7.27,7.26,7.24,7.18,7.15,7.12,7.07,7.05,6.99,6.97,6.95,6.87,6.87,6.82,6.76,6.74,6.74,6.74,6.74,6.74,6.74,6.67,6.59,6.52,6.47,6.45,6.40,6.33,6.26,6.18,6.03,5.92,5.83,5.70,5.60,5.52,5.44,5.36,5.28,5.21,5.16,5.13,5.07,5.02,5.05,5.16,5.31,5.38,5.52,5.64,5.73,5.88,5.99,6.11,6.23,6.33,6.46,6.57,6.69,6.84,6.92,7.06,7.20,7.34,7.49,7.59,7.72,7.86,8.01,8.17,8.32,8.46,8.59,8.69,8.84,8.99,9.12,9.20,9.36,9.51,9.66,9.78,9.88,11.45,13.42,15.49,17.66,20.04,23.06,26.32,29.31,30.95,32.30,32.34,30.64,27.18,23.08,19.17,15.45,11.76,10.32,9.85,9.78,9.73,9.70,9.64,9.54,9.39,9.13,8.82,8.55,8.28,7.97,7.66,7.35,7.05,6.78,6.58,6.54,6.56,6.61,6.63,6.68,6.72,6.75,6.80,6.80,6.86,6.90,6.90,6.93,6.98,7.01
3.80,3.80,3.81,3.88,3.90,3.90,3.90,3.91,3.97,4.00,4.00,4.00,4.01,4.06,4.10,4.10,4.10,4.11,4.15,4.20,4.20,4.20,4.20,4.23,4.30,4.30,4.30,4.30,4.31,4.39,4.40,4.40,4.40,4.40,4.48,4.50,4.50,4.50,4.50,4.50,4.50,4.50,4.50,4.50,4.50,4.51,4.51,4.51,4.51,4.51,4.52,4.59,4.60,4.60,4.60,4.60,4.60,4.60,4.64,4.70,4.70,4.70,4.70,4.70,4.70,4.70,4.70,4.71,4.72,4.86,5.01,5.13,5.22,5.37,5.53,5.64,5.74,5.90,6.05,6.20,6.33,6.42,6.56,6.72,6.84,6.94,7.10,7.38,7.89,8.31,8.30,8.23,8.21,8.18,8.12,8.11,8.11,8.07,8.01,8.01,7.94,7.91,7.88,7.82,7.81,7.81,7.77,7.71,7.71,7.64,7.61,7.58,7.52,7.51,7.51,7.48,7.42,7.41,7.35,7.31,7.29,7.22,7.21,7.21,7.18,7.12,7.11,7.05,7.01,6.99,6.92,6.91,6.91,6.88,6.81,6.81,6.75,6.68,6.62,6.62,6.62,6.62,6.62,6.62,6.54,6.46,6.41,6.40,6.33,6.31,6.27,6.19,6.12,5.97,5.86,5.78,5.70,5.55,5.45,5.37,5.30,5.22,5.14,5.07,5.01,5.01,5.00,5.05,5.16,5.31,5.38,5.52,5.64,5.73,5.88,6.03,6.14,6.25,6.39,6.48,6.61,6.76,6.90,6.98,7.12,7.24,7.34,7.49,7.64,7.75,7.86,8.01,8.17,8.32,8.44,8.54,8.68,8.84,8.99,9.12,9.20,9.36,9.51,9.64,9.73,9.87,11.33,13.28,15.43,17.59,19.98,22.93,26.06,28.86,30.56,31.69,31.57,29.95,26.88,22.96,19.08,15.28,11.44,10.25,9.85,9.80,9.78,9.71,9.64,9.59,9.54,9.38,9.08,8.77,8.47,8.16,7.85,7.54,7.26,7.02,6.72,6.62,6.60,6.62,6.69,6.70,6.75,6.79,6.80,6.80,6.86,6.90,6.92,6.99,7.00,7.05
3.80,3.80,3.80,3.84,3.88,3.90,3.90,3.90,3.93,3.97,4.00,4.00,4.00,4.02,4.06,4.10,4.10,4.10,4.12,4.15,4.20,4.20,4.20,4.21,4.25,4.29,4.30,4.30,4.31,4.34,4.38,4.40,4.40,4.40,4.43,4.47,4.50,4.50,4.50,4.50,4.50,4.50,4.50,4.50,4.50,4.50,4.50,4.50,4.50,4.50,4.51,4.54,4.58,4.60,4.60,4.60,4.60,4.60,4.61,4.65,4.69,4.70,4.70,4.70,4.70,4.70,4.70,4.71,4.76,4.87,5.02,5.16,5.28,5.44,5.55,5.67,5.80,5.95,6.11,6.23,6.35,6.47,6.63,6.75,6.86,6.99,7.14,7.33,7.62,7.94,8.19,8.15,8.11,8.07,8.04,8.04,8.01,7.97,7.93,7.89,7.85,7.81,7.77,7.74,7.74,7.71,7.67,7.63,7.59,7.56,7.52,7.48,7.44,7.44,7.41,7.37,7.34,7.29,7.26,7.22,7.18,7.14,7.14,7.11,7.08,7.04,7.00,6.96,6.92,6.88,6.85,6.84,6.82,6.78,6.74,6.70,6.66,6.61,6.54,6.54,6.51,6.49,6.50,6.54,6.47,6.39,6.33,6.29,6.25,6.21,6.17,6.13,6.05,5.90,5.80,5.72,5.64,5.49,5.39,5.31,5.23,5.11,5.06,5.03,5.00,5.00,5.00,5.05,5.16,5.31,5.38,5.52,5.64,5.73,5.88,6.04,6.15,6.25,6.40,6.48,6.61,6.75,6.86,6.98,7.13,7.24,7.33,7.44,7.59,7.72,7.84,7.96,8.11,8.26,8.40,8.53,8.68,8.84,8.97,9.08,9.20,9.36,9.51,9.63,9.72,9.87,11.28,13.20,15.37,17.53,19.87,22.64,25.53,28.21,30.17,31.20,31.12,29.70,26.43,22.31,18.39,14.65,10.84,10.11,9.85,9.78,9.74,9.71,9.64,9.60,9.57,9.46,9.29,9.02,8.71,8.41,8.10,7.79,7.49,7.21,6.91,6.72,6.66,6.67,6.70,6.70,6.75,6.80,6.80,6.85,6.88,6.92,6.96,7.00,7.04,7.08
3.80,3.80,3.80,3.80,3.86,3.90,3.90,3.90,3.90,3.94,3.98,4.00,4.00,4.00,4.03,4.08,4.10,4.10,4.10,4.12,4.18,4.19,4.20,4.20,4.20,4.27,4.29,4.30,4.30,4.30,4.36,4.39,4.40,4.40,4.40,4.44,4.49,4.50,4.50,4.50,4.50,4.50,4.50,4.50,4.50,4.50,4.50,4.50,4.50,4.50,4.50,4.50,4.55,4.59,4.60,4.60,4.60,4.60,4.60,4.61,4.67,4.69,4.70,4.70,4.70,4.70,4.70,4.73,4.80,4.90,5.04,5.19,5.34,5.48,5.58,5.71,5.86,6.00,6.15,6.26,6.38,6.53,6.67,6.78,6.90,7.05,7.19,7.34,7.46,7.66,8.04,8.06,8.01,7.98,7.98,7.96,7.91,7.87,7.84,7.78,7.77,7.72,7.68,7.68,7.66,7.61,7.57,7.55,7.49,7.47,7.42,7.38,7.38,7.36,7.31,7.27,7.25,7.19,7.17,7.13,7.08,7.08,7.07,7.02,6.97,6.95,6.89,6.87,6.83,6.78,6.78,6.77,6.72,6.68,6.66,6.60,6.57,6.53,6.48,6.46,6.41,6.38,6.40,6.46,6.40,6.32,6.24,6.18,6.16,6.11,6.07,6.04,5.97,5.83,5.73,5.66,5.58,5.42,5.32,5.25,5.16,5.02,5.00,5.00,5.00,5.02,5.02,5.06,5.16,5.31,5.38,5.52,5.64,5.73,5.88,6.03,6.14,6.25,6.40,6.48,6.61,6.73,6.82,6.97,7.13,7.24,7.32,7.38,7.53,7.68,7.81,7.91,8.05,8.20,8.35,8.51,8.66,8.82,8.94,9.04,9.18,9.34,9.49,9.62,9.72,9.87,11.16,13.03,15.20,17.37,19.66,22.24,24.92,27.50,29.71,30.69,30.55,29.14,25.66,21.43,17.54,13.93,10.30,9.98,9.84,9.77,9.70,9.70,9.64,9.59,9.57,9.50,9.43,9.23,8.96,8.66,8.35,8.04,7.73,7.43,7.12,6.86,6.73,6.70,6.72,6.72,6.76,6.81,6.83,6.89,6.91,6.95,7.00,7.02,7.08,7.11
3.80,3.80,3.80,3.80,3.86,3.90,3.90,3.90,3.90,3.91,3.94,4.00,4.00,4.00,4.01,4.02,4.09,4.10,4.10,4.10,4.12,4.18,4.20,4.20,4.20,4.21,4.27,4.30,4.30,4.30,4.31,4.35,4.40,4.40,4.40,4.41,4.44,4.50,4.50,4.50,4.50,4.50,4.50,4.50,4.50,4.50,4.50,4.50,4.50,4.50,4.50,4.50,4.51,4.55,4.60,4.60,4.60,4.60,4.60,4.60,4.61,4.67,4.70,4.70,4.70,4.70,4.70,4.73,4.81,4.95,5.10,5.26,5.40,5.49,5.62,5.77,5.91,6.00,6.15,6.30,6.45,6.59,6.68,6.82,6.96,7.10,7.19,7.34,7.49,7.65,7.85,7.92,7.92,7.92,7.91,7.84,7.82,7.78,7.73,7.72,7.65,7.62,7.62,7.61,7.55,7.52,7.48,7.43,7.42,7.36,7.32,7.32,7.31,7.25,7.22,7.19,7.13,7.12,7.06,7.03,7.02,7.02,6.95,6.92,6.89,6.83,6.82,6.76,6.73,6.72,6.72,6.66,6.62,6.60,6.53,6.52,6.47,6.43,6.41,6.34,6.32,6.32,6.32,6.33,6.32,6.22,6.13,6.11,6.05,6.02,5.98,5.92,5.84,5.75,5.67,5.59,5.51,5.36,5.26,5.18,5.10,5.01,5.00,5.00,5.02,5.08,5.08,5.09,5.16,5.31,5.38,5.52,5.64,5.73,5.88,5.98,6.10,6.25,6.40,6.48,6.61,6.73,6.82,6.97,7.13,7.24,7.30,7.32,7.46,7.62,7.77,7.91,8.00,8.14,8.29,8.45,8.60,8.75,8.90,9.03,9.12,9.27,9.43,9.58,9.72,9.87,10.87,12.61,14.82,16.98,19.23,21.66,24.20,26.75,29.10,30.07,29.63,27.73,24.26,20.25,16.51,13.11,9.98,9.85,9.81,9.77,9.70,9.70,9.64,9.57,9.51,9.50,9.43,9.33,9.17,8.92,8.61,8.30,7.99,7.68,7.37,7.07,6.84,6.72,6.78,6.78,6.79,6.83,6.89,6.90,6.95,6.99,7.01,7.08,7.10,7.14
3.78,3.80,3.80,3.80,3.83,3.87,3.90,3.90,3.90,3.90,3.92,4.00,4.00,4.00,4.00,4.01,4.09,4.10,4.10,4.10,4.10,4.14,4.18,4.20,4.20,4.20,4.23,4.27,4.30,4.30,4.30,4.32,4.36,4.40,4.40,4.40,4.42,4.46,4.49,4.50,4.50,4.50,4.50,4.50,4.50,4.50,4.50,4.50,4.50,4.50,4.50,4.50,4.50,4.52,4.56,4.60,4.60,4.60,4.60,4.60,4.60,4.63,4.67,4.70,4.70,4.70,4.70,4.74,4.86,5.01,5.14,5.27,5.42,5.53,5.68,5.82,5.93,6.05,6.20,6.36,6.49,6.61,6.73,6.87,7.01,7.13,7.24,7.39,7.55,7.69,7.80,7.84,7.85,7.84,7.80,7.76,7.72,7.68,7.64,7.61,7.56,7.55,7.54,7.50,7.46,7.42,7.38,7.34,7.31,7.27,7.25,7.24,7.20,7.16,7.13,7.09,7.05,7.01,6.97,6.95,6.94,6.91,6.87,6.83,6.79,6.75,6.71,6.67,6.65,6.64,6.61,6.57,6.53,6.49,6.45,6.41,6.37,6.35,6.34,6.26,6.25,6.23,6.20,6.20,6.20,6.13,6.04,6.00,5.96,5.92,5.87,5.80,5.76,5.68,5.61,5.53,5.45,5.29,5.20,5.12,5.05,5.01,5.00,5.02,5.06,5.10,5.10,5.12,5.18,5.26,5.38,5.52,5.64,5.73,5.88,5.97,6.09,6.25,6.40,6.48,6.61,6.73,6.82,6.97,7.10,7.19,7.26,7.30,7.41,7.55,7.71,7.86,7.97,8.09,8.23,8.38,8.54,8.69,8.84,8.98,9.05,9.21,9.36,9.52,9.67,9.83,10.45,11.96,14.15,16.31,18.48,20.70,23.02,25.43,27.34,28.37,27.84,25.71,22.79,19.06,15.41,12.25,9.90,9.82,9.77,9.74,9.70,9.66,9.62,9.56,9.49,9.45,9.41,9.37,9.29,9.13,8.82,8.51,8.20,7.90,7.62,7.32,7.03,6.83,6.80,6.80,6.83,6.86,6.90,6.94,6.98,7.02,7.06,7.10,7.13,7.17
3.75,3.79,3.80,3.80,3.80,3.83,3.89,3.90,3.90,3.90,3.92,3.99,4.00,4.00,4.00,4.01,4.08,4.10,4.10,4.10,4.10,4.10,4.15,4.20,4.20,4.20,4.20,4.24,4.30,4.30,4.30,4.30,4.32,4.39,4.40,4.40,4.40,4.41,4.48,4.49,4.49,4.49,4.50,4.50,4.50,4.50,4.50,4.50,4.50,4.50,4.50,4.50,4.50,4.50,4.52,4.60,4.60,4.60,4.60,4.60,4.60,4.60,4.64,4.69,4.70,4.70,4.71,4.77,4.92,5.06,5.17,5.28,5.44,5.59,5.74,5.85,5.96,6.11,6.26,6.41,6.53,6.63,6.78,6.93,7.04,7.15,7.30,7.45,7.60,7.72,7.79,7.79,7.79,7.76,7.70,7.69,7.63,7.59,7.57,7.50,7.49,7.48,7.45,7.39,7.38,7.32,7.28,7.26,7.19,7.19,7.18,7.15,7.09,7.08,7.03,6.98,6.97,6.90,6.89,6.88,6.86,6.79,6.78,6.73,6.68,6.67,6.60,6.59,6.58,6.56,6.49,6.48,6.43,6.39,6.37,6.31,6.29,6.28,6.27,6.20,6.18,6.14,6.09,6.08,6.08,6.03,5.96,5.89,5.88,5.82,5.74,5.69,5.68,5.61,5.54,5.46,5.39,5.24,5.14,5.06,5.00,5.00,5.01,5.05,5.10,5.10,5.11,5.16,5.20,5.21,5.37,5.52,5.64,5.73,5.88,5.97,6.09,6.25,6.39,6.48,6.61,6.73,6.82,6.96,7.05,7.13,7.21,7.28,7.37,7.50,7.64,7.80,7.95,8.06,8.17,8.32,8.47,8.63,8.78,8.91,9.00,9.15,9.30,9.45,9.61,9.76,10.03,11.27,13.34,15.48,17.55,19.57,21.65,23.79,25.16,26.25,25.79,23.65,21.30,17.83,14.26,11.33,9.90,9.82,9.75,9.70,9.68,9.61,9.59,9.55,9.48,9.40,9.40,9.40,9.37,9.28,9.01,8.71,8.40,8.10,7.86,7.56,7.25,6.98,6.81,6.81,6.86,6.90,6.92,6.99,7.01,7.05,7.10,7.11,7.18,7.21
3.71,3.75,3.80,3.80,3.80,3.81,3.84,3.89,3.90,3.90,3.91,3.93,3.98,4.00,4.00,4.00,4.02,4.07,4.10,4.10,4.10,4.10,4.15,4.20,4.20,4.20,4.20,4.24,4.30,4.30,4.30,4.30,4.31,4.32,4.38,4.40,4.40,4.40,4.42,4.42,4.42,4.44,4.50,4.50,4.50,4.50,4.50,4.50,4.50,4.50,4.50,4.50,4.50,4.50,4.52,4.60,4.60,4.60,4.60,4.60,4.60,4.60,4.61,4.64,4.70,4.70,4.74,4.83,4.98,5.08,5.20,5.35,5.50,5.66,5.76,5.88,6.02,6.17,6.27,6.41,6.55,6.69,6.85,6.95,7.07,7.21,7.36,7.46,7.60,7.71,7.72,7.72,7.72,7.72,7.69,7.63,7.61,7.57,7.52,7.50,7.44,7.38,7.34,7.32,7.26,7.23,7.19,7.14,7.13,7.12,7.09,7.04,7.02,6.96,6.93,6.90,6.85,6.83,6.82,6.79,6.74,6.72,6.67,6.64,6.60,6.55,6.53,6.52,6.50,6.45,6.43,6.37,6.34,6.31,6.25,6.23,6.22,6.20,6.15,6.13,6.07,6.04,6.01,5.95,5.95,5.94,5.90,5.82,5.76,5.69,5.64,5.61,5.55,5.53,5.48,5.40,5.32,5.23,5.10,5.02,5.00,5.00,5.05,5.09,5.10,5.10,5.16,5.19,5.20,5.21,5.37,5.52,5.64,5.73,5.88,5.97,6.09,6.23,6.33,6.46,6.61,6.73,6.81,6.91,6.99,7.07,7.14,7.22,7.35,7.46,7.58,7.74,7.89,8.03,8.15,8.25,8.41,8.56,8.72,8.87,9.00,9.10,9.23,9.39,9.54,9.70,9.88,10.76,12.35,14.34,16.31,18.26,20.07,21.61,22.83,23.92,23.86,22.34,19.85,16.45,12.91,10.30,9.90,9.82,9.75,9.68,9.62,9.60,9.55,9.51,9.48,9.40,9.40,9.40,9.37,9.30,9.22,8.97,8.66,8.35,8.06,7.76,7.45,7.15,6.88,6.88,6.89,6.92,6.98,7.00,7.05,7.09,7.11,7.17,7.19,7.24
3.70,3.72,3.76,3.79,3.80,3.80,3.81,3.86,3.89,3.90,3.90,3.90,3.95,3.98,4.00,4.00,4.00,4.04,4.08,4.10,4.10,4.10,4.13,4.17,4.20,4.20,4.20,4.22,4.27,4.30,4.30,4.30,4.30,4.30,4.38,4.40,4.40,4.40,4.40,4.40,4.40,4.41,4.46,4.46,4.48,4.50,4.50,4.50,4.50,4.50,4.50,4.50,4.50,4.50,4.51,4.56,4.59,4.60,4.60,4.60,4.60,4.60,4.60,4.61,4.66,4.69,4.77,4.88,5.01,5.11,5.26,5.40,5.53,5.68,5.79,5.93,6.07,6.20,6.31,6.45,6.60,6.75,6.88,6.99,7.12,7.27,7.39,7.50,7.60,7.66,7.66,7.66,7.68,7.69,7.65,7.61,7.57,7.53,7.49,7.46,7.41,7.35,7.30,7.29,7.22,7.18,7.14,7.09,7.06,7.03,6.99,6.95,6.92,6.87,6.84,6.80,6.76,6.76,6.73,6.69,6.65,6.62,6.58,6.54,6.50,6.46,6.46,6.44,6.40,6.35,6.32,6.28,6.24,6.21,6.16,6.16,6.14,6.10,6.06,6.03,5.98,5.94,5.91,5.86,5.86,5.86,5.83,5.75,5.68,5.60,5.55,5.51,5.46,5.43,5.39,5.34,5.26,5.18,5.07,5.00,5.00,5.00,5.07,5.10,5.11,5.14,5.18,5.20,5.21,5.25,5.37,5.50,5.61,5.73,5.88,5.97,6.09,6.22,6.30,6.46,6.61,6.73,6.81,6.89,6.96,7.04,7.12,7.20,7.32,7.43,7.55,7.67,7.83,7.98,8.11,8.22,8.35,8.50,8.65,8.81,8.96,9.07,9.19,9.33,9.48,9.63,9.79,10.28,11.32,13.19,15.09,16.91,18.55,19.90,21.00,21.85,21.84,20.64,17.96,14.58,11.67,9.89,9.86,9.78,9.73,9.67,9.60,9.57,9.52,9.48,9.45,9.40,9.40,9.38,9.34,9.30,9.27,9.14,8.91,8.60,8.30,7.99,7.68,7.37,7.06,6.97,6.94,6.96,7.00,7.03,7.08,7.12,7.15,7.20,7.20,7.25
3.70,3.70,3.71,3.78,3.80,3.80,3.80,3.80,3.87,3.90,3.90,3.90,3.90,3.95,4.00,4.00,4.00,4.00,4.04,4.10,4.10,4.10,4.10,4.13,4.20,4.20,4.20,4.20,4.21,4.29,4.30,4.30,4.30,4.30,4.37,4.40,4.40,4.40,4.40,4.40,4.40,4.40,4.40,4.40,4.45,4.50,4.50,4.50,4.50,4.50,4.50,4.50,4.50,4.50,4.50,4.50,4.57,4.60,4.60,4.60,4.60,4.60,4.60,4.60,4.60,4.67,4.80,4.93,5.01,5.17,5.32,5.44,5.53,5.68,5.84,5.99,6.12,6.20,6.36,6.51,6.66,6.81,6.89,7.03,7.18,7.32,7.40,7.54,7.60,7.60,7.60,7.60,7.65,7.66,7.60,7.60,7.53,7.50,7.48,7.40,7.40,7.35,7.30,7.29,7.21,7.14,7.10,7.08,7.01,6.93,6.90,6.87,6.80,6.80,6.74,6.70,6.70,6.69,6.63,6.60,6.57,6.50,6.49,6.44,6.40,6.40,6.39,6.33,6.30,6.28,6.20,6.19,6.15,6.10,6.10,6.09,6.04,6.00,5.98,5.91,5.89,5.85,5.80,5.80,5.79,5.79,5.76,5.69,5.61,5.53,5.46,5.40,5.39,5.33,5.29,5.27,5.19,5.12,5.04,5.00,5.00,5.00,5.07,5.10,5.12,5.20,5.20,5.20,5.23,5.31,5.38,5.46,5.58,5.73,5.88,5.97,6.09,6.22,6.30,6.46,6.61,6.73,6.81,6.88,6.96,7.04,7.12,7.19,7.27,7.40,7.53,7.61,7.76,7.92,8.07,8.21,8.29,8.44,8.59,8.74,8.90,9.05,9.15,9.26,9.42,9.57,9.72,9.84,10.31,12.04,13.88,15.53,17.03,18.45,19.45,19.90,19.70,18.60,15.76,12.44,10.53,9.87,9.80,9.72,9.70,9.66,9.59,9.51,9.50,9.46,9.40,9.40,9.40,9.35,9.30,9.29,9.22,9.26,9.16,8.86,8.55,8.24,7.93,7.62,7.32,7.08,7.01,7.00,7.01,7.09,7.10,7.14,7.20,7.20,7.20,7.25
3.70,3.70,3.71,3.78,3.80,3.80,3.80,3.80,3.82,3.86,3.90,3.90,3.90,3.92,3.95,4.00,4.00,4.00,4.01,4.05,4.10,4.10,4.10,4.11,4.14,4.19,4.20,4.20,4.20,4.23,4.28,4.30,4.30,4.30,4.33,4.37,4.40,4.40,4.40,4.40,4.40,4.40,4.40,4.40,4.42,4.43,4.43,4.43,4.43,4.43,4.44,4.49,4.50,4.50,4.50,4.50,4.53,4.57,4.60,4.60,4.60,4.60,4.60,4.60,4.60,4.72,4.83,4.94,5.08,5.23,5.34,5.46,5.59,5.75,5.90,6.03,6.14,6.27,6.42,6.54,6.66,6.81,6.94,7.09,7.22,7.33,7.46,7.51,7.53,7.53,7.53,7.53,7.59,7.62,7.59,7.54,7.51,7.47,7.43,7.40,7.35,7.32,7.28,7.23,7.20,7.14,7.10,7.08,7.01,6.93,6.90,6.87,6.80,6.75,6.71,6.68,6.62,6.57,6.54,6.50,6.46,6.43,6.38,6.35,6.33,6.33,6.28,6.25,6.21,6.16,6.13,6.09,6.05,6.03,6.03,5.98,5.95,5.91,5.86,5.84,5.79,5.75,5.73,5.73,5.68,5.67,5.66,5.62,5.49,5.40,5.35,5.32,5.27,5.24,5.20,5.16,5.13,5.05,5.01,5.00,5.01,5.06,5.09,5.13,5.17,5.20,5.25,5.27,5.28,5.31,5.38,5.46,5.58,5.72,5.82,5.95,6.09,6.22,6.30,6.46,6.57,6.67,6.74,6.82,6.90,6.97,7.05,7.13,7.21,7.33,7.48,7.61,7.71,7.85,8.01,8.16,8.29,8.39,8.53,8.68,8.83,8.99,9.13,9.24,9.35,9.51,9.66,9.77,10.04,10.88,12.53,14.03,15.31,16.39,17.14,17.23,16.59,15.15,12.65,10.95,10.08,9.83,9.80,9.72,9.66,9.60,9.53,9.50,9.46,9.42,9.40,9.40,9.35,9.32,9.28,9.23,9.21,9.22,9.19,9.05,8.74,8.48,8.19,7.88,7.57,7.29,7.13,7.07,7.07,7.10,7.10,7.14,7.20,7.20,7.25,7.28
3.68,3.70,3.70,3.76,3.79,3.80,3.80,3.80,3.80,3.85,3.90,3.90,3.90,3.90,3.93,4.00,4.00,4.00,4.00,4.01,4.07,4.09,4.10,4.10,4.10,4.16,4.19,4.20,4.20,4.20,4.25,4.28,4.30,4.30,4.30,4.34,4.38,4.40,4.40,4.40,4.40,4.40,4.40,4.40,4.40,4.40,4.40,4.40,4.40,4.40,4.41,4.49,4.50,4.50,4.50,4.50,4.50,4.54,4.58,4.60,4.60,4.60,4.60,4.60,4.60,4.74,4.87,4.98,5.14,5.27,5.38,5.50,5.65,5.78,5.93,6.06,6.18,6.33,6.46,6.57,6.69,6.85,7.00,7.14,7.25,7.35,7.46,7.47,7.47,7.47,7.47,7.47,7.53,7.57,7.56,7.51,7.48,7.44,7.39,7.37,7.32,7.28,7.25,7.20,7.17,7.13,7.09,7.06,7.00,6.93,6.88,6.85,6.80,6.72,6.70,6.67,6.59,6.51,6.50,6.46,6.39,6.37,6.32,6.28,6.27,6.26,6.18,6.15,6.11,6.07,6.07,6.00,5.97,5.96,5.94,5.88,5.85,5.81,5.77,5.77,5.70,5.67,5.66,5.64,5.59,5.55,5.54,5.53,5.40,5.31,5.26,5.23,5.17,5.15,5.10,5.07,5.07,5.01,5.00,5.01,5.04,5.09,5.10,5.14,5.20,5.20,5.27,5.30,5.31,5.34,5.39,5.46,5.58,5.72,5.79,5.94,6.09,6.22,6.30,6.46,6.56,6.63,6.71,6.76,6.83,6.91,6.99,7.07,7.14,7.27,7.43,7.58,7.68,7.80,7.94,8.10,8.25,8.36,8.48,8.62,8.77,8.92,9.08,9.21,9.32,9.45,9.60,9.71,9.84,10.13,11.22,12.38,13.45,14.29,14.72,14.49,13.65,12.29,10.70,10.07,9.82,9.77,9.77,9.69,9.63,9.57,9.50,9.47,9.42,9.39,9.37,9.37,9.32,9.28,9.25,9.20,9.17,9.19,9.19,9.14,8.95,8.70,8.41,8.10,7.80,7.49,7.25,7.12,7.10,7.13,7.13,7.16,7.21,7.23,7.28,7.32
3.65,3.70,3.70,3.70,3.76,3.80,3.80,3.80,3.80,3.85,3.90,3.90,3.90,3.90,3.93,4.00,4.00,4.00,4.00,4.00,4.00,4.07,4.10,4.10,4.10,4.10,4.16,4.20,4.20,4.20,4.20,4.25,4.30,4.30,4.30,4.30,4.34,4.40,4.40,4.40,4.40,4.40,4.40,4.40,4.40,4.40,4.40,4.40,4.40,4.40,4.41,4.49,4.50,4.50,4.50,4.50,4.50,4.50,4.53,4.60,4.60,4.60,4.60,4.60,4.60,4.74,4.90,5.05,5.20,5.28,5.41,5.57,5.71,5.79,5.93,6.09,6.24,6.39,6.48,6.60,6.76,6.91,7.07,7.16,7.28,7.40,7.40,7.40,7.40,7.40,7.40,7.40,7.46,7.50,7.50,7.50,7.44,7.40,7.38,7.31,7.30,7.25,7.20,7.19,7.12,7.10,7.06,7.00,7.00,6.93,6.85,6.80,6.80,6.72,6.70,6.67,6.59,6.51,6.50,6.46,6.38,6.31,6.30,6.25,6.20,6.20,6.12,6.05,6.01,6.00,6.00,5.93,5.90,5.88,5.81,5.81,5.75,5.71,5.70,5.70,5.64,5.60,5.59,5.51,5.51,5.46,5.41,5.40,5.32,5.24,5.17,5.11,5.11,5.04,5.01,5.00,5.00,5.00,5.00,5.03,5.10,5.10,5.10,5.14,5.20,5.20,5.27,5.30,5.33,5.40,5.40,5.46,5.58,5.72,5.79,5.94,6.09,6.22,6.30,6.46,6.56,6.63,6.70,6.70,6.77,6.85,6.92,7.00,7.08,7.21,7.36,7.52,7.67,7.76,7.88,8.03,8.19,8.34,8.45,8.55,8.71,8.86,9.02,9.17,9.31,9.39,9.53,9.65,9.73,9.82,9.97,10.59,11.43,12.16,12.19,11.68,10.87,10.07,9.96,9.85,9.76,9.70,9.70,9.63,9.60,9.57,9.49,9.42,9.40,9.36,9.30,9.30,9.30,9.25,9.20,9.20,9.12,9.16,9.17,9.11,9.17,8.91,8.61,8.30,7.99,7.68,7.37,7.17,7.11,7.18,7.20,7.20,7.22,7.29,7.30,7.35
3.62,3.66,3.70,3.70,3.72,3.76,3.80,3.80,3.80,3.82,3.85,3.90,3.90,3.90,3.91,3.95,3.99,4.00,4.00,4.00,4.00,4.07,4.10,4.10,4.10,4.10,4.16,4.20,4.20,4.20,4.20,4.22,4.25,4.30,4.30,4.30,4.31,4.35,4.39,4.40,4.40,4.40,4.40,4.40,4.40,4.40,4.40,4.40,4.40,4.40,4.41,4.44,4.48,4.50,4.50,4.50,4.50,4.50,4.51,4.55,4.59,4.60,4.60,4.61,4.66,4.80,4.96,5.10,5.21,5.33,5.48,5.61,5.72,5.84,5.99,6.15,6.29,6.40,6.52,6.67,6.80,6.92,7.07,7.20,7.29,7.34,7.34,7.34,7.34,7.34,7.34,7.34,7.36,7.40,7.44,7.44,7.41,7.37,7.32,7.24,7.24,7.22,7.18,7.13,7.06,7.04,7.02,6.99,6.94,6.91,6.85,6.80,6.80,6.72,6.67,6.63,6.59,6.51,6.46,6.42,6.38,6.30,6.30,6.25,6.18,6.14,6.11,6.04,5.98,5.94,5.94,5.87,5.84,5.82,5.74,5.69,5.66,5.64,5.63,5.59,5.55,5.52,5.47,5.44,5.40,5.36,5.32,5.28,5.25,5.18,5.10,5.04,5.04,5.01,5.00,5.00,5.00,5.00,5.03,5.07,5.10,5.10,5.14,5.18,5.21,5.26,5.29,5.33,5.37,5.40,5.40,5.46,5.58,5.72,5.79,5.94,6.07,6.18,6.30,6.41,6.50,6.57,6.65,6.69,6.76,6.84,6.92,7.00,7.07,7.17,7.30,7.45,7.61,7.74,7.85,7.97,8.12,8.28,8.41,8.53,8.64,8.80,8.95,9.11,9.25,9.33,9.47,9.58,9.66,9.74,9.81,10.07,10.42,10.76,10.76,10.50,10.15,9.83,9.79,9.75,9.72,9.69,9.64,9.61,9.57,9.51,9.44,9.41,9.36,9.32,9.29,9.24,9.24,9.22,9.18,9.14,9.11,9.12,9.13,9.10,9.08,9.01,8.82,8.55,8.24,7.93,7.62,7.35,7.16,7.19,7.20,7.22,7.27,7.30,7.34,7.38
3.60,3.62,3.68,3.70,3.70,3.73,3.78,3.80,3.80,3.80,3.82,3.88,3.89,3.90,3.90,3.91,3.97,3.99,4.00,4.00,4.00,4.06,4.09,4.10,4.10,4.10,4.15,4.19,4.20,4.20,4.20,4.20,4.22,4.30,4.30,4.30,4.30,4.31,4.39,4.40,4.40,4.40,4.40,4.40,4.40,4.40,4.40,4.40,4.40,4.40,4.40,4.40,4.45,4.49,4.50,4.50,4.50,4.50,4.50,4.51,4.57,4.58,4.59,4.62,4.72,4.85,5.00,5.13,5.23,5.39,5.53,5.64,5.75,5.90,6.04,6.19,6.33,6.42,6.58,6.72,6.84,6.94,7.07,7.21,7.28,7.28,7.28,7.28,7.28,7.28,7.28,7.28,7.28,7.31,7.38,7.38,7.38,7.34,7.28,7.20,7.18,7.18,7.15,7.09,7.02,6.99,6.98,6.96,6.88,6.88,6.84,6.79,6.77,6.72,6.64,6.60,6.59,6.51,6.43,6.40,6.38,6.30,6.28,6.24,6.17,6.10,6.08,6.03,5.96,5.90,5.90,5.83,5.79,5.76,5.70,5.62,5.59,5.58,5.57,5.49,5.48,5.43,5.37,5.35,5.30,5.28,5.25,5.18,5.18,5.12,5.05,5.00,5.00,5.00,5.00,5.00,5.00,5.02,5.07,5.10,5.10,5.12,5.17,5.21,5.24,5.30,5.30,5.35,5.40,5.40,5.42,5.47,5.58,5.72,5.79,5.94,6.05,6.14,6.28,6.36,6.43,6.51,6.59,6.66,6.74,6.82,6.90,6.97,7.05,7.13,7.23,7.39,7.54,7.70,7.81,7.91,8.06,8.21,8.37,8.51,8.60,8.74,8.89,9.04,9.19,9.26,9.39,9.50,9.57,9.65,9.73,9.75,9.78,9.85,9.85,9.81,9.78,9.76,9.69,9.68,9.67,9.64,9.58,9.58,9.52,9.45,9.38,9.38,9.31,9.28,9.26,9.20,9.18,9.18,9.16,9.10,9.08,9.09,9.09,9.07,9.01,9.05,8.97,8.77,8.49,8.19,7.88,7.57,7.29,7.23,7.22,7.25,7.30,7.32,7.38,7.41
3.60,3.60,3.62,3.69,3.70,3.70,3.73,3.79,3.80,3.80,3.80,3.81,3.88,3.90,3.90,3.90,3.91,3.97,4.00,4.00,4.00,4.01,4.06,4.10,4.10,4.10,4.11,4.15,4.20,4.20,4.20,4.20,4.22,4.30,4.30,4.30,4.30,4.31,4.39,4.40,4.40,4.40,4.40,4.40,4.40,4.40,4.40,4.40,4.40,4.40,4.40,4.40,4.41,4.45,4.50,4.50,4.50,4.50,4.50,4.50,4.51,4.51,4.55,4.63,4.78,4.87,5.00,5.15,5.30,5.45,5.55,5.67,5.81,5.97,6.06,6.19,6.34,6.49,6.64,6.75,6.86,7.00,7.08,7.17,7.21,7.21,7.21,7.21,7.21,7.21,7.21,7.21,7.21,7.25,7.31,7.31,7.31,7.31,7.28,7.20,7.13,7.11,7.11,7.09,7.02,6.95,6.91,6.90,6.82,6.81,6.81,6.78,6.71,6.70,6.64,6.60,6.59,6.51,6.43,6.40,6.38,6.30,6.23,6.21,6.17,6.09,6.03,6.00,5.96,5.90,5.90,5.83,5.76,5.71,5.70,5.62,5.55,5.51,5.50,5.42,5.41,5.37,5.30,5.23,5.22,5.21,5.18,5.11,5.11,5.05,5.01,5.00,5.00,5.00,5.00,5.00,5.00,5.07,5.09,5.10,5.11,5.18,5.20,5.24,5.29,5.30,5.30,5.35,5.40,5.41,5.47,5.49,5.58,5.72,5.79,5.94,6.05,6.13,6.21,6.29,6.37,6.45,6.52,6.60,6.68,6.75,6.83,6.91,6.99,7.06,7.17,7.32,7.48,7.63,7.75,7.84,8.00,8.15,8.31,8.46,8.60,8.69,8.82,8.98,9.12,9.20,9.29,9.37,9.44,9.52,9.60,9.63,9.65,9.73,9.73,9.72,9.71,9.70,9.62,9.61,9.57,9.52,9.51,9.51,9.46,9.38,9.31,9.31,9.25,9.21,9.21,9.20,9.14,9.11,9.11,9.10,9.03,9.06,9.07,9.01,9.00,9.01,9.00,8.92,8.75,8.44,8.13,7.82,7.53,7.32,7.29,7.29,7.32,7.38,7.40,7.44
3.58,3.60,3.60,3.64,3.68,3.70,3.71,3.75,3.78,3.80,3.80,3.80,3.84,3.88,3.90,3.90,3.90,3.93,3.97,4.00,4.00,4.00,4.02,4.06,4.10,4.10,4.10,4.12,4.16,4.20,4.20,4.20,4.21,4.25,4.29,4.30,4.30,4.30,4.34,4.38,4.40,4.40,4.40,4.40,4.40,4.40,4.40,4.40,4.40,4.40,4.40,4.40,4.40,4.42,4.46,4.50,4.50,4.50,4.50,4.50,4.50,4.50,4.56,4.68,4.79,4.91,5.05,5.20,5.36,5.47,5.59,5.72,5.87,5.99,6.10,6.24,6.39,6.55,6.66,6.78,6.90,7.00,7.04,7.11,7.15,7.15,7.15,7.15,7.15,7.15,7.15,7.15,7.15,7.18,7.25,7.25,7.25,7.25,7.24,7.20,7.12,7.07,7.05,7.04,6.96,6.92,6.88,6.84,6.80,6.76,6.75,6.72,6.65,6.65,6.62,6.58,6.54,6.51,6.43,6.38,6.34,6.30,6.22,6.20,6.17,6.09,6.02,6.00,5.96,5.89,5.85,5.81,5.75,5.70,5.70,5.62,5.54,5.50,5.49,5.41,5.37,5.33,5.28,5.20,5.20,5.17,5.12,5.05,5.05,5.02,5.00,5.01,5.05,5.05,5.05,5.05,5.05,5.09,5.10,5.12,5.16,5.19,5.23,5.27,5.30,5.30,5.34,5.38,5.40,5.41,5.48,5.50,5.58,5.72,5.79,5.94,6.05,6.12,6.20,6.28,6.36,6.43,6.51,6.59,6.66,6.74,6.82,6.90,6.97,7.05,7.14,7.26,7.41,7.57,7.71,7.82,7.94,8.09,8.24,8.40,8.55,8.67,8.78,8.91,9.06,9.14,9.21,9.29,9.36,9.40,9.47,9.52,9.56,9.60,9.64,9.62,9.60,9.59,9.55,9.51,9.48,9.45,9.45,9.45,9.39,9.33,9.30,9.26,9.22,9.18,9.15,9.15,9.11,9.07,9.05,9.05,9.01,9.03,9.03,8.99,8.95,8.98,8.98,8.94,8.90,8.63,8.34,8.03,7.73,7.50,7.39,7.35,7.36,7.40,7.44,7.48
3.54,3.59,3.60,3.60,3.65,3.69,3.70,3.70,3.77,3.80,3.80,3.80,3.80,3.85,3.89,3.90,3.90,3.90,3.94,3.99,4.00,4.00,4.00,4.02,4.09,4.10,4.10,4.10,4.11,4.18,4.20,4.20,4.20,4.20,4.27,4.29,4.30,4.30,4.30,4.35,4.39,4.39,4.39,4.40,4.40,4.40,4.40,4.40,4.40,4.40,4.40,4.40,4.40,4.40,4.42,4.50,4.50,4.50,4.50,4.50,4.50,4.51,4.59,4.72,4.81,4.96,5.11,5.25,5.40,5.49,5.63,5.78,5.91,6.00,6.15,6.30,6.44,6.60,6.69,6.81,6.93,6.99,6.99,7.04,7.08,7.09,7.09,7.09,7.09,7.09,7.09,7.09,7.09,7.12,7.19,7.19,7.19,7.19,7.19,7.19,7.12,7.05,7.00,6.98,6.91,6.89,6.85,6.80,6.80,6.73,6.69,6.66,6.59,6.59,6.59,6.55,6.49,6.49,6.43,6.36,6.30,6.30,6.22,6.19,6.16,6.09,6.02,5.99,5.95,5.88,5.81,5.80,5.75,5.70,5.68,5.62,5.54,5.49,5.48,5.41,5.33,5.30,5.28,5.20,5.19,5.14,5.07,5.00,5.00,5.00,5.01,5.03,5.09,5.10,5.10,5.10,5.10,5.10,5.11,5.14,5.20,5.21,5.27,5.30,5.30,5.31,5.38,5.41,5.41,5.42,5.49,5.51,5.58,5.70,5.79,5.93,6.03,6.11,6.19,6.26,6.34,6.42,6.50,6.57,6.65,6.73,6.80,6.88,6.96,7.04,7.12,7.21,7.35,7.51,7.66,7.80,7.89,8.03,8.18,8.33,8.49,8.64,8.74,8.85,8.98,9.06,9.13,9.21,9.27,9.28,9.35,9.42,9.47,9.48,9.55,9.52,9.49,9.49,9.49,9.42,9.39,9.39,9.39,9.39,9.33,9.29,9.28,9.20,9.19,9.15,9.10,9.09,9.09,9.04,8.99,8.99,8.99,8.99,8.99,8.97,8.91,8.95,8.94,8.92,8.97,8.79,8.53,8.23,7.93,7.69,7.50,7.41,7.41,7.41,7.48,7.51
3.51,3.54,3.60,3.60,3.61,3.65,3.70,3.70,3.77,3.80,3.80,3.80,3.80,3.81,3.85,3.90,3.90,3.90,3.91,3.94,4.00,4.00,4.00,4.01,4.03,4.09,4.10,4.10,4.10,4.12,4.18,4.20,4.20,4.20,4.22,4.26,4.30,4.30,4.30,4.31,4.32,4.32,4.32,4.38,4.40,4.40,4.40,4.40,4.40,4.40,4.40,4.40,4.40,4.40,4.42,4.50,4.50,4.50,4.50,4.50,4.50,4.55,4.63,4.73,4.87,5.02,5.14,5.25,5.41,5.55,5.70,5.82,5.92,6.06,6.21,6.33,6.44,6.60,6.74,6.84,6.91,6.92,6.92,6.93,6.97,7.02,7.02,7.02,7.02,7.02,7.02,7.02,7.02,7.06,7.12,7.12,7.12,7.12,7.12,7.12,7.11,7.05,6.98,6.92,6.90,6.85,6.81,6.80,6.80,6.73,6.66,6.60,6.52,6.52,6.52,6.49,6.42,6.42,6.41,6.36,6.30,6.30,6.22,6.16,6.11,6.09,6.02,5.95,5.91,5.88,5.81,5.80,5.75,5.68,5.62,5.60,5.54,5.47,5.42,5.40,5.33,5.30,5.28,5.20,5.14,5.11,5.07,5.00,5.00,5.00,5.03,5.08,5.10,5.10,5.10,5.10,5.10,5.10,5.14,5.19,5.21,5.27,5.29,5.30,5.32,5.38,5.39,5.44,5.48,5.48,5.50,5.55,5.59,5.65,5.79,5.88,5.97,6.05,6.12,6.20,6.28,6.35,6.43,6.51,6.59,6.66,6.74,6.82,6.89,6.97,7.07,7.21,7.30,7.44,7.60,7.75,7.89,7.98,8.11,8.27,8.42,8.58,8.68,8.76,8.85,8.93,9.01,9.08,9.16,9.22,9.24,9.29,9.34,9.35,9.42,9.43,9.42,9.42,9.42,9.35,9.32,9.32,9.32,9.32,9.27,9.22,9.21,9.13,9.12,9.11,9.09,9.02,9.02,8.97,8.92,8.92,8.92,8.92,8.92,8.92,8.90,8.86,8.87,8.89,8.84,8.85,8.73,8.49,8.18,7.89,7.61,7.48,7.48,7.48,7.49,7.54
3.48,3.52,3.56,3.59,3.60,3.62,3.66,3.70,3.74,3.78,3.80,3.80,3.80,3.80,3.83,3.90,3.90,3.90,3.90,3.92,4.00,4.00,4.00,4.00,4.00,4.05,4.08,4.10,4.10,4.10,4.14,4.18,4.20,4.20,4.20,4.23,4.27,4.30,4.30,4.30,4.30,4.30,4.30,4.34,4.36,4.36,4.36,4.36,4.36,4.37,4.40,4.40,4.40,4.40,4.41,4.46,4.49,4.50,4.50,4.50,4.50,4.56,4.66,4.78,4.93,5.06,5.17,5.30,5.45,5.61,5.73,5.85,5.97,6.12,6.25,6.36,6.49,6.64,6.76,6.83,6.86,6.86,6.86,6.86,6.90,6.96,6.96,6.96,6.96,6.96,6.96,6.96,6.96,6.99,7.06,7.06,7.06,7.06,7.06,7.06,7.06,7.03,6.97,6.90,6.86,6.80,6.76,6.76,6.76,6.69,6.63,6.57,6.50,6.47,6.46,6.42,6.36,6.36,6.36,6.31,6.26,6.26,6.21,6.15,6.10,6.09,6.02,5.94,5.90,5.88,5.81,5.77,5.73,5.67,5.60,5.57,5.52,5.47,5.40,5.40,5.33,5.28,5.25,5.20,5.13,5.08,5.04,5.00,5.00,5.00,5.04,5.10,5.10,5.13,5.14,5.14,5.14,5.14,5.17,5.21,5.25,5.29,5.30,5.32,5.35,5.40,5.43,5.47,5.50,5.50,5.54,5.58,5.60,5.63,5.78,5.87,5.95,6.02,6.10,6.14,6.21,6.29,6.37,6.44,6.52,6.60,6.68,6.75,6.83,6.91,7.01,7.17,7.28,7.39,7.53,7.69,7.84,7.96,8.07,8.20,8.36,8.51,8.61,8.69,8.77,8.84,8.89,8.96,9.03,9.11,9.11,9.16,9.23,9.26,9.30,9.31,9.31,9.32,9.35,9.29,9.26,9.25,9.21,9.21,9.18,9.16,9.15,9.11,9.07,9.04,9.00,8.96,8.96,8.93,8.89,8.86,8.86,8.86,8.86,8.86,8.86,8.82,8.83,8.84,8.80,8.84,8.80,8.66,8.44,8.13,7.82,7.60,7.50,7.50,7.53,7.57
3.45,3.50,3.51,3.58,3.60,3.60,3.61,3.69,3.70,3.74,3.79,3.80,3.80,3.80,3.83,3.89,3.90,3.90,3.90,3.92,3.99,4.00,4.00,4.00,4.00,4.00,4.06,4.10,4.10,4.10,4.10,4.15,4.20,4.20,4.20,4.20,4.23,4.30,4.30,4.30,4.30,4.30,4.30,4.30,4.30,4.30,4.30,4.30,4.30,4.34,4.40,4.40,4.40,4.40,4.40,4.40,4.47,4.49,4.50,4.50,4.50,4.57,4.69,4.84,4.99,5.08,5.21,5.36,5.51,5.66,5.76,5.88,6.03,6.18,6.27,6.40,6.55,6.70,6.77,6.79,6.79,6.79,6.79,6.79,6.83,6.89,6.89,6.89,6.89,6.89,6.89,6.89,6.89,6.93,6.99,6.99,6.99,6.99,6.99,6.99,6.99,6.99,6.96,6.89,6.82,6.74,6.70,6.69,6.69,6.63,6.60,6.57,6.50,6.42,6.40,6.36,6.30,6.29,6.29,6.25,6.19,6.19,6.19,6.14,6.09,6.09,6.01,5.94,5.90,5.88,5.81,5.73,5.70,5.67,5.60,5.52,5.50,5.47,5.40,5.39,5.33,5.26,5.20,5.20,5.13,5.05,5.00,5.00,5.00,5.00,5.04,5.10,5.10,5.17,5.20,5.20,5.20,5.20,5.20,5.24,5.30,5.30,5.30,5.35,5.40,5.41,5.48,5.50,5.50,5.51,5.58,5.60,5.60,5.63,5.78,5.86,5.94,6.02,6.09,6.10,6.16,6.23,6.31,6.39,6.46,6.54,6.62,6.70,6.77,6.85,6.95,7.10,7.26,7.36,7.47,7.62,7.78,7.93,8.04,8.15,8.29,8.45,8.54,8.62,8.70,8.77,8.79,8.83,8.91,8.98,8.99,9.04,9.11,9.19,9.19,9.19,9.19,9.21,9.28,9.22,9.19,9.17,9.09,9.09,9.09,9.09,9.09,9.09,9.03,8.96,8.90,8.89,8.89,8.89,8.86,8.79,8.79,8.79,8.79,8.79,8.79,8.79,8.79,8.79,8.79,8.79,8.79,8.77,8.67,8.37,8.07,7.77,7.52,7.51,7.57,7.60
3.42,3.45,3.50,3.52,3.57,3.60,3.60,3.63,3.68,3.71,3.75,3.80,3.80,3.80,3.81,3.84,3.89,3.90,3.90,3.91,3.93,3.98,4.00,4.00,4.00,4.00,4.06,4.10,4.10,4.10,4.10,4.15,4.20,4.20,4.20,4.20,4.23,4.30,4.30,4.30,4.30,4.30,4.30,4.30,4.30,4.30,4.30,4.30,4.30,4.34,4.40,4.40,4.40,4.40,4.40,4.40,4.42,4.43,4.45,4.50,4.50,4.61,4.75,4.89,4.99,5.12,5.27,5.41,5.51,5.66,5.80,5.94,6.09,6.19,6.32,6.46,6.60,6.70,6.72,6.73,6.73,6.73,6.73,6.73,6.77,6.83,6.83,6.83,6.83,6.83,6.83,6.83,6.83,6.86,6.93,6.93,6.93,6.93,6.93,6.93,6.93,6.93,6.92,6.89,6.82,6.74,6.67,6.63,6.63,6.61,6.57,6.52,6.50,6.42,6.36,6.32,6.29,6.24,6.23,6.19,6.13,6.13,6.13,6.08,6.03,6.03,6.00,5.94,5.87,5.82,5.80,5.73,5.70,5.67,5.60,5.52,5.50,5.47,5.39,5.34,5.31,5.26,5.20,5.20,5.13,5.05,5.00,5.00,5.00,5.00,5.04,5.10,5.10,5.17,5.20,5.20,5.20,5.20,5.24,5.28,5.30,5.30,5.35,5.38,5.41,5.47,5.49,5.50,5.52,5.57,5.60,5.60,5.63,5.68,5.72,5.80,5.88,5.95,6.03,6.08,6.16,6.23,6.31,6.39,6.46,6.54,6.62,6.70,6.77,6.85,6.94,7.04,7.19,7.33,7.45,7.56,7.71,7.87,8.01,8.13,8.23,8.39,8.45,8.49,8.57,8.65,8.70,8.74,8.78,8.85,8.91,8.94,8.99,9.06,9.12,9.13,9.13,9.13,9.16,9.14,9.10,9.05,9.03,9.03,9.03,9.03,9.02,8.97,8.94,8.92,8.89,8.83,8.83,8.79,8.75,8.73,8.73,8.73,8.73,8.73,8.73,8.73,8.73,8.73,8.73,8.73,8.73,8.74,8.75,8.55,8.30,8.02,7.75,7.58,7.59,7.60
3.40,3.43,3.50,3.50,3.54,3.58,3.60,3.60,3.65,3.68,3.72,3.77,3.79,3.80,3.80,3.81,3.86,3.89,3.90,3.90,3.90,3.95,3.98,4.00,4.00,4.00,4.04,4.08,4.10,4.10,4.10,4.13,4.17,4.20,4.20,4.20,4.22,4.27,4.30,4.30,4.30,4.30,4.30,4.30,4.30,4.30,4.30,4.30,4.30,4.32,4.37,4.40,4.40,4.40,4.40,4.40,4.40,4.40,4.42,4.47,4.52,4.64,4.78,4.92,5.03,5.18,5.32,5.44,5.54,5.70,5.85,5.99,6.12,6.22,6.37,6.51,6.61,6.66,6.67,6.67,6.67,6.67,6.67,6.67,6.71,6.77,6.77,6.77,6.77,6.77,6.77,6.77,6.77,6.79,6.84,6.86,6.87,6.87,6.87,6.87,6.87,6.87,6.87,6.86,6.81,6.74,6.66,6.59,6.57,6.57,6.52,6.47,6.46,6.41,6.34,6.30,6.29,6.21,6.18,6.12,6.07,6.07,6.07,6.01,5.97,5.97,5.97,5.90,5.84,5.80,5.80,5.73,5.68,5.65,5.60,5.52,5.48,5.44,5.39,5.31,5.30,5.26,5.19,5.17,5.12,5.05,5.00,5.00,5.00,5.00,5.04,5.10,5.10,5.17,5.20,5.21,5.23,5.23,5.27,5.30,5.30,5.33,5.38,5.41,5.45,5.50,5.50,5.52,5.55,5.60,5.60,5.62,5.66,5.71,5.73,5.78,5.83,5.89,5.97,6.04,6.12,6.20,6.28,6.35,6.43,6.51,6.58,6.66,6.74,6.82,6.89,6.98,7.13,7.29,7.42,7.52,7.65,7.80,7.96,8.09,8.17,8.29,8.35,8.40,8.47,8.52,8.59,8.65,8.68,8.73,8.80,8.85,8.88,8.94,9.01,9.03,9.03,9.03,9.03,9.05,9.02,8.97,8.97,8.97,8.97,8.95,8.92,8.87,8.87,8.87,8.85,8.77,8.77,8.73,8.69,8.67,8.67,8.67,8.67,8.67,8.67,8.67,8.67,8.67,8.67,8.67,8.68,8.71,8.72,8.65,8.49,8.24,7.95,7.69,7.64,7.63
3.40,3.43,3.50,3.50,3.50,3.54,3.60,3.60,3.60,3.65,3.70,3.70,3.78,3.80,3.80,3.80,3.80,3.86,3.90,3.90,3.90,3.90,3.95,4.00,4.00,4.00,4.00,4.04,4.10,4.10,4.10,4.10,4.12,4.20,4.20,4.20,4.20,4.21,4.29,4.30,4.30,4.30,4.30,4.30,4.30,4.30,4.30,4.30,4.30,4.30,4.31,4.39,4.40,4.40,4.40,4.40,4.40,4.40,4.40,4.42,4.57,4.66,4.78,4.94,5.09,5.24,5.35,5.45,5.61,5.76,5.92,6.03,6.13,6.28,6.43,6.54,6.60,6.60,6.60,6.60,6.60,6.60,6.60,6.60,6.64,6.70,6.70,6.70,6.70,6.70,6.70,6.70,6.70,6.70,6.72,6.79,6.80,6.80,6.80,6.80,6.80,6.80,6.80,6.80,6.80,6.74,6.66,6.58,6.51,6.50,6.45,6.40,6.40,6.40,6.34,6.30,6.29,6.21,6.13,6.06,6.00,6.00,6.00,5.95,5.90,5.90,5.90,5.84,5.80,5.80,5.80,5.73,5.65,5.60,5.60,5.52,5.44,5.40,5.39,5.31,5.30,5.26,5.18,5.10,5.10,5.05,5.00,5.00,5.00,5.00,5.04,5.10,5.10,5.17,5.20,5.22,5.30,5.30,5.30,5.30,5.31,5.39,5.40,5.44,5.50,5.50,5.50,5.55,5.60,5.60,5.60,5.66,5.70,5.71,5.79,5.80,5.80,5.83,5.90,5.98,6.06,6.13,6.21,6.29,6.37,6.44,6.52,6.60,6.68,6.75,6.83,6.91,7.07,7.22,7.38,7.51,7.59,7.74,7.89,8.02,8.10,8.18,8.26,8.33,8.40,8.40,8.47,8.54,8.60,8.60,8.68,8.75,8.80,8.81,8.89,8.90,8.90,8.90,8.90,8.97,8.96,8.90,8.90,8.90,8.90,8.87,8.80,8.80,8.80,8.80,8.78,8.71,8.70,8.70,8.67,8.60,8.60,8.60,8.60,8.60,8.60,8.60,8.60,8.60,8.60,8.60,8.65,8.67,8.61,8.68,8.63,8.43,8.13,7.82,7.73,7.70
3.37,3.41,3.44,3.49,3.50,3.51,3.55,3.59,3.60,3.65,3.70,3.70,3.73,3.77,3.80,3.80,3.80,3.82,3.86,3.90,3.90,3.90,3.92,3.95,4.00,4.00,4.00,4.01,4.05,4.09,4.10,4.10,4.11,4.14,4.19,4.20,4.20,4.20,4.23,4.28,4.30,4.30,4.30,4.30,4.30,4.30,4.30,4.30,4.30,4.30,4.31,4.33,4.38,4.40,4.40,4.40,4.40,4.40,4.42,4.47,4.58,4.70,4.84,5.00,5.15,5.26,5.38,5.52,5.67,5.77,5.92,6.06,6.19,6.34,6.41,6.48,6.54,6.54,6.54,6.54,6.54,6.54,6.54,6.54,6.58,6.64,6.64,6.64,6.64,6.64,6.64,6.64,6.64,6.64,6.65,6.73,6.74,6.74,6.74,6.74,6.74,6.74,6.74,6.74,6.79,6.74,6.66,6.58,6.51,6.46,6.42,6.38,6.34,6.34,6.32,6.28,6.23,6.20,6.13,6.06,5.99,5.94,5.94,5.92,5.88,5.84,5.84,5.78,5.74,5.74,5.74,5.67,5.62,5.60,5.60,5.52,5.44,5.40,5.39,5.31,5.26,5.22,5.18,5.10,5.10,5.05,5.00,5.00,5.00,5.04,5.08,5.11,5.16,5.19,5.23,5.27,5.30,5.30,5.30,5.32,5.37,5.40,5.44,5.48,5.50,5.50,5.55,5.58,5.60,5.60,5.65,5.69,5.70,5.72,5.79,5.80,5.83,5.87,5.90,5.98,6.06,6.13,6.21,6.29,6.32,6.38,6.46,6.53,6.61,6.69,6.77,6.85,7.00,7.16,7.31,7.46,7.59,7.69,7.83,7.96,8.04,8.07,8.13,8.21,8.28,8.28,8.34,8.42,8.48,8.48,8.55,8.63,8.68,8.68,8.76,8.81,8.84,8.84,8.84,8.86,8.86,8.84,8.84,8.79,8.78,8.76,8.74,8.74,8.74,8.74,8.72,8.64,8.64,8.64,8.63,8.60,8.55,8.54,8.54,8.54,8.54,8.54,8.54,8.54,8.54,8.59,8.59,8.58,8.60,8.63,8.61,8.54,8.38,8.07,7.84,7.76
3.34,3.38,3.40,3.46,3.49,3.50,3.51,3.57,3.59,3.63,3.68,3.70,3.70,3.74,3.78,3.80,3.80,3.80,3.84,3.90,3.90,3.90,3.90,3.92,3.97,4.00,4.00,4.00,4.01,4.07,4.09,4.10,4.10,4.10,4.16,4.19,4.20,4.20,4.20,4.25,4.28,4.30,4.30,4.30,4.30,4.30,4.30,4.30,4.30,4.30,4.30,4.30,4.35,4.39,4.40,4.40,4.40,4.40,4.43,4.51,4.61,4.75,4.90,5.04,5.19,5.29,5.43,5.57,5.71,5.80,5.94,6.10,6.25,6.36,6.37,6.42,6.47,6.47,6.47,6.47,6.47,6.47,6.47,6.47,6.50,6.55,6.57,6.57,6.57,6.57,6.57,6.57,6.57,6.57,6.59,6.66,6.67,6.67,6.67,6.67,6.67,6.67,6.67,6.68,6.76,6.71,6.64,6.58,6.51,6.43,6.39,6.35,6.30,6.28,6.27,6.24,6.17,6.17,6.12,6.06,5.98,5.90,5.88,5.87,5.84,5.77,5.77,5.73,5.69,5.67,5.67,5.60,5.57,5.57,5.57,5.49,5.43,5.39,5.37,5.31,5.23,5.20,5.18,5.10,5.08,5.04,5.00,5.00,5.00,5.06,5.10,5.12,5.19,5.20,5.25,5.30,5.30,5.32,5.33,5.35,5.40,5.42,5.47,5.50,5.51,5.53,5.58,5.60,5.61,5.63,5.69,5.70,5.71,5.74,5.79,5.82,5.86,5.90,5.90,5.98,6.04,6.11,6.18,6.26,6.29,6.34,6.42,6.50,6.57,6.65,6.73,6.81,6.94,7.09,7.25,7.40,7.56,7.66,7.78,7.89,7.95,7.97,8.01,8.08,8.15,8.17,8.22,8.29,8.35,8.37,8.45,8.51,8.55,8.58,8.63,8.71,8.75,8.75,8.75,8.77,8.77,8.77,8.75,8.69,8.67,8.67,8.67,8.67,8.67,8.66,8.63,8.58,8.57,8.56,8.55,8.54,8.49,8.47,8.47,8.47,8.47,8.47,8.47,8.47,8.47,8.53,8.52,8.52,8.57,8.57,8.57,8.58,8.55,8.32,8.02,7.87
3.30,3.34,3.40,3.41,3.46,3.50,3.50,3.51,3.57,3.60,3.63,3.70,3.70,3.71,3.74,3.80,3.80,3.80,3.84,3.90,3.90,3.90,3.90,3.90,3.91,3.98,4.00,4.00,4.00,4.01,4.07,4.10,4.10,4.10,4.11,4.16,4.20,4.20,4.20,4.21,4.25,4.30,4.30,4.30,4.30,4.30,4.30,4.30,4.30,4.30,4.30,4.30,4.31,4.35,4.40,4.40,4.40,4.40,4.43,4.52,4.66,4.82,4.93,5.04,5.19,5.34,5.49,5.62,5.71,5.85,6.01,6.16,6.29,6.31,6.31,6.35,6.41,6.41,6.41,6.41,6.41,6.41,6.41,6.41,6.41,6.43,6.50,6.51,6.51,6.51,6.51,6.51,6.51,6.51,6.52,6.60,6.61,6.61,6.61,6.61,6.61,6.61,6.61,6.62,6.69,6.65,6.61,6.58,6.51,6.43,6.36,6.31,6.30,6.23,6.21,6.17,6.11,6.11,6.10,6.06,5.98,5.90,5.83,5.81,5.78,5.71,5.71,5.70,5.66,5.61,5.61,5.54,5.51,5.51,5.51,5.43,5.40,5.37,5.31,5.30,5.23,5.20,5.18,5.10,5.03,5.00,5.00,5.00,5.00,5.06,5.10,5.12,5.19,5.20,5.25,5.30,5.30,5.37,5.39,5.39,5.41,5.48,5.50,5.50,5.52,5.59,5.60,5.60,5.63,5.69,5.70,5.70,5.73,5.79,5.80,5.86,5.89,5.90,5.90,5.98,6.01,6.04,6.12,6.20,6.27,6.34,6.42,6.50,6.57,6.65,6.73,6.81,6.89,7.03,7.18,7.34,7.49,7.64,7.75,7.81,7.82,7.89,7.91,7.95,8.03,8.10,8.12,8.16,8.24,8.31,8.38,8.41,8.44,8.51,8.52,8.58,8.62,8.62,8.62,8.68,8.71,8.69,8.62,8.61,8.61,8.61,8.61,8.61,8.61,8.57,8.52,8.51,8.51,8.46,8.42,8.42,8.41,8.41,8.41,8.41,8.41,8.41,8.41,8.41,8.41,8.42,8.46,8.50,8.51,8.51,8.51,8.55,8.59,8.56,8.27,8.03
3.30,3.31,3.35,3.39,3.43,3.47,3.50,3.50,3.53,3.57,3.61,3.65,3.69,3.70,3.71,3.75,3.79,3.80,3.82,3.86,3.90,3.90,3.90,3.90,3.91,3.98,4.00,4.00,4.00,4.00,4.07,4.10,4.10,4.10,4.10,4.13,4.16,4.20,4.20,4.20,4.22,4.25,4.25,4.29,4.30,4.30,4.30,4.30,4.30,4.30,4.30,4.30,4.30,4.32,4.36,4.40,4.40,4.40,4.45,4.57,4.73,4.85,4.96,5.09,5.24,5.40,5.53,5.64,5.76,5.92,6.04,6.15,6.25,6.25,6.25,6.29,6.35,6.35,6.35,6.35,6.35,6.35,6.35,6.35,6.35,6.36,6.44,6.45,6.45,6.45,6.45,6.45,6.45,6.45,6.46,6.54,6.55,6.55,6.55,6.55,6.55,6.55,6.55,6.55,6.58,6.60,6.58,6.53,6.45,6.41,6.35,6.29,6.24,6.17,6.15,6.13,6.09,6.05,6.05,6.03,5.98,5.90,5.82,5.80,5.77,5.70,5.65,5.65,5.61,5.55,5.55,5.51,5.47,5.45,5.44,5.37,5.35,5.33,5.29,5.25,5.22,5.18,5.14,5.10,5.03,5.00,5.00,5.00,5.00,5.06,5.10,5.12,5.19,5.20,5.25,5.30,5.30,5.38,5.40,5.42,5.46,5.49,5.50,5.52,5.56,5.60,5.60,5.63,5.67,5.70,5.70,5.73,5.77,5.80,5.80,5.87,5.90,5.91,5.95,5.99,6.00,6.03,6.10,6.14,6.21,6.29,6.36,6.44,6.52,6.60,6.67,6.75,6.87,6.99,7.12,7.27,7.43,7.55,7.64,7.69,7.69,7.77,7.79,7.82,7.90,7.98,8.03,8.06,8.11,8.19,8.26,8.32,8.36,8.39,8.44,8.47,8.51,8.55,8.55,8.58,8.59,8.58,8.55,8.55,8.55,8.55,8.54,8.50,8.49,8.47,8.45,8.45,8.45,8.42,8.39,8.35,8.35,8.35,8.35,8.35,8.35,8.35,8.35,8.35,8.35,8.35,8.37,8.41,8.45,8.45,8.45,8.46,8.50,8.54,8.41,8.19
3.29,3.30,3.30,3.37,3.39,3.43,3.48,3.50,3.50,3.54,3.59,3.60,3.66,3.69,3.70,3.71,3.77,3.79,3.80,3.82,3.88,3.90,3.90,3.90,3.90,3.97,3.99,4.00,4.00,4.00,4.06,4.09,4.10,4.10,4.10,4.10,4.13,4.20,4.20,4.20,4.20,4.20,4.20,4.26,4.28,4.28,4.28,4.28,4.29,4.30,4.30,4.30,4.30,4.30,4.32,4.38,4.40,4.41,4.48,4.63,4.77,4.87,5.00,5.15,5.29,5.44,5.56,5.67,5.83,5.97,6.06,6.13,6.18,6.18,6.18,6.23,6.28,6.28,6.28,6.28,6.28,6.28,6.28,6.28,6.28,6.30,6.38,6.38,6.38,6.38,6.38,6.38,6.38,6.38,6.39,6.47,6.48,6.48,6.48,6.48,6.48,6.48,6.48,6.48,6.48,6.54,6.55,6.48,6.41,6.39,6.33,6.26,6.20,6.12,6.09,6.08,6.07,5.99,5.98,5.98,5.96,5.90,5.82,5.79,5.76,5.69,5.62,5.59,5.54,5.48,5.48,5.48,5.43,5.38,5.38,5.32,5.29,5.28,5.27,5.21,5.19,5.15,5.10,5.08,5.02,5.00,5.00,5.00,5.02,5.07,5.11,5.13,5.19,5.21,5.26,5.30,5.32,5.38,5.41,5.45,5.50,5.50,5.51,5.55,5.60,5.60,5.61,5.66,5.70,5.70,5.72,5.77,5.80,5.80,5.82,5.88,5.91,5.94,6.00,6.00,6.01,6.05,6.10,6.12,6.17,6.24,6.32,6.40,6.47,6.55,6.62,6.69,6.85,6.95,7.07,7.21,7.37,7.45,7.52,7.57,7.58,7.65,7.67,7.71,7.77,7.85,7.93,7.97,8.00,8.06,8.14,8.21,8.26,8.27,8.35,8.37,8.41,8.46,8.46,8.46,8.47,8.48,8.48,8.47,8.46,8.46,8.46,8.39,8.38,8.38,8.38,8.38,8.38,8.37,8.34,8.28,8.28,8.28,8.28,8.28,8.28,8.28,8.28,8.28,8.28,8.28,8.29,8.33,8.38,8.38,8.38,8.39,8.41,8.48,8.48,8.33
3.26,3.30,3.30,3.31,3.37,3.41,3.43,3.49,3.50,3.51,3.54,3.60,3.61,3.66,3.70,3.70,3.72,3.77,3.80,3.80,3.82,3.88,3.90,3.90,3.90,3.91,3.97,4.00,4.00,4.00,4.01,4.06,4.10,4.10,4.10,4.10,4.13,4.20,4.20,4.20,4.20,4.20,4.20,4.21,4.22,4.22,4.22,4.22,4.27,4.30,4.30,4.30,4.30,4.30,4.30,4.32,4.38,4.44,4.55,4.69,4.78,4.92,5.06,5.20,5.29,5.44,5.59,5.74,5.89,5.98,6.06,6.11,6.12,6.12,6.12,6.16,6.22,6.22,6.22,6.22,6.22,6.22,6.22,6.22,6.22,6.24,6.31,6.32,6.32,6.32,6.32,6.32,6.32,6.32,6.33,6.41,6.42,6.42,6.42,6.42,6.42,6.42,6.42,6.42,6.42,6.48,6.51,6.48,6.41,6.34,6.27,6.21,6.20,6.12,6.05,6.02,6.01,5.93,5.92,5.92,5.91,5.90,5.82,5.76,5.71,5.69,5.62,5.55,5.48,5.42,5.42,5.42,5.37,5.32,5.32,5.30,5.25,5.22,5.22,5.20,5.15,5.11,5.08,5.02,5.00,5.00,5.00,5.01,5.07,5.09,5.13,5.18,5.20,5.26,5.29,5.32,5.38,5.40,5.45,5.49,5.50,5.50,5.55,5.59,5.60,5.60,5.66,5.69,5.70,5.70,5.77,5.79,5.80,5.81,5.88,5.89,5.94,5.99,6.00,6.00,6.05,6.09,6.11,6.17,6.19,6.24,6.32,6.40,6.47,6.55,6.61,6.63,6.78,6.93,7.04,7.15,7.30,7.39,7.43,7.45,7.52,7.53,7.58,7.62,7.65,7.72,7.80,7.87,7.92,7.93,8.01,8.09,8.14,8.14,8.22,8.28,8.32,8.34,8.34,8.34,8.37,8.42,8.42,8.35,8.34,8.34,8.33,8.32,8.32,8.32,8.32,8.32,8.32,8.28,8.23,8.22,8.22,8.22,8.22,8.22,8.22,8.22,8.22,8.22,8.22,8.22,8.26,8.31,8.32,8.32,8.32,8.35,8.40,8.42,8.42,8.42
3.23,3.27,3.30,3.30,3.36,3.40,3.41,3.45,3.49,3.50,3.51,3.55,3.59,3.63,3.67,3.70,3.70,3.73,3.77,3.80,3.80,3.84,3.88,3.90,3.90,3.90,3.93,3.97,4.00,4.00,4.00,4.02,4.06,4.10,4.10,4.10,4.12,4.16,4.19,4.20,4.20,4.20,4.20,4.20,4.20,4.20,4.20,4.20,4.23,4.27,4.30,4.30,4.30,4.30,4.30,4.30,4.38,4.48,4.59,4.71,4.83,4.97,5.11,5.23,5.34,5.49,5.65,5.79,5.90,5.98,6.03,6.05,6.05,6.05,6.05,6.08,6.12,6.15,6.15,6.15,6.15,6.15,6.15,6.15,6.15,6.17,6.25,6.25,6.25,6.25,6.25,6.25,6.25,6.25,6.26,6.30,6.34,6.35,6.35,6.35,6.35,6.35,6.35,6.35,6.35,6.42,6.45,6.44,6.40,6.33,6.25,6.19,6.15,6.11,6.04,5.98,5.95,5.91,5.87,5.85,5.85,5.85,5.78,5.73,5.70,5.69,5.62,5.54,5.46,5.39,5.36,5.35,5.31,5.25,5.25,5.25,5.20,5.15,5.15,5.15,5.09,5.05,5.04,5.00,5.00,5.00,5.01,5.05,5.09,5.13,5.17,5.21,5.24,5.28,5.30,5.32,5.40,5.40,5.46,5.50,5.50,5.54,5.58,5.60,5.61,5.64,5.69,5.70,5.71,5.75,5.79,5.80,5.82,5.85,5.90,5.90,5.95,6.00,6.00,6.04,6.08,6.12,6.15,6.19,6.20,6.24,6.31,6.35,6.43,6.50,6.57,6.61,6.73,6.87,7.01,7.12,7.20,7.28,7.31,7.33,7.41,7.41,7.46,7.52,7.56,7.60,7.67,7.75,7.82,7.85,7.89,7.96,8.02,8.06,8.10,8.17,8.22,8.25,8.25,8.25,8.28,8.31,8.31,8.27,8.25,8.25,8.25,8.25,8.25,8.25,8.25,8.21,8.21,8.18,8.15,8.15,8.15,8.15,8.15,8.15,8.15,8.15,8.15,8.15,8.15,8.15,8.18,8.22,8.25,8.25,8.25,8.28,8.32,8.35,8.35,8.40
3.20,3.23,3.29,3.30,3.35,3.39,3.40,3.40,3.46,3.49,3.50,3.50,3.58,3.60,3.63,3.69,3.70,3.70,3.74,3.79,3.80,3.80,3.85,3.89,3.90,3.90,3.90,3.93,3.99,4.00,4.00,4.00,4.02,4.09,4.10,4.10,4.10,4.11,4.18,4.20,4.20,4.20,4.20,4.20,4.20,4.20,4.20,4.20,4.20,4.24,4.30,4.30,4.30,4.30,4.30,4.30,4.38,4.51,4.63,4.73,4.88,5.03,5.14,5.25,5.40,5.55,5.70,5.83,5.90,5.97,5.99,5.99,5.99,5.99,5.99,5.99,6.01,6.09,6.09,6.09,6.09,6.09,6.09,6.09,6.09,6.11,6.18,6.19,6.19,6.19,6.19,6.19,6.19,6.19,6.19,6.19,6.26,6.29,6.29,6.29,6.29,6.29,6.29,6.29,6.29,6.35,6.39,6.39,6.39,6.33,6.25,6.17,6.10,6.09,6.03,5.96,5.90,5.89,5.83,5.80,5.79,5.79,5.71,5.69,5.69,5.68,5.61,5.54,5.46,5.38,5.31,5.30,5.25,5.20,5.19,5.19,5.13,5.09,5.09,5.09,5.03,5.00,5.00,5.00,5.00,5.01,5.04,5.10,5.10,5.16,5.20,5.22,5.29,5.30,5.30,5.33,5.40,5.41,5.46,5.50,5.51,5.59,5.60,5.60,5.63,5.70,5.70,5.71,5.74,5.80,5.80,5.81,5.84,5.90,5.90,5.91,5.95,6.00,6.01,6.08,6.10,6.13,6.20,6.20,6.21,6.25,6.30,6.30,6.37,6.45,6.52,6.60,6.67,6.81,6.96,7.08,7.08,7.15,7.18,7.20,7.28,7.28,7.34,7.41,7.48,7.49,7.55,7.62,7.70,7.78,7.79,7.84,7.91,7.98,7.99,8.04,8.12,8.18,8.18,8.18,8.18,8.19,8.19,8.19,8.19,8.19,8.18,8.18,8.18,8.18,8.16,8.09,8.09,8.09,8.09,8.09,8.09,8.09,8.09,8.08,8.08,8.08,8.08,8.08,8.09,8.09,8.09,8.12,8.18,8.19,8.19,8.19,8.21,8.28,8.29,8.34
3.20,3.21,3.23,3.29,3.32,3.35,3.40,3.40,3.42,3.46,3.50,3.50,3.58,3.60,3.61,3.63,3.69,3.70,3.71,3.74,3.80,3.80,3.81,3.85,3.90,3.90,3.90,3.91,3.94,3.99,4.00,4.00,4.01,4.03,4.08,4.10,4.10,4.10,4.12,4.17,4.20,4.20,4.20,4.20,4.20,4.20,4.20,4.20,4.20,4.24,4.30,4.30,4.30,4.30,4.30,4.30,4.38,4.51,4.65,4.79,4.95,5.05,5.17,5.31,5.46,5.57,5.70,5.83,5.90,5.92,5.93,5.93,5.93,5.93,5.93,5.93,5.95,6.03,6.03,6.03,6.03,6.03,6.03,6.03,6.03,6.04,6.12,6.13,6.13,6.13,6.13,6.13,6.13,6.13,6.13,6.13,6.19,6.23,6.23,6.23,6.23,6.23,6.23,6.23,6.23,6.29,6.33,6.33,6.33,6.31,6.25,6.17,6.10,6.04,5.97,5.92,5.89,5.83,5.81,5.77,5.73,5.73,5.65,5.63,5.63,5.62,5.60,5.54,5.46,5.38,5.31,5.30,5.25,5.18,5.13,5.13,5.07,5.03,5.03,5.03,5.01,5.00,5.00,5.00,5.00,5.04,5.08,5.10,5.10,5.16,5.20,5.22,5.29,5.30,5.34,5.38,5.40,5.46,5.49,5.50,5.51,5.59,5.60,5.63,5.68,5.70,5.70,5.74,5.78,5.80,5.80,5.84,5.88,5.90,5.90,5.95,5.99,6.02,6.07,6.09,6.10,6.13,6.20,6.20,6.25,6.28,6.30,6.30,6.37,6.41,6.45,6.53,6.61,6.75,6.87,6.95,6.95,7.02,7.05,7.08,7.15,7.15,7.21,7.28,7.36,7.42,7.44,7.49,7.57,7.65,7.71,7.78,7.83,7.86,7.91,7.94,7.99,8.05,8.05,8.05,8.09,8.13,8.13,8.13,8.13,8.10,8.05,8.05,8.05,8.05,8.05,8.03,8.03,8.03,8.03,8.03,8.03,8.03,8.00,7.95,7.95,7.95,7.95,7.97,8.03,8.03,8.03,8.03,8.06,8.12,8.13,8.13,8.14,8.22,8.23,8.28
3.18,3.20,3.20,3.25,3.28,3.32,3.37,3.40,3.40,3.43,3.47,3.50,3.55,3.58,3.60,3.61,3.65,3.69,3.70,3.72,3.80,3.80,3.80,3.83,3.90,3.90,3.90,3.90,3.91,3.99,4.00,4.00,4.00,4.00,4.05,4.08,4.10,4.10,4.10,4.14,4.18,4.20,4.20,4.20,4.20,4.20,4.20,4.20,4.20,4.22,4.27,4.30,4.30,4.30,4.30,4.30,4.41,4.55,4.70,4.85,4.98,5.09,5.22,5.37,5.49,5.60,5.72,5.82,5.86,5.86,5.86,5.86,5.86,5.86,5.86,5.86,5.88,5.96,5.96,5.96,5.96,5.96,5.96,5.96,5.96,5.98,6.06,6.06,6.06,6.06,6.06,6.06,6.06,6.06,6.06,6.06,6.13,6.16,6.16,6.16,6.16,6.16,6.16,6.16,6.16,6.22,6.26,6.26,6.26,6.26,6.23,6.17,6.10,6.02,5.94,5.89,5.85,5.81,5.77,5.72,5.66,5.66,5.62,5.58,5.56,5.56,5.56,5.52,5.46,5.38,5.31,5.27,5.23,5.17,5.10,5.07,5.03,5.00,5.00,5.00,5.00,5.00,5.01,5.04,5.04,5.07,5.11,5.14,5.14,5.18,5.21,5.25,5.30,5.33,5.37,5.41,5.44,5.49,5.50,5.51,5.54,5.59,5.60,5.64,5.70,5.70,5.70,5.75,5.80,5.80,5.80,5.86,5.90,5.91,5.94,5.98,6.02,6.05,6.10,6.10,6.12,6.16,6.20,6.23,6.28,6.30,6.31,6.34,6.38,6.40,6.43,6.51,6.58,6.70,6.79,6.83,6.86,6.90,6.94,6.98,7.02,7.05,7.10,7.16,7.23,7.31,7.35,7.39,7.44,7.52,7.60,7.67,7.72,7.73,7.81,7.85,7.88,7.92,7.92,7.95,7.99,8.02,8.02,8.02,8.02,8.00,7.96,7.96,7.96,7.96,7.96,7.96,7.96,7.96,7.95,7.92,7.92,7.92,7.90,7.86,7.86,7.86,7.86,7.88,7.96,7.96,7.96,7.97,8.01,8.05,8.06,8.08,8.11,8.16,8.16,8.21
3.15,3.20,3.20,3.20,3.26,3.30,3.31,3.39,3.40,3.40,3.42,3.50,3.50,3.55,3.60,3.60,3.60,3.66,3.70,3.72,3.79,3.80,3.80,3.83,3.90,3.90,3.90,3.90,3.91,3.99,4.00,4.00,4.00,4.00,4.00,4.05,4.10,4.10,4.10,4.10,4.14,4.20,4.20,4.20,4.20,4.20,4.20,4.20,4.20,4.20,4.21,4.29,4.30,4.30,4.30,4.30,4.46,4.61,4.76,4.91,4.99,5.13,5.28,5.42,5.50,5.64,5.75,5.80,5.80,5.80,5.80,5.80,5.80,5.80,5.80,5.80,5.82,5.90,5.90,5.90,5.90,5.90,5.90,5.90,5.90,5.92,5.99,6.00,6.00,6.00,6.00,6.00,6.00,6.00,6.00,6.00,6.07,6.10,6.10,6.10,6.10,6.10,6.10,6.10,6.10,6.16,6.20,6.20,6.20,6.20,6.20,6.17,6.10,6.02,5.94,5.87,5.80,5.80,5.73,5.66,5.60,5.60,5.60,5.55,5.50,5.50,5.50,5.50,5.46,5.38,5.31,5.23,5.20,5.17,5.10,5.02,5.00,5.00,5.00,5.00,5.00,5.00,5.02,5.10,5.10,5.10,5.13,5.20,5.20,5.20,5.24,5.30,5.30,5.37,5.40,5.42,5.50,5.50,5.50,5.53,5.60,5.60,5.60,5.64,5.70,5.70,5.70,5.75,5.80,5.80,5.80,5.86,5.90,5.92,5.99,6.00,6.05,6.10,6.10,6.10,6.16,6.20,6.21,6.29,6.30,6.30,6.32,6.40,6.40,6.40,6.43,6.51,6.58,6.66,6.70,6.71,6.79,6.80,6.84,6.90,6.90,6.97,7.00,7.03,7.11,7.18,7.26,7.30,7.32,7.39,7.47,7.55,7.60,7.60,7.68,7.76,7.80,7.80,7.80,7.87,7.90,7.90,7.90,7.90,7.90,7.90,7.90,7.90,7.90,7.90,7.90,7.90,7.90,7.90,7.87,7.80,7.80,7.80,7.80,7.80,7.80,7.80,7.80,7.82,7.90,7.90,7.90,7.93,8.00,8.00,8.00,8.04,8.10,8.10,8.10,8.15
3.12,3.15,3.20,3.20,3.22,3.26,3.31,3.33,3.38,3.40,3.41,3.43,3.49,3.52,3.56,3.60,3.60,3.62,3.66,3.71,3.73,3.78,3.80,3.81,3.84,3.89,3.90,3.90,3.90,3.93,3.98,4.00,4.00,4.00,4.00,4.05,4.10,4.10,4.10,4.10,4.14,4.20,4.20,4.20,4.20,4.20,4.20,4.20,4.20,4.20,4.20,4.23,4.28,4.30,4.31,4.37,4.52,4.64,4.76,4.91,5.04,5.19,5.32,5.43,5.56,5.62,5.65,5.69,5.73,5.73,5.73,5.73,5.73,5.73,5.73,5.73,5.76,5.83,5.83,5.83,5.83,5.83,5.83,5.83,5.83,5.84,5.87,5.92,5.93,5.93,5.93,5.93,5.93,5.93,5.93,5.93,6.00,6.03,6.03,6.03,6.03,6.03,6.03,6.03,6.03,6.06,6.09,6.13,6.13,6.13,6.13,6.13,6.10,6.02,5.94,5.87,5.79,5.74,5.71,5.66,5.59,5.54,5.53,5.48,5.43,5.43,5.43,5.43,5.40,5.33,5.30,5.23,5.20,5.17,5.10,5.02,5.00,5.00,5.00,5.00,5.04,5.07,5.07,5.10,5.10,5.13,5.18,5.20,5.20,5.24,5.28,5.30,5.30,5.37,5.40,5.42,5.50,5.50,5.54,5.58,5.60,5.60,5.64,5.68,5.70,5.70,5.75,5.78,5.80,5.80,5.85,5.89,5.92,5.97,6.00,6.00,6.05,6.10,6.10,6.15,6.18,6.22,6.27,6.30,6.30,6.33,6.37,6.40,6.45,6.47,6.49,6.57,6.59,6.66,6.70,6.70,6.73,6.73,6.75,6.77,6.77,6.85,6.90,6.95,6.98,7.06,7.13,7.20,7.24,7.27,7.34,7.42,7.49,7.54,7.56,7.63,7.69,7.73,7.73,7.76,7.77,7.78,7.83,7.83,7.83,7.83,7.83,7.83,7.83,7.83,7.83,7.83,7.79,7.77,7.76,7.73,7.73,7.73,7.73,7.74,7.79,7.80,7.83,7.87,7.90,7.90,7.94,7.98,8.00,8.00,8.04,8.08,8.10,8.10,8.10,8.15
3.10,3.12,3.17,3.19,3.20,3.24,3.30,3.30,3.35,3.38,3.40,3.40,3.45,3.49,3.52,3.57,3.60,3.60,3.63,3.68,3.70,3.75,3.79,3.80,3.80,3.86,3.89,3.90,3.90,3.90,3.95,3.98,4.00,4.00,4.00,4.04,4.08,4.10,4.10,4.10,4.13,4.18,4.20,4.20,4.20,4.20,4.20,4.20,4.20,4.20,4.20,4.20,4.25,4.28,4.33,4.43,4.56,4.67,4.79,4.95,5.10,5.24,5.35,5.45,5.56,5.57,5.57,5.60,5.67,5.67,5.67,5.67,5.67,5.67,5.67,5.67,5.69,5.77,5.77,5.77,5.77,5.77,5.77,5.77,5.77,5.77,5.77,5.84,5.87,5.87,5.87,5.87,5.87,5.87,5.87,5.87,5.94,5.97,5.97,5.97,5.97,5.97,5.97,5.97,5.97,5.97,6.01,6.07,6.07,6.07,6.07,6.07,6.07,6.01,5.94,5.87,5.79,5.71,5.68,5.63,5.56,5.50,5.48,5.43,5.39,5.37,5.37,5.37,5.33,5.27,5.27,5.22,5.19,5.15,5.10,5.02,5.00,5.00,5.00,5.03,5.08,5.10,5.11,5.13,5.13,5.17,5.20,5.20,5.22,5.27,5.30,5.30,5.33,5.38,5.41,5.45,5.50,5.52,5.57,5.60,5.60,5.63,5.68,5.70,5.71,5.73,5.78,5.80,5.81,5.83,5.89,5.90,5.94,6.00,6.00,6.02,6.06,6.11,6.13,6.18,6.20,6.23,6.30,6.33,6.33,6.37,6.44,6.46,6.51,6.54,6.58,6.63,6.65,6.70,6.74,6.76,6.76,6.76,6.76,6.76,6.76,6.81,6.87,6.90,6.91,6.96,7.02,7.08,7.15,7.17,7.24,7.31,7.37,7.44,7.46,7.51,7.58,7.64,7.64,7.66,7.67,7.69,7.74,7.74,7.74,7.74,7.74,7.74,7.74,7.74,7.74,7.74,7.69,7.67,7.67,7.67,7.69,7.70,7.71,7.74,7.79,7.80,7.85,7.90,7.90,7.90,7.95,8.00,8.00,8.00,8.06,8.10,8.10,8.10,8.12,8.16
3.10,3.10,3.11,3.18,3.20,3.24,3.30,3.30,3.30,3.35,3.40,3.40,3.40,3.46,3.50,3.52,3.59,3.60,3.60,3.62,3.70,3.70,3.75,3.80,3.80,3.81,3.86,3.90,3.90,3.90,3.90,3.95,4.00,4.00,4.00,4.00,4.04,4.10,4.10,4.10,4.10,4.12,4.20,4.20,4.20,4.20,4.20,4.20,4.20,4.20,4.20,4.20,4.20,4.25,4.34,4.49,4.58,4.71,4.86,5.01,5.17,5.26,5.38,5.50,5.51,5.51,5.51,5.53,5.61,5.61,5.61,5.61,5.61,5.61,5.61,5.61,5.63,5.71,5.71,5.71,5.71,5.71,5.71,5.71,5.71,5.71,5.71,5.78,5.81,5.81,5.81,5.81,5.81,5.81,5.81,5.81,5.87,5.91,5.91,5.91,5.91,5.91,5.91,5.91,5.91,5.91,5.95,6.01,6.01,6.01,6.01,6.01,6.01,6.00,5.94,5.87,5.79,5.71,5.64,5.56,5.50,5.50,5.43,5.40,5.37,5.31,5.31,5.31,5.27,5.21,5.21,5.20,5.16,5.10,5.10,5.02,5.00,5.00,5.01,5.08,5.10,5.10,5.12,5.19,5.19,5.20,5.20,5.21,5.28,5.30,5.30,5.31,5.39,5.40,5.44,5.50,5.50,5.57,5.60,5.60,5.61,5.68,5.70,5.70,5.72,5.79,5.80,5.80,5.83,5.89,5.90,5.90,5.94,6.00,6.00,6.07,6.10,6.12,6.19,6.20,6.20,6.23,6.31,6.38,6.39,6.44,6.51,6.58,6.59,6.64,6.69,6.70,6.77,6.79,6.83,6.89,6.89,6.89,6.89,6.89,6.89,6.89,6.90,6.90,6.90,6.91,6.91,6.95,7.03,7.10,7.18,7.21,7.24,7.32,7.39,7.41,7.45,7.51,7.51,7.58,7.61,7.61,7.61,7.61,7.61,7.61,7.61,7.61,7.61,7.61,7.61,7.61,7.61,7.61,7.61,7.61,7.68,7.70,7.73,7.79,7.80,7.80,7.85,7.90,7.90,7.90,7.95,8.00,8.00,8.00,8.06,8.10,8.10,8.10,8.17,8.20
3.07,3.10,3.10,3.14,3.18,3.22,3.25,3.30,3.30,3.32,3.36,3.40,3.40,3.42,3.46,3.50,3.54,3.58,3.60,3.61,3.64,3.68,3.72,3.76,3.80,3.80,3.83,3.86,3.90,3.90,3.90,3.92,3.96,4.00,4.00,4.00,4.01,4.05,4.09,4.10,4.10,4.11,4.14,4.14,4.17,4.20,4.20,4.20,4.20,4.20,4.20,4.20,4.20,4.27,4.39,4.50,4.62,4.77,4.90,5.02,5.17,5.30,5.39,5.44,5.44,5.44,5.44,5.47,5.54,5.54,5.54,5.54,5.54,5.54,5.54,5.54,5.56,5.64,5.64,5.64,5.64,5.64,5.64,5.64,5.64,5.64,5.64,5.71,5.74,5.74,5.74,5.74,5.74,5.74,5.74,5.74,5.81,5.84,5.84,5.84,5.84,5.84,5.84,5.84,5.84,5.84,5.88,5.94,5.94,5.94,5.94,5.94,5.94,5.94,5.92,5.87,5.79,5.71,5.63,5.56,5.49,5.44,5.41,5.37,5.33,5.30,5.25,5.24,5.20,5.14,5.14,5.14,5.12,5.09,5.04,5.01,5.00,5.00,5.01,5.09,5.10,5.12,5.17,5.20,5.20,5.23,5.26,5.26,5.29,5.30,5.32,5.36,5.40,5.44,5.48,5.51,5.56,5.59,5.60,5.60,5.61,5.69,5.70,5.72,5.77,5.80,5.80,5.83,5.87,5.90,5.90,5.93,5.97,6.01,6.05,6.09,6.10,6.12,6.20,6.25,6.29,6.33,6.37,6.45,6.49,6.53,6.58,6.65,6.70,6.74,6.77,6.82,6.90,6.92,6.95,7.02,7.02,7.02,7.02,7.02,7.02,7.06,7.04,7.02,7.02,7.02,7.02,7.03,7.07,7.10,7.09,7.11,7.15,7.19,7.27,7.32,7.36,7.39,7.44,7.47,7.48,7.50,7.54,7.54,7.54,7.54,7.54,7.54,7.54,7.54,7.54,7.54,7.58,7.60,7.62,7.66,7.69,7.70,7.74,7.80,7.80,7.80,7.85,7.90,7.90,7.90,7.95,8.00,8.00,8.00,8.06,8.10,8.10,8.10,8.17,8.20
3.04,3.08,3.10,3.10,3.15,3.19,3.21,3.27,3.29,3.30,3.32,3.38,3.40,3.40,3.43,3.50,3.50,3.55,3.59,3.60,3.60,3.66,3.69,3.72,3.78,3.80,3.80,3.83,3.88,3.90,3.90,3.90,3.92,3.98,4.00,4.00,4.00,4.01,4.07,4.09,4.10,4.10,4.10,4.10,4.14,4.18,4.18,4.18,4.19,4.20,4.20,4.20,4.20,4.29,4.43,4.52,4.68,4.82,4.94,5.04,5.19,5.32,5.38,5.38,5.38,5.38,5.38,5.41,5.48,5.48,5.48,5.48,5.48,5.48,5.48,5.48,5.50,5.56,5.57,5.58,5.58,5.58,5.58,5.58,5.58,5.58,5.58,5.65,5.68,5.68,5.68,5.68,5.68,5.68,5.68,5.68,5.73,5.77,5.78,5.78,5.78,5.78,5.78,5.78,5.78,5.78,5.82,5.88,5.88,5.88,5.88,5.88,5.88,5.88,5.88,5.85,5.79,5.71,5.63,5.56,5.48,5.40,5.38,5.34,5.29,5.27,5.21,5.19,5.15,5.10,5.08,5.08,5.08,5.06,5.00,5.00,5.00,5.01,5.03,5.09,5.11,5.16,5.20,5.22,5.22,5.26,5.30,5.30,5.32,5.32,5.35,5.40,5.42,5.48,5.50,5.52,5.60,5.60,5.60,5.61,5.63,5.69,5.70,5.74,5.80,5.80,5.80,5.85,5.90,5.90,5.92,5.97,6.01,6.03,6.09,6.12,6.13,6.17,6.24,6.30,6.38,6.43,6.45,6.51,6.59,6.63,6.66,6.74,6.80,6.83,6.87,6.93,7.00,7.03,7.07,7.12,7.14,7.14,7.14,7.14,7.14,7.22,7.19,7.14,7.15,7.16,7.15,7.14,7.14,7.14,7.09,7.09,7.12,7.13,7.19,7.25,7.28,7.29,7.35,7.36,7.37,7.40,7.46,7.46,7.47,7.48,7.48,7.48,7.49,7.50,7.50,7.50,7.57,7.60,7.63,7.70,7.70,7.70,7.74,7.80,7.80,7.81,7.86,7.90,7.90,7.92,7.96,8.00,8.00,8.02,8.07,8.10,8.10,8.10,8.17,8.20
3.01,3.04,3.10,3.10,3.11,3.15,3.20,3.21,3.27,3.30,3.30,3.32,3.38,3.40,3.43,3.50,3.50,3.51,3.55,3.60,3.60,3.61,3.66,3.70,3.72,3.78,3.80,3.81,3.83,3.89,3.90,3.90,3.90,3.91,3.98,4.00,4.00,4.00,4.01,4.07,4.10,4.10,4.10,4.10,4.11,4.11,4.11,4.11,4.16,4.20,4.20,4.20,4.20,4.29,4.44,4.59,4.74,4.85,4.96,5.10,5.26,5.30,5.31,5.31,5.31,5.31,5.31,5.34,5.41,5.41,5.41,5.41,5.41,5.41,5.41,5.41,5.42,5.43,5.49,5.51,5.51,5.51,5.51,5.51,5.51,5.51,5.51,5.59,5.61,5.61,5.61,5.61,5.61,5.61,5.61,5.61,5.62,5.67,5.71,5.71,5.71,5.71,5.71,5.71,5.71,5.71,5.75,5.81,5.81,5.81,5.81,5.81,5.81,5.81,5.81,5.81,5.79,5.71,5.63,5.56,5.48,5.40,5.34,5.31,5.27,5.21,5.20,5.15,5.11,5.09,5.02,5.01,5.01,5.01,5.00,5.00,5.00,5.03,5.09,5.10,5.16,5.19,5.22,5.28,5.29,5.29,5.30,5.31,5.37,5.39,5.39,5.41,5.48,5.50,5.50,5.52,5.60,5.60,5.60,5.63,5.69,5.70,5.70,5.74,5.80,5.80,5.80,5.85,5.90,5.91,5.97,5.99,6.03,6.09,6.10,6.16,6.23,6.30,6.37,6.38,6.44,6.51,6.57,6.58,6.65,6.72,6.79,6.87,6.88,6.93,6.98,6.99,7.07,7.14,7.18,7.20,7.26,7.27,7.27,7.27,7.27,7.35,7.32,7.27,7.28,7.35,7.30,7.27,7.27,7.27,7.26,7.22,7.19,7.19,7.20,7.21,7.21,7.22,7.23,7.23,7.27,7.32,7.33,7.33,7.38,7.41,7.41,7.41,7.47,7.50,7.50,7.50,7.57,7.60,7.63,7.70,7.70,7.70,7.74,7.80,7.80,7.86,7.89,7.90,7.90,7.97,7.99,8.00,8.01,8.07,8.09,8.10,8.10,8.10,8.17,8.20
2.98,3.01,3.05,3.09,3.10,3.12,3.16,3.20,3.23,3.27,3.30,3.30,3.34,3.38,3.42,3.46,3.49,3.50,3.52,3.56,3.60,3.60,3.65,3.70,3.70,3.74,3.78,3.80,3.81,3.85,3.88,3.90,3.90,3.90,3.98,4.00,4.00,4.00,4.00,4.06,4.10,4.10,4.10,4.10,4.10,4.10,4.10,4.10,4.16,4.20,4.20,4.20,4.23,4.34,4.49,4.65,4.77,4.88,5.01,5.16,5.24,5.25,5.25,5.25,5.25,5.25,5.25,5.28,5.35,5.35,5.35,5.35,5.35,5.35,5.35,5.35,5.35,5.35,5.43,5.45,5.45,5.45,5.45,5.45,5.45,5.45,5.45,5.52,5.55,5.55,5.55,5.55,5.55,5.55,5.55,5.55,5.55,5.59,5.65,5.65,5.65,5.65,5.65,5.65,5.65,5.65,5.69,5.75,5.75,5.75,5.75,5.75,5.75,5.75,5.75,5.75,5.74,5.71,5.63,5.56,5.48,5.40,5.32,5.27,5.24,5.20,5.16,5.09,5.05,5.04,5.00,5.00,5.00,5.01,5.05,5.05,5.05,5.08,5.15,5.15,5.18,5.22,5.26,5.30,5.30,5.30,5.31,5.35,5.39,5.40,5.42,5.46,5.50,5.50,5.52,5.56,5.60,5.60,5.63,5.67,5.70,5.70,5.73,5.77,5.80,5.80,5.84,5.88,5.91,5.96,6.03,6.05,6.09,6.16,6.20,6.23,6.30,6.37,6.45,6.49,6.53,6.58,6.65,6.69,6.76,6.82,6.87,6.95,6.99,7.02,7.06,7.10,7.18,7.26,7.30,7.31,7.39,7.40,7.40,7.40,7.40,7.44,7.45,7.43,7.41,7.49,7.47,7.43,7.40,7.40,7.40,7.37,7.35,7.35,7.31,7.30,7.28,7.24,7.20,7.23,7.27,7.30,7.30,7.34,7.38,7.40,7.40,7.44,7.48,7.50,7.51,7.55,7.59,7.60,7.63,7.70,7.70,7.73,7.77,7.80,7.80,7.87,7.90,7.90,7.90,7.98,8.00,8.00,8.01,8.09,8.10,8.10,8.11,8.15,8.19,8.20
