21.65,19.58,17.60,16.00,15.32,14.57,14.23,14.23,13.97,13.43,12.87,12.35,11.92,11.95,12.20,12.55,12.94,13.33,13.97,14.41,14.28,13.10,11.93,11.47,12.57,15.63,19.07,21.09,22.46,23.38,23.64,23.01,22.08,20.91,19.52,18.84,18.74,18.83,18.92,19.03,20.09,21.60,23.35,25.14,27.03,28.96,31.13,33.71,36.38,39.11,42.38,46.16,49.85,51.19,52.30,53.23,53.74,52.83,51.95,51.06,49.99,48.01,45.79,43.50,41.20,38.90,36.51,34.09,31.70,29.43,27.67,25.90,24.49,23.43,22.33,21.52,21.30,21.53,21.92,22.52,23.17,23.71,24.11,24.56,24.69,24.72,24.75,24.81,24.89,25.01,25.12,25.20,25.21,25.22,25.21,25.18,25.11,24.81,24.04,22.97,21.89,20.81,20.51,20.71,21.18,21.72,21.81,21.89,22.06,22.26,22.18,21.75,21.15,20.60,20.11,19.64,19.21,18.80,18.35,17.94,17.50,17.04,16.58,16.75,17.79,19.07,20.14,20.99,21.63,22.10,22.46,22.79,23.12,23.46,23.81,24.18,24.38,24.48,24.56,24.64,24.70,25.04,25.60,26.29,26.95,27.68,28.40,29.10,29.87,31.23,32.74,34.28,35.83,37.37,38.92,41.65,45.29,49.37,53.19,56.76,60.30,63.95,67.76,71.82,75.99,80.48,85.59,90.31,95.22,100.06,104.72,109.68,115.40,122.12,129.58,136.87,141.55,143.38,142.19,138.10,133.83,130.53,127.56,124.63,121.97,119.36,117.38,115.84,114.16,112.06,109.51,106.77,104.02,100.74,96.57,91.99,87.36,83.19,82.48,85.26,89.77,93.87,97.80,102.35,107.25,112.27,117.23,121.03,123.65,125.19,125.87,125.23,124.52,124.00,123.82,123.84,125.49,128.55,132.77,137.69,141.43,144.69,147.80,151.04,154.70,158.50,162.78,167.39,170.66,172.33,171.90,169.37,165.01,160.08,156.05,152.36,148.43,143.95,139.32,134.11,128.91,125.99,123.06,119.07,113.93,107.76,101.91,99.62,98.65,97.81,98.31,102.20,106.95,111.81,116.45,119.64
21.36,19.26,16.73,13.95,13.15,12.49,12.16,12.15,12.20,11.83,11.35,10.91,10.63,10.68,10.81,11.02,11.30,11.76,12.63,13.26,13.25,12.16,11.10,10.57,11.04,12.85,16.04,19.25,21.29,22.00,22.12,21.46,20.30,18.78,17.09,16.47,16.50,16.74,17.05,17.92,19.49,21.30,23.20,25.08,27.08,29.14,31.41,33.99,36.59,39.35,42.61,46.29,49.86,51.12,52.11,52.96,53.50,52.65,51.80,50.97,49.99,48.10,45.91,43.67,41.41,39.09,36.63,34.13,31.70,29.42,27.61,25.77,24.25,23.06,21.87,20.85,20.44,20.50,20.75,21.40,22.11,22.79,23.38,23.88,24.12,24.20,24.22,24.30,24.41,24.55,24.67,24.75,24.78,24.79,24.77,24.73,24.65,24.40,23.64,22.55,21.44,20.46,20.10,20.17,20.51,20.95,20.90,20.88,21.02,21.32,21.42,21.08,20.53,20.06,19.63,19.26,18.89,18.50,18.07,17.68,17.25,16.80,16.37,16.70,17.96,19.41,20.58,21.53,22.26,22.78,23.12,23.43,23.74,24.07,24.40,24.71,24.94,25.06,25.14,25.20,25.20,25.38,25.73,26.25,26.94,27.68,28.39,29.08,29.84,31.12,32.61,34.16,35.71,37.29,38.74,40.86,43.93,48.13,52.38,56.29,60.12,63.96,67.68,71.75,76.05,80.71,86.00,90.76,95.38,99.87,104.27,108.89,114.50,121.13,128.41,135.33,139.20,139.70,137.52,133.69,129.74,126.53,123.62,120.79,117.92,115.53,113.63,112.00,110.22,108.10,105.73,103.18,100.48,97.02,92.75,88.24,83.90,80.40,81.51,85.38,90.35,94.62,98.90,103.59,108.19,112.51,116.98,120.02,121.56,121.92,121.70,120.66,120.00,119.78,119.99,120.46,122.94,126.90,132.02,137.95,141.83,145.21,148.44,151.77,155.37,159.21,163.64,168.36,170.94,171.94,171.25,168.84,164.77,160.78,156.94,153.13,149.14,144.42,139.81,134.52,129.12,126.15,123.11,118.72,112.97,106.16,100.53,97.88,96.66,96.15,97.49,101.44,106.23,111.07,115.25,117.88
21.30,19.09,15.92,11.92,11.07,10.55,10.27,10.22,10.49,10.38,10.10,9.84,9.77,9.77,9.77,9.81,9.96,10.46,11.45,12.14,12.18,11.21,10.35,9.97,9.88,10.10,12.44,16.88,19.76,20.42,20.56,19.89,18.45,16.56,14.65,14.05,14.23,14.71,15.41,17.20,19.05,21.04,23.11,25.12,27.21,29.31,31.61,34.23,36.79,39.59,42.87,46.50,49.87,51.02,51.89,52.66,53.24,52.40,51.57,50.79,49.93,48.07,45.88,43.63,41.36,39.04,36.58,34.07,31.61,29.32,27.45,25.55,23.92,22.62,21.38,20.30,19.77,19.68,19.77,20.44,21.18,21.94,22.66,23.12,23.45,23.61,23.65,23.73,23.88,24.03,24.16,24.25,24.32,24.33,24.29,24.21,24.13,23.92,23.19,22.10,20.94,20.11,19.76,19.73,19.89,20.17,20.03,19.94,20.05,20.41,20.71,20.47,20.00,19.63,19.25,18.92,18.57,18.19,17.80,17.42,16.99,16.55,16.17,16.66,18.13,19.74,20.97,22.06,22.91,23.45,23.75,24.06,24.37,24.72,25.04,25.28,25.51,25.63,25.71,25.78,25.78,25.85,25.96,26.27,26.99,27.68,28.38,29.07,29.83,31.07,32.56,34.11,35.67,37.29,38.59,39.95,42.34,46.63,51.28,55.53,59.68,63.77,67.44,71.54,75.96,80.75,86.01,90.91,95.24,99.38,103.65,108.04,113.49,119.99,126.99,133.02,135.57,134.74,131.85,128.50,125.42,122.41,119.53,116.71,113.56,111.43,109.65,107.99,106.24,104.21,102.00,99.57,96.83,93.21,89.14,84.81,80.73,78.23,81.05,85.80,91.03,95.49,100.15,104.82,108.94,112.37,115.98,117.92,118.38,117.81,117.03,115.92,115.58,115.93,116.78,117.86,121.11,125.78,131.62,138.60,142.54,146.02,149.39,152.75,156.27,160.17,164.73,169.46,171.25,171.58,170.62,168.32,164.56,161.45,157.64,153.33,148.69,143.60,139.13,134.17,129.02,125.90,122.66,117.72,111.34,104.24,99.40,96.45,94.83,94.46,96.81,100.81,105.73,110.81,114.83,116.58
20.89,17.79,13.96,10.51,10.19,9.98,9.87,9.84,9.87,9.79,9.68,9.59,9.51,9.51,9.55,9.64,9.79,9.99,10.35,10.82,11.03,10.31,9.98,9.82,9.76,9.83,10.65,14.03,16.81,18.16,18.79,17.81,16.16,14.15,12.10,11.65,12.26,13.48,15.04,16.93,18.88,20.91,22.99,25.06,27.20,29.38,31.74,34.37,37.03,39.89,43.14,46.65,49.83,50.87,51.67,52.39,52.92,52.18,51.45,50.73,49.86,47.89,45.65,43.32,40.98,38.66,36.25,33.78,31.35,29.06,27.04,25.22,23.64,22.29,21.00,20.05,19.52,19.36,19.45,19.92,20.57,21.26,21.89,22.29,22.67,22.95,23.14,23.22,23.37,23.52,23.67,23.80,23.82,23.78,23.71,23.62,23.49,23.32,22.70,21.70,20.49,19.86,19.53,19.45,19.54,19.57,19.48,19.51,19.69,19.91,20.06,19.86,19.52,19.25,18.92,18.56,18.21,17.87,17.48,17.10,16.70,16.30,15.91,16.60,18.27,20.02,21.29,22.43,23.45,24.09,24.38,24.63,24.94,25.23,25.51,25.79,26.02,26.18,26.29,26.36,26.42,26.44,26.51,26.67,27.00,27.63,28.31,29.01,29.77,31.06,32.56,34.13,35.73,37.29,38.31,39.32,41.30,45.16,49.97,54.40,58.66,62.79,66.76,70.90,75.21,79.69,84.35,90.08,94.56,98.62,102.88,107.22,112.50,118.65,125.15,130.64,131.09,129.34,126.46,123.40,120.36,117.55,114.87,112.20,109.20,106.83,104.90,103.26,101.70,100.06,98.08,95.68,92.81,89.29,85.21,81.10,77.97,78.13,81.63,86.47,91.72,96.50,100.76,104.71,108.38,111.66,113.94,113.92,113.32,112.57,111.80,111.49,111.67,112.83,115.27,118.13,121.90,126.33,131.79,139.55,143.56,147.34,151.13,154.72,157.94,161.95,166.26,170.16,171.51,171.19,169.86,167.69,164.72,161.64,157.54,152.61,147.12,141.54,137.12,132.79,128.35,124.45,120.55,114.97,108.43,102.21,98.16,95.03,93.28,93.36,96.55,100.60,105.59,110.68,114.16,115.50
19.75,16.41,12.70,9.89,9.78,9.70,9.64,9.57,9.50,9.39,9.36,9.34,9.29,9.32,9.36,9.46,9.60,9.68,9.76,10.03,10.23,9.84,9.78,9.71,9.66,9.68,9.83,11.73,13.87,15.67,16.94,15.78,14.00,12.13,10.60,10.35,11.27,12.91,14.92,16.91,18.94,20.97,23.01,25.07,27.20,29.42,31.83,34.46,37.16,40.05,43.28,46.71,49.77,50.71,51.43,52.10,52.64,52.00,51.32,50.59,49.63,47.51,45.20,42.82,40.44,38.10,35.73,33.33,30.96,28.69,26.60,24.86,23.37,22.04,20.73,19.88,19.34,19.09,19.09,19.47,20.00,20.58,21.12,21.53,21.95,22.32,22.60,22.71,22.86,23.01,23.16,23.27,23.24,23.16,23.05,22.94,22.78,22.65,22.25,21.47,20.30,19.76,19.40,19.21,19.17,19.03,18.99,19.08,19.24,19.37,19.42,19.26,18.99,18.76,18.48,18.16,17.84,17.52,17.16,16.78,16.41,16.03,15.62,16.62,18.43,20.24,21.51,22.70,23.54,24.10,24.50,25.01,25.44,25.74,26.00,26.30,26.53,26.73,26.86,26.94,27.02,27.05,27.11,27.19,27.29,27.71,28.32,29.02,29.78,31.09,32.59,34.18,35.74,37.09,38.00,38.90,40.64,44.04,48.55,52.97,57.36,61.68,65.74,69.73,73.67,77.96,83.23,89.43,94.00,97.95,102.10,106.40,111.37,116.86,122.30,126.30,125.74,123.71,120.94,118.00,115.16,112.64,110.12,107.43,104.55,102.14,100.19,98.60,97.16,95.86,94.10,91.76,88.78,85.16,81.49,78.03,75.92,77.99,82.03,86.98,92.23,97.12,101.18,104.54,107.56,110.14,110.97,109.68,108.30,107.28,106.73,107.60,109.02,111.45,115.14,118.91,122.91,127.18,132.43,140.68,145.03,149.13,153.17,156.91,159.78,163.63,167.45,170.42,171.27,170.73,169.13,166.74,164.00,161.11,156.69,151.41,145.98,140.89,136.40,131.98,127.47,122.94,118.20,112.21,105.76,100.07,96.53,93.45,91.88,92.50,95.88,100.23,105.46,110.54,113.48,114.32
18.05,14.97,11.99,9.88,9.73,9.64,9.52,9.38,9.31,9.16,9.10,9.10,9.10,9.18,9.20,9.27,9.41,9.49,9.57,9.64,9.70,9.70,9.70,9.65,9.60,9.61,9.77,9.86,10.94,13.01,15.02,13.79,11.96,10.43,9.90,9.90,11.03,12.85,15.00,17.09,19.17,21.17,23.12,25.13,27.22,29.46,31.89,34.52,37.23,40.11,43.32,46.70,49.71,50.56,51.18,51.80,52.39,51.85,51.19,50.40,49.28,46.96,44.58,42.19,39.79,37.40,35.08,32.76,30.47,28.24,26.16,24.49,23.10,21.85,20.53,19.78,19.22,18.85,18.71,19.09,19.48,19.90,20.36,20.82,21.29,21.71,22.04,22.19,22.35,22.50,22.63,22.69,22.62,22.48,22.33,22.17,22.02,21.93,21.81,21.37,20.30,19.76,19.32,19.00,18.77,18.54,18.56,18.64,18.72,18.80,18.80,18.65,18.42,18.19,17.95,17.72,17.45,17.14,16.84,16.46,16.12,15.76,15.30,16.69,18.63,20.41,21.64,22.88,23.29,23.64,24.23,25.24,25.88,26.25,26.51,26.81,27.04,27.28,27.44,27.51,27.59,27.67,27.75,27.80,27.80,27.88,28.39,29.08,29.84,31.16,32.66,34.24,35.73,36.73,37.66,38.64,40.28,43.18,47.04,51.31,55.86,60.46,64.47,68.15,71.52,75.70,82.50,88.92,93.51,97.36,101.33,105.58,110.14,114.74,118.68,120.46,119.74,117.89,115.31,112.39,109.85,107.70,105.31,102.46,99.68,97.37,95.52,94.02,92.63,91.61,90.08,87.82,84.73,80.87,77.93,75.47,74.42,77.82,82.28,87.36,92.59,97.43,101.45,104.32,106.52,107.99,107.30,105.28,103.30,101.96,101.80,104.13,107.36,111.40,116.05,120.07,124.09,128.26,133.44,141.93,146.85,151.26,155.44,159.27,161.74,165.23,168.38,170.34,170.65,170.24,168.42,165.54,162.60,160.04,155.27,149.83,145.19,141.33,136.67,131.62,126.41,121.39,115.67,109.45,103.28,97.84,94.59,91.74,90.60,91.82,94.91,99.75,105.35,110.40,112.80,113.05
15.59,12.81,10.68,9.82,9.67,9.53,9.42,9.31,9.18,9.03,8.97,8.97,8.97,9.00,9.04,9.12,9.22,9.30,9.37,9.45,9.52,9.57,9.52,9.46,9.41,9.42,9.58,9.71,10.20,11.23,12.94,12.36,11.14,10.07,9.84,9.89,10.78,12.53,14.98,17.36,19.49,21.49,23.43,25.39,27.38,29.52,31.91,34.58,37.24,40.15,43.38,46.76,49.72,50.47,50.99,51.52,52.07,51.48,50.85,49.97,48.63,46.27,43.88,41.48,39.08,36.63,34.31,31.99,29.74,27.61,25.62,24.06,22.74,21.54,20.27,19.61,19.06,18.60,18.26,18.64,19.07,19.51,19.98,20.44,20.95,21.31,21.51,21.62,21.77,21.93,22.07,22.18,22.11,21.85,21.60,21.40,21.25,21.16,21.19,21.03,20.30,19.76,19.36,18.96,18.50,18.17,18.06,18.04,18.08,18.16,18.16,18.04,17.84,17.61,17.38,17.15,16.90,16.64,16.38,16.05,15.73,15.39,14.98,16.82,18.81,20.50,21.63,22.77,22.76,22.69,23.02,24.02,24.90,25.67,26.46,27.32,27.56,27.79,27.97,28.09,28.17,28.24,28.32,28.38,28.38,28.45,28.65,29.12,29.98,31.34,32.81,34.27,35.61,36.66,37.74,38.80,40.42,43.16,46.48,49.94,53.96,58.43,62.15,65.36,69.25,74.58,82.17,88.02,92.36,96.03,99.74,104.04,108.05,111.60,114.18,114.62,113.52,111.84,109.80,107.56,105.66,103.75,101.41,98.55,95.67,92.96,90.70,89.07,88.27,87.17,85.68,83.56,80.69,77.37,74.63,73.43,74.25,77.45,81.76,87.03,92.32,96.53,100.20,102.51,103.98,104.73,103.98,102.05,100.16,99.21,100.24,103.89,107.82,112.16,116.95,121.02,124.81,129.60,135.80,143.36,148.32,153.04,157.39,160.93,163.55,166.65,169.03,169.97,168.99,167.59,165.60,163.15,160.61,157.06,152.57,148.07,144.32,140.81,135.53,130.07,124.94,119.92,113.98,107.31,101.03,96.56,93.06,90.29,89.15,90.32,94.65,100.06,105.54,110.10,112.29,112.02
13.06,11.10,9.86,9.70,9.57,9.42,9.29,9.18,9.03,8.89,8.84,8.84,8.82,8.82,8.87,8.95,9.03,9.11,9.18,9.26,9.33,9.39,9.36,9.29,9.24,9.26,9.39,9.54,9.69,10.06,11.21,11.08,10.45,9.85,9.77,9.85,10.51,12.16,14.78,17.40,19.65,21.70,23.63,25.54,27.47,29.54,31.90,34.62,37.27,40.20,43.42,46.76,49.72,50.40,50.86,51.31,51.72,51.15,50.56,49.56,47.91,45.56,43.17,40.78,38.37,35.89,33.55,31.24,29.04,27.00,25.09,23.57,22.29,21.13,19.98,19.38,18.83,18.32,17.87,18.27,18.72,19.18,19.62,20.08,20.56,20.86,21.00,21.07,21.20,21.34,21.49,21.67,21.62,21.29,20.94,20.66,20.49,20.44,20.55,20.57,20.16,19.62,19.19,18.72,18.14,17.79,17.61,17.52,17.51,17.52,17.52,17.45,17.29,17.04,16.80,16.57,16.34,16.11,15.88,15.60,15.31,15.09,15.02,17.06,18.99,20.53,21.55,22.48,22.17,21.80,21.87,22.79,23.85,25.00,26.24,27.51,27.98,28.27,28.49,28.66,28.74,28.84,28.91,28.95,28.95,29.01,29.01,29.30,30.16,31.81,33.58,34.97,35.98,36.91,38.00,39.14,40.77,43.30,46.12,48.97,52.42,56.45,59.83,63.05,67.51,73.57,81.32,86.52,90.68,94.36,98.04,102.46,105.91,108.64,110.30,109.89,108.27,106.42,104.60,103.04,101.75,100.14,97.93,95.08,91.88,88.34,85.67,84.17,83.83,82.84,81.50,79.54,76.85,74.00,71.91,71.92,74.05,77.16,81.36,86.74,92.01,95.73,98.86,100.62,101.47,101.61,100.66,98.94,97.38,97.00,99.28,103.76,108.25,112.89,117.74,121.88,125.57,131.04,138.24,144.72,149.85,154.87,159.26,162.25,164.43,166.63,167.97,167.93,166.27,164.23,162.22,160.20,157.92,154.05,150.02,146.24,142.93,139.07,133.56,128.15,123.25,118.08,111.88,105.14,99.15,95.36,91.82,89.04,87.84,88.89,93.46,99.52,105.08,109.33,111.61,111.23
10.46,9.94,9.66,9.52,9.43,9.29,9.14,8.99,8.84,8.75,8.72,8.69,8.62,8.62,8.68,8.76,8.84,8.91,8.99,9.07,9.13,9.13,9.20,9.16,9.12,9.12,9.21,9.35,9.50,9.68,9.95,10.01,9.92,9.78,9.71,9.79,10.23,11.71,14.36,17.12,19.61,21.77,23.68,25.54,27.47,29.51,31.86,34.62,37.32,40.27,43.44,46.71,49.71,50.36,50.79,51.17,51.34,50.86,50.34,49.15,47.10,44.84,42.47,40.08,37.66,35.19,32.80,30.51,28.37,26.43,24.57,23.02,21.71,20.59,19.64,19.06,18.52,18.00,17.55,18.01,18.47,18.90,19.30,19.77,20.12,20.35,20.49,20.56,20.65,20.73,20.89,21.17,21.16,20.80,20.35,19.95,19.72,19.76,19.88,19.96,19.84,19.30,18.77,18.21,17.64,17.39,17.22,17.11,17.03,16.89,16.88,16.87,16.76,16.46,16.23,16.00,15.77,15.53,15.30,15.06,14.83,14.86,15.53,17.48,19.17,20.49,21.38,21.97,21.51,20.96,20.80,21.52,22.71,24.20,25.80,27.29,28.30,28.72,28.98,29.24,29.32,29.46,29.52,29.53,29.53,29.53,29.48,29.67,30.42,32.66,35.14,36.55,36.99,37.58,38.50,39.71,41.39,43.66,46.04,48.52,51.35,54.53,57.52,61.38,66.46,72.68,79.80,84.26,88.33,92.24,96.21,100.82,103.72,105.91,107.25,106.58,104.27,101.80,99.84,98.91,98.22,96.97,95.00,92.17,88.39,83.44,80.40,79.33,79.29,78.64,77.61,75.86,73.24,70.80,69.97,71.08,73.80,76.96,81.13,86.48,91.66,95.06,97.40,98.63,99.02,98.67,97.33,96.02,95.06,95.50,99.11,103.77,108.65,113.57,118.39,122.62,126.37,132.64,140.79,145.98,151.45,156.78,161.01,163.11,164.11,164.77,164.69,163.73,162.17,159.93,158.11,156.52,154.34,150.99,147.64,144.31,140.85,135.76,130.53,125.76,121.26,115.75,109.25,102.97,97.72,94.28,90.93,88.07,86.71,87.54,91.07,97.88,103.80,107.98,110.70,110.76
9.84,9.63,9.49,9.38,9.26,9.11,8.95,8.81,8.70,8.62,8.59,8.58,8.54,8.50,8.51,8.57,8.65,8.72,8.80,8.85,8.89,8.93,9.01,8.98,8.95,8.99,9.03,9.16,9.31,9.47,9.62,9.70,9.71,9.68,9.65,9.72,9.98,11.30,13.91,16.69,19.29,21.47,23.35,25.20,27.17,29.20,31.53,34.35,37.14,40.14,43.33,46.61,49.71,50.31,50.70,50.97,50.90,50.53,49.75,48.32,46.23,44.07,41.75,39.35,36.92,34.49,32.05,29.83,27.80,25.91,24.06,22.44,21.10,20.05,19.30,18.70,18.11,17.59,17.23,17.69,18.12,18.53,18.91,19.24,19.56,19.83,20.02,20.05,20.05,20.15,20.38,20.71,20.71,20.35,19.91,19.51,19.19,19.15,19.24,19.35,19.35,18.81,18.27,17.72,17.19,17.00,16.87,16.76,16.63,16.47,16.39,16.33,16.21,15.94,15.71,15.51,15.32,15.13,14.89,14.70,14.51,14.74,15.99,17.79,19.32,20.48,21.21,21.36,20.82,20.31,20.17,20.65,22.08,23.65,25.24,26.78,28.16,28.93,29.38,29.76,30.48,30.89,31.07,31.16,31.38,31.21,31.04,31.37,32.58,35.03,36.95,37.98,38.32,38.73,39.50,40.84,42.54,44.37,46.60,48.89,51.41,54.20,56.96,60.36,64.84,70.27,76.22,80.53,84.58,89.03,94.19,98.73,101.72,103.56,104.23,103.23,100.60,98.03,96.23,95.77,95.28,94.21,92.18,88.91,84.02,79.78,76.65,74.96,75.08,75.03,74.42,72.98,70.68,69.06,69.48,71.52,74.64,77.72,81.64,86.65,91.36,94.13,96.16,96.72,96.58,96.02,94.28,92.90,92.77,94.36,98.15,103.17,108.26,113.44,118.65,122.98,127.03,133.37,141.38,146.57,151.87,156.82,160.47,161.76,162.05,161.86,160.79,158.59,154.85,152.66,151.55,150.99,150.16,147.43,144.87,141.85,137.73,132.30,127.72,123.45,118.94,113.03,106.46,101.00,96.76,93.53,90.29,87.41,85.70,85.88,89.40,96.19,101.96,105.99,108.85,109.63
9.57,9.45,9.32,9.23,9.07,8.93,8.78,8.64,8.57,8.50,8.47,8.46,8.46,8.38,8.36,8.39,8.45,8.53,8.59,8.63,8.66,8.74,8.82,8.80,8.79,8.84,8.86,8.97,9.12,9.27,9.43,9.51,9.54,9.55,9.56,9.66,9.80,10.93,13.35,16.15,18.83,21.07,22.98,24.86,26.85,28.85,31.18,34.02,36.91,39.95,43.13,46.39,49.51,50.19,50.55,50.70,50.47,49.97,48.88,47.26,45.23,43.17,40.92,38.55,36.12,33.72,31.30,29.18,27.26,25.40,23.57,21.87,20.53,19.58,18.97,18.35,17.74,17.22,16.91,17.34,17.74,18.13,18.50,18.76,19.07,19.37,19.56,19.56,19.52,19.66,19.93,20.26,20.25,19.91,19.51,19.13,18.74,18.58,18.61,18.73,18.82,18.30,17.76,17.23,16.77,16.63,16.53,16.40,16.25,16.09,15.94,15.82,15.69,15.49,15.26,15.08,14.92,14.74,14.53,14.37,14.33,14.82,16.40,18.07,19.46,20.46,20.96,20.73,20.16,19.77,19.72,20.04,21.60,23.19,24.75,26.31,27.92,29.05,29.85,30.57,31.85,32.57,32.93,33.16,33.59,33.43,33.28,33.80,35.35,37.55,38.82,39.50,39.85,40.25,41.00,42.32,43.90,45.38,47.36,49.52,51.87,54.40,56.98,59.95,63.72,68.15,72.83,77.03,80.97,85.78,91.90,96.40,99.53,101.12,101.13,99.68,96.89,94.29,92.60,92.36,92.02,90.93,88.70,85.12,79.99,76.57,73.43,71.22,71.46,71.78,71.50,70.42,68.63,67.95,69.33,72.11,75.65,78.79,82.57,87.14,91.21,93.35,94.77,94.76,94.22,93.45,91.47,89.91,90.45,93.05,96.92,102.17,107.45,112.94,118.65,123.23,127.63,133.94,141.56,146.68,151.62,155.97,158.91,159.60,159.33,158.39,156.32,152.83,147.55,145.42,144.73,144.82,145.05,143.16,141.32,138.60,134.20,129.04,125.04,121.01,116.28,110.13,103.78,99.15,95.81,92.81,89.67,86.73,84.56,84.00,87.69,94.48,100.18,104.08,106.84,108.30
9.37,9.29,9.18,9.03,8.88,8.78,8.65,8.52,8.44,8.42,8.38,8.33,8.33,8.25,8.23,8.24,8.26,8.34,8.36,8.40,8.47,8.55,8.63,8.64,8.64,8.66,8.72,8.81,8.93,9.08,9.24,9.32,9.35,9.37,9.44,9.58,9.78,10.65,12.53,15.37,18.14,20.54,22.62,24.60,26.55,28.53,30.84,33.65,36.64,39.65,42.76,45.91,48.88,49.91,50.27,50.26,50.08,48.93,47.48,45.81,43.96,42.01,39.85,37.58,35.22,32.83,30.55,28.58,26.75,24.90,23.11,21.35,20.05,19.26,18.65,18.03,17.45,16.95,16.59,16.92,17.29,17.68,18.06,18.42,18.80,19.03,19.12,19.12,19.17,19.34,19.58,19.81,19.75,19.47,19.15,18.81,18.43,18.09,18.00,18.11,18.25,17.77,17.25,16.76,16.39,16.30,16.17,16.02,15.86,15.71,15.55,15.41,15.28,15.17,14.94,14.76,14.58,14.37,14.20,14.05,14.39,15.29,16.72,18.29,19.59,20.38,20.54,20.07,19.62,19.43,19.54,19.91,21.29,22.84,24.44,26.05,27.61,29.07,30.55,32.06,33.49,34.54,35.18,35.63,36.21,36.49,36.72,37.44,38.87,39.94,40.71,41.28,41.77,42.47,43.46,44.44,45.55,46.95,48.34,50.46,52.84,55.27,57.70,60.69,63.92,67.26,70.55,74.53,78.18,82.84,89.10,93.64,96.87,98.30,97.85,95.71,92.96,90.33,88.49,88.02,87.83,86.29,83.65,80.25,77.04,73.92,70.90,68.80,69.03,69.16,68.95,68.32,67.39,67.80,69.47,72.60,76.70,80.22,84.22,88.19,91.36,92.98,92.97,92.66,92.03,90.97,89.09,87.30,88.07,91.21,95.38,100.49,105.96,111.88,118.19,123.36,128.16,134.39,141.49,145.92,150.25,153.71,155.85,156.33,155.66,154.00,150.76,145.96,141.38,139.26,138.18,137.79,138.02,137.46,136.12,133.70,130.09,126.27,122.59,118.24,112.97,106.92,101.38,97.53,94.75,92.04,89.00,85.87,83.11,81.73,85.61,92.77,98.73,102.59,104.76,106.71
9.18,9.11,9.00,8.85,8.73,8.61,8.50,8.39,8.31,8.31,8.28,8.24,8.20,8.13,8.11,8.09,8.06,8.11,8.14,8.20,8.28,8.36,8.43,8.46,8.47,8.51,8.59,8.67,8.76,8.89,9.04,9.16,9.23,9.28,9.36,9.51,9.72,10.23,11.36,14.14,16.96,19.57,21.91,23.92,25.89,27.96,30.34,33.18,36.26,39.29,42.24,45.08,47.80,49.16,49.59,49.34,48.70,47.38,45.85,44.17,42.41,40.52,38.40,36.17,33.88,31.55,29.59,27.83,26.15,24.43,22.62,20.92,19.72,19.05,18.46,17.82,17.19,16.64,16.27,16.61,16.99,17.38,17.76,18.15,18.50,18.67,18.67,18.67,18.81,19.02,19.23,19.41,19.33,19.08,18.77,18.45,18.10,17.72,17.52,17.51,17.62,17.23,16.74,16.31,16.05,15.94,15.79,15.63,15.48,15.33,15.14,14.99,14.89,14.81,14.65,14.46,14.25,14.04,13.88,13.92,14.60,15.75,17.04,18.36,19.42,20.00,20.03,19.63,19.22,19.12,19.36,19.78,21.11,22.70,24.38,26.04,27.65,29.30,31.06,32.91,34.60,36.14,37.30,38.07,38.50,38.74,39.11,39.77,40.79,41.67,42.49,43.21,43.90,44.79,45.38,45.94,46.75,48.06,49.11,51.15,53.52,55.92,58.31,61.18,64.15,67.11,70.01,73.57,76.95,81.27,86.98,90.92,93.78,94.88,94.06,91.48,88.58,85.73,83.55,82.63,82.15,80.90,78.95,76.45,73.93,71.43,68.99,67.24,67.22,67.05,66.75,66.44,66.32,67.64,69.83,73.43,77.91,81.32,85.19,88.39,90.59,91.61,91.11,90.51,89.59,88.26,86.52,84.71,85.49,88.87,93.78,99.12,104.67,110.72,117.35,123.08,128.24,134.16,140.46,144.64,148.28,150.96,152.58,153.11,151.82,149.47,145.84,141.26,137.62,135.16,133.33,132.13,131.82,131.62,130.78,129.13,126.58,123.32,119.72,115.38,110.11,103.76,99.52,96.37,93.77,91.13,87.83,84.41,81.53,80.11,83.10,90.87,97.56,101.81,103.74,105.37
9.00,8.92,8.82,8.67,8.58,8.45,8.34,8.26,8.19,8.18,8.17,8.14,8.08,8.00,7.97,7.94,7.88,7.88,7.94,8.01,8.09,8.16,8.24,8.28,8.32,8.40,8.48,8.56,8.64,8.74,8.89,9.04,9.15,9.22,9.30,9.46,9.66,9.82,10.26,12.80,15.62,18.44,21.04,23.10,25.13,27.31,29.77,32.62,35.80,38.88,41.66,44.15,46.56,48.20,48.66,48.12,46.94,45.63,44.11,42.45,40.71,38.84,36.73,34.54,32.33,30.19,28.57,27.02,25.48,23.92,22.10,20.53,19.46,18.85,18.29,17.61,16.91,16.32,15.96,16.35,16.73,17.12,17.51,17.89,18.19,18.29,18.24,18.24,18.47,18.70,18.90,19.04,18.96,18.70,18.39,18.08,17.77,17.40,17.10,16.94,17.00,16.70,16.24,15.87,15.71,15.56,15.41,15.25,15.09,14.93,14.71,14.58,14.51,14.43,14.35,14.17,13.95,13.73,13.56,13.83,14.76,16.06,17.22,18.27,19.05,19.46,19.45,19.25,18.85,18.82,19.19,19.67,21.00,22.64,24.39,26.09,27.80,29.56,31.46,33.48,35.44,37.45,39.09,40.14,40.40,40.52,40.95,41.51,42.10,43.01,43.87,44.67,45.44,46.30,46.33,46.50,47.12,48.40,49.41,51.48,53.91,56.34,58.79,61.50,64.29,67.11,69.93,73.05,76.22,80.13,84.97,88.20,90.58,91.31,90.18,87.37,84.29,81.14,78.54,77.09,76.23,75.47,74.46,73.00,70.84,68.95,67.20,65.90,65.60,65.17,64.85,64.92,65.67,67.66,70.41,74.48,79.22,82.31,85.69,87.99,89.25,89.72,89.06,88.20,86.99,85.44,83.82,82.04,82.92,86.65,92.39,98.04,103.61,109.59,116.26,122.47,127.91,133.49,139.03,143.15,146.10,148.08,149.23,149.70,147.82,144.93,141.33,137.49,134.69,131.70,129.02,127.03,126.18,126.01,125.64,124.79,123.21,120.21,116.63,112.39,107.30,100.89,97.93,95.37,92.79,90.13,86.47,82.82,79.97,78.68,80.74,88.93,96.34,101.13,102.98,104.09
8.86,8.80,8.69,8.54,8.40,8.30,8.21,8.15,8.13,8.07,8.01,7.97,7.95,7.87,7.81,7.77,7.75,7.75,7.77,7.82,7.90,7.97,8.05,8.15,8.25,8.34,8.47,8.56,8.67,8.79,8.89,9.04,9.15,9.22,9.30,9.46,9.63,9.76,10.06,11.66,14.38,17.25,19.97,22.32,24.51,26.73,29.12,31.80,35.08,38.33,41.09,43.31,45.38,47.08,47.24,46.30,45.02,43.77,42.33,40.67,38.78,36.81,34.73,32.61,30.62,29.01,27.56,26.12,24.65,23.10,21.48,20.19,19.25,18.57,17.92,17.23,16.53,15.97,15.71,16.09,16.48,16.86,17.25,17.64,17.81,17.86,17.86,17.92,18.15,18.38,18.58,18.72,18.64,18.34,18.00,17.69,17.38,17.06,16.72,16.46,16.42,16.17,15.80,15.49,15.33,15.18,15.02,14.84,14.64,14.48,14.31,14.20,14.12,14.05,13.97,13.86,13.69,13.46,13.25,13.55,14.42,15.62,16.77,17.62,18.24,18.62,18.77,18.71,18.46,18.58,19.08,19.66,21.00,22.64,24.39,26.10,27.85,29.63,31.59,33.76,35.86,37.99,39.58,40.57,40.97,41.34,41.95,42.62,43.19,43.56,43.59,43.66,43.78,43.80,43.64,43.62,44.24,45.89,47.78,50.56,53.40,56.01,58.81,61.39,63.98,66.59,69.16,72.09,75.23,78.66,82.34,85.47,87.56,87.98,86.73,84.22,81.06,77.60,74.54,72.61,71.71,71.12,70.38,69.31,68.09,66.38,64.95,64.06,63.81,63.57,63.75,64.73,66.68,68.57,71.70,76.02,80.66,83.30,85.07,86.19,86.83,87.10,86.19,85.22,83.99,82.44,80.88,78.93,80.67,85.78,92.12,97.83,103.28,108.78,114.61,121.02,126.47,131.90,137.27,141.54,143.96,145.38,145.85,145.35,143.38,140.68,137.63,134.54,131.64,127.80,124.46,122.28,121.82,121.76,121.62,120.99,119.51,116.56,113.22,108.99,104.01,99.38,96.76,94.31,91.74,88.98,85.12,81.70,78.80,77.05,79.85,87.09,94.37,99.78,101.57,102.69
8.68,8.63,8.52,8.37,8.21,8.15,8.08,8.02,8.02,7.95,7.87,7.82,7.82,7.74,7.66,7.62,7.62,7.62,7.65,7.70,7.79,7.90,7.98,8.10,8.24,8.35,8.47,8.59,8.70,8.82,8.93,9.05,9.17,9.26,9.34,9.50,9.63,9.73,9.97,11.11,13.75,16.65,19.44,21.94,24.25,26.49,28.73,31.12,34.32,37.61,40.39,42.55,44.42,45.92,45.85,44.73,43.42,42.15,40.56,38.73,36.74,34.73,32.68,30.78,29.11,27.78,26.47,25.13,23.72,22.21,20.78,19.74,18.91,18.19,17.50,16.80,16.11,15.57,15.41,15.83,16.20,16.57,16.96,17.34,17.42,17.43,17.46,17.60,17.83,18.06,18.26,18.40,18.29,17.99,17.64,17.31,17.00,16.69,16.35,16.05,15.85,15.65,15.36,15.10,14.94,14.76,14.60,14.42,14.22,14.04,13.91,13.82,13.74,13.66,13.58,13.53,13.42,13.25,13.05,13.39,14.14,15.14,16.21,16.89,17.40,17.76,18.01,18.10,18.17,18.50,19.08,19.70,21.04,22.64,24.36,26.10,27.84,29.61,31.60,33.83,35.96,38.07,39.65,40.66,41.12,41.49,42.02,42.48,42.71,42.74,42.41,42.09,41.83,41.46,41.17,41.06,41.51,42.90,45.53,48.98,52.32,55.24,58.33,60.99,63.38,65.57,67.59,70.23,72.91,75.96,79.50,82.74,84.62,84.89,83.60,81.09,77.68,74.13,71.07,69.07,68.12,67.52,66.76,65.67,64.67,63.51,62.68,62.25,62.17,62.34,63.39,65.25,67.70,70.04,73.46,77.38,81.04,82.85,83.57,83.98,84.20,84.28,83.31,82.02,80.37,78.45,76.79,76.84,80.20,86.05,92.26,97.72,102.79,107.76,112.94,119.28,124.75,130.01,135.08,139.29,141.33,142.11,141.77,140.41,138.14,135.74,133.28,130.71,127.56,123.68,120.38,118.18,117.48,117.37,117.01,116.11,114.48,111.90,108.79,105.07,101.10,98.00,95.64,93.25,90.62,87.56,83.68,80.24,77.60,76.47,79.68,85.72,91.90,97.04,100.08,101.27
8.49,8.44,8.33,8.18,8.03,8.00,7.96,7.89,7.89,7.82,7.75,7.69,7.69,7.61,7.54,7.49,7.49,7.50,7.56,7.64,7.74,7.90,7.98,8.10,8.26,8.41,8.48,8.62,8.74,8.83,8.99,9.07,9.20,9.33,9.41,9.56,9.66,9.74,9.95,10.98,13.55,16.44,19.27,21.82,24.22,26.45,28.51,30.53,33.54,36.79,39.61,41.83,43.59,44.73,44.49,43.34,42.03,40.70,38.81,36.71,34.64,32.63,30.64,29.02,27.73,26.49,25.33,24.07,22.71,21.26,20.04,19.24,18.51,17.75,17.05,16.36,15.66,15.16,15.10,15.56,15.91,16.25,16.64,17.02,17.02,16.98,17.04,17.28,17.51,17.74,17.94,18.08,17.92,17.64,17.30,16.93,16.62,16.31,16.00,15.67,15.29,15.13,14.92,14.72,14.55,14.32,14.15,14.00,13.83,13.60,13.51,13.43,13.36,13.28,13.20,13.18,13.15,13.06,12.91,13.30,13.90,14.66,15.59,16.13,16.57,16.93,17.24,17.47,17.96,18.53,19.15,19.76,21.10,22.64,24.32,26.09,27.78,29.54,31.53,33.74,35.82,37.83,39.42,40.49,40.96,41.19,41.46,41.50,41.19,41.03,40.61,40.14,39.68,39.23,38.85,38.72,38.95,39.73,42.96,47.01,50.87,54.21,57.53,60.36,62.53,64.15,65.45,67.73,69.73,72.48,76.51,79.99,81.73,81.94,80.68,77.96,74.20,70.75,67.99,66.16,65.14,64.41,63.45,62.10,60.88,60.52,60.43,60.48,60.66,61.39,63.53,66.20,68.74,71.82,75.42,78.52,80.66,81.41,81.47,81.47,81.44,81.30,80.33,78.59,76.33,73.88,72.10,75.45,80.85,87.01,92.65,97.65,102.18,106.59,111.27,117.36,122.84,127.93,132.60,136.57,138.30,138.39,137.17,135.03,132.31,130.30,128.46,126.28,122.85,119.48,116.65,114.52,113.17,112.84,111.97,110.51,108.59,106.62,103.77,100.92,98.49,96.71,94.53,92.19,89.45,85.96,82.18,78.57,76.40,76.56,79.95,84.67,89.14,93.41,98.36,99.73
8.32,8.25,8.14,8.00,7.94,7.89,7.83,7.77,7.77,7.70,7.62,7.57,7.56,7.49,7.41,7.37,7.37,7.43,7.50,7.61,7.74,7.90,7.98,8.10,8.26,8.41,8.48,8.62,8.76,8.89,8.99,9.12,9.23,9.34,9.47,9.57,9.69,9.80,10.09,11.66,13.98,16.67,19.47,22.02,24.22,26.25,28.18,30.14,33.05,36.08,38.88,41.20,42.72,43.57,43.33,42.34,41.06,39.23,37.03,34.75,32.60,30.70,29.10,27.71,26.44,25.15,24.04,22.83,21.55,20.27,19.45,18.76,18.08,17.37,16.67,15.98,15.28,14.81,14.84,15.25,15.63,16.00,16.36,16.60,16.61,16.63,16.72,16.96,17.19,17.42,17.62,17.75,17.55,17.26,16.94,16.61,16.30,15.95,15.62,15.30,14.96,14.71,14.47,14.27,14.11,13.93,13.73,13.55,13.39,13.21,13.13,13.05,12.97,12.90,12.82,12.80,12.76,12.70,12.70,13.11,13.71,14.46,15.33,15.87,16.45,16.99,17.43,17.72,18.21,18.74,19.27,19.83,21.07,22.61,24.28,25.96,27.60,29.27,31.16,33.26,35.19,37.01,38.41,39.42,40.19,40.38,40.18,39.70,39.06,38.64,38.02,37.41,36.97,36.97,36.85,36.90,37.53,39.14,42.02,45.84,49.73,53.31,56.63,58.95,60.50,61.52,62.32,64.16,66.30,69.25,73.19,76.72,78.71,79.01,77.61,74.60,71.13,68.21,65.81,63.78,62.41,61.53,60.69,59.72,58.80,58.65,58.78,59.15,59.82,61.67,64.20,67.02,69.80,72.58,75.09,76.99,78.15,78.57,78.51,78.47,78.22,77.43,75.37,73.39,71.71,70.56,70.51,74.99,80.94,87.20,92.84,96.93,101.06,105.32,109.83,115.47,120.86,125.68,129.71,132.70,133.62,132.95,131.00,128.19,125.07,123.43,122.33,121.08,118.78,116.30,113.76,111.28,108.98,107.44,105.99,104.46,102.79,101.81,100.41,98.75,96.98,95.36,93.36,90.99,88.06,84.43,80.75,77.24,75.54,76.54,79.78,83.61,86.99,89.95,93.07,95.69
8.16,8.07,7.96,7.84,7.84,7.78,7.70,7.63,7.61,7.56,7.49,7.43,7.41,7.35,7.28,7.25,7.28,7.39,7.47,7.59,7.74,7.90,7.98,8.10,8.26,8.41,8.48,8.62,8.78,8.92,8.99,9.14,9.25,9.36,9.53,9.61,9.73,9.93,10.46,12.41,14.60,17.07,19.66,22.09,24.12,26.01,27.85,29.78,32.57,35.43,38.13,40.42,41.81,42.37,42.10,41.18,39.85,37.62,35.22,32.87,30.74,29.03,27.67,26.40,25.13,23.84,22.73,21.60,20.49,19.48,18.86,18.26,17.63,16.95,16.26,15.56,14.87,14.43,14.58,14.97,15.36,15.74,16.09,16.20,16.20,16.25,16.40,16.64,16.87,17.08,17.28,17.43,17.20,16.89,16.57,16.26,15.95,15.59,15.26,14.95,14.65,14.34,14.07,13.84,13.67,13.51,13.31,13.12,12.95,12.82,12.74,12.67,12.59,12.51,12.43,12.42,12.40,12.39,12.47,13.01,13.82,14.76,15.66,16.22,16.88,17.47,17.90,18.18,18.60,19.05,19.56,20.31,21.72,22.99,24.18,25.40,27.10,28.75,30.58,32.57,34.33,35.79,36.94,37.85,38.63,38.63,38.08,37.25,36.40,35.74,35.15,34.61,34.27,34.50,34.76,35.45,36.76,38.83,41.53,45.10,48.85,52.36,55.33,57.10,58.21,58.91,59.50,61.09,63.50,66.79,70.81,74.24,75.98,76.04,74.51,71.63,68.38,65.63,63.37,61.54,60.21,59.27,58.50,57.74,56.92,57.24,57.86,58.67,59.71,62.11,64.81,67.60,70.24,72.35,73.83,74.82,75.37,75.53,75.38,75.21,74.69,73.42,71.33,69.50,68.41,68.40,69.86,74.85,80.72,86.69,92.36,96.02,99.87,103.95,108.29,113.41,118.90,123.61,127.05,128.96,128.96,127.43,125.00,122.46,119.75,118.50,117.81,117.01,115.29,113.12,110.50,107.59,104.67,102.73,101.36,100.19,98.97,98.56,97.90,96.89,95.53,94.01,92.16,89.69,86.59,82.93,79.16,75.65,74.39,76.17,79.20,82.28,84.89,87.06,89.15,92.04
8.04,7.91,7.78,7.71,7.71,7.65,7.57,7.50,7.42,7.41,7.36,7.29,7.22,7.21,7.15,7.14,7.23,7.38,7.47,7.59,7.74,7.90,7.98,8.10,8.26,8.41,8.48,8.62,8.78,8.92,8.99,9.14,9.25,9.37,9.60,9.67,9.75,10.12,11.06,13.21,15.43,17.65,19.85,22.03,23.91,25.72,27.53,29.45,32.09,34.84,37.37,39.46,40.85,41.15,40.79,39.85,38.37,35.85,33.37,31.06,29.06,27.64,26.37,25.09,23.80,22.56,21.40,20.39,19.55,18.90,18.29,17.72,17.14,16.51,15.81,15.11,14.42,14.03,14.33,14.71,15.10,15.49,15.82,15.83,15.77,15.86,16.09,16.32,16.55,16.73,16.92,17.11,16.88,16.53,16.19,15.88,15.57,15.25,14.94,14.63,14.33,14.02,13.71,13.44,13.22,13.07,12.91,12.71,12.52,12.44,12.36,12.28,12.21,12.13,12.05,12.03,12.07,12.14,12.21,13.02,14.27,15.62,16.62,17.23,17.90,18.41,18.66,18.90,19.14,19.47,20.04,21.24,23.09,23.83,24.00,24.39,26.23,27.96,29.77,31.65,33.21,34.12,34.97,35.72,36.21,35.86,35.06,34.10,33.18,32.28,31.95,31.73,31.59,31.82,32.58,34.41,36.72,38.83,41.53,44.84,48.24,51.34,53.57,54.78,55.63,56.32,57.01,58.54,61.39,65.19,69.44,72.63,73.56,73.01,71.38,69.09,65.98,62.98,60.65,59.45,58.56,57.70,56.92,56.19,55.27,56.34,57.74,59.12,60.41,62.71,65.35,67.91,70.01,71.03,71.55,71.95,72.27,72.28,72.08,71.67,70.81,69.24,68.29,67.05,66.57,67.51,70.25,75.04,80.16,85.43,91.14,94.90,98.62,102.49,106.64,111.17,116.97,121.76,124.64,125.36,124.31,121.80,119.16,117.96,116.53,115.69,115.04,114.19,112.42,109.95,106.85,103.43,100.21,98.78,98.22,97.90,97.32,97.00,96.33,95.36,94.13,92.66,90.91,88.30,85.02,81.45,77.38,73.80,72.92,75.43,78.16,80.66,82.83,84.78,86.73,88.80
7.94,7.75,7.59,7.53,7.53,7.46,7.39,7.32,7.29,7.24,7.18,7.10,7.03,7.03,7.03,7.10,7.22,7.33,7.45,7.59,7.73,7.84,7.96,8.10,8.24,8.35,8.48,8.62,8.78,8.92,8.99,9.14,9.28,9.40,9.55,9.67,9.79,10.26,11.34,13.46,15.60,17.74,19.82,21.80,23.62,25.43,27.25,29.10,31.41,33.84,36.04,37.83,39.04,39.33,39.04,38.18,36.74,34.55,32.09,29.79,27.89,26.27,24.86,23.60,22.41,21.22,20.32,19.56,18.90,18.33,17.71,17.15,16.57,15.95,15.30,14.65,14.00,13.66,14.01,14.40,14.79,15.13,15.39,15.39,15.37,15.48,15.71,15.94,16.17,16.38,16.59,16.79,16.51,16.19,15.86,15.55,15.24,14.93,14.62,14.32,14.01,13.70,13.36,13.05,12.83,12.63,12.46,12.29,12.13,12.05,11.98,11.90,11.82,11.75,11.76,11.80,11.86,11.97,12.23,13.51,15.01,16.45,17.63,18.25,18.80,19.19,19.46,19.96,20.50,21.01,21.67,22.95,24.51,25.47,25.93,26.10,26.69,27.06,28.21,30.16,31.35,32.13,32.82,33.38,33.67,32.93,32.13,31.42,30.90,30.38,30.20,30.02,29.82,29.74,31.49,33.83,36.35,38.77,41.52,44.44,47.19,49.53,51.10,52.14,53.05,54.02,55.21,57.37,60.63,64.41,68.11,70.83,71.38,70.49,68.45,65.49,62.63,60.32,58.64,57.59,57.01,56.29,55.52,54.84,54.72,56.52,58.28,59.86,61.63,63.85,65.25,66.07,66.59,67.29,67.53,67.95,68.53,68.67,68.51,67.96,66.97,65.56,65.12,65.13,66.05,68.04,70.72,74.35,78.40,83.25,89.73,93.87,97.78,101.74,105.89,110.15,115.50,119.57,121.50,121.22,119.59,117.13,115.01,114.55,113.68,112.97,112.19,111.11,109.06,106.07,102.81,99.78,97.62,96.32,96.12,96.16,95.71,95.36,94.78,93.93,92.79,91.32,89.29,86.65,83.49,79.92,75.42,72.24,71.73,74.09,76.44,78.63,80.55,82.30,84.19,86.45
7.78,7.56,7.40,7.33,7.31,7.26,7.19,7.13,7.11,7.06,6.99,6.91,6.83,6.87,6.95,7.06,7.19,7.29,7.43,7.58,7.70,7.80,7.95,8.09,8.21,8.31,8.47,8.61,8.76,8.89,8.97,9.12,9.27,9.40,9.48,9.64,9.78,10.21,11.20,13.16,15.17,17.19,19.19,21.15,22.93,24.72,26.52,28.33,30.52,32.66,34.57,36.11,37.16,37.45,37.23,36.47,35.17,33.27,30.96,28.75,26.88,25.07,23.47,22.10,20.92,19.81,19.26,18.79,18.30,17.75,17.14,16.56,15.99,15.38,14.76,14.16,13.59,13.33,13.72,14.10,14.49,14.80,14.96,14.95,14.97,15.11,15.35,15.58,15.81,16.04,16.27,16.47,16.16,15.85,15.54,15.23,14.92,14.61,14.30,14.00,13.69,13.38,13.01,12.68,12.42,12.20,12.02,11.86,11.73,11.67,11.59,11.53,11.47,11.44,11.52,11.61,11.68,11.81,12.21,14.01,15.79,17.34,18.63,19.42,19.99,20.41,20.80,21.50,22.20,22.81,23.51,24.81,26.14,27.28,28.02,28.16,27.90,27.18,27.38,28.66,29.28,30.13,30.78,31.16,31.33,30.52,29.86,29.43,29.21,28.98,28.86,28.72,28.58,28.60,30.90,33.47,36.09,38.69,41.17,43.64,45.75,47.30,48.26,49.25,50.39,51.84,53.78,56.59,60.02,63.53,66.64,68.95,69.22,67.94,65.40,62.10,59.61,57.92,56.74,55.74,55.37,54.79,54.06,53.49,54.26,56.59,58.70,60.50,62.50,64.09,64.28,63.67,62.93,63.27,63.36,63.82,64.58,64.92,64.84,64.26,63.33,62.32,62.60,63.87,66.00,68.73,71.31,74.09,77.26,81.63,88.54,93.07,97.18,101.22,105.42,109.55,114.08,116.92,117.53,116.40,114.43,112.30,110.83,110.82,110.48,109.93,109.13,107.93,105.71,102.44,99.20,96.53,95.03,94.00,94.12,94.42,94.09,93.72,93.23,92.49,91.39,89.77,87.51,84.93,81.91,78.25,73.47,70.85,70.62,72.51,74.56,76.59,78.36,79.96,81.75,84.30
7.53,7.34,7.21,7.14,7.07,7.05,7.00,6.93,6.86,6.85,6.79,6.72,6.65,6.78,6.92,7.04,7.14,7.28,7.43,7.55,7.65,7.80,7.95,8.06,8.17,8.31,8.47,8.57,8.69,8.83,8.91,9.05,9.21,9.34,9.42,9.57,9.68,9.85,10.32,11.94,13.73,15.55,17.48,19.73,21.52,23.22,24.92,26.75,29.24,31.22,32.92,34.37,35.31,35.55,35.37,34.78,33.77,31.97,30.00,28.02,26.10,24.19,22.32,20.63,19.23,18.27,18.21,18.06,17.73,17.18,16.56,15.95,15.37,14.81,14.19,13.63,13.20,13.07,13.46,13.85,14.23,14.50,14.57,14.51,14.61,14.80,15.03,15.26,15.49,15.72,15.95,16.15,15.84,15.53,15.22,14.91,14.60,14.29,13.99,13.68,13.37,13.06,12.69,12.32,11.98,11.81,11.60,11.42,11.29,11.28,11.21,11.18,11.19,11.25,11.32,11.45,11.53,11.62,12.08,14.40,16.61,18.34,19.59,20.87,21.76,22.47,23.17,23.86,24.40,24.89,25.54,26.79,28.16,29.26,30.02,30.41,30.30,29.24,28.07,27.23,26.96,28.18,28.94,29.20,29.42,29.15,28.86,28.61,28.44,28.21,28.05,27.96,28.15,29.11,31.06,33.47,36.08,38.59,40.17,42.09,43.62,44.46,44.82,45.90,47.56,49.86,52.94,56.29,59.45,62.34,64.89,66.95,67.06,65.24,62.12,59.31,57.41,56.03,54.93,53.89,53.57,53.07,52.44,52.09,53.75,56.30,58.75,60.88,62.63,62.58,61.80,60.62,59.43,59.17,59.23,59.66,60.37,61.00,61.03,60.61,60.06,59.81,61.31,63.75,66.58,69.45,72.13,74.79,77.48,81.21,87.78,92.69,96.92,101.00,105.30,109.53,112.67,113.47,112.10,110.38,108.45,107.03,106.29,106.30,106.55,106.31,105.68,104.62,102.44,99.44,96.46,93.89,92.11,91.68,92.11,92.57,92.44,92.12,91.68,91.01,89.90,87.83,85.48,83.09,80.23,76.33,71.61,69.75,69.65,70.58,72.53,74.59,76.38,77.93,79.52,82.40
7.27,7.09,6.99,6.94,6.87,6.82,6.78,6.73,6.66,6.65,6.60,6.54,6.51,6.66,6.79,6.90,7.02,7.13,7.28,7.42,7.53,7.65,7.80,7.90,8.01,8.16,8.32,8.41,8.53,8.67,8.74,8.89,9.05,9.18,9.25,9.41,9.54,9.65,9.87,10.72,11.74,13.04,14.78,17.17,19.27,21.20,23.08,25.05,27.40,29.45,31.20,32.56,33.37,33.66,33.56,33.07,32.17,30.51,28.54,26.52,24.59,22.65,20.66,18.93,17.59,16.74,16.59,16.60,16.59,16.42,15.95,15.37,14.79,14.24,13.66,13.11,12.78,12.77,13.16,13.54,13.93,14.15,14.15,14.11,14.26,14.48,14.71,14.94,15.17,15.40,15.62,15.78,15.47,15.16,14.85,14.54,14.23,13.93,13.62,13.31,13.00,12.69,12.35,11.99,11.62,11.39,11.19,11.02,10.90,10.90,10.90,10.93,10.99,11.10,11.18,11.29,11.35,11.43,11.90,14.54,17.30,19.65,21.35,22.85,23.90,24.72,25.47,26.13,26.53,26.92,27.52,28.68,30.13,31.39,32.31,32.74,32.59,31.37,29.69,27.98,27.02,27.27,27.59,27.78,27.90,27.86,27.80,27.74,27.72,27.91,28.04,28.20,28.58,29.63,31.53,33.80,36.02,37.80,38.80,40.07,41.07,41.57,41.69,42.71,44.93,48.22,52.19,55.71,58.86,61.49,63.54,64.93,64.36,62.35,59.54,57.18,55.32,53.95,52.90,52.04,51.81,51.38,50.98,51.07,53.07,55.61,58.11,60.20,61.47,60.78,59.39,57.74,56.27,55.92,56.19,56.79,57.54,58.20,58.36,58.33,58.47,59.16,60.98,63.65,66.59,69.46,72.20,74.88,77.52,81.06,87.13,92.25,96.62,100.62,104.59,108.41,110.24,109.90,107.89,105.84,103.90,102.68,102.13,102.07,102.53,102.60,102.33,101.70,100.31,97.51,94.59,91.94,89.78,89.48,89.89,90.40,90.47,90.13,89.90,89.40,88.39,86.58,84.24,81.80,78.87,74.92,70.83,69.14,68.98,69.80,71.65,73.64,75.46,77.12,78.78,81.81
7.02,6.85,6.76,6.75,6.67,6.60,6.56,6.54,6.46,6.45,6.42,6.38,6.38,6.51,6.60,6.71,6.86,6.95,7.08,7.23,7.37,7.44,7.60,7.70,7.81,7.96,8.11,8.21,8.33,8.46,8.55,8.69,8.84,8.97,9.06,9.21,9.36,9.48,9.57,9.72,9.99,10.71,12.07,14.21,16.47,18.65,20.79,22.97,25.18,27.34,29.16,30.51,31.34,31.71,31.71,31.29,30.41,28.89,26.87,24.78,22.84,20.89,18.83,17.15,15.95,15.19,14.83,14.91,15.19,15.40,15.25,14.79,14.23,13.69,13.14,12.60,12.37,12.46,12.85,13.24,13.60,13.77,13.72,13.73,13.92,14.16,14.39,14.62,14.85,15.08,15.29,15.41,15.10,14.79,14.48,14.17,13.86,13.56,13.25,12.94,12.63,12.32,12.01,11.67,11.29,10.97,10.78,10.64,10.55,10.56,10.63,10.72,10.82,10.96,11.04,11.12,11.16,11.27,11.89,14.97,18.26,21.16,23.37,25.00,26.14,26.98,27.70,28.32,28.62,28.93,29.47,30.55,32.05,33.54,34.66,35.12,34.82,33.47,31.50,29.33,27.82,27.04,26.88,27.04,27.02,27.01,27.01,27.06,27.22,27.83,28.26,28.67,29.19,30.12,32.01,33.98,35.61,36.56,37.18,37.90,38.49,38.83,38.94,39.97,42.68,46.76,51.45,54.94,58.02,60.48,62.16,62.89,61.64,59.57,57.25,55.24,53.29,51.87,50.90,50.25,50.09,49.72,49.61,50.22,52.37,54.83,57.24,59.07,59.61,58.59,56.83,54.88,53.29,53.04,53.58,54.43,55.35,56.07,56.52,57.02,57.90,59.47,61.40,63.97,66.66,69.26,71.93,74.66,77.35,80.77,86.26,91.66,96.19,100.10,103.65,106.86,107.56,106.46,104.24,102.07,100.19,99.04,98.52,98.37,98.75,99.02,99.13,99.04,98.69,96.16,93.30,90.56,88.08,87.40,87.49,87.87,88.11,87.76,87.79,87.56,86.80,85.40,83.18,80.61,77.49,73.56,70.27,68.64,68.45,69.44,71.23,73.12,74.96,76.73,78.51,81.59
6.76,6.62,6.57,6.56,6.48,6.40,6.37,6.35,6.27,6.21,6.25,6.30,6.25,6.28,6.35,6.46,6.61,6.75,6.85,6.98,7.11,7.19,7.34,7.48,7.60,7.70,7.86,8.00,8.11,8.22,8.35,8.45,8.58,8.73,8.87,8.96,9.10,9.22,9.31,9.47,9.65,9.92,10.33,10.94,12.58,14.69,17.11,19.66,22.13,24.26,26.08,27.63,29.05,29.57,29.63,29.23,28.31,26.88,24.99,22.99,21.04,18.99,16.91,15.34,14.30,13.59,13.09,13.09,13.35,13.67,14.26,14.19,13.76,13.17,12.63,12.09,11.98,12.21,12.59,12.98,13.24,13.35,13.34,13.40,13.61,13.84,14.07,14.30,14.53,14.76,14.97,15.09,14.78,14.47,14.16,13.85,13.55,13.24,12.93,12.62,12.31,12.00,11.69,11.35,10.97,10.60,10.36,10.27,10.30,10.36,10.44,10.56,10.68,10.77,10.85,10.93,10.97,11.21,12.57,16.70,20.31,23.14,25.54,27.22,28.37,29.14,29.68,30.30,30.60,30.88,31.38,32.46,33.92,35.58,36.97,37.60,36.94,35.33,33.09,30.64,28.93,28.16,28.03,28.16,28.04,27.64,27.28,27.18,27.47,28.03,28.50,28.97,29.58,30.50,32.21,33.33,33.96,34.39,35.00,35.69,36.26,36.68,37.28,38.71,41.56,45.68,50.62,53.72,56.34,58.52,60.22,60.76,59.39,57.42,55.33,53.32,51.33,50.01,49.21,48.65,48.50,48.16,48.44,49.70,51.74,54.07,56.21,57.40,56.51,55.22,53.61,51.97,50.64,50.63,51.37,52.60,54.05,55.27,56.57,57.87,59.37,61.33,63.67,65.82,67.56,68.99,71.17,73.96,76.60,79.69,84.49,90.54,95.36,99.24,102.49,104.87,104.96,103.59,101.43,99.61,98.07,97.06,96.52,96.30,95.94,96.02,96.34,96.85,97.73,95.77,93.19,90.55,88.01,85.67,84.63,84.45,84.61,84.40,84.70,84.99,84.88,83.84,82.01,79.26,75.77,71.86,69.40,68.04,68.06,69.45,71.28,73.10,74.89,76.67,78.45,81.38
6.54,6.42,6.36,6.33,6.28,6.21,6.16,6.12,6.08,6.03,6.09,6.16,6.12,6.08,6.13,6.23,6.36,6.51,6.63,6.74,6.86,6.97,7.09,7.24,7.38,7.49,7.61,7.76,7.87,7.97,8.12,8.23,8.35,8.48,8.64,8.75,8.87,8.98,9.10,9.25,9.35,9.45,9.55,9.59,10.45,11.70,13.35,15.40,18.08,20.71,22.93,24.72,26.41,26.99,27.13,26.83,25.99,24.70,23.02,21.15,19.16,17.08,14.99,13.53,12.63,11.91,11.45,11.52,11.92,12.48,13.30,13.48,13.23,12.70,12.16,11.68,11.65,11.94,12.30,12.68,12.88,12.94,12.92,13.03,13.27,13.52,13.75,13.98,14.21,14.44,14.65,14.77,14.46,14.15,13.84,13.53,13.23,12.92,12.61,12.30,11.99,11.68,11.37,11.03,10.64,10.26,10.08,10.08,10.18,10.25,10.33,10.46,10.57,10.62,10.66,10.71,10.76,11.39,14.58,18.83,22.34,25.15,27.71,29.03,29.96,30.57,31.02,31.83,32.40,32.79,33.27,34.38,35.64,37.29,38.73,39.34,38.76,36.93,34.41,31.71,29.65,28.91,28.62,28.48,28.19,27.69,27.30,27.25,27.64,28.15,28.62,29.11,29.65,30.32,31.47,32.02,32.19,32.38,32.86,33.51,34.31,35.29,36.52,38.21,41.06,44.97,49.54,52.38,54.72,56.68,58.20,58.54,57.37,55.57,53.53,51.49,49.87,48.70,47.85,47.13,46.92,47.00,47.85,49.55,51.53,53.74,55.24,55.54,54.18,52.70,51.25,49.96,49.05,49.64,50.95,52.61,54.40,56.08,57.77,59.75,62.00,64.44,66.94,68.87,70.18,71.04,72.34,73.97,76.05,78.81,82.56,88.79,93.79,97.80,101.04,102.58,102.32,101.00,99.14,97.54,96.10,95.10,94.53,94.25,93.54,93.23,93.57,94.63,96.20,95.29,93.37,91.00,88.61,85.29,82.75,81.25,80.87,80.97,81.57,82.28,82.76,82.44,80.60,77.67,74.08,70.43,68.49,67.47,67.81,69.48,71.27,73.05,74.81,76.60,78.50,82.07
6.33,6.23,6.15,6.08,6.08,6.02,5.94,5.88,5.88,5.90,5.94,5.98,5.98,5.91,5.94,6.01,6.11,6.26,6.41,6.52,6.62,6.77,6.86,6.99,7.14,7.29,7.37,7.50,7.62,7.71,7.86,8.02,8.13,8.23,8.38,8.54,8.63,8.75,8.90,9.05,9.08,9.16,9.27,9.28,9.35,9.43,9.84,10.95,13.65,16.90,19.68,21.75,23.58,24.18,24.41,24.25,23.55,22.38,20.94,19.20,17.20,15.13,13.09,11.77,11.03,10.30,9.98,10.18,10.76,11.58,12.35,12.70,12.65,12.25,11.71,11.32,11.36,11.67,11.98,12.37,12.52,12.53,12.49,12.65,12.93,13.19,13.43,13.66,13.89,14.13,14.33,14.45,14.14,13.83,13.52,13.21,12.91,12.60,12.29,11.98,11.67,11.36,11.05,10.71,10.33,9.96,9.90,9.98,10.11,10.20,10.27,10.39,10.48,10.48,10.48,10.48,10.66,11.92,17.28,21.15,24.35,27.14,29.77,30.54,31.16,31.61,32.01,33.09,34.06,34.65,35.13,36.28,37.30,38.80,40.13,40.59,40.28,38.26,35.49,32.58,30.11,29.39,28.89,28.37,27.90,27.44,27.19,27.29,27.75,28.21,28.67,29.13,29.55,29.85,30.27,30.42,30.43,30.51,30.81,31.45,32.64,34.38,36.24,38.10,40.87,44.43,48.32,50.97,53.15,54.89,56.12,56.27,55.47,53.91,51.82,49.71,48.58,47.58,46.60,45.66,45.38,46.09,47.58,49.57,51.50,53.56,54.23,53.59,52.29,50.70,49.41,48.49,48.13,49.45,51.46,53.57,55.63,57.72,59.60,62.20,65.21,68.15,70.71,72.55,73.72,74.33,74.62,74.58,75.80,78.15,80.75,86.83,91.90,96.05,99.35,100.10,99.66,98.58,97.14,95.67,94.21,93.16,92.53,92.19,91.34,90.62,90.90,92.47,94.39,94.75,93.68,91.66,89.52,85.64,81.54,78.43,77.22,77.47,78.26,79.28,80.30,80.93,79.01,75.95,72.44,69.20,67.56,66.92,67.59,69.48,71.20,73.00,74.76,76.57,78.66,83.26
6.07,6.01,5.96,5.89,5.83,5.80,5.75,5.69,5.69,5.89,5.88,5.79,5.79,5.77,5.74,5.78,5.91,6.01,6.16,6.30,6.42,6.52,6.65,6.76,6.88,7.03,7.17,7.27,7.39,7.51,7.61,7.76,7.90,8.02,8.13,8.28,8.38,8.49,8.64,8.74,8.80,8.88,8.97,9.02,9.10,9.17,9.40,9.91,10.84,12.97,15.54,18.17,20.64,21.35,21.63,21.53,20.93,19.66,18.16,16.47,14.68,12.86,11.31,10.48,10.19,9.90,9.74,9.82,10.14,10.68,11.34,11.75,11.90,11.74,11.20,10.94,11.04,11.37,11.73,12.06,12.13,12.13,12.17,12.33,12.57,12.84,13.11,13.34,13.57,13.81,13.99,14.06,13.75,13.44,13.14,12.84,12.58,12.28,11.97,11.66,11.35,11.04,10.73,10.41,10.09,9.87,9.88,9.95,10.06,10.19,10.27,10.30,10.27,10.22,10.22,10.26,11.68,14.95,19.71,23.16,26.26,28.85,30.53,31.36,32.02,32.54,33.02,34.00,35.15,36.12,36.97,38.07,39.13,40.02,40.58,40.72,40.30,38.22,35.45,32.58,30.11,29.39,28.92,28.42,27.90,27.44,27.19,27.29,27.75,28.21,28.59,28.97,29.33,29.47,29.57,29.50,29.36,29.29,29.49,30.59,32.22,34.13,36.04,38.00,40.55,43.61,46.86,49.55,51.58,52.99,53.82,53.97,53.65,52.45,50.42,48.01,46.35,45.37,44.74,44.14,44.20,45.45,47.26,49.25,51.12,52.32,52.49,51.79,50.69,49.45,48.30,47.73,48.13,49.56,51.78,54.25,56.66,58.80,61.64,64.81,68.08,71.22,73.93,76.13,77.40,77.68,77.72,77.39,77.62,78.76,81.01,86.32,90.90,94.46,96.83,97.29,97.02,96.33,95.29,93.82,92.35,91.25,90.50,90.02,89.11,88.60,89.26,91.24,93.07,94.12,93.59,91.86,90.02,86.05,81.89,78.30,75.81,73.65,73.21,74.00,75.58,77.19,76.75,74.32,71.04,68.43,66.60,66.22,67.10,68.94,70.91,73.03,75.08,77.09,79.23,84.68
5.84,5.78,5.75,5.69,5.62,5.60,5.56,5.52,5.59,5.84,5.77,5.61,5.63,5.63,5.58,5.58,5.68,5.79,5.91,6.05,6.19,6.26,6.42,6.54,6.65,6.78,6.94,7.05,7.16,7.29,7.39,7.52,7.66,7.80,7.90,8.03,8.14,8.27,8.41,8.46,8.53,8.61,8.69,8.76,8.84,8.94,9.09,9.31,9.44,10.58,12.47,14.89,17.52,18.38,18.70,18.60,18.04,16.70,15.14,13.61,12.27,11.09,10.18,9.76,9.68,9.60,9.53,9.57,9.75,10.07,10.51,10.86,11.08,11.09,10.68,10.59,10.75,11.08,11.44,11.70,11.71,11.71,11.82,12.00,12.23,12.50,12.79,13.02,13.25,13.49,13.66,13.71,13.40,13.09,12.79,12.49,12.23,11.93,11.62,11.32,11.03,10.72,10.41,10.15,9.95,9.82,9.84,9.92,10.03,10.16,10.22,10.18,10.11,10.03,10.03,10.76,13.32,17.62,21.69,24.87,27.75,30.04,31.20,32.07,32.82,33.44,34.00,34.88,36.11,37.32,38.40,39.44,40.27,40.70,40.83,40.81,40.29,38.09,35.26,32.40,30.06,29.36,28.88,28.39,27.87,27.41,27.16,27.25,27.71,28.15,28.51,28.83,29.07,29.10,29.03,28.87,28.72,28.71,29.02,30.24,31.98,33.95,35.91,37.89,40.15,42.73,45.56,47.89,49.64,50.82,51.48,51.61,51.45,50.41,48.49,46.15,44.14,43.08,42.69,42.60,43.32,44.94,46.85,48.68,50.28,50.92,50.83,50.18,49.22,48.17,47.15,46.95,48.05,49.62,52.10,54.83,57.52,59.99,63.46,66.96,70.33,73.46,76.32,78.62,79.95,80.24,80.32,80.20,80.33,81.14,83.17,86.98,90.29,92.75,94.16,94.42,94.31,93.91,93.18,91.95,90.45,89.13,88.14,87.61,86.63,86.44,87.46,89.64,91.75,93.12,93.13,91.99,90.39,86.58,82.33,78.34,75.06,71.69,70.28,70.41,71.68,73.43,74.23,72.69,69.89,67.53,65.47,65.39,66.45,68.08,69.88,71.94,74.32,76.93,79.59,85.15
5.63,5.56,5.51,5.50,5.42,5.41,5.37,5.36,5.58,5.75,5.61,5.43,5.51,5.51,5.45,5.41,5.43,5.59,5.68,5.80,5.93,6.01,6.16,6.31,6.44,6.53,6.68,6.83,6.95,7.04,7.20,7.28,7.41,7.56,7.71,7.79,7.92,8.08,8.21,8.21,8.28,8.35,8.43,8.51,8.59,8.71,8.90,9.13,9.35,9.63,10.40,11.90,14.23,15.28,15.64,15.47,14.91,13.52,11.91,10.63,9.98,9.78,9.66,9.57,9.49,9.41,9.33,9.41,9.57,9.72,9.81,10.02,10.21,10.31,10.14,10.25,10.50,10.81,11.12,11.28,11.26,11.28,11.45,11.68,11.91,12.18,12.47,12.70,12.94,13.17,13.34,13.39,13.08,12.78,12.47,12.16,11.85,11.54,11.23,10.95,10.71,10.40,10.09,9.91,9.89,9.81,9.80,9.88,10.02,10.10,10.10,10.06,9.98,9.91,9.91,11.92,15.53,19.97,23.25,26.30,28.87,30.76,31.77,32.70,33.57,34.31,34.95,35.72,36.94,38.25,39.47,40.40,40.77,40.89,40.90,40.86,40.25,37.88,34.91,32.06,29.96,29.30,28.79,28.27,27.81,27.34,27.09,27.19,27.65,28.03,28.42,28.69,28.80,28.72,28.65,28.52,28.49,28.73,29.33,30.37,31.89,33.83,35.84,37.78,39.69,41.78,44.41,46.01,47.36,48.41,49.11,49.19,48.90,47.84,46.09,44.14,41.93,40.72,40.48,41.04,42.70,44.56,46.35,47.90,49.01,49.37,49.25,48.73,47.88,46.88,45.97,46.13,47.88,49.64,52.40,55.32,58.22,61.28,65.07,68.69,71.99,74.93,77.94,80.10,81.44,82.08,82.45,83.00,83.85,85.13,87.07,88.72,90.04,90.93,91.34,91.50,91.52,91.32,90.85,90.05,88.51,86.81,85.47,84.99,83.91,84.17,85.50,87.68,90.44,91.78,92.32,92.04,90.64,87.22,82.87,78.53,74.93,71.45,69.29,68.35,68.55,69.66,71.47,71.05,68.97,66.50,64.20,64.44,65.67,66.92,68.18,69.82,72.56,76.15,79.74,84.72
5.43,5.36,5.32,5.31,5.23,5.18,5.19,5.30,5.58,5.61,5.42,5.24,5.32,5.37,5.32,5.24,5.18,5.33,5.46,5.58,5.69,5.81,5.92,6.06,6.20,6.33,6.43,6.58,6.69,6.79,6.94,7.07,7.18,7.31,7.46,7.54,7.67,7.82,7.96,7.96,8.02,8.10,8.18,8.25,8.33,8.46,8.64,8.88,9.16,9.40,9.82,10.52,11.52,12.24,12.51,12.34,11.80,11.21,10.53,9.99,9.70,9.59,9.47,9.37,9.30,9.22,9.14,9.19,9.30,9.40,9.53,9.70,9.85,9.92,9.86,9.95,10.18,10.50,10.86,10.87,10.85,10.92,11.13,11.36,11.59,11.84,12.10,12.38,12.62,12.85,13.02,13.07,12.76,12.46,12.15,11.84,11.53,11.22,10.91,10.61,10.33,10.12,9.97,9.88,9.83,9.75,9.78,9.86,9.95,9.98,9.98,9.93,9.88,9.96,10.85,13.71,17.50,21.44,24.45,27.46,29.71,31.24,32.29,33.26,34.18,35.04,35.84,36.62,37.79,38.91,39.85,40.63,40.93,41.02,40.96,40.74,40.08,37.54,34.45,31.61,29.86,29.23,28.78,28.34,27.93,27.56,27.27,27.23,27.52,27.91,28.25,28.42,28.41,28.28,28.38,28.41,28.53,28.91,29.48,30.53,32.00,33.82,35.78,37.55,39.09,40.53,42.12,43.20,44.35,45.34,45.97,46.14,45.82,44.81,43.21,41.47,40.14,39.45,39.50,40.36,42.11,43.82,45.37,46.67,47.52,47.84,47.72,47.27,46.65,45.66,45.34,46.05,47.87,49.65,52.49,55.54,58.59,61.82,65.46,68.80,71.74,74.25,76.60,78.65,80.23,81.31,82.12,82.88,83.37,83.82,84.71,85.55,85.98,86.25,86.59,86.94,87.08,87.71,88.66,88.73,86.67,84.69,83.17,82.19,81.15,81.44,82.46,84.08,87.42,89.93,91.17,91.23,90.50,87.22,82.89,78.54,74.97,72.11,69.89,68.12,67.04,67.65,68.90,68.75,67.23,64.83,63.55,64.09,65.33,66.58,67.96,69.45,71.96,75.35,78.83,82.71
5.23,5.17,5.12,5.09,5.04,4.98,5.05,5.27,5.58,5.46,5.23,5.08,5.15,5.23,5.19,5.09,4.99,5.09,5.23,5.34,5.44,5.60,5.69,5.82,5.96,6.11,6.21,6.33,6.45,6.55,6.69,6.84,6.96,7.07,7.20,7.30,7.42,7.57,7.70,7.70,7.77,7.84,7.92,8.00,8.08,8.22,8.41,8.65,8.94,9.18,9.41,9.63,9.79,10.17,10.33,10.20,9.82,9.75,9.67,9.59,9.51,9.44,9.30,9.18,9.11,9.03,8.95,8.96,9.03,9.11,9.27,9.42,9.53,9.58,9.60,9.67,9.86,10.15,10.48,10.44,10.45,10.57,10.78,11.01,11.26,11.50,11.75,12.04,12.29,12.53,12.70,12.73,12.42,12.11,11.80,11.49,11.18,10.89,10.59,10.30,10.05,9.91,9.88,9.84,9.77,9.71,9.75,9.81,9.85,9.87,9.88,9.85,9.95,10.38,12.16,15.61,19.34,22.70,25.54,28.42,30.40,31.67,32.77,33.82,34.78,35.70,36.59,37.19,38.14,38.98,39.67,40.38,40.81,40.96,40.85,40.48,39.61,37.01,33.91,31.14,29.77,29.24,28.85,28.47,28.10,27.79,27.48,27.32,27.39,27.78,28.02,28.14,28.15,28.15,28.24,28.37,28.63,29.07,29.60,30.70,32.17,33.85,35.55,37.02,38.20,39.17,40.02,40.69,41.57,42.37,42.88,43.09,42.80,41.98,40.73,39.36,38.65,38.43,38.79,39.82,41.42,42.92,44.25,45.33,45.99,46.29,46.17,45.76,45.31,44.41,44.72,45.99,47.87,49.67,52.54,55.65,58.71,61.73,64.95,67.81,70.28,72.41,74.19,76.01,77.76,79.35,80.66,81.47,81.63,81.43,81.43,81.58,81.46,81.45,81.84,82.21,82.54,83.93,86.19,87.74,85.05,82.72,81.08,79.85,78.93,79.20,79.91,80.91,83.79,86.35,87.84,88.55,89.30,86.83,82.83,78.63,75.32,72.85,70.55,68.24,66.28,65.96,66.40,66.35,65.35,63.15,62.93,63.69,64.92,66.33,67.81,69.24,71.52,74.55,77.64,80.18
5.03,4.98,4.91,4.84,4.84,4.83,4.97,5.27,5.58,5.28,5.04,4.95,5.03,5.10,5.07,4.98,4.90,4.85,4.98,5.09,5.19,5.34,5.49,5.59,5.70,5.86,6.00,6.10,6.22,6.35,6.44,6.59,6.73,6.86,6.95,7.09,7.20,7.31,7.44,7.44,7.51,7.59,7.67,7.74,7.82,7.99,8.22,8.45,8.69,8.93,9.16,9.38,9.53,9.60,9.62,9.63,9.63,9.55,9.48,9.40,9.32,9.25,9.10,8.99,8.91,8.84,8.76,8.74,8.77,8.86,9.01,9.17,9.25,9.27,9.34,9.41,9.55,9.72,9.90,9.96,10.08,10.23,10.40,10.63,10.92,11.18,11.42,11.66,11.95,12.21,12.36,12.35,12.04,11.73,11.42,11.11,10.80,10.55,10.27,10.02,9.92,9.84,9.81,9.78,9.71,9.70,9.71,9.72,9.74,9.81,9.81,9.85,10.26,11.39,13.96,17.63,21.01,23.72,26.51,29.07,30.85,32.07,33.22,34.36,35.35,36.28,37.12,37.27,37.70,38.15,38.66,39.42,40.26,40.61,40.50,40.01,38.69,36.17,33.25,30.64,29.71,29.37,29.04,28.68,28.36,28.05,27.74,27.45,27.26,27.65,27.69,27.82,28.11,28.51,28.30,28.43,28.80,29.20,29.67,30.87,32.40,33.95,35.06,36.01,36.88,37.64,38.29,38.73,39.19,39.61,39.93,40.10,39.92,39.50,38.89,38.16,37.59,37.71,38.40,39.41,40.57,41.82,42.95,43.85,44.40,44.74,44.61,44.17,43.78,43.12,44.08,45.90,47.87,49.72,52.57,55.63,58.48,60.71,63.14,65.21,67.07,68.95,70.33,71.72,73.51,75.73,77.64,78.23,78.19,77.76,77.17,76.73,76.52,76.68,77.22,77.34,77.98,79.95,83.29,87.20,83.79,80.97,79.29,78.26,77.53,77.75,78.20,78.57,79.33,80.09,81.15,82.99,86.46,85.89,82.68,78.87,76.16,73.68,71.18,68.80,66.60,64.65,63.99,63.83,63.30,61.51,62.33,63.15,64.39,66.14,67.68,69.15,71.24,73.78,76.08,76.98
4.80,4.76,4.71,4.64,4.60,4.72,4.98,5.28,5.43,5.09,4.85,4.77,4.85,4.96,4.94,4.86,4.78,4.66,4.74,4.86,4.97,5.09,5.24,5.37,5.49,5.60,5.76,5.85,5.97,6.11,6.23,6.35,6.48,6.63,6.75,6.86,6.98,7.07,7.14,7.14,7.24,7.31,7.36,7.43,7.55,7.77,8.03,8.26,8.49,8.69,8.90,9.10,9.18,9.18,9.21,9.26,9.34,9.30,9.26,9.21,9.13,9.05,8.95,8.83,8.72,8.65,8.57,8.51,8.52,8.60,8.76,8.91,8.99,9.00,9.08,9.16,9.31,9.48,9.59,9.63,9.72,9.87,10.07,10.30,10.56,10.83,11.09,11.33,11.63,11.89,12.02,11.97,11.70,11.40,11.09,10.78,10.47,10.23,10.03,9.88,9.85,9.77,9.72,9.68,9.65,9.69,9.70,9.72,9.77,9.85,10.01,10.56,11.50,12.84,15.66,19.03,22.02,24.47,27.21,29.53,31.17,32.38,33.62,34.69,35.18,35.46,35.78,35.77,35.99,36.32,36.81,37.67,38.63,39.21,39.46,39.44,37.85,35.45,32.83,30.49,29.28,28.92,28.67,28.42,28.19,27.92,27.68,27.44,27.25,27.67,27.92,28.16,28.35,28.29,28.30,28.58,28.99,29.37,29.72,30.69,31.85,32.94,33.78,34.59,35.38,36.10,36.67,37.06,37.39,37.68,37.94,38.10,38.00,37.71,37.25,36.63,36.69,37.19,37.99,38.91,39.79,40.69,41.58,42.37,42.87,43.17,43.04,42.64,42.30,42.16,43.47,45.49,47.58,49.59,52.21,54.79,57.03,58.67,60.03,61.27,62.40,63.44,64.46,66.66,69.42,72.16,73.88,74.22,74.01,73.34,72.12,71.67,71.60,71.92,72.60,73.08,74.60,77.43,81.46,86.03,83.22,80.44,78.45,77.13,76.24,76.27,76.58,76.84,77.22,77.75,78.58,80.02,82.53,84.41,83.03,80.07,77.18,74.55,71.76,69.18,66.85,64.48,62.78,61.96,61.49,60.64,61.52,62.23,63.40,65.23,66.90,68.40,70.21,72.06,73.17,73.50
4.57,4.55,4.52,4.45,4.41,4.66,5.01,5.29,5.24,4.89,4.66,4.59,4.67,4.81,4.80,4.73,4.64,4.49,4.51,4.62,4.76,4.85,4.99,5.14,5.27,5.36,5.50,5.61,5.72,5.87,6.02,6.12,6.24,6.38,6.54,6.61,6.75,6.83,6.83,6.83,6.95,7.02,7.05,7.13,7.30,7.55,7.83,8.07,8.29,8.46,8.64,8.82,8.82,8.82,8.86,8.94,9.02,9.02,9.03,9.01,8.94,8.86,8.79,8.67,8.53,8.45,8.38,8.30,8.27,8.35,8.50,8.64,8.72,8.75,8.83,8.90,9.07,9.25,9.32,9.33,9.39,9.52,9.73,9.98,10.23,10.52,10.81,11.04,11.33,11.56,11.65,11.55,11.32,11.04,10.74,10.45,10.18,9.97,9.84,9.78,9.77,9.69,9.62,9.59,9.61,9.70,9.71,9.75,9.85,10.01,10.45,11.57,12.98,14.39,17.33,20.28,22.90,25.22,27.84,29.94,31.45,32.63,33.88,34.63,34.58,34.26,34.05,33.93,34.02,34.30,34.82,35.73,36.73,37.52,38.18,38.70,37.13,34.90,32.56,30.40,28.62,28.30,28.16,28.01,27.85,27.68,27.58,27.48,27.42,27.88,28.27,28.50,28.49,28.06,28.33,28.72,29.12,29.48,29.70,30.35,31.06,31.66,32.33,33.08,33.85,34.55,35.08,35.47,35.73,35.94,36.17,36.30,36.26,36.05,35.70,35.31,35.95,36.75,37.58,38.38,39.03,39.63,40.28,40.95,41.38,41.62,41.54,41.24,40.99,41.26,42.77,44.85,46.95,49.08,51.44,53.52,55.14,56.23,56.72,57.31,57.93,58.43,59.28,61.99,65.25,68.13,69.61,69.78,69.51,68.77,67.20,66.81,66.81,67.26,68.17,69.22,71.56,75.26,80.00,84.83,82.74,80.04,77.72,76.11,74.96,74.78,74.99,75.24,75.64,76.25,77.01,77.95,79.17,82.54,83.13,81.49,78.51,75.63,72.54,69.65,67.07,64.56,62.02,60.52,59.94,59.87,60.60,61.20,62.27,64.01,65.66,67.10,68.62,69.87,70.08,70.15
4.38,4.36,4.33,4.27,4.38,4.70,5.05,5.25,5.00,4.68,4.50,4.46,4.54,4.63,4.65,4.60,4.52,4.36,4.30,4.37,4.52,4.66,4.75,4.88,5.03,5.17,5.26,5.39,5.50,5.61,5.76,5.91,6.02,6.13,6.28,6.36,6.49,6.58,6.58,6.58,6.66,6.73,6.80,6.88,7.09,7.32,7.59,7.87,8.04,8.20,8.36,8.50,8.50,8.50,8.54,8.62,8.70,8.70,8.74,8.77,8.75,8.67,8.59,8.47,8.34,8.26,8.18,8.11,8.06,8.09,8.24,8.35,8.43,8.49,8.57,8.65,8.82,8.98,9.00,9.06,9.13,9.22,9.36,9.65,10.00,10.33,10.62,10.85,11.09,11.21,11.19,11.04,10.81,10.57,10.32,10.09,9.97,9.86,9.77,9.70,9.64,9.56,9.53,9.55,9.62,9.76,9.73,9.77,9.99,10.44,11.46,12.98,14.58,15.99,18.93,21.46,23.81,26.12,28.45,30.29,31.70,32.82,33.82,33.58,33.24,32.82,32.37,32.04,32.06,32.34,32.89,33.75,34.75,35.66,36.59,37.53,36.75,34.82,32.56,30.24,27.58,27.54,27.59,27.43,27.28,27.35,27.53,27.77,28.05,28.52,28.63,28.44,28.14,28.16,28.51,28.82,29.09,29.35,29.52,29.79,30.05,30.30,30.88,31.57,32.31,33.00,33.48,33.87,34.06,34.22,34.43,34.46,34.40,34.30,34.30,34.80,35.59,36.43,37.20,37.80,38.31,38.76,39.23,39.72,39.99,40.18,40.21,40.15,40.15,40.34,41.78,43.73,45.60,47.57,49.75,51.53,52.72,53.27,53.63,54.15,54.96,56.14,57.29,58.87,60.76,62.77,64.30,64.56,64.56,64.24,63.16,62.59,62.40,62.90,64.27,66.12,68.78,73.19,78.95,83.92,82.11,79.28,76.69,75.08,73.68,73.30,73.39,73.65,74.10,74.80,75.76,76.92,78.09,79.88,82.21,82.97,80.59,77.31,73.94,70.54,67.30,64.64,61.81,59.94,59.03,58.90,59.49,60.09,61.02,62.35,63.50,64.66,65.87,66.92,67.32,67.36
4.19,4.14,4.12,4.14,4.39,4.73,5.02,5.14,4.79,4.48,4.34,4.34,4.41,4.49,4.51,4.48,4.39,4.27,4.16,4.16,4.26,4.42,4.53,4.65,4.78,4.93,5.01,5.15,5.28,5.39,5.51,5.66,5.79,5.91,6.03,6.14,6.26,6.31,6.28,6.32,6.39,6.47,6.54,6.62,6.88,7.12,7.36,7.59,7.78,7.94,8.08,8.18,8.18,8.18,8.23,8.29,8.33,8.37,8.43,8.48,8.48,8.47,8.40,8.28,8.15,8.07,7.99,7.92,7.85,7.83,7.99,8.08,8.16,8.23,8.27,8.41,8.57,8.69,8.72,8.80,8.85,8.91,9.02,9.33,9.73,10.11,10.40,10.53,10.69,10.72,10.66,10.53,10.33,10.19,10.04,9.90,9.82,9.74,9.67,9.59,9.51,9.50,9.52,9.58,9.66,9.78,9.79,10.00,10.50,11.35,12.60,14.14,15.82,17.57,20.16,22.48,24.76,27.05,29.18,30.63,31.83,32.70,33.05,32.44,31.91,31.42,30.91,30.42,30.32,30.53,31.06,31.95,32.95,34.01,35.18,36.41,36.52,34.89,32.77,30.63,28.14,27.61,27.43,27.36,27.41,27.63,27.91,28.27,28.66,28.78,28.57,28.24,28.00,28.19,28.50,28.74,28.95,29.17,29.33,29.35,29.35,29.42,29.83,30.33,30.90,31.46,31.89,32.21,32.36,32.48,32.66,32.70,32.89,33.17,33.61,34.42,35.20,35.92,36.54,37.04,37.51,37.94,38.35,38.72,38.99,39.16,39.22,39.24,39.32,39.51,40.50,41.88,43.32,44.81,46.65,48.43,49.80,50.11,50.64,51.49,52.64,54.02,55.12,56.11,57.33,58.84,60.22,60.66,60.83,60.79,60.45,60.00,59.88,60.39,61.81,64.55,67.66,72.31,78.15,83.00,81.66,78.84,75.86,73.75,72.38,71.86,71.82,72.07,72.64,73.50,74.57,75.78,77.00,78.35,80.51,82.07,81.76,79.42,76.32,72.79,69.16,66.12,62.71,60.15,58.58,57.90,58.16,58.58,59.29,60.27,61.13,62.04,63.03,63.93,64.40,64.58
4.00,3.92,3.91,4.04,4.42,4.75,4.97,4.99,4.61,4.29,4.18,4.20,4.28,4.36,4.38,4.35,4.27,4.19,4.05,3.98,4.02,4.16,4.32,4.42,4.53,4.67,4.76,4.89,5.04,5.18,5.27,5.41,5.56,5.69,5.77,5.93,6.02,6.03,5.98,6.06,6.13,6.21,6.29,6.37,6.67,6.93,7.13,7.29,7.52,7.68,7.79,7.85,7.86,7.86,7.91,7.96,7.96,8.04,8.12,8.16,8.17,8.25,8.20,8.09,7.96,7.88,7.80,7.72,7.65,7.59,7.73,7.82,7.90,7.97,7.97,8.18,8.31,8.39,8.47,8.54,8.56,8.61,8.72,9.04,9.47,9.88,10.15,10.17,10.23,10.21,10.14,10.06,9.92,9.88,9.84,9.77,9.69,9.61,9.54,9.47,9.41,9.49,9.57,9.65,9.72,9.79,9.92,10.39,11.25,12.49,13.80,15.20,16.90,19.03,21.19,23.41,25.67,27.92,29.90,30.93,31.84,32.37,31.96,31.25,30.58,30.01,29.52,28.91,28.68,28.82,29.34,30.28,31.28,32.49,33.86,35.30,36.27,35.01,33.11,31.27,29.37,28.14,27.58,27.56,27.86,28.17,28.49,28.83,29.13,28.82,28.35,28.01,27.94,28.17,28.39,28.57,28.75,28.97,29.09,28.95,28.79,28.77,28.99,29.28,29.63,30.01,30.38,30.60,30.72,30.82,30.98,31.11,31.65,32.40,33.24,34.06,34.75,35.29,35.76,36.22,36.68,37.13,37.53,37.84,38.14,38.32,38.40,38.42,38.49,38.73,39.17,39.87,40.81,41.68,43.07,44.87,46.59,46.90,47.74,49.04,50.54,51.94,52.80,53.49,54.37,55.59,56.75,57.45,57.78,57.96,58.37,58.20,58.31,58.89,60.20,63.74,67.34,72.00,77.47,82.10,81.29,78.51,75.11,72.29,71.04,70.40,70.26,70.54,71.24,72.26,73.39,74.60,75.91,77.29,78.58,80.19,82.16,81.33,78.92,75.61,71.86,68.37,64.30,60.90,58.44,57.08,56.88,56.96,57.36,58.06,58.77,59.45,60.25,61.04,61.51,61.89
3.79,3.73,3.78,4.04,4.42,4.79,4.91,4.74,4.41,4.10,3.98,4.01,4.09,4.16,4.22,4.22,4.14,4.07,3.92,3.82,3.81,3.91,4.06,4.20,4.32,4.42,4.56,4.66,4.79,4.94,5.07,5.17,5.31,5.44,5.52,5.67,5.77,5.78,5.72,5.80,5.88,5.95,6.05,6.18,6.43,6.70,6.92,7.03,7.26,7.39,7.45,7.48,7.53,7.54,7.59,7.64,7.64,7.72,7.80,7.84,7.85,7.93,7.92,7.89,7.82,7.69,7.61,7.53,7.46,7.39,7.43,7.54,7.65,7.71,7.71,7.92,8.06,8.14,8.21,8.23,8.28,8.39,8.60,8.97,9.37,9.64,9.79,9.91,9.93,9.93,9.88,9.81,9.77,9.71,9.67,9.64,9.56,9.49,9.44,9.44,9.47,9.55,9.67,9.75,9.78,9.86,10.40,11.27,12.41,13.70,15.01,16.35,17.90,19.80,21.96,24.10,26.29,28.45,30.12,31.04,31.47,31.43,30.87,30.01,29.17,28.46,27.93,27.37,27.14,27.36,28.01,29.00,30.05,31.31,32.71,34.17,35.43,34.95,33.65,32.01,30.36,29.33,28.54,28.12,28.37,28.68,29.03,29.14,28.88,28.57,28.25,27.96,27.81,28.04,28.22,28.38,28.52,28.64,28.57,28.38,28.24,28.24,28.36,28.60,28.93,29.27,29.49,29.61,29.66,29.76,30.00,30.52,31.30,32.12,32.88,33.50,34.04,34.53,34.99,35.45,35.86,36.27,36.66,37.00,37.26,37.47,37.59,37.64,37.66,37.94,38.40,38.93,39.43,39.85,40.48,41.60,43.01,43.91,45.07,46.51,48.12,49.69,50.06,50.61,51.46,52.59,53.81,55.02,55.72,56.10,56.71,56.88,57.60,58.69,60.13,63.57,67.54,72.05,76.89,81.46,80.92,78.11,74.33,70.88,69.53,68.72,68.64,69.26,70.02,71.05,72.23,73.51,74.83,76.11,77.40,78.76,80.16,80.66,80.09,78.29,75.35,71.70,67.40,62.76,59.03,57.70,56.56,55.67,55.53,56.28,57.03,57.64,58.26,58.88,59.40,59.74
3.56,3.58,3.73,4.07,4.46,4.80,4.82,4.53,4.22,3.91,3.81,3.85,3.93,4.01,4.09,4.09,4.02,3.94,3.80,3.68,3.64,3.69,3.82,3.96,4.09,4.17,4.32,4.44,4.56,4.69,4.84,4.95,5.07,5.19,5.30,5.45,5.51,5.49,5.44,5.54,5.62,5.70,5.80,5.99,6.22,6.46,6.66,6.78,7.01,7.10,7.12,7.14,7.21,7.22,7.27,7.32,7.32,7.40,7.48,7.52,7.53,7.61,7.62,7.64,7.62,7.50,7.42,7.34,7.26,7.19,7.16,7.28,7.39,7.46,7.46,7.66,7.80,7.87,7.92,7.95,8.05,8.25,8.55,8.91,9.22,9.44,9.59,9.69,9.69,9.71,9.70,9.63,9.60,9.55,9.51,9.48,9.43,9.41,9.42,9.46,9.54,9.64,9.76,9.87,9.98,10.25,11.00,12.04,13.27,14.59,15.93,17.29,18.76,20.45,22.50,24.54,26.63,28.66,30.09,30.79,30.95,30.60,29.79,28.69,27.70,26.90,26.34,25.80,25.64,25.99,26.79,27.82,28.88,30.13,31.51,32.92,34.28,34.60,34.00,32.67,31.18,30.30,29.48,28.89,28.92,29.15,29.31,29.22,28.79,28.37,28.01,27.75,27.64,27.84,28.03,28.14,28.18,28.17,27.99,27.79,27.68,27.69,27.77,27.93,28.23,28.56,28.74,28.79,28.80,28.96,29.39,30.09,30.90,31.65,32.28,32.79,33.26,33.72,34.18,34.61,35.00,35.38,35.77,36.13,36.36,36.60,36.76,36.83,36.83,37.16,37.62,38.03,38.29,38.57,38.90,39.59,40.60,41.51,42.56,44.06,45.77,47.34,47.66,48.23,49.04,50.10,51.37,52.80,53.88,54.69,55.58,56.23,57.32,58.64,60.16,63.90,68.05,72.41,76.79,80.90,80.36,77.29,73.19,69.69,68.30,67.38,67.29,68.07,68.93,69.95,71.12,72.38,73.67,74.93,76.21,77.44,78.51,78.84,78.60,77.51,75.55,73.01,69.72,65.38,61.14,58.51,56.91,55.29,54.40,54.56,55.28,55.85,56.37,56.91,57.54,58.29
3.32,3.46,3.75,4.14,4.52,4.79,4.70,4.33,4.03,3.72,3.65,3.73,3.80,3.88,3.96,3.97,3.89,3.81,3.67,3.56,3.50,3.50,3.58,3.71,3.83,3.91,4.07,4.22,4.34,4.43,4.59,4.74,4.85,4.95,5.10,5.26,5.24,5.17,5.12,5.28,5.37,5.44,5.56,5.79,6.02,6.20,6.36,6.52,6.75,6.80,6.80,6.82,6.89,6.90,6.95,7.00,7.00,7.08,7.16,7.20,7.21,7.29,7.30,7.34,7.38,7.30,7.23,7.15,7.07,6.99,6.92,7.02,7.14,7.20,7.20,7.41,7.55,7.60,7.60,7.68,7.87,8.16,8.54,8.85,9.03,9.27,9.50,9.50,9.50,9.55,9.57,9.49,9.42,9.40,9.36,9.30,9.30,9.37,9.45,9.52,9.60,9.76,9.85,10.00,10.28,10.89,11.70,12.72,13.91,15.23,16.61,18.05,19.52,21.01,22.87,24.78,26.75,28.62,29.86,30.27,30.31,29.86,28.70,27.31,26.19,25.35,24.74,24.20,24.17,24.69,25.65,26.74,27.74,28.95,30.26,31.57,32.89,34.02,34.20,33.26,31.87,31.09,30.39,29.81,29.50,29.58,29.38,29.11,28.83,28.21,27.66,27.40,27.44,27.59,27.82,27.85,27.75,27.59,27.36,27.18,27.10,27.11,27.19,27.27,27.52,27.87,28.10,28.10,28.10,28.38,29.07,29.77,30.46,31.04,31.50,31.97,32.43,32.89,33.33,33.72,34.10,34.49,34.88,35.24,35.47,35.70,35.89,36.00,36.00,36.38,36.82,37.16,37.34,37.72,38.11,38.58,39.10,39.57,40.17,41.65,43.49,44.93,45.54,46.22,47.02,48.00,49.31,50.76,52.23,53.63,54.87,56.10,57.39,58.70,60.28,64.60,68.81,73.02,77.08,80.40,79.65,76.16,71.79,68.67,67.28,66.28,66.14,66.95,67.95,68.95,70.04,71.22,72.46,73.77,75.03,76.21,77.12,76.12,75.06,74.05,73.21,72.75,71.44,68.59,64.42,59.47,57.77,55.62,53.80,52.89,53.51,54.06,54.56,55.10,55.87,57.38
3.23,3.46,3.82,4.20,4.53,4.63,4.47,4.14,3.83,3.52,3.46,3.53,3.61,3.69,3.77,3.80,3.76,3.68,3.58,3.47,3.36,3.31,3.38,3.48,3.59,3.72,3.82,3.97,4.11,4.23,4.34,4.49,4.59,4.69,4.85,5.00,4.99,4.91,4.86,4.97,5.05,5.15,5.32,5.60,5.83,5.98,6.10,6.26,6.44,6.48,6.48,6.50,6.57,6.58,6.63,6.68,6.68,6.76,6.84,6.88,6.89,6.97,6.98,7.02,7.07,7.05,7.02,6.96,6.88,6.80,6.73,6.79,6.88,6.95,7.00,7.17,7.26,7.30,7.35,7.52,7.81,8.10,8.36,8.71,8.98,9.19,9.31,9.31,9.31,9.36,9.40,9.37,9.34,9.26,9.22,9.25,9.29,9.41,9.51,9.60,9.73,9.83,10.16,10.61,11.11,11.78,12.60,13.59,14.72,15.93,17.13,18.50,19.97,21.45,23.05,24.83,26.68,28.33,29.03,29.12,28.92,28.34,27.23,25.89,24.69,23.69,22.97,22.58,22.81,23.50,24.49,25.52,26.58,27.83,29.19,30.55,31.86,32.85,33.37,33.30,32.50,31.79,31.07,30.38,29.82,29.60,29.18,28.71,28.26,27.64,27.25,27.13,27.24,27.40,27.40,27.31,27.17,27.02,26.78,26.61,26.53,26.54,26.62,26.69,26.89,27.16,27.40,27.45,27.60,27.99,28.67,29.22,29.77,30.27,30.74,31.20,31.66,32.10,32.50,32.88,33.22,33.60,33.98,34.35,34.63,34.83,35.02,35.18,35.23,35.61,35.95,36.22,36.45,36.94,37.46,37.95,38.41,38.92,39.53,40.61,42.03,43.54,44.70,45.84,47.06,48.39,49.75,51.33,52.97,54.57,56.01,57.20,58.27,59.50,61.25,65.04,69.01,73.12,77.05,79.93,78.42,74.60,70.44,68.08,66.45,65.24,65.05,65.98,66.93,67.89,68.96,70.15,71.43,72.70,73.94,74.66,74.41,72.96,71.53,70.47,69.96,70.13,70.01,67.88,64.41,60.80,58.61,56.29,53.91,51.85,51.93,52.40,52.92,53.54,54.46,55.88
3.18,3.48,3.85,4.23,4.54,4.49,4.26,3.95,3.62,3.34,3.29,3.37,3.45,3.52,3.60,3.64,3.63,3.56,3.48,3.36,3.22,3.15,3.18,3.26,3.37,3.50,3.60,3.72,3.87,4.01,4.11,4.24,4.35,4.46,4.59,4.73,4.71,4.64,4.60,4.68,4.76,4.89,5.09,5.38,5.57,5.71,5.85,6.00,6.11,6.15,6.16,6.18,6.25,6.26,6.31,6.36,6.36,6.44,6.50,6.54,6.57,6.65,6.66,6.70,6.76,6.76,6.78,6.75,6.69,6.61,6.53,6.56,6.63,6.70,6.78,6.91,6.97,7.03,7.15,7.40,7.72,8.01,8.25,8.61,8.89,9.06,9.12,9.12,9.12,9.17,9.22,9.22,9.22,9.15,9.15,9.25,9.34,9.45,9.56,9.67,9.83,10.08,10.62,11.28,11.95,12.64,13.48,14.46,15.56,16.70,17.76,19.00,20.39,21.86,23.32,24.98,26.48,27.56,27.80,27.69,27.38,26.76,25.68,24.41,23.17,22.08,21.27,20.96,21.46,22.30,23.31,24.31,25.43,26.73,28.12,29.50,30.82,31.73,32.44,32.89,32.66,32.16,31.49,30.75,30.03,29.43,28.82,28.23,27.68,27.07,26.85,26.87,27.01,27.07,26.92,26.75,26.59,26.41,26.20,26.03,25.95,25.96,26.04,26.12,26.26,26.46,26.69,26.77,27.08,27.58,28.20,28.64,29.10,29.55,29.99,30.43,30.86,31.26,31.64,32.03,32.36,32.71,33.09,33.46,33.77,33.96,34.16,34.34,34.44,34.80,35.16,35.57,36.06,36.56,37.17,37.69,38.14,38.74,39.40,40.35,41.63,43.22,44.75,46.08,47.43,48.89,50.32,52.00,53.77,55.51,57.10,58.35,59.76,61.38,63.29,66.04,69.28,72.80,76.21,78.55,76.71,73.02,69.29,67.34,65.50,64.16,63.92,64.88,65.81,66.79,67.89,69.12,70.41,71.67,72.80,73.13,72.15,70.20,68.39,67.26,67.04,67.77,68.62,67.34,64.65,61.89,59.50,56.95,54.09,51.25,50.65,50.92,51.38,51.96,52.83,54.12
3.18,3.51,3.85,4.23,4.54,4.37,4.07,3.74,3.36,3.18,3.17,3.24,3.32,3.40,3.47,3.52,3.51,3.43,3.35,3.23,3.10,3.02,2.95,3.03,3.16,3.25,3.40,3.49,3.61,3.76,3.91,4.00,4.13,4.25,4.34,4.42,4.39,4.34,4.35,4.42,4.50,4.66,4.89,5.13,5.22,5.40,5.59,5.74,5.75,5.81,5.84,5.86,5.94,5.94,5.99,6.04,6.04,6.12,6.15,6.18,6.25,6.33,6.34,6.38,6.44,6.44,6.51,6.53,6.50,6.42,6.34,6.33,6.37,6.45,6.53,6.61,6.69,6.80,7.02,7.32,7.58,7.88,8.24,8.56,8.75,8.87,8.93,8.93,8.93,8.98,9.03,9.03,9.03,9.07,9.17,9.32,9.47,9.49,9.59,9.74,9.90,10.54,11.26,12.02,12.78,13.47,14.35,15.36,16.44,17.53,18.55,19.58,20.77,22.24,23.71,25.25,26.11,26.16,26.05,25.90,25.65,25.10,24.02,22.85,21.63,20.53,19.68,19.37,20.10,21.09,22.09,23.10,24.31,25.64,27.03,28.42,29.73,30.68,31.39,31.90,32.21,32.08,31.58,30.86,30.10,29.01,28.24,27.66,27.11,26.49,26.48,26.61,26.70,26.58,26.36,26.18,26.00,25.78,25.62,25.46,25.38,25.39,25.47,25.54,25.63,25.76,25.99,26.07,26.55,27.14,27.62,28.01,28.46,28.89,29.28,29.67,30.00,30.36,30.75,31.13,31.51,31.85,32.19,32.57,32.88,33.11,33.30,33.46,33.61,33.92,34.47,35.29,36.30,36.70,37.33,37.91,38.43,39.18,39.94,41.11,42.63,44.31,45.99,47.14,48.24,49.54,51.08,52.81,54.62,56.43,58.12,59.56,62.04,64.69,66.72,67.79,69.62,71.91,74.29,75.99,74.36,71.42,68.38,66.38,64.39,63.01,62.73,63.60,64.53,65.64,66.86,68.15,69.39,70.70,71.58,71.62,70.51,67.96,65.75,64.55,64.57,65.75,67.31,67.04,65.23,62.66,60.47,57.62,54.37,51.20,49.76,49.69,49.96,50.35,50.93,52.01
3.19,3.54,3.91,4.27,4.41,4.19,3.88,3.55,3.16,2.99,2.98,3.07,3.19,3.27,3.35,3.39,3.38,3.30,3.22,3.10,2.97,2.89,2.81,2.84,2.91,2.99,3.15,3.27,3.39,3.51,3.66,3.75,3.87,4.02,4.13,4.17,4.12,4.08,4.09,4.17,4.24,4.43,4.68,4.87,4.95,5.13,5.32,5.42,5.42,5.48,5.52,5.54,5.62,5.62,5.67,5.72,5.72,5.80,5.82,5.86,5.93,6.01,6.02,6.07,6.12,6.12,6.20,6.22,6.23,6.23,6.15,6.10,6.12,6.19,6.27,6.35,6.45,6.62,6.89,7.20,7.52,7.85,8.18,8.45,8.58,8.68,8.73,8.73,8.73,8.78,8.83,8.83,8.83,8.93,9.08,9.27,9.43,9.52,9.65,9.80,9.96,10.78,11.63,12.49,13.34,14.12,15.02,15.99,16.97,17.92,18.89,19.90,21.04,22.35,23.86,24.77,25.10,24.93,24.52,24.18,23.92,23.45,22.42,21.26,20.16,19.17,18.34,17.90,18.72,19.81,20.88,21.89,23.19,24.47,25.72,26.94,28.21,29.42,30.35,30.94,31.37,31.33,31.07,30.63,29.94,28.74,27.80,27.08,26.56,26.20,26.19,26.21,26.17,26.01,25.79,25.60,25.42,25.19,25.04,24.89,24.80,24.81,24.89,24.97,25.05,25.15,25.34,25.59,26.03,26.51,26.93,27.36,27.79,28.19,28.57,28.96,29.28,29.61,29.95,30.29,30.64,30.99,31.33,31.67,31.98,32.22,32.41,32.74,33.54,34.28,35.16,36.18,37.22,37.61,38.17,38.71,39.27,40.22,41.44,42.98,44.56,45.83,47.23,48.35,49.44,50.67,52.13,53.71,55.41,57.18,58.97,62.19,65.48,68.34,70.39,71.28,71.75,72.57,73.60,73.64,72.23,69.81,67.07,64.81,62.84,61.72,61.57,62.34,63.40,64.61,65.82,66.99,68.10,69.11,69.72,69.32,67.53,64.98,62.77,61.86,62.43,64.01,65.81,66.56,65.85,63.49,61.71,59.51,56.33,52.28,49.75,48.90,48.73,48.96,49.46,50.31
3.22,3.58,3.96,4.30,4.25,3.99,3.68,3.34,2.97,2.81,2.81,2.91,3.04,3.12,3.20,3.25,3.25,3.17,3.10,2.98,2.86,2.76,2.69,2.65,2.67,2.75,2.89,3.05,3.17,3.27,3.41,3.51,3.63,3.77,3.92,3.92,3.87,3.82,3.83,3.91,4.00,4.21,4.46,4.60,4.69,4.87,5.03,5.10,5.10,5.16,5.20,5.22,5.30,5.30,5.35,5.40,5.41,5.48,5.50,5.54,5.61,5.69,5.70,5.75,5.80,5.80,5.88,5.90,5.93,6.00,5.94,5.87,5.87,5.94,6.01,6.11,6.25,6.48,6.79,7.11,7.47,7.81,8.11,8.31,8.41,8.48,8.54,8.54,8.54,8.59,8.64,8.64,8.64,8.77,8.97,9.19,9.36,9.53,9.69,9.85,10.01,10.93,11.86,12.78,13.69,14.55,15.47,16.40,17.31,18.17,19.11,20.14,21.24,22.36,23.65,24.01,23.98,23.75,23.14,22.64,22.29,21.83,20.86,19.76,18.78,17.88,17.05,16.46,17.31,18.46,19.58,20.61,21.94,23.14,24.26,25.35,26.60,27.96,29.05,29.76,30.32,30.43,30.41,30.19,29.57,28.43,27.35,26.51,26.03,25.91,25.85,25.75,25.59,25.42,25.21,25.03,24.85,24.62,24.46,24.30,24.21,24.24,24.32,24.39,24.47,24.57,24.71,25.07,25.45,25.85,26.25,26.70,27.11,27.51,27.89,28.26,28.57,28.88,29.19,29.50,29.81,30.15,30.49,30.80,31.11,31.44,31.84,32.55,33.96,35.04,36.14,37.22,38.23,38.66,39.45,40.30,41.15,42.15,43.60,45.24,46.69,47.61,48.71,49.72,50.76,51.91,53.29,54.74,56.30,58.07,60.18,64.96,69.00,72.10,74.17,74.82,74.11,73.50,73.09,71.73,70.39,68.30,65.76,63.30,61.42,60.45,60.36,61.04,62.17,63.40,64.56,65.62,66.62,67.38,67.66,66.84,64.57,62.13,59.86,59.17,60.30,62.39,64.35,65.85,66.14,64.38,62.85,61.19,58.24,53.76,49.96,48.41,47.77,47.71,48.17,48.87
3.27,3.65,4.01,4.28,4.09,3.80,3.46,3.10,2.78,2.67,2.68,2.76,2.85,2.93,3.01,3.08,3.12,3.04,2.97,2.88,2.78,2.64,2.56,2.49,2.48,2.56,2.65,2.79,2.94,3.07,3.16,3.30,3.41,3.52,3.67,3.67,3.61,3.57,3.58,3.66,3.79,3.99,4.19,4.28,4.42,4.58,4.71,4.78,4.78,4.85,4.88,4.90,4.98,4.98,5.03,5.08,5.09,5.16,5.18,5.22,5.29,5.37,5.38,5.43,5.48,5.48,5.56,5.58,5.61,5.68,5.67,5.66,5.66,5.68,5.76,5.89,6.12,6.41,6.72,7.10,7.43,7.75,8.03,8.13,8.22,8.29,8.35,8.35,8.35,8.40,8.45,8.45,8.45,8.62,8.84,9.07,9.29,9.51,9.69,9.85,10.01,10.93,11.86,12.76,13.63,14.54,15.47,16.40,17.32,18.23,19.22,20.27,21.31,22.24,22.70,22.86,22.83,22.60,22.05,21.46,20.90,20.26,19.39,18.49,17.57,16.64,15.75,15.02,15.84,16.96,18.07,19.20,20.39,21.48,22.53,23.63,24.93,26.11,27.13,28.03,28.94,29.44,29.61,29.42,28.81,27.96,26.87,25.96,25.53,25.51,25.34,25.17,25.00,24.78,24.61,24.45,24.27,24.04,23.89,23.69,23.60,23.66,23.74,23.82,23.90,23.98,24.07,24.39,24.75,25.16,25.61,26.01,26.45,26.87,27.24,27.56,27.87,28.18,28.49,28.80,29.11,29.38,29.66,29.97,30.28,30.91,32.02,33.53,35.23,36.32,37.28,38.23,39.20,39.78,41.51,43.49,45.18,45.94,46.96,48.00,48.98,49.84,50.74,51.44,52.23,53.24,54.57,56.02,57.47,59.31,62.26,67.55,72.32,75.99,78.11,77.82,76.37,74.50,72.56,70.81,69.12,67.01,64.61,62.16,60.42,59.27,59.00,59.62,60.65,61.70,62.77,63.83,64.84,65.49,65.34,64.23,62.15,59.81,57.21,56.49,58.09,60.97,63.05,64.70,65.61,65.40,63.67,61.92,59.45,55.78,50.41,48.48,47.34,46.69,47.15,47.90
3.29,3.67,3.99,4.18,3.91,3.61,3.26,2.89,2.58,2.52,2.55,2.63,2.71,2.79,2.86,2.94,2.99,2.92,2.84,2.76,2.66,2.51,2.43,2.35,2.31,2.32,2.44,2.55,2.69,2.84,2.95,3.07,3.18,3.30,3.41,3.37,3.31,3.28,3.32,3.40,3.57,3.77,3.93,4.01,4.16,4.29,4.39,4.46,4.46,4.53,4.56,4.58,4.66,4.66,4.71,4.76,4.77,4.84,4.86,4.90,4.98,5.05,5.06,5.11,5.16,5.16,5.24,5.26,5.29,5.36,5.36,5.39,5.41,5.43,5.55,5.76,6.06,6.40,6.71,7.09,7.42,7.68,7.87,7.95,8.02,8.10,8.16,8.16,8.16,8.21,8.26,8.26,8.34,8.53,8.76,8.99,9.18,9.41,9.62,9.81,10.01,10.90,11.81,12.71,13.57,14.49,15.42,16.35,17.26,18.11,19.00,19.93,20.76,21.37,21.64,21.73,21.68,21.46,20.96,20.26,19.49,18.67,17.82,16.97,16.10,15.19,14.28,13.55,14.19,15.22,16.34,17.47,18.62,19.73,20.82,21.94,23.15,24.20,25.17,26.09,26.99,27.57,27.78,27.58,26.96,26.33,25.58,25.09,25.06,24.95,24.77,24.60,24.42,24.19,24.03,23.86,23.66,23.47,23.31,23.10,23.01,23.09,23.17,23.24,23.30,23.37,23.52,23.83,24.14,24.50,24.93,25.35,25.77,26.18,26.55,26.86,27.17,27.48,27.79,28.09,28.40,28.68,29.02,29.47,30.11,31.36,32.93,34.68,36.46,37.66,38.82,40.26,42.12,43.54,45.56,47.38,48.65,49.12,49.75,50.49,51.28,52.03,52.84,53.40,53.97,54.76,55.96,57.33,58.92,61.09,64.40,69.58,74.43,78.29,80.50,79.19,77.19,74.83,72.34,70.09,68.56,66.98,65.12,62.84,60.81,59.10,58.08,57.97,58.98,59.98,61.01,62.02,62.95,63.62,63.61,62.71,60.75,57.74,54.66,53.74,55.55,59.22,61.59,63.33,64.57,65.35,64.00,62.43,60.38,57.34,51.07,48.78,47.37,46.33,46.06,46.97
3.31,3.68,3.96,4.04,3.73,3.41,3.06,2.70,2.39,2.37,2.42,2.49,2.57,2.65,2.72,2.80,2.86,2.79,2.71,2.63,2.54,2.38,2.30,2.23,2.15,2.08,2.23,2.32,2.44,2.59,2.74,2.83,2.95,3.08,3.15,3.08,3.00,2.99,3.06,3.14,3.35,3.53,3.66,3.75,3.91,4.00,4.07,4.15,4.15,4.21,4.25,4.26,4.34,4.35,4.39,4.45,4.45,4.52,4.55,4.58,4.66,4.73,4.75,4.79,4.85,4.85,4.92,4.95,4.97,5.05,5.05,5.11,5.15,5.20,5.37,5.67,6.03,6.39,6.71,7.08,7.40,7.60,7.68,7.75,7.83,7.91,7.97,7.97,7.97,8.02,8.07,8.08,8.24,8.46,8.69,8.91,9.07,9.30,9.53,9.76,9.99,10.84,11.73,12.62,13.47,14.37,15.26,16.16,17.01,17.72,18.43,19.14,19.72,20.07,20.42,20.52,20.45,20.24,19.75,18.95,18.01,17.06,16.22,15.37,14.52,13.65,12.76,12.08,12.49,13.40,14.54,15.63,16.79,17.96,19.12,20.28,21.33,22.27,23.19,24.08,24.84,25.40,25.58,25.35,24.73,24.25,23.90,23.95,24.42,24.29,24.16,24.01,23.84,23.62,23.46,23.25,23.05,22.89,22.73,22.52,22.44,22.51,22.59,22.65,22.68,22.76,23.00,23.31,23.57,23.86,24.25,24.69,25.09,25.48,25.85,26.16,26.47,26.80,27.14,27.48,27.82,28.17,28.59,29.22,30.36,32.26,34.14,35.92,37.70,39.22,40.84,42.99,45.83,48.04,50.03,51.26,51.72,51.92,52.22,52.82,53.55,54.21,54.96,55.44,55.84,56.36,57.40,58.81,60.69,63.21,66.65,71.38,76.00,79.85,82.10,79.88,77.47,74.95,72.39,69.90,68.73,67.74,66.41,64.25,61.70,59.34,57.48,56.47,57.17,58.12,59.11,60.04,60.80,61.54,61.83,61.21,59.30,55.50,52.16,51.15,52.98,57.16,60.08,62.01,63.42,64.81,64.14,62.84,61.14,58.59,51.90,49.17,47.50,46.15,45.00,46.06
3.36,3.74,3.94,3.85,3.54,3.18,2.83,2.51,2.20,2.18,2.22,2.30,2.38,2.46,2.53,2.61,2.67,2.65,2.58,2.51,2.41,2.25,2.18,2.10,2.00,1.88,1.98,2.11,2.22,2.33,2.49,2.57,2.70,2.83,2.90,2.82,2.74,2.71,2.75,2.88,3.10,3.22,3.30,3.49,3.65,3.71,3.76,3.83,3.83,3.89,3.93,3.94,4.02,4.03,4.07,4.13,4.13,4.20,4.23,4.26,4.34,4.41,4.43,4.47,4.53,4.53,4.60,4.63,4.65,4.73,4.73,4.79,4.88,5.03,5.30,5.65,6.00,6.34,6.70,7.03,7.26,7.41,7.49,7.56,7.64,7.72,7.78,7.78,7.78,7.83,7.88,7.89,8.10,8.33,8.56,8.79,9.00,9.23,9.46,9.70,9.93,10.72,11.57,12.41,13.19,13.95,14.65,15.35,15.97,16.33,16.65,16.99,17.44,18.04,18.64,18.87,18.86,18.62,17.98,17.21,16.29,15.35,14.55,13.70,12.90,12.07,11.24,10.66,10.84,11.59,12.69,13.83,15.05,16.26,17.48,18.68,19.53,20.35,21.18,22.03,22.74,23.20,23.37,23.18,22.56,21.98,21.67,21.98,22.95,23.42,23.47,23.37,23.21,23.04,22.88,22.68,22.47,22.32,22.10,21.92,21.86,21.94,22.02,21.99,22.01,22.13,22.42,22.73,23.03,23.33,23.66,24.01,24.39,24.77,25.14,25.45,25.76,26.22,26.76,27.30,27.84,28.38,28.89,29.60,31.53,33.58,35.48,37.27,39.11,41.79,44.56,47.34,49.99,51.55,53.06,53.84,53.92,53.92,54.20,54.80,55.60,56.44,57.10,57.51,57.80,58.11,58.91,61.08,63.45,66.03,69.27,72.99,76.98,80.51,82.65,80.08,77.63,75.29,73.22,71.96,71.12,70.14,68.60,66.08,62.65,59.79,57.58,56.02,54.95,55.63,56.54,57.23,57.50,58.46,58.76,57.99,55.85,51.94,49.79,49.40,50.83,54.11,58.59,61.25,62.59,63.81,64.17,63.16,61.54,59.25,53.14,49.56,47.26,45.66,44.12,45.22
3.42,3.76,3.88,3.65,3.31,2.96,2.63,2.32,2.01,2.01,2.07,2.15,2.23,2.30,2.38,2.46,2.52,2.52,2.46,2.38,2.28,2.13,2.05,1.97,1.87,1.76,1.75,1.87,2.00,2.11,2.23,2.34,2.46,2.56,2.60,2.53,2.45,2.42,2.47,2.66,2.83,2.92,3.01,3.24,3.37,3.41,3.44,3.51,3.51,3.57,3.61,3.62,3.70,3.71,3.75,3.81,3.81,3.89,3.91,3.94,4.01,4.06,4.09,4.15,4.21,4.21,4.28,4.33,4.38,4.49,4.52,4.61,4.74,4.93,5.27,5.62,5.97,6.31,6.67,6.94,7.11,7.22,7.29,7.37,7.45,7.53,7.58,7.58,7.58,7.63,7.71,7.78,8.01,8.22,8.43,8.67,8.90,9.13,9.36,9.57,9.75,10.34,11.01,11.73,12.46,13.13,13.65,14.04,14.28,14.36,14.49,14.68,15.11,15.89,16.61,16.95,17.02,16.83,16.19,15.46,14.58,13.67,12.89,12.04,11.35,10.74,10.15,9.79,9.92,10.41,11.20,12.21,13.43,14.67,15.89,17.07,17.85,18.62,19.37,20.09,20.72,21.06,21.17,20.98,20.39,19.89,19.88,20.41,21.38,22.16,22.48,22.56,22.51,22.42,22.27,22.08,21.90,21.74,21.51,21.34,21.29,21.35,21.37,21.33,21.39,21.57,21.85,22.16,22.47,22.77,23.08,23.39,23.81,24.29,24.78,25.24,25.67,26.22,26.84,27.46,28.08,28.67,29.34,30.35,32.74,35.00,37.03,39.06,41.54,44.78,47.93,50.87,53.46,54.89,55.94,56.33,56.15,55.96,56.22,56.78,57.64,58.82,60.15,60.68,60.90,61.19,62.07,64.52,67.23,69.93,72.64,75.48,78.64,81.38,82.81,80.37,78.19,76.35,74.99,74.27,73.50,72.26,70.34,67.54,63.66,60.52,58.18,56.52,54.87,54.45,54.20,53.92,53.73,54.36,54.57,54.03,52.52,49.62,48.20,48.16,49.37,51.55,56.20,59.64,61.70,62.80,63.60,63.05,61.78,59.70,54.13,49.95,47.15,45.30,43.51,44.38
3.48,3.75,3.77,3.45,3.07,2.74,2.44,2.13,1.82,1.86,1.94,2.02,2.09,2.17,2.25,2.33,2.39,2.40,2.33,2.25,2.15,2.00,1.92,1.84,1.77,1.68,1.53,1.61,1.77,1.91,1.98,2.13,2.24,2.29,2.29,2.21,2.13,2.12,2.22,2.45,2.55,2.63,2.75,2.98,3.06,3.09,3.12,3.19,3.19,3.25,3.29,3.30,3.38,3.39,3.43,3.49,3.49,3.57,3.59,3.62,3.69,3.69,3.75,3.83,3.89,3.89,3.97,4.05,4.15,4.30,4.38,4.52,4.68,4.88,5.27,5.58,5.93,6.29,6.60,6.83,6.95,7.03,7.10,7.18,7.26,7.33,7.39,7.39,7.39,7.44,7.55,7.71,7.94,8.12,8.31,8.54,8.77,9.00,9.23,9.41,9.49,9.80,10.21,10.76,11.44,12.04,12.39,12.41,12.20,12.05,12.11,12.28,12.75,13.66,14.43,14.85,15.02,14.93,14.39,13.71,12.89,12.01,11.26,10.42,9.91,9.59,9.37,9.30,9.48,9.67,9.97,10.72,11.90,13.13,14.34,15.48,16.25,17.02,17.68,18.22,18.76,18.95,18.97,18.76,18.24,17.95,18.41,19.11,19.76,20.69,21.30,21.63,21.75,21.76,21.62,21.47,21.32,21.16,20.93,20.76,20.71,20.76,20.68,20.68,20.81,21.04,21.28,21.58,21.89,22.21,22.52,22.83,23.33,23.96,24.66,25.35,25.98,26.60,27.21,27.83,28.45,29.02,29.88,31.36,33.99,36.49,38.72,41.15,44.62,48.02,51.05,53.86,56.47,58.12,58.78,58.83,58.51,58.11,58.34,58.85,59.81,61.42,63.90,64.66,64.85,65.21,66.34,68.75,71.67,74.52,76.50,78.56,80.76,82.39,82.76,80.79,79.05,77.94,77.39,76.76,75.84,74.18,71.79,68.73,64.74,61.48,59.16,57.69,56.20,54.21,52.16,50.48,49.82,49.77,49.81,49.73,49.35,48.12,47.14,47.23,48.33,49.35,53.21,57.43,60.69,61.78,62.63,62.66,61.90,60.02,54.94,50.35,47.13,45.01,43.07,43.56
3.48,3.65,3.58,3.26,2.88,2.55,2.24,1.93,1.63,1.67,1.75,1.83,1.90,1.98,2.06,2.14,2.22,2.32,2.22,2.12,2.04,1.94,1.81,1.71,1.64,1.55,1.40,1.41,1.51,1.65,1.73,1.87,2.01,2.08,2.03,1.95,1.88,1.87,1.97,2.20,2.26,2.34,2.48,2.66,2.69,2.74,2.80,2.87,2.87,2.93,2.97,2.98,3.06,3.07,3.11,3.17,3.17,3.25,3.27,3.30,3.37,3.37,3.48,3.58,3.66,3.76,3.89,3.98,4.07,4.18,4.31,4.49,4.68,4.91,5.51,5.66,5.90,6.23,6.54,6.66,6.76,6.83,6.91,6.99,7.07,7.14,7.20,7.20,7.20,7.25,7.38,7.58,7.81,8.03,8.24,8.48,8.71,8.94,9.08,9.17,9.30,9.51,9.75,10.06,10.44,10.75,10.80,10.74,10.61,10.51,10.53,10.59,10.84,11.43,12.30,12.82,13.06,13.02,12.53,11.90,11.21,10.58,10.17,9.73,9.40,9.14,8.95,9.08,9.25,9.42,9.63,10.04,10.55,11.53,12.74,13.88,14.65,15.42,16.02,16.42,16.91,16.93,16.80,16.68,16.70,17.01,17.57,18.22,18.86,19.74,20.22,20.48,20.64,20.79,20.80,20.74,20.62,20.46,20.28,20.16,20.09,20.06,20.04,20.08,20.23,20.48,20.76,21.07,21.42,21.80,22.21,22.62,23.22,23.94,24.74,25.54,26.17,26.79,27.41,28.03,28.70,29.31,30.51,32.58,35.26,37.85,40.60,43.63,47.05,50.35,53.49,56.51,59.40,61.64,63.02,63.46,63.13,62.54,62.30,63.02,64.71,67.24,69.97,70.76,70.90,71.11,71.50,73.75,76.52,79.01,80.35,81.82,82.99,83.67,83.67,82.59,81.54,80.76,80.15,79.27,77.84,75.79,73.05,69.58,66.28,63.60,61.59,60.06,58.18,56.17,53.87,51.53,49.73,49.12,48.78,48.50,48.08,47.00,46.24,46.14,46.79,48.05,50.15,53.56,57.52,60.88,61.68,62.24,61.95,60.21,55.63,50.74,47.29,45.03,42.64,42.73
3.51,3.57,3.38,3.04,2.68,2.36,2.04,1.72,1.46,1.51,1.59,1.66,1.74,1.82,1.90,1.97,2.06,2.19,2.10,2.00,1.92,1.84,1.69,1.59,1.51,1.43,1.27,1.22,1.27,1.40,1.50,1.63,1.76,1.82,1.75,1.67,1.61,1.62,1.73,1.89,1.96,2.06,2.21,2.34,2.35,2.40,2.47,2.52,2.54,2.61,2.65,2.66,2.74,2.75,2.80,2.85,2.85,2.93,2.98,3.05,3.14,3.17,3.30,3.42,3.53,3.63,3.76,3.88,3.98,4.08,4.26,4.46,4.64,4.88,5.46,5.67,5.90,6.17,6.41,6.49,6.56,6.64,6.72,6.80,6.87,6.95,7.01,7.01,7.01,7.09,7.25,7.48,7.69,7.92,8.15,8.38,8.61,8.78,8.85,8.90,9.08,9.23,9.37,9.55,9.76,9.87,9.78,9.68,9.60,9.52,9.52,9.52,9.63,9.97,10.69,11.12,11.33,11.31,10.96,10.52,10.05,9.66,9.45,9.22,8.98,8.76,8.61,8.84,9.01,9.17,9.36,9.57,9.75,10.39,11.33,12.31,13.09,13.80,14.32,14.64,15.01,14.96,14.96,15.13,15.53,16.17,16.91,17.62,18.23,18.99,19.42,19.67,19.83,20.01,20.08,20.08,20.02,19.91,19.76,19.66,19.57,19.48,19.46,19.54,19.73,20.00,20.31,20.67,21.06,21.49,21.96,22.45,23.14,23.94,24.78,25.61,26.31,26.98,27.63,28.25,28.92,29.64,31.15,33.66,36.41,39.23,42.37,45.75,49.15,52.46,55.74,59.01,62.24,65.07,67.06,68.06,68.18,67.84,67.36,68.10,70.07,73.06,75.99,76.86,76.92,76.85,76.71,78.47,80.40,81.87,82.39,82.80,82.92,82.98,83.18,83.61,83.93,84.02,83.71,82.66,80.61,77.82,74.49,70.88,68.01,65.92,64.27,62.71,60.48,58.16,55.58,52.86,50.30,49.07,48.27,47.68,47.12,46.14,45.43,45.10,45.32,46.48,47.70,50.20,53.84,58.13,60.36,61.56,61.67,60.55,57.25,51.41,47.18,44.66,42.08,41.88
3.57,3.49,3.17,2.79,2.48,2.17,1.82,1.49,1.32,1.38,1.46,1.54,1.61,1.69,1.77,1.85,1.92,2.01,1.95,1.87,1.79,1.71,1.56,1.46,1.38,1.30,1.14,1.05,1.06,1.15,1.30,1.39,1.47,1.50,1.43,1.35,1.33,1.39,1.52,1.53,1.66,1.81,1.94,2.03,2.03,2.08,2.13,2.14,2.21,2.29,2.33,2.34,2.42,2.43,2.48,2.53,2.53,2.61,2.73,2.88,3.02,3.09,3.24,3.39,3.50,3.51,3.59,3.72,3.87,4.02,4.25,4.42,4.58,4.77,5.10,5.59,5.94,6.13,6.22,6.30,6.37,6.45,6.53,6.60,6.68,6.76,6.82,6.82,6.82,6.96,7.19,7.42,7.58,7.79,8.02,8.25,8.49,8.52,8.53,8.60,8.82,8.98,9.08,9.23,9.43,9.44,9.37,9.29,9.22,9.14,9.13,9.13,9.19,9.37,9.64,9.78,9.83,9.82,9.72,9.61,9.46,9.29,9.13,8.90,8.67,8.46,8.35,8.58,8.75,8.94,9.15,9.31,9.54,9.76,10.12,10.78,11.55,12.16,12.60,12.88,13.06,13.07,13.48,14.16,14.76,15.45,16.45,17.34,17.89,18.45,18.92,19.22,19.36,19.45,19.46,19.50,19.54,19.53,19.37,19.28,19.17,19.03,18.96,19.08,19.32,19.62,19.93,20.38,20.84,21.30,21.77,22.31,23.09,23.94,24.77,25.55,26.38,27.17,27.88,28.50,29.12,30.02,31.80,34.57,37.42,40.64,44.02,47.47,50.87,54.33,57.79,61.33,64.98,68.41,70.91,72.65,73.70,74.10,73.64,74.17,75.93,78.88,81.96,82.98,82.92,82.43,81.99,82.86,83.23,82.94,82.42,81.26,80.31,80.11,81.13,83.79,86.22,87.79,88.16,87.01,84.23,80.32,76.14,72.67,69.95,68.44,67.23,65.67,63.15,60.20,57.31,54.49,51.59,49.68,48.32,47.31,46.48,45.55,44.70,44.10,43.95,44.61,45.91,47.40,49.62,53.34,58.62,60.59,61.06,61.03,59.91,52.38,46.75,43.85,41.37,40.98
3.46,3.31,2.97,2.60,2.29,1.98,1.63,1.29,1.14,1.20,1.27,1.37,1.49,1.56,1.64,1.72,1.80,1.87,1.82,1.74,1.66,1.59,1.43,1.33,1.25,1.17,1.02,0.92,0.88,0.90,1.05,1.18,1.25,1.24,1.17,1.09,1.07,1.12,1.21,1.21,1.38,1.53,1.63,1.71,1.71,1.76,1.81,1.82,1.89,1.97,2.01,2.02,2.10,2.15,2.24,2.35,2.44,2.52,2.65,2.81,2.95,3.03,3.13,3.24,3.34,3.38,3.50,3.67,3.86,4.01,4.20,4.36,4.54,4.74,4.96,5.47,5.80,5.95,6.03,6.10,6.18,6.26,6.34,6.41,6.49,6.57,6.63,6.63,6.67,6.84,7.07,7.30,7.50,7.72,7.93,8.10,8.20,8.21,8.24,8.32,8.51,8.66,8.76,8.91,9.10,9.06,8.99,8.91,8.83,8.76,8.71,8.69,8.76,8.96,9.10,9.19,9.26,9.28,9.20,9.12,9.03,8.91,8.75,8.52,8.29,8.14,8.15,8.33,8.53,8.72,8.90,9.06,9.28,9.47,9.69,10.04,10.45,10.76,10.99,11.22,11.73,12.19,12.90,13.82,14.75,15.45,16.18,16.83,17.34,17.88,18.35,18.70,18.92,19.04,19.05,19.07,19.09,19.09,19.03,18.92,18.78,18.64,18.56,18.80,19.10,19.42,19.78,20.20,20.65,21.11,21.59,22.22,23.03,23.88,24.72,25.54,26.38,27.21,28.00,28.70,29.32,30.63,32.73,35.51,38.33,41.81,45.49,49.18,52.71,56.23,59.88,63.63,67.47,71.26,74.34,76.85,78.66,79.35,79.70,80.70,82.48,84.94,86.73,86.93,85.83,83.81,81.87,81.29,80.67,79.85,79.05,78.36,77.48,77.55,79.50,83.70,88.45,92.04,93.64,92.57,89.29,84.56,80.02,77.47,74.50,72.64,70.94,68.80,65.94,62.65,59.29,56.13,53.55,51.43,49.65,48.38,47.66,46.91,46.02,45.13,44.21,42.99,43.52,44.51,46.25,49.28,53.67,57.05,59.35,60.51,60.12,52.90,47.18,43.83,40.64,40.12
3.33,3.11,2.77,2.40,2.09,1.77,1.42,1.10,0.97,1.03,1.10,1.20,1.34,1.41,1.49,1.57,1.65,1.72,1.70,1.62,1.54,1.46,1.32,1.21,1.13,1.04,0.91,0.80,0.72,0.68,0.80,0.95,1.00,0.96,0.89,0.81,0.80,0.84,0.89,0.91,1.09,1.23,1.31,1.39,1.39,1.44,1.49,1.50,1.57,1.66,1.73,1.77,1.87,1.96,2.08,2.23,2.38,2.47,2.60,2.74,2.86,2.92,3.00,3.09,3.18,3.27,3.44,3.64,3.84,3.99,4.16,4.32,4.50,4.71,4.86,5.32,5.62,5.76,5.84,5.91,5.99,6.07,6.14,6.22,6.30,6.38,6.43,6.43,6.54,6.73,6.96,7.19,7.41,7.62,7.79,7.89,7.89,7.89,7.95,8.06,8.21,8.35,8.46,8.60,8.78,8.70,8.63,8.55,8.47,8.39,8.32,8.28,8.34,8.53,8.61,8.68,8.77,8.84,8.77,8.68,8.60,8.51,8.37,8.15,7.93,7.83,7.93,8.08,8.30,8.49,8.65,8.82,9.04,9.21,9.36,9.50,9.65,9.75,9.85,10.09,10.90,11.75,12.66,13.64,14.66,15.31,15.83,16.30,16.78,17.30,17.78,18.18,18.48,18.64,18.65,18.65,18.65,18.65,18.65,18.54,18.40,18.28,18.20,18.53,18.88,19.22,19.61,19.99,20.44,20.92,21.41,22.14,22.96,23.81,24.66,25.51,26.36,27.21,28.04,28.83,29.53,31.26,33.66,36.45,39.30,43.00,46.90,50.77,54.47,58.11,61.93,65.89,69.96,74.16,78.11,81.41,83.72,84.40,85.11,86.20,87.60,89.21,89.84,88.82,86.42,83.06,80.03,78.29,77.02,76.03,75.28,75.10,74.61,75.29,78.33,83.63,90.65,96.07,98.59,97.77,94.59,89.65,84.86,82.36,79.11,76.65,74.23,71.44,68.21,64.62,61.09,57.99,55.82,53.59,51.53,49.99,49.16,48.49,47.56,46.46,44.96,42.31,41.69,41.98,43.17,45.37,48.83,52.96,56.51,58.66,58.93,52.89,47.65,44.05,40.46,39.65
3.18,2.88,2.53,2.21,1.90,1.54,1.19,0.92,0.84,0.90,0.98,1.06,1.15,1.22,1.30,1.38,1.45,1.53,1.59,1.53,1.41,1.33,1.24,1.12,1.00,0.92,0.83,0.70,0.59,0.53,0.55,0.70,0.72,0.65,0.57,0.49,0.52,0.56,0.58,0.65,0.80,0.91,0.99,1.07,1.07,1.12,1.17,1.18,1.25,1.38,1.52,1.66,1.80,1.94,2.05,2.16,2.32,2.46,2.56,2.65,2.73,2.74,2.81,2.92,3.06,3.21,3.43,3.61,3.77,3.93,4.15,4.32,4.48,4.64,4.80,5.12,5.39,5.57,5.64,5.72,5.80,5.88,5.95,6.03,6.11,6.18,6.24,6.24,6.44,6.67,6.90,7.13,7.29,7.46,7.55,7.57,7.57,7.57,7.66,7.80,7.96,8.05,8.17,8.33,8.46,8.38,8.31,8.23,8.15,8.07,8.00,7.93,7.92,8.02,8.09,8.17,8.28,8.40,8.39,8.26,8.15,8.07,7.98,7.82,7.61,7.53,7.67,7.83,8.05,8.24,8.41,8.63,8.80,8.96,9.09,9.18,9.33,9.43,9.60,9.98,10.89,11.97,12.90,13.65,14.28,14.78,15.25,15.74,16.26,16.74,17.20,17.66,18.03,18.19,18.20,18.20,18.20,18.20,18.20,18.13,18.04,17.96,17.88,18.21,18.59,18.96,19.35,19.74,20.22,20.73,21.23,22.05,22.90,23.75,24.60,25.45,26.30,27.15,27.99,28.84,29.79,31.91,34.56,37.38,40.43,44.28,48.24,52.17,56.06,59.95,63.91,68.06,72.50,77.25,82.61,86.77,89.04,89.23,89.36,89.64,89.91,90.02,90.00,87.22,83.19,79.03,75.95,73.70,72.31,71.63,71.37,71.39,71.67,73.55,77.98,83.62,92.78,99.59,102.34,102.07,100.10,96.05,91.11,86.82,83.32,79.97,76.59,73.10,69.48,65.58,62.49,60.28,58.56,56.33,54.21,52.37,50.94,50.12,49.16,47.98,46.31,43.36,41.07,40.16,40.46,41.59,44.81,48.34,51.72,54.49,55.55,51.96,48.02,44.59,41.34,39.93
3.02,2.69,2.33,2.02,1.67,1.32,0.99,0.74,0.70,0.77,0.85,0.93,1.00,1.08,1.16,1.23,1.31,1.39,1.47,1.41,1.28,1.20,1.13,1.00,0.87,0.79,0.72,0.58,0.46,0.39,0.35,0.46,0.45,0.38,0.30,0.22,0.23,0.25,0.27,0.38,0.53,0.62,0.67,0.75,0.79,0.88,0.98,1.06,1.18,1.32,1.46,1.58,1.74,1.89,2.02,2.14,2.25,2.33,2.41,2.48,2.56,2.59,2.70,2.83,3.00,3.19,3.39,3.55,3.72,3.91,4.11,4.27,4.43,4.58,4.73,4.96,5.17,5.34,5.45,5.53,5.61,5.68,5.76,5.84,5.92,5.99,6.06,6.10,6.32,6.55,6.77,6.96,7.12,7.21,7.25,7.25,7.25,7.25,7.37,7.54,7.65,7.73,7.86,8.00,8.09,8.01,7.94,7.86,7.78,7.71,7.63,7.53,7.48,7.56,7.63,7.71,7.81,7.91,7.95,7.85,7.73,7.63,7.55,7.44,7.29,7.26,7.42,7.62,7.81,8.00,8.20,8.39,8.51,8.65,8.79,8.91,9.14,9.38,9.66,10.11,11.08,11.91,12.61,13.21,13.75,14.21,14.68,15.17,15.70,16.17,16.63,17.11,17.55,17.74,17.79,17.80,17.79,17.75,17.75,17.72,17.67,17.59,17.56,17.89,18.30,18.72,19.14,19.57,20.05,20.56,21.14,21.99,22.84,23.69,24.53,25.34,26.15,27.08,28.10,29.15,30.54,32.74,35.35,38.23,41.63,45.63,49.76,53.92,58.05,61.70,65.54,69.79,74.50,78.83,84.98,89.05,90.32,90.39,90.43,90.40,90.00,88.87,86.45,82.76,78.61,74.61,71.56,69.49,68.40,68.06,68.06,68.43,69.91,73.04,78.09,84.27,94.00,100.95,103.84,105.49,104.37,101.25,96.50,90.67,86.00,81.81,77.89,74.10,70.28,67.30,65.16,63.48,61.51,59.21,56.79,54.72,53.39,52.73,51.68,50.12,47.96,44.98,41.63,39.81,39.37,39.79,41.65,44.09,46.83,49.51,51.32,50.02,47.49,44.45,41.48,39.98
2.85,2.49,2.14,1.82,1.44,1.11,0.80,0.56,0.56,0.63,0.71,0.78,0.86,0.94,1.02,1.09,1.17,1.25,1.33,1.28,1.15,1.07,1.00,0.87,0.74,0.67,0.59,0.45,0.33,0.26,0.18,e,e,e,e,e,e,e,e,e,e,0.36,0.40,0.48,0.57,0.70,0.86,1.01,1.16,1.31,1.43,1.53,1.69,1.82,1.96,2.08,2.16,2.16,2.22,2.30,2.38,2.47,2.63,2.78,2.96,3.18,3.34,3.50,3.68,3.90,4.05,4.20,4.35,4.50,4.67,4.83,4.98,5.13,5.27,5.34,5.41,5.49,5.57,5.65,5.72,5.80,5.88,5.98,6.20,6.43,6.62,6.77,6.90,6.93,6.93,6.93,6.93,6.94,7.08,7.25,7.33,7.42,7.55,7.66,7.71,7.62,7.54,7.46,7.39,7.31,7.23,7.11,7.04,7.11,7.19,7.26,7.34,7.42,7.50,7.44,7.32,7.19,7.10,7.04,6.99,7.02,7.18,7.41,7.57,7.77,7.98,8.12,8.22,8.38,8.56,8.76,9.04,9.41,9.78,10.24,11.16,11.68,12.15,12.63,13.17,13.64,14.10,14.60,15.13,15.59,16.05,16.56,17.03,17.29,17.38,17.40,17.38,17.32,17.32,17.32,17.28,17.22,17.24,17.59,18.03,18.49,18.95,19.42,19.88,20.41,21.06,21.89,22.72,23.58,24.45,25.28,26.11,27.15,28.34,29.62,31.45,33.63,36.13,39.04,42.84,47.00,51.36,55.77,60.09,63.41,67.10,71.48,76.50,80.18,86.41,90.02,90.36,90.43,90.17,89.65,88.46,86.13,81.55,77.47,73.68,70.15,67.18,65.48,64.77,64.79,65.16,66.29,69.01,73.15,78.53,85.16,94.84,101.61,104.75,108.29,108.10,105.89,101.47,94.57,88.44,83.48,79.19,75.27,71.68,69.76,68.36,66.81,64.37,61.87,59.23,57.12,56.07,55.65,54.57,52.64,49.92,46.78,42.71,40.10,38.91,38.70,39.16,40.50,42.42,44.64,46.94,47.53,46.39,44.00,41.29,39.91
2.61,2.27,1.95,1.63,1.24,0.92,0.61,0.37,0.37,0.44,0.52,0.59,0.67,0.75,0.82,0.90,0.98,1.06,1.13,1.11,1.02,0.95,0.87,0.74,0.62,0.54,0.46,0.32,0.21,0.13,0.05,e,e,e,e,e,e,e,e,e,e,0.16,0.28,0.42,0.56,0.70,0.86,1.01,1.10,1.24,1.39,1.53,1.69,1.73,1.80,1.89,1.97,1.97,2.02,2.13,2.26,2.40,2.60,2.78,2.94,3.12,3.33,3.50,3.66,3.83,3.99,4.10,4.22,4.39,4.60,4.76,4.92,5.05,5.15,5.16,5.22,5.30,5.38,5.45,5.53,5.61,5.72,5.91,6.09,6.30,6.48,6.57,6.60,6.61,6.61,6.61,6.61,6.67,6.79,6.94,7.01,7.15,7.26,7.32,7.32,7.18,7.09,7.02,6.94,6.86,6.78,6.70,6.64,6.66,6.74,6.82,6.89,6.97,7.05,6.99,6.90,6.79,6.66,6.64,6.71,6.83,6.99,7.16,7.32,7.51,7.71,7.81,8.00,8.28,8.62,8.94,9.13,9.47,9.80,10.11,10.64,11.11,11.57,12.06,12.60,13.06,13.53,14.02,14.55,15.02,15.48,15.98,16.48,16.83,16.93,16.96,16.95,16.93,16.93,16.93,16.90,16.85,16.97,17.38,17.83,18.30,18.76,19.22,19.69,20.24,20.92,21.65,22.43,23.34,24.38,25.45,26.58,27.73,28.95,30.34,32.41,34.58,36.96,39.81,44.00,48.43,53.03,57.61,61.88,65.10,68.80,73.45,79.00,82.19,86.59,89.37,90.09,90.11,88.32,86.12,83.30,79.50,75.57,72.02,68.84,65.97,63.19,61.78,61.30,61.74,63.15,66.37,69.97,74.30,79.67,86.26,95.27,102.03,105.90,109.74,111.09,109.77,105.78,99.32,91.61,86.08,81.60,77.74,75.77,74.15,72.17,69.66,66.62,63.63,61.29,59.70,58.90,58.67,57.83,55.88,52.73,48.60,44.48,41.23,39.08,38.18,38.24,38.91,39.86,41.01,42.86,44.08,44.19,43.06,40.70,39.62
2.21,1.90,1.60,1.32,0.96,0.67,0.39,0.18,0.21,0.29,0.37,0.45,0.56,0.64,0.72,0.81,0.91,0.99,1.01,0.97,0.89,0.78,0.70,0.57,0.45,0.37,0.29,e,e,e,e,e,e,e,e,e,e,e,e,e,e,0.11,0.24,0.39,0.52,0.66,0.82,0.97,1.08,1.20,1.32,1.44,1.56,1.58,1.62,1.70,1.78,1.81,1.90,2.03,2.18,2.37,2.57,2.74,2.90,3.05,3.25,3.42,3.57,3.73,3.88,4.00,4.13,4.30,4.53,4.67,4.79,4.90,4.98,4.98,5.03,5.11,5.19,5.26,5.34,5.43,5.57,5.81,5.96,6.13,6.25,6.29,6.29,6.29,6.29,6.29,6.29,6.39,6.51,6.62,6.69,6.82,6.93,6.99,6.97,6.82,6.70,6.61,6.53,6.42,6.34,6.26,6.21,6.21,6.29,6.37,6.45,6.52,6.60,6.54,6.46,6.37,6.25,6.32,6.44,6.60,6.75,6.91,7.06,7.29,7.56,7.77,8.06,8.41,8.81,9.21,9.34,9.59,9.85,10.09,10.38,10.71,11.08,11.51,12.02,12.49,12.97,13.47,13.98,14.44,14.93,15.43,15.92,16.34,16.47,16.51,16.51,16.51,16.51,16.51,16.49,16.49,16.71,17.16,17.64,18.11,18.57,19.03,19.47,20.01,20.72,21.61,22.56,23.60,24.73,25.88,27.11,28.30,29.61,31.25,33.41,35.58,37.94,40.87,45.52,50.23,54.97,59.59,63.83,67.06,71.05,75.73,80.65,82.99,85.30,86.57,86.45,84.94,82.25,79.26,76.13,72.93,70.03,67.04,64.36,62.15,60.08,59.02,59.06,60.25,62.60,67.19,71.57,76.19,81.51,87.85,95.53,101.85,106.40,110.78,113.40,112.47,108.60,102.88,95.90,90.57,85.73,81.25,79.83,77.70,74.92,71.60,67.97,65.65,64.01,63.00,62.53,62.18,61.00,58.61,54.95,50.22,46.15,42.49,39.68,38.28,37.69,37.77,38.23,38.97,40.25,41.30,41.76,41.41,40.00,39.18
1.72,1.43,1.16,e,e,e,e,e,e,0.17,0.25,0.35,0.50,0.58,0.66,0.77,0.90,0.97,0.91,0.84,0.74,0.59,0.51,0.38,e,e,e,e,e,e,e,e,e,e,e,e,e,e,e,e,e,e,0.24,0.39,0.47,0.60,0.76,0.91,1.06,1.15,1.22,1.30,1.38,1.38,1.43,1.51,1.59,1.67,1.81,1.97,2.13,2.36,2.52,2.68,2.83,2.99,3.14,3.30,3.45,3.61,3.76,3.92,4.08,4.25,4.47,4.56,4.64,4.71,4.78,4.79,4.84,4.92,5.00,5.08,5.15,5.27,5.45,5.67,5.83,5.93,5.97,5.97,5.97,5.97,5.97,5.97,5.97,6.11,6.22,6.29,6.37,6.45,6.58,6.67,6.65,6.50,6.35,6.23,6.13,5.98,5.90,5.82,5.77,5.77,5.84,5.92,6.00,6.08,6.15,6.09,6.02,5.95,5.88,6.04,6.19,6.35,6.50,6.67,6.84,7.12,7.51,7.89,8.28,8.67,9.08,9.52,9.62,9.76,9.94,10.14,10.29,10.44,10.68,11.02,11.46,11.92,12.43,12.94,13.40,13.87,14.39,14.89,15.36,15.82,16.00,16.07,16.07,16.07,16.07,16.06,16.07,16.14,16.45,16.96,17.46,17.92,18.38,18.84,19.25,19.75,20.49,21.66,22.90,24.12,25.30,26.46,27.69,28.88,30.32,32.27,34.43,36.58,39.02,42.17,47.28,52.23,57.06,61.67,65.90,69.14,73.48,77.96,81.60,82.94,83.14,82.52,80.86,77.24,74.03,70.81,68.11,66.52,64.80,62.42,60.24,58.65,57.50,56.87,57.58,59.66,62.92,68.39,73.41,78.34,83.57,89.54,95.64,101.31,106.51,111.62,115.31,114.66,110.87,106.00,100.84,96.03,90.75,85.33,83.82,80.72,77.03,73.08,69.05,67.98,67.21,66.74,66.57,65.89,64.02,60.96,56.77,51.67,47.70,43.82,40.56,38.72,37.40,36.94,37.13,37.78,38.47,38.97,39.32,39.45,39.21,38.64
