e,e,e,e,e,e,e,e,e,e,e,e,e,e,e,e,e,e,e,e,e,e,e,e,e,e,e,e,e,e,e,e,e,e,e,e,e,e,e,e,e,e,e,e,e,e,e,e,e,e,e,e,e,e,e,e,e,e,e,e,e,e,e,e,e,e,e,e,e,e,e,e,e,e,e,e,e,e,e,e,e,e,e,e,e,e,e,e,e,e,e,e,e,e,e,e,e,e,e,e,e,e,e,e,e,e,e,e,e,e,e,e,e,e,e,e,e,1.61,3.15,4.70,6.23,7.75,9.30,10.28,10.95,11.42,11.77,12.10,12.36,12.64,12.98,13.39,14.15,14.82,15.45,16.09,16.76,17.53,18.27,18.94,19.55,20.10,20.63,21.13,21.57,21.83,21.93,21.91,21.79,21.56,21.41,21.27,21.14,21.06,20.93,20.88,21.02,21.40,21.81,22.26,22.75,23.26,23.75,24.40,25.21,26.13,27.05,27.89,28.57,29.10,29.50,29.77,30.22,30.80,31.42,31.86,32.42,33.08,33.85,34.73,35.71,36.65,37.54,38.39,39.21,39.90,40.59,41.30,42.08,42.81,43.53,44.23,44.92,45.75,46.92,47.97,48.83,49.73,51.35,53.27,55.32,57.35,59.00,60.16,60.80,60.92,60.53,60.18,59.99,60.07,60.56,61.36,62.28,63.21,64.06,64.89,65.75,66.61,67.45,68.20,69.29,70.79,72.32,73.39,73.46,73.44,73.55,73.88,74.37,75.19,76.30,77.55,78.70,80.05,81.13,81.99,82.66,83.06,83.20,83.30,83.32,82.91,82.35,81.89,82.03,83.32,86.74,90.17,93.35,96.23,99.23,105.12,111.12,116.36,120.38,122.07
e,e,e,e,e,e,e,e,e,e,e,e,e,e,e,e,e,e,e,e,e,e,e,e,e,e,e,e,e,e,e,e,e,e,e,e,e,e,e,e,e,e,e,e,e,e,e,e,e,e,e,e,e,e,e,e,e,e,e,e,e,e,e,e,e,e,e,e,e,e,e,e,e,e,e,e,e,e,e,e,e,e,e,e,e,e,e,e,e,e,e,e,e,e,e,e,e,e,e,e,e,e,e,e,e,e,e,e,e,e,e,e,e,e,e,e,e,1.67,3.21,4.76,6.26,7.75,9.30,10.23,10.89,11.39,11.86,12.38,12.84,13.22,13.53,13.84,14.45,15.08,15.72,16.41,17.03,17.71,18.38,19.00,19.62,20.17,20.67,21.11,21.50,21.52,21.48,21.44,21.41,21.17,20.95,20.76,20.62,20.55,20.47,20.44,20.57,20.96,21.42,21.88,22.35,22.82,23.36,23.85,24.46,25.23,26.16,26.80,27.52,28.16,28.61,28.99,29.50,30.08,30.65,31.04,31.63,32.44,33.30,34.09,35.02,35.95,36.84,37.68,38.45,39.22,39.95,40.62,41.25,41.88,42.51,43.44,44.83,46.11,47.41,48.56,49.52,50.38,51.81,53.62,55.56,57.33,58.24,59.06,59.57,59.67,59.42,59.18,59.03,59.08,59.48,60.03,60.84,61.74,62.59,63.36,64.26,65.07,65.75,66.30,67.15,67.91,68.60,69.24,69.61,69.96,70.36,70.82,71.36,72.10,73.14,74.26,75.06,75.88,76.82,77.71,78.35,78.45,78.54,78.69,78.80,78.49,78.16,78.01,78.90,81.83,87.52,91.39,94.44,97.36,100.66,106.21,111.50,116.00,119.87,121.18
e,e,e,e,e,e,e,e,e,e,e,e,e,e,e,e,e,e,e,e,e,e,e,e,e,e,e,e,e,e,e,e,e,e,e,e,e,e,e,e,e,e,e,e,e,e,e,e,e,e,e,e,e,e,e,e,e,e,e,e,e,e,e,e,e,e,e,e,e,e,e,e,e,e,e,e,e,e,e,e,e,e,e,e,e,e,e,e,e,e,e,e,e,e,e,e,e,e,e,e,e,e,e,e,e,e,e,e,e,e,e,e,e,e,e,e,e,1.79,3.34,4.84,6.32,7.80,9.30,10.18,10.82,11.33,11.78,12.14,12.44,12.81,13.24,13.64,14.24,14.86,15.46,16.02,16.54,17.51,18.39,19.01,19.62,20.09,20.53,20.90,21.15,21.06,21.01,20.99,20.97,20.78,20.52,20.24,19.97,19.81,19.89,19.96,20.15,20.63,21.09,21.56,22.08,22.66,23.16,23.63,24.12,24.66,25.27,25.89,26.55,27.16,27.67,28.19,28.80,29.41,29.94,30.32,30.92,31.71,32.58,33.45,34.38,35.30,36.15,36.92,37.69,38.46,39.19,39.89,40.60,41.31,42.01,43.07,44.67,46.26,47.74,49.08,50.26,51.30,52.52,53.90,55.23,56.27,57.12,57.95,58.51,58.70,58.56,58.34,58.29,58.47,58.86,59.35,59.92,60.50,61.06,61.83,62.62,63.27,63.81,64.44,65.02,65.62,66.21,66.74,67.26,67.88,68.46,68.91,69.26,69.78,70.41,71.04,71.49,71.95,72.53,73.27,74.16,74.70,74.94,75.23,75.57,75.63,75.39,76.12,78.13,81.58,86.68,90.71,94.21,97.63,101.40,105.82,110.02,113.81,117.27,119.17
e,e,e,e,e,e,e,e,e,e,e,e,e,e,e,e,e,e,e,e,e,e,e,e,e,e,e,e,e,e,e,e,e,e,e,e,e,e,e,e,e,e,e,e,e,e,e,e,e,e,e,e,e,e,e,e,e,e,e,e,e,e,e,e,e,e,e,e,e,e,e,e,e,e,e,e,e,e,e,e,e,e,e,e,e,e,e,e,e,e,e,e,e,e,e,e,e,e,e,e,e,e,e,e,e,e,e,e,e,e,e,e,e,e,e,e,e,1.89,3.42,4.90,6.36,7.83,9.28,10.13,10.75,11.22,11.59,11.78,11.95,12.29,12.79,13.27,13.84,14.41,14.93,15.36,15.84,16.96,18.05,18.85,19.59,20.03,20.40,20.68,20.76,20.61,20.53,20.51,20.53,20.41,19.95,19.55,19.33,19.32,19.52,19.67,19.99,20.70,21.36,22.00,22.60,23.14,23.57,24.02,24.44,24.82,25.17,25.70,26.21,26.69,27.16,27.66,28.23,28.80,29.31,29.71,30.31,31.04,31.88,32.79,33.71,34.63,35.45,36.17,36.94,37.72,38.47,39.21,40.00,40.77,41.56,42.71,44.43,46.19,47.82,49.34,50.70,51.73,52.78,53.85,54.74,55.27,56.00,56.82,57.45,57.75,57.67,57.51,57.59,57.90,58.31,58.77,59.18,59.54,59.88,60.54,61.12,61.56,61.92,62.48,62.88,63.42,64.02,64.56,65.21,66.01,66.70,67.15,67.40,67.79,68.14,68.42,68.65,68.96,69.35,69.95,70.82,71.55,71.89,72.23,72.65,72.92,72.85,74.29,77.07,80.59,84.75,88.84,92.79,96.64,100.72,104.37,107.85,111.20,114.35,116.62
e,e,e,e,e,e,e,e,e,e,e,e,e,e,e,e,e,e,e,e,e,e,e,e,e,e,e,e,e,e,e,e,e,e,e,e,e,e,e,e,e,e,e,e,e,e,e,e,e,e,e,e,e,e,e,e,e,e,e,e,e,e,e,e,e,e,e,e,e,e,e,e,e,e,e,e,e,e,e,e,e,e,e,e,e,e,e,e,e,e,e,e,e,e,e,e,e,e,e,e,e,e,e,e,e,e,e,e,e,e,e,e,e,e,e,e,e,1.95,3.43,4.90,6.36,7.81,9.21,10.06,10.65,11.01,11.19,11.29,11.43,11.72,12.16,12.69,13.18,13.62,14.00,14.34,14.87,15.85,17.09,18.39,19.48,20.01,20.35,20.49,20.38,20.23,20.04,19.97,20.09,20.07,19.11,18.55,18.70,19.34,19.54,19.73,20.29,21.50,22.69,23.84,24.53,24.72,25.05,25.49,25.91,26.26,26.51,26.80,26.99,27.19,27.45,27.60,27.86,28.28,28.81,29.26,29.86,30.50,31.22,32.08,33.01,33.89,34.70,35.47,36.24,37.01,37.82,38.65,39.49,40.26,41.08,42.28,44.04,45.75,47.49,49.16,50.56,51.25,52.18,53.21,54.09,54.56,54.94,55.67,56.37,56.79,56.71,56.67,56.90,57.34,57.79,58.26,58.67,59.03,59.34,59.71,59.91,60.05,60.18,60.34,60.71,61.28,61.98,62.71,63.46,64.28,64.99,65.49,65.79,66.28,66.64,66.88,67.11,67.67,68.20,68.66,69.01,69.39,69.65,69.87,70.07,70.25,70.48,72.26,75.11,78.08,81.10,85.12,89.40,93.50,97.53,101.21,104.75,108.12,111.22,113.26
e,e,e,e,e,e,e,e,e,e,e,e,e,e,e,e,e,e,e,e,e,e,e,e,e,e,e,e,e,e,e,e,e,e,e,e,e,e,e,e,e,e,e,e,e,e,e,e,e,e,e,e,e,e,e,e,e,e,e,e,e,e,e,e,e,e,e,e,e,e,e,e,e,e,e,e,e,e,e,e,e,e,e,e,e,e,e,e,e,e,e,e,e,e,e,e,e,e,e,e,e,e,e,e,e,e,e,e,e,e,e,e,e,e,e,e,e,2.06,3.53,5.00,6.33,7.53,8.64,9.53,10.15,10.53,10.71,10.78,10.89,11.15,11.56,12.06,12.35,12.67,13.04,13.47,13.97,14.80,15.96,17.37,18.68,19.62,20.09,20.04,19.50,18.91,18.33,18.11,18.43,18.86,19.08,19.36,19.81,20.47,21.16,21.61,22.27,23.58,24.89,25.83,26.28,26.35,26.58,27.01,27.37,27.61,27.81,27.96,28.04,28.12,28.27,28.39,28.53,28.76,29.08,29.43,29.92,30.47,31.11,31.88,32.65,33.34,34.06,34.87,35.64,36.45,37.28,38.13,38.98,39.75,40.63,41.80,43.33,44.71,46.63,48.66,50.37,50.95,51.67,52.59,53.46,53.96,54.26,54.77,55.35,55.84,55.80,55.96,56.33,56.81,57.23,57.73,58.16,58.54,58.92,59.19,59.31,59.40,59.51,59.59,59.81,60.18,60.64,61.11,61.76,62.56,63.27,63.80,64.22,64.75,65.12,65.39,65.78,66.42,67.00,67.47,67.82,68.17,68.42,68.64,68.84,69.07,69.55,71.20,73.69,76.38,78.73,81.27,84.00,87.12,91.76,96.64,100.81,104.28,107.48,109.43
e,e,e,e,e,e,e,e,e,e,e,e,e,e,e,e,e,e,e,e,e,e,e,e,e,e,e,e,e,e,e,e,e,e,e,e,e,e,e,e,e,e,e,e,e,e,e,e,e,e,e,e,e,e,e,e,e,e,e,e,e,e,e,e,e,e,e,e,e,e,e,e,e,e,e,e,e,e,e,e,e,e,e,e,e,e,e,e,e,e,e,e,e,e,e,e,e,e,e,e,e,e,e,e,e,e,e,e,e,e,e,e,e,e,e,e,0.72,2.18,3.58,4.96,6.11,7.06,7.91,8.83,9.48,9.90,10.14,10.25,10.33,10.56,10.95,11.41,11.51,11.71,12.07,12.61,13.08,13.75,14.78,16.17,17.58,18.78,19.30,19.09,18.20,17.35,16.72,16.65,17.30,18.17,19.53,20.61,21.31,21.92,23.04,23.87,24.76,26.07,27.23,27.77,27.96,27.98,28.11,28.49,28.75,28.91,29.07,29.14,29.15,29.18,29.28,29.48,29.58,29.66,29.79,30.07,30.49,31.00,31.61,32.29,32.79,33.21,33.75,34.46,35.12,35.93,36.77,37.63,38.48,39.24,40.13,41.15,42.32,43.48,45.67,48.14,50.21,50.73,51.25,52.03,52.83,53.37,53.68,53.99,54.44,54.97,55.05,55.39,55.84,56.31,56.69,57.21,57.66,58.09,58.52,58.75,58.86,58.98,59.12,59.21,59.29,59.46,59.67,59.84,60.33,61.00,61.63,62.12,62.67,63.21,63.61,63.95,64.51,65.20,65.80,66.32,66.79,67.21,67.50,67.79,68.13,68.51,69.18,70.53,72.52,74.98,76.83,77.94,79.09,81.09,85.87,91.73,96.52,100.16,103.49,105.42
e,e,e,e,e,e,e,e,e,e,e,e,e,e,e,e,e,e,e,e,e,e,e,e,e,e,e,e,e,e,e,e,e,e,e,e,e,e,e,e,e,e,e,e,e,e,e,e,e,e,e,e,e,e,e,e,e,e,e,e,e,e,e,e,e,e,e,e,e,e,e,e,e,e,e,e,e,e,e,e,e,e,e,e,e,e,e,e,e,e,e,e,e,e,e,e,e,e,e,e,e,e,e,e,e,e,e,e,e,e,e,e,e,e,e,e,0.85,2.25,3.36,4.36,5.32,6.23,7.08,7.95,8.59,9.05,9.39,9.65,9.76,9.94,10.25,10.71,10.81,10.88,11.11,11.65,12.18,12.71,13.61,14.91,16.08,16.68,16.88,16.65,15.96,15.80,16.59,17.83,19.10,20.07,20.88,21.71,22.59,23.50,24.31,25.78,27.46,28.79,29.26,29.48,29.56,29.56,29.60,29.74,29.90,30.07,30.28,30.30,30.27,30.29,30.45,30.85,30.99,31.09,31.30,31.78,32.39,33.04,33.72,34.38,34.33,34.40,34.51,34.64,34.81,35.46,36.29,37.18,38.03,38.75,39.41,40.01,40.63,42.13,44.87,47.83,50.19,50.61,51.03,51.59,52.19,52.73,53.04,53.39,53.84,54.38,54.80,55.20,55.57,55.92,56.24,56.72,57.22,57.68,58.07,58.30,58.41,58.53,58.68,58.82,58.96,59.11,59.30,59.51,59.75,60.04,60.29,60.53,61.13,61.68,62.18,62.69,63.29,63.98,64.61,65.19,65.71,66.28,66.68,67.24,68.00,68.67,69.42,70.34,71.70,73.82,75.33,76.52,77.70,79.21,81.92,86.99,91.81,95.83,99.21,101.19
e,e,e,e,e,e,e,e,e,e,e,e,e,e,e,e,e,e,e,e,e,e,e,e,e,e,e,e,e,e,e,e,e,e,e,e,e,e,e,e,e,e,e,e,e,e,e,e,e,e,e,e,e,e,e,e,e,e,e,e,e,e,e,e,e,e,e,e,e,e,e,e,e,e,e,e,e,e,e,e,e,e,e,e,e,e,e,e,e,e,e,e,e,e,e,e,e,e,e,e,e,e,e,e,e,e,e,e,e,e,e,e,e,e,e,e,0.87,2.16,3.19,4.12,5.08,6.05,6.97,7.88,8.44,8.83,9.17,9.38,9.48,9.55,9.69,10.06,10.15,10.24,10.46,10.90,11.38,11.85,12.57,13.55,14.37,14.83,15.19,15.48,15.75,16.38,17.72,19.20,20.42,21.36,22.00,22.77,23.75,24.79,25.63,27.08,28.77,30.13,30.36,30.48,30.54,30.58,30.64,30.72,30.86,31.07,31.37,31.44,31.43,31.49,31.74,32.30,32.74,33.01,33.26,33.83,34.46,35.13,35.71,36.02,35.79,35.70,35.67,35.61,35.52,35.79,36.24,36.82,37.51,38.23,38.83,39.31,39.79,41.32,44.37,47.63,50.15,50.57,50.95,51.48,52.11,52.81,53.25,53.70,54.20,54.77,55.28,55.68,56.00,56.28,56.56,56.89,57.21,57.54,57.88,58.07,58.20,58.32,58.45,58.60,58.73,58.87,59.03,59.19,59.35,59.50,59.64,59.79,60.21,60.60,61.03,61.54,62.16,63.14,63.90,64.57,65.27,65.99,66.63,67.39,68.29,69.06,69.92,70.71,71.68,73.12,74.16,75.26,76.44,77.79,79.60,83.33,87.52,91.50,94.60,96.39
e,e,e,e,e,e,e,e,e,e,e,e,e,e,e,e,e,e,e,e,e,e,e,e,e,e,e,e,e,e,e,e,e,e,e,e,e,e,e,e,e,e,e,e,e,e,e,e,e,e,e,e,e,e,e,e,e,e,e,e,e,e,e,e,e,e,e,e,e,e,e,e,e,e,e,e,e,e,e,e,e,e,e,e,e,e,e,e,e,e,e,e,e,e,e,e,e,e,e,e,e,e,e,e,e,e,e,e,e,e,e,e,e,e,e,e,0.84,1.99,3.09,4.11,5.17,6.24,7.26,8.27,8.75,9.03,9.31,9.37,9.43,9.36,9.29,9.49,9.59,9.77,10.05,10.38,10.79,11.25,11.80,12.40,12.91,13.46,14.19,15.22,16.69,18.04,19.45,20.64,21.48,22.33,23.01,23.83,24.85,25.93,26.93,28.07,29.35,30.72,30.98,31.12,31.21,31.30,31.45,31.55,31.72,32.01,32.39,32.56,32.62,32.74,33.10,33.79,34.61,35.12,35.42,36.06,36.61,37.21,37.59,37.43,37.19,37.08,37.03,36.97,36.74,36.57,36.50,36.62,37.05,37.79,38.38,38.88,39.43,40.82,44.07,47.50,50.10,50.57,50.99,51.58,52.36,53.28,53.91,54.48,55.06,55.65,56.11,56.51,56.81,57.04,57.25,57.41,57.46,57.57,57.85,58.00,58.16,58.28,58.37,58.52,58.61,58.73,58.86,58.93,59.09,59.24,59.39,59.54,59.69,59.86,60.16,60.63,61.30,62.69,63.62,64.40,65.29,66.10,66.99,67.91,68.81,69.59,70.58,71.41,72.13,72.85,73.40,74.31,75.43,76.68,78.20,80.38,83.55,87.15,89.85,91.40
e,e,e,e,e,e,e,e,e,e,e,e,e,e,e,e,e,e,e,e,e,e,e,e,e,e,e,e,e,e,e,e,e,e,e,e,e,e,e,e,e,e,e,e,e,e,e,e,e,e,e,e,e,e,e,e,e,e,e,e,e,e,e,e,e,e,e,e,e,e,e,e,e,e,e,e,e,e,e,e,e,e,e,e,e,e,e,e,e,e,e,e,e,e,e,e,e,e,e,e,e,e,e,e,e,e,e,e,e,e,e,e,e,e,e,e,0.80,2.01,3.20,4.37,5.55,6.73,7.90,8.96,9.62,10.07,10.38,10.30,10.08,9.82,9.61,9.57,9.74,10.03,10.45,11.04,11.69,12.33,12.97,13.69,14.64,15.38,16.20,17.28,18.80,19.76,20.74,21.64,22.44,23.29,24.09,24.98,25.99,27.02,27.98,28.90,29.85,30.86,31.37,31.71,31.96,32.13,32.23,32.40,32.68,33.03,33.41,33.73,33.83,34.00,34.44,35.14,35.87,36.61,37.38,38.22,38.78,39.04,39.04,38.83,38.60,38.48,38.34,38.12,37.83,37.61,37.55,37.60,37.63,38.12,38.46,38.83,39.43,40.82,44.07,47.50,50.12,50.69,51.34,52.09,52.93,53.86,54.69,55.35,55.95,56.54,56.95,57.34,57.64,57.83,57.90,58.00,58.03,58.09,58.23,58.39,58.59,58.73,58.80,58.85,58.97,59.08,59.17,59.25,59.41,59.52,59.62,59.72,59.82,60.20,60.69,61.41,62.63,64.22,65.25,65.95,66.53,66.95,67.60,68.44,69.40,70.28,71.37,72.36,73.29,74.25,75.01,75.65,76.07,76.39,77.67,78.97,80.59,82.66,85.31,87.19
e,e,e,e,e,e,e,e,e,e,e,e,e,e,e,e,e,e,e,e,e,e,e,e,e,e,e,e,e,e,e,e,e,e,e,e,e,e,e,e,e,e,e,e,e,e,e,e,e,e,e,e,e,e,e,e,e,e,e,e,e,e,e,e,e,e,e,e,e,e,e,e,e,e,e,e,e,e,e,e,e,e,e,e,e,e,e,e,e,e,e,e,e,e,e,e,e,e,e,e,e,e,e,e,e,e,e,e,e,e,e,e,e,e,e,e,0.78,2.02,3.26,4.49,5.73,6.96,8.20,9.31,10.13,10.71,11.06,10.99,10.68,10.34,10.07,9.92,10.12,10.56,11.17,11.92,12.72,13.44,14.13,14.89,15.91,16.83,17.86,19.01,20.27,21.04,21.80,22.55,23.33,24.10,24.89,25.71,26.57,27.47,28.32,29.12,29.90,30.69,31.31,31.83,32.30,32.72,33.00,33.31,33.66,34.05,34.44,34.82,35.00,35.26,35.81,36.48,37.17,37.96,38.82,39.64,40.23,40.41,40.31,40.10,39.90,39.77,39.56,39.23,38.92,38.68,38.58,38.54,38.41,38.68,38.84,39.08,39.64,41.45,44.76,47.98,50.32,51.01,51.80,52.63,53.51,54.44,55.36,56.14,56.82,57.41,57.85,58.19,58.44,58.57,58.54,58.59,58.59,58.58,58.62,58.80,59.00,59.14,59.20,59.20,59.34,59.44,59.49,59.59,60.51,61.00,61.20,61.26,61.46,61.80,62.27,63.03,64.34,65.87,66.97,67.61,67.85,67.90,68.31,69.05,70.07,71.26,72.64,73.56,74.36,75.60,76.55,77.09,77.20,77.09,77.91,78.73,79.60,80.79,82.84,84.52
e,e,e,e,e,e,e,e,e,e,e,e,e,e,e,e,e,e,e,e,e,e,e,e,e,e,e,e,e,e,e,e,e,e,e,e,e,e,e,e,e,e,e,e,e,e,e,e,e,e,e,e,e,e,e,e,e,e,e,e,e,e,e,e,e,e,e,e,e,e,e,e,e,e,e,e,e,e,e,e,e,e,e,e,e,e,e,e,e,e,e,e,e,e,e,e,e,e,e,e,e,e,e,e,e,e,e,e,e,e,e,e,e,e,e,e,0.78,2.02,3.26,4.49,5.73,6.96,8.20,9.36,10.29,10.98,11.40,11.47,11.23,10.92,10.64,10.49,10.70,11.32,12.16,13.01,13.86,14.59,15.28,15.99,16.78,17.88,19.21,20.45,21.16,21.94,22.66,23.38,24.14,24.76,25.45,26.07,26.65,27.36,28.06,28.80,29.55,30.24,30.86,31.53,32.29,33.10,33.78,34.27,34.69,35.07,35.46,35.85,36.12,36.53,37.22,37.84,38.52,39.18,39.80,40.43,41.04,41.37,41.41,41.25,41.10,40.95,40.69,40.32,40.01,39.76,39.58,39.45,39.37,39.45,39.48,39.57,40.04,42.64,46.06,48.89,50.67,51.51,52.36,53.21,54.08,55.01,55.94,56.86,57.65,58.25,58.79,59.07,59.22,59.26,59.18,59.18,59.13,59.05,59.01,59.24,59.41,59.53,59.59,59.59,59.73,59.79,59.81,59.95,62.30,63.54,63.97,63.97,64.43,64.51,64.77,65.38,66.39,67.63,68.76,69.38,69.23,68.93,69.12,69.73,70.81,72.49,74.32,74.96,75.35,76.88,78.03,78.63,78.78,78.67,78.84,79.52,80.34,81.22,82.18,83.21
e,e,e,e,e,e,e,e,e,e,e,e,e,e,e,e,e,e,e,e,e,e,e,e,e,e,e,e,e,e,e,e,e,e,e,e,e,e,e,e,e,e,e,e,e,e,e,e,e,e,e,e,e,e,e,e,e,e,e,e,e,e,e,e,e,e,e,e,e,e,e,e,e,e,e,e,e,e,e,e,e,e,e,e,e,e,e,e,e,e,e,e,e,e,e,e,e,e,e,e,e,e,e,e,e,e,e,e,e,e,e,e,e,e,e,e,0.68,1.96,3.19,4.47,5.73,6.96,8.20,9.41,10.36,11.13,11.73,11.95,11.74,11.51,11.37,11.31,11.43,11.96,12.75,13.60,14.50,15.32,16.11,16.90,17.72,18.72,19.72,20.62,21.32,22.00,22.69,23.37,24.05,24.71,25.37,25.98,26.57,27.17,27.82,28.45,29.07,29.68,30.34,31.10,31.90,32.68,33.38,33.95,34.47,34.95,35.43,35.91,36.42,37.01,37.69,38.26,38.82,39.38,39.96,40.58,41.24,41.76,42.12,42.28,42.13,42.04,41.86,41.53,41.27,41.32,41.28,41.11,40.89,41.14,41.36,41.58,42.17,45.71,48.44,50.32,51.48,52.33,53.18,54.03,54.83,55.52,56.40,57.35,58.25,59.05,59.78,60.05,60.12,60.08,60.01,59.82,59.61,59.46,59.45,59.68,60.76,62.02,63.18,64.09,65.31,65.97,66.19,66.29,67.25,67.75,67.87,67.74,67.53,67.22,67.22,67.68,68.69,69.91,71.05,71.81,71.99,71.68,71.94,72.76,73.99,75.12,76.35,76.59,76.58,77.42,78.77,80.39,81.32,81.30,81.79,82.27,83.01,83.91,84.70,85.65
e,e,e,e,e,e,e,e,e,e,e,e,e,e,e,e,e,e,e,e,e,e,e,e,e,e,e,e,e,e,e,e,e,e,e,e,e,e,e,e,e,e,e,e,e,e,e,e,e,e,e,e,e,e,e,e,e,e,e,e,e,e,e,e,e,e,e,e,e,e,e,e,e,e,e,e,e,e,e,e,e,e,e,e,e,e,e,e,e,e,e,e,e,e,e,e,e,e,e,e,e,e,e,e,e,e,e,e,e,e,e,e,e,e,e,e,e,1.85,3.10,4.41,5.69,6.94,8.17,9.43,10.40,11.22,11.95,12.40,12.31,12.17,12.11,12.11,12.14,12.60,13.35,14.21,15.11,15.98,16.84,17.70,18.55,19.35,20.05,20.69,21.34,21.98,22.65,23.31,23.95,24.62,25.27,25.90,26.50,27.04,27.65,28.22,28.76,29.30,29.94,30.69,31.48,32.26,32.96,33.57,34.13,34.67,35.21,35.75,36.39,37.11,37.89,38.51,39.00,39.50,40.07,40.73,41.40,42.04,42.60,43.03,43.09,43.14,43.06,42.84,42.71,42.96,43.04,42.91,42.70,43.11,43.47,43.80,44.46,48.19,50.42,51.73,52.51,53.34,54.19,55.03,55.79,56.42,57.17,58.00,58.84,59.67,60.62,61.02,61.13,61.08,61.07,60.80,60.48,60.33,60.52,61.09,62.80,64.81,66.67,67.94,69.43,70.25,70.55,70.66,70.78,70.80,70.72,70.52,70.06,69.58,69.47,69.85,70.83,72.14,73.36,74.34,74.94,75.07,75.46,76.27,77.31,77.80,78.26,78.11,77.81,78.06,79.29,81.83,83.80,84.36,85.05,85.42,86.02,86.84,87.58,88.59
e,e,e,e,e,e,e,e,e,e,e,e,e,e,e,e,e,e,e,e,e,e,e,e,e,e,e,e,e,e,e,e,e,e,e,e,e,e,e,e,e,e,e,e,e,e,e,e,e,e,e,e,e,e,e,e,e,e,e,e,e,e,e,e,e,e,e,e,e,e,e,e,e,e,e,e,e,e,e,e,e,e,e,e,e,e,e,e,e,e,e,e,e,e,e,e,e,e,e,e,e,e,e,e,e,e,e,e,e,e,e,e,e,e,e,e,e,1.66,2.97,4.28,5.59,6.87,8.11,9.42,10.40,11.22,11.99,12.79,12.96,12.93,12.87,12.87,12.82,13.24,13.99,14.84,15.70,16.55,17.43,18.34,19.19,19.68,20.15,20.66,21.22,21.90,22.55,23.20,23.88,24.50,25.18,25.83,26.43,26.97,27.59,28.15,28.70,29.23,29.72,30.33,31.06,31.88,32.57,33.14,33.68,34.22,34.77,35.31,35.91,36.70,37.71,38.53,39.06,39.57,40.15,40.91,41.55,42.17,42.78,43.37,43.98,44.24,44.30,44.29,44.40,44.68,44.85,44.90,44.93,45.45,45.87,46.25,46.86,49.71,51.76,53.07,53.85,54.63,55.47,56.28,57.07,57.88,58.38,58.90,59.41,60.03,61.22,62.00,62.31,62.34,62.47,62.30,61.95,61.88,62.51,63.92,65.80,67.91,69.83,70.60,71.11,71.41,71.60,71.82,72.03,72.04,71.93,71.79,71.73,71.44,71.41,71.82,72.75,74.25,75.70,77.00,78.10,79.31,79.93,80.38,80.69,80.49,79.99,79.45,79.03,78.88,79.51,82.79,86.12,88.00,88.69,89.07,89.45,90.00,90.83,92.09
e,e,e,e,e,e,e,e,e,e,e,e,e,e,e,e,e,e,e,e,e,e,e,e,e,e,e,e,e,e,e,e,e,e,e,e,e,e,e,e,e,e,e,e,e,e,e,e,e,e,e,e,e,e,e,e,e,e,e,e,e,e,e,e,e,e,e,e,e,e,e,e,e,e,e,e,e,e,e,e,e,e,e,e,e,e,e,e,e,e,e,e,e,e,e,e,e,e,e,e,e,e,e,e,e,e,e,e,e,e,e,e,e,e,e,e,e,1.53,2.84,4.15,5.47,6.77,8.05,9.40,10.52,11.47,12.32,13.22,13.51,13.63,13.69,13.64,13.57,13.91,14.58,15.43,16.32,17.18,18.01,18.78,19.38,19.83,20.28,20.76,21.30,21.87,22.48,23.11,23.76,24.42,25.08,25.74,26.37,26.91,27.48,28.06,28.62,29.11,29.54,30.01,30.65,31.44,32.13,32.70,33.24,33.78,34.32,34.74,35.35,36.20,37.27,38.25,39.01,39.63,40.22,40.99,41.59,42.14,42.60,42.94,43.43,43.97,44.49,44.94,45.39,45.93,46.42,46.85,47.22,47.75,48.19,48.56,49.03,50.75,52.51,53.94,54.98,55.79,56.64,57.44,58.23,59.02,59.49,59.83,60.20,60.75,61.78,62.76,63.38,63.68,63.87,63.81,63.69,63.93,64.80,66.22,67.69,69.11,70.38,71.29,72.06,72.50,72.75,73.02,73.25,73.26,73.18,73.12,73.12,73.04,73.19,73.71,74.72,76.17,77.72,79.13,80.25,81.35,81.92,82.32,82.59,82.37,81.94,81.31,80.78,80.76,83.24,86.39,89.10,90.80,91.99,93.10,93.94,94.70,95.84,96.99
e,e,e,e,e,e,e,e,e,e,e,e,e,e,e,e,e,e,e,e,e,e,e,e,e,e,e,e,e,e,e,e,e,e,e,e,e,e,e,e,e,e,e,e,e,e,e,e,e,e,e,e,e,e,e,e,e,e,e,e,e,e,e,e,e,e,e,e,e,e,e,e,e,e,e,e,e,e,e,e,e,e,e,e,e,e,e,e,e,e,e,e,e,e,e,e,e,e,e,e,e,e,e,e,e,e,e,e,e,e,e,e,e,e,e,e,e,1.42,2.75,4.06,5.37,6.69,8.02,9.39,10.62,11.70,12.66,13.62,14.00,14.25,14.43,14.41,14.35,14.60,15.17,16.02,16.94,17.76,18.49,19.08,19.47,19.92,20.39,20.89,21.43,21.89,22.46,23.06,23.66,24.34,24.98,25.64,26.29,26.84,27.39,27.97,28.52,28.97,29.35,29.74,30.28,31.01,31.69,32.26,32.80,33.32,33.84,34.15,34.80,35.70,36.77,37.85,38.82,39.60,40.23,40.93,41.44,41.88,42.18,42.25,42.56,43.31,44.16,44.95,45.65,46.42,47.18,47.90,48.57,49.23,49.81,50.28,50.70,51.54,52.86,54.16,55.25,56.07,56.98,57.89,58.80,59.75,60.31,60.63,60.97,61.49,62.29,63.21,63.94,64.44,64.75,64.94,65.14,65.60,66.55,67.89,68.88,69.63,70.32,71.35,72.51,73.25,73.72,74.19,74.47,74.49,74.45,74.47,74.50,74.57,74.85,75.48,76.61,78.01,79.56,81.00,82.10,82.95,83.43,83.84,84.18,84.08,83.92,83.34,82.92,83.47,87.24,89.93,91.79,93.13,94.71,96.57,98.01,99.15,100.56,101.64
e,e,e,e,e,e,e,e,e,e,e,e,e,e,e,e,e,e,e,e,e,e,e,e,e,e,e,e,e,e,e,e,e,e,e,e,e,e,e,e,e,e,e,e,e,e,e,e,e,e,e,e,e,e,e,e,e,e,e,e,e,e,e,e,e,e,e,e,e,e,e,e,e,e,e,e,e,e,e,e,e,e,e,e,e,e,e,e,e,e,e,e,e,e,e,e,e,e,e,e,e,e,e,e,e,e,e,e,e,e,e,e,e,e,e,e,e,1.36,2.74,4.06,5.37,6.71,8.08,9.41,10.62,11.76,12.87,13.92,14.40,14.72,14.99,15.16,15.16,15.33,15.81,16.66,17.52,18.19,18.71,19.15,19.53,19.99,20.49,21.02,21.56,22.02,22.55,23.08,23.59,24.22,24.89,25.55,26.17,26.78,27.32,27.87,28.37,28.77,29.16,29.55,30.02,30.62,31.25,31.86,32.39,32.85,33.26,33.57,34.29,35.23,36.26,37.34,38.35,39.30,40.11,40.50,40.86,41.12,41.27,41.29,41.60,42.28,42.99,43.61,44.37,45.14,45.84,46.55,47.42,48.52,49.60,50.51,51.14,51.93,52.49,52.91,53.31,54.04,55.17,56.44,57.88,59.50,60.41,61.04,61.57,62.10,62.70,62.92,63.19,63.62,64.23,65.10,65.62,66.05,66.69,68.13,68.82,69.35,69.96,70.79,71.98,73.10,74.17,75.21,75.70,75.77,75.75,75.83,75.95,76.04,76.29,76.93,78.27,79.71,81.12,82.46,83.70,84.55,84.99,85.35,85.69,85.79,85.87,85.57,85.82,87.85,90.14,91.92,93.37,94.64,96.08,98.33,100.40,102.11,103.56,104.88
e,e,e,e,e,e,e,e,e,e,e,e,e,e,e,e,e,e,e,e,e,e,e,e,e,e,e,e,e,e,e,e,e,e,e,e,e,e,e,e,e,e,e,e,e,e,e,e,e,e,e,e,e,e,e,e,e,e,e,e,e,e,e,e,e,e,e,e,e,e,e,e,e,e,e,e,e,e,e,e,e,e,e,e,e,e,e,e,e,e,e,e,e,e,e,e,e,e,e,e,e,e,e,e,e,e,e,e,e,e,e,e,e,e,e,e,e,1.26,2.65,4.00,5.35,6.70,8.05,9.40,10.62,11.78,12.92,13.93,14.48,14.92,15.32,15.69,15.85,16.00,16.39,17.20,17.87,18.39,18.84,19.26,19.64,20.10,20.61,21.14,21.64,22.14,22.64,23.15,23.65,24.24,24.83,25.45,26.09,26.71,27.26,27.75,28.20,28.58,28.97,29.36,29.78,30.27,30.85,31.41,31.90,32.35,32.73,33.01,33.76,34.75,35.79,36.84,37.62,38.42,39.16,39.47,39.72,39.90,40.03,40.11,40.45,41.09,41.74,42.31,43.05,43.82,44.44,45.04,45.86,47.19,48.39,49.36,50.09,50.76,51.10,51.26,51.41,52.00,53.31,54.94,56.76,58.63,59.91,60.63,61.11,61.54,61.94,61.99,62.16,62.53,63.09,64.05,64.77,65.48,66.41,67.88,68.71,69.26,69.72,70.29,71.49,72.77,74.08,75.48,76.48,76.92,77.13,77.30,77.42,77.51,77.71,78.30,79.66,81.35,82.71,83.93,85.21,86.10,86.53,86.87,87.24,87.50,87.72,87.89,88.57,90.44,92.12,93.62,94.92,96.08,97.43,99.56,101.82,103.98,105.87,107.51
e,e,e,e,e,e,e,e,e,e,e,e,e,e,e,e,e,e,e,e,e,e,e,e,e,e,e,e,e,e,e,e,e,e,e,e,e,e,e,e,e,e,e,e,e,e,e,e,e,e,e,e,e,e,e,e,e,e,e,e,e,e,e,e,e,e,e,e,e,e,e,e,e,e,e,e,e,e,e,e,e,e,e,e,e,e,e,e,e,e,e,e,e,e,e,e,e,e,e,e,e,e,e,e,e,e,e,e,e,e,e,e,e,e,e,e,e,1.14,2.53,3.91,5.30,6.67,8.00,9.39,10.62,11.78,12.90,13.80,14.40,14.94,15.48,16.02,16.36,16.56,16.91,17.63,18.10,18.50,18.92,19.38,19.76,20.22,20.72,21.24,21.71,22.25,22.74,23.24,23.78,24.31,24.79,25.37,26.03,26.65,27.18,27.62,28.00,28.39,28.77,29.15,29.53,29.93,30.46,30.94,31.39,31.82,32.20,32.45,33.22,34.25,35.31,36.23,36.70,37.21,37.80,38.10,38.24,38.38,38.53,38.70,39.11,39.74,40.38,40.98,41.71,42.47,43.01,43.47,44.15,45.58,46.72,47.64,48.39,48.96,49.36,49.55,49.66,50.13,51.57,53.49,55.58,57.51,59.07,59.78,60.15,60.45,60.67,60.77,60.97,61.30,61.69,62.57,63.48,64.57,65.96,67.43,68.57,69.25,69.57,69.88,71.13,72.47,73.89,75.50,77.06,77.94,78.44,78.75,78.91,79.01,79.20,79.74,81.04,82.99,84.34,85.47,86.71,87.63,88.09,88.45,88.85,89.25,89.61,90.25,91.18,92.33,93.75,95.19,96.45,97.51,98.89,100.80,103.10,105.60,107.96,109.96
e,e,e,e,e,e,e,e,e,e,e,e,e,e,e,e,e,e,e,e,e,e,e,e,e,e,e,e,e,e,e,e,e,e,e,e,e,e,e,e,e,e,e,e,e,e,e,e,e,e,e,e,e,e,e,e,e,e,e,e,e,e,e,e,e,e,e,e,e,e,e,e,e,e,e,e,e,e,e,e,e,e,e,e,e,e,e,e,e,e,e,e,e,e,e,e,e,e,e,e,e,e,e,e,e,e,e,e,e,e,e,e,e,e,e,e,e,1.07,2.46,3.81,5.17,6.57,8.00,9.39,10.62,11.78,12.87,13.52,14.08,14.62,15.16,15.70,16.18,16.66,17.16,17.70,18.16,18.57,18.99,19.44,19.83,20.28,20.79,21.32,21.84,22.33,22.84,23.36,23.90,24.38,24.90,25.42,25.97,26.58,27.03,27.43,27.81,28.20,28.53,28.90,29.23,29.53,29.96,30.47,30.89,31.24,31.56,31.91,32.71,33.72,34.68,35.00,35.20,35.52,35.94,36.19,36.09,36.14,36.30,36.47,37.08,37.80,38.55,39.35,40.33,41.08,41.55,41.91,42.49,43.77,44.87,45.78,46.55,47.32,48.08,48.52,48.71,49.23,50.54,52.37,54.47,56.54,57.60,58.33,58.83,59.16,59.28,59.36,59.57,59.90,60.28,61.50,62.79,64.12,65.52,66.99,68.35,69.24,69.64,69.95,71.37,72.88,74.39,75.95,77.55,78.52,79.16,79.73,80.48,80.76,81.13,81.82,83.02,84.78,86.23,87.40,88.37,89.24,89.80,90.29,90.79,91.29,91.92,92.59,93.38,94.43,95.50,96.78,98.01,99.17,100.99,103.48,105.99,108.36,110.53,112.85
e,e,e,e,e,e,e,e,e,e,e,e,e,e,e,e,e,e,e,e,e,e,e,e,e,e,e,e,e,e,e,e,e,e,e,e,e,e,e,e,e,e,e,e,e,e,e,e,e,e,e,e,e,e,e,e,e,e,e,e,e,e,e,e,e,e,e,e,e,e,e,e,e,e,e,e,e,e,e,e,e,e,e,e,e,e,e,e,e,e,e,e,e,e,e,e,e,e,e,e,e,e,e,e,e,e,e,e,e,e,e,e,e,e,e,e,e,0.98,2.40,3.75,5.12,6.53,8.00,9.39,10.62,11.72,12.68,13.22,13.76,14.30,14.85,15.42,15.99,16.59,17.16,17.65,18.14,18.58,19.02,19.47,19.89,20.34,20.85,21.38,21.90,22.39,22.91,23.44,23.95,24.45,24.95,25.44,25.89,26.31,26.49,26.76,27.08,27.41,27.72,28.07,28.37,28.63,29.08,29.56,30.14,30.68,30.96,31.38,32.12,32.92,33.52,33.54,33.63,33.80,34.02,34.17,33.94,33.91,34.08,34.42,35.09,35.83,36.61,37.44,38.43,39.27,39.85,40.34,41.08,42.22,43.31,44.30,45.16,46.06,46.99,47.63,48.07,48.84,50.03,51.57,53.37,55.24,56.06,56.79,57.39,57.80,57.91,58.28,58.77,59.32,59.90,61.19,62.49,63.79,65.10,66.54,68.01,69.09,69.74,70.25,71.74,73.33,74.89,76.44,78.03,79.07,79.93,80.86,81.95,82.53,83.07,83.84,85.11,86.77,88.21,89.39,90.29,91.17,91.87,92.47,93.02,93.58,94.34,95.03,95.77,96.68,97.58,98.76,100.10,101.63,103.84,106.41,108.86,111.10,113.13,115.47
e,e,e,e,e,e,e,e,e,e,e,e,e,e,e,e,e,e,e,e,e,e,e,e,e,e,e,e,e,e,e,e,e,e,e,e,e,e,e,e,e,e,e,e,e,e,e,e,e,e,e,e,e,e,e,e,e,e,e,e,e,e,e,e,e,e,e,e,e,e,e,e,e,e,e,e,e,e,e,e,e,e,e,e,e,e,e,e,e,e,e,e,e,e,e,e,e,e,e,e,e,e,e,e,e,e,e,e,e,e,e,e,e,e,e,e,e,0.86,2.33,3.73,5.12,6.53,8.00,9.39,10.62,11.61,12.36,12.90,13.44,13.98,14.54,15.16,15.78,16.40,16.99,17.53,18.07,18.55,19.01,19.48,19.94,20.41,20.91,21.43,21.90,22.44,22.98,23.49,23.96,24.50,24.98,25.44,25.81,25.89,25.68,25.74,25.96,26.20,26.51,26.82,27.09,27.37,27.91,28.31,29.18,30.13,30.37,30.83,31.45,31.90,31.96,31.88,31.99,32.07,32.07,32.06,31.79,31.68,31.90,32.53,33.16,33.90,34.64,35.36,36.21,37.20,38.03,38.83,39.91,40.91,42.02,43.11,44.12,45.12,46.06,46.87,47.66,48.81,49.90,51.03,52.29,53.72,54.50,55.21,55.87,56.42,56.58,57.47,58.43,59.35,60.28,61.43,62.49,63.55,64.73,66.12,67.57,68.84,69.87,70.73,72.21,73.80,75.40,76.95,78.49,79.59,80.72,82.09,83.33,84.30,85.02,85.80,87.27,88.89,90.25,91.40,92.40,93.33,94.20,94.90,95.45,96.07,96.83,97.55,98.27,99.05,99.90,101.03,102.60,104.68,107.22,109.51,111.70,113.80,115.74,117.90
e,e,e,e,e,e,e,e,e,e,e,e,e,e,e,e,e,e,e,e,e,e,e,e,e,e,e,e,e,e,e,e,e,e,e,e,e,e,e,e,e,e,e,e,e,e,e,e,e,e,e,e,e,e,e,e,e,e,e,e,e,e,e,e,e,e,e,e,e,e,e,e,e,e,e,e,e,e,e,e,e,e,e,e,e,e,e,e,e,e,e,e,e,e,e,e,e,e,e,e,e,e,e,e,e,e,e,e,e,e,e,e,e,e,e,e,e,0.86,2.33,3.73,5.12,6.53,8.00,9.39,10.55,11.43,12.04,12.58,13.16,13.75,14.35,14.97,15.59,16.20,16.79,17.34,17.88,18.40,18.91,19.41,19.88,20.39,20.91,21.45,21.96,22.45,22.98,23.49,23.96,24.50,24.81,25.05,25.23,25.31,25.15,24.94,24.83,24.92,25.23,25.54,25.83,26.17,26.76,26.34,26.73,27.66,28.19,28.85,29.33,29.54,29.47,29.44,29.56,29.59,29.49,29.39,29.74,30.20,31.13,32.89,34.51,35.64,36.63,37.58,38.33,39.43,40.35,41.19,42.27,42.94,43.90,44.91,45.77,46.73,47.46,48.02,48.52,49.23,50.19,51.40,52.63,53.60,54.42,55.07,55.72,56.43,57.03,58.06,59.04,59.96,60.98,62.14,63.23,64.28,65.35,66.49,67.69,68.84,69.97,71.27,72.74,74.28,75.86,77.46,79.00,80.35,81.74,83.23,84.42,85.64,86.57,87.54,89.31,90.79,92.17,93.42,94.51,95.44,96.38,97.21,97.89,98.56,99.23,99.86,100.54,101.41,102.31,103.78,105.50,107.31,109.46,111.31,113.14,115.07,117.20,119.89
e,e,e,e,e,e,e,e,e,e,e,e,e,e,e,e,e,e,e,e,e,e,e,e,e,e,e,e,e,e,e,e,e,e,e,e,e,e,e,e,e,e,e,e,e,e,e,e,e,e,e,e,e,e,e,e,e,e,e,e,e,e,e,e,e,e,e,e,e,e,e,e,e,e,e,e,e,e,e,e,e,e,e,e,e,e,e,e,e,e,e,e,e,e,e,e,e,e,e,e,e,e,e,e,e,e,e,e,e,e,e,e,e,e,e,e,e,0.86,2.30,3.72,5.12,6.53,8.00,9.39,10.45,11.22,11.78,12.32,12.92,13.54,14.16,14.78,15.39,16.01,16.60,17.14,17.68,18.22,18.77,19.30,19.78,20.32,20.87,21.43,21.97,22.45,22.98,23.46,23.86,24.27,24.45,24.55,24.63,24.71,24.57,24.26,23.95,23.83,23.99,24.26,24.57,24.90,25.34,24.38,24.19,24.74,25.33,26.21,26.96,27.57,28.03,28.47,28.92,29.27,29.51,29.64,30.59,31.65,33.06,35.11,36.92,38.15,39.21,40.26,41.07,42.11,42.95,43.71,44.72,45.20,45.95,46.77,47.50,48.25,48.89,49.37,49.75,50.23,51.23,52.52,53.69,54.30,55.13,55.71,56.31,57.05,57.86,58.89,59.85,60.77,61.86,62.95,63.99,65.02,66.06,67.06,68.10,69.22,70.53,72.18,73.69,75.20,76.74,78.34,80.00,81.44,82.85,84.31,85.58,86.86,87.98,89.23,91.20,92.66,94.05,95.35,96.54,97.53,98.50,99.39,100.17,100.83,101.45,102.06,102.78,103.75,104.72,106.28,107.96,109.55,111.37,113.00,114.62,116.39,118.50,121.79
e,e,e,e,e,e,e,e,e,e,e,e,e,e,e,e,e,e,e,e,e,e,e,e,e,e,e,e,e,e,e,e,e,e,e,e,e,e,e,e,e,e,e,e,e,e,e,e,e,e,e,e,e,e,e,e,e,e,e,e,e,e,e,e,e,e,e,e,e,e,e,e,e,e,e,e,e,e,e,e,e,e,e,e,e,e,e,e,e,e,e,e,e,e,e,e,e,e,e,e,e,e,e,e,e,e,e,e,e,e,e,e,e,e,e,e,e,0.85,2.24,3.70,5.12,6.53,8.00,9.39,10.31,10.98,11.59,12.13,12.73,13.35,13.97,14.58,15.20,15.82,16.41,16.95,17.49,18.03,18.57,19.11,19.65,20.19,20.77,21.36,21.90,22.44,22.98,23.40,23.63,23.75,23.83,23.91,23.99,24.07,23.93,23.72,23.41,22.99,22.80,22.98,23.29,23.56,23.60,22.42,21.55,21.29,21.63,22.74,24.29,26.07,27.88,29.31,30.46,31.60,32.71,33.49,34.99,36.68,38.30,39.61,40.63,41.59,42.53,43.49,44.55,45.33,45.88,46.42,47.28,47.76,48.20,48.71,49.32,49.67,50.35,50.95,51.42,51.95,53.18,54.53,55.60,56.03,56.80,57.30,57.80,58.44,59.15,60.00,60.90,61.86,62.94,63.89,64.78,65.76,66.89,67.90,68.85,70.07,71.66,73.56,75.14,76.64,78.13,79.69,81.60,82.92,84.07,85.30,86.82,87.93,89.21,90.85,92.93,94.48,95.87,97.18,98.47,99.61,100.53,101.42,102.26,102.82,103.43,104.13,104.98,106.05,107.12,108.45,109.87,111.30,112.88,114.55,116.16,117.78,119.60,123.58
e,e,e,e,e,e,e,e,e,e,e,e,e,e,e,e,e,e,e,e,e,e,e,e,e,e,e,e,e,e,e,e,e,e,e,e,e,e,e,e,e,e,e,e,e,e,e,e,e,e,e,e,e,e,e,e,e,e,e,e,e,e,e,e,e,e,e,e,e,e,e,e,e,e,e,e,e,e,e,e,e,e,e,e,e,e,e,e,e,e,e,e,e,e,e,e,e,e,e,e,e,e,e,e,e,e,e,e,e,e,e,e,e,e,e,e,e,0.80,2.23,3.66,5.06,6.46,7.89,9.28,10.18,10.82,11.40,11.98,12.59,13.21,13.82,14.39,15.01,15.63,16.22,16.76,17.30,17.87,18.44,18.98,19.52,20.06,20.65,21.25,21.84,22.34,22.71,22.96,23.10,23.18,23.25,23.33,23.41,23.49,23.35,23.14,22.85,22.43,22.11,21.94,22.01,22.18,21.66,20.73,20.77,21.79,23.32,25.26,27.20,29.10,30.91,32.50,33.78,35.10,36.48,37.64,38.98,40.44,41.88,43.19,44.07,45.05,46.04,47.01,47.91,48.52,48.99,49.46,50.18,50.78,51.32,52.01,52.94,53.47,54.05,54.47,54.71,54.95,55.57,56.58,57.49,57.80,58.40,58.87,59.39,60.02,60.71,61.39,62.18,63.08,64.03,65.05,65.95,66.87,67.88,68.80,69.93,71.34,73.02,74.86,76.55,78.13,79.72,81.49,83.37,84.80,85.94,86.95,88.15,89.44,90.83,92.47,94.65,96.26,97.66,99.07,100.61,101.68,102.51,103.35,104.21,104.79,105.45,106.28,107.27,108.36,109.66,110.61,111.57,112.73,114.15,115.73,117.33,119.15,121.67,125.56
e,e,e,e,e,e,e,e,e,e,e,e,e,e,e,e,e,e,e,e,e,e,e,e,e,e,e,e,e,e,e,e,e,e,e,e,e,e,e,e,e,e,e,e,e,e,e,e,e,e,e,e,e,e,e,e,e,e,e,e,e,e,e,e,e,e,e,e,e,e,e,e,e,e,e,e,e,e,e,e,e,e,e,e,e,e,e,e,e,e,e,e,e,e,e,e,e,e,e,e,e,e,e,e,e,e,e,e,e,e,e,e,e,e,e,e,e,0.74,2.19,3.59,4.98,6.37,7.78,9.17,10.07,10.70,11.25,11.85,12.45,13.06,13.67,14.22,14.84,15.45,16.03,16.59,17.13,17.72,18.29,18.83,19.35,19.88,20.48,21.11,21.71,22.13,22.35,22.47,22.54,22.59,22.66,22.74,22.81,22.89,22.75,22.56,22.29,21.92,21.53,21.09,20.86,20.79,20.03,19.82,21.00,23.25,25.82,28.32,30.48,32.39,34.13,35.83,37.17,38.56,40.03,41.39,42.57,43.79,45.08,46.45,47.35,48.34,49.33,50.27,51.10,51.70,52.17,52.64,53.31,54.02,54.74,55.63,56.72,57.37,57.81,58.04,58.10,58.10,58.23,58.86,59.59,59.87,60.25,60.69,61.21,61.83,62.48,62.89,63.51,64.34,65.20,66.23,67.15,68.05,68.99,69.93,71.22,72.76,74.47,76.23,78.02,79.70,81.42,83.36,85.20,86.71,87.98,89.10,90.23,91.63,93.02,94.52,96.46,98.10,99.57,101.13,102.85,103.77,104.51,105.29,106.14,106.79,107.59,108.61,109.76,110.92,112.17,112.77,113.32,114.18,115.43,116.89,118.56,120.72,123.84,127.49
e,e,e,e,e,e,e,e,e,e,e,e,e,e,e,e,e,e,e,e,e,e,e,e,e,e,e,e,e,e,e,e,e,e,e,e,e,e,e,e,e,e,e,e,e,e,e,e,e,e,e,e,e,e,e,e,e,e,e,e,e,e,e,e,e,e,e,e,e,e,e,e,e,e,e,e,e,e,e,e,e,e,e,e,e,e,e,e,e,e,e,e,e,e,e,e,e,e,e,e,e,e,e,e,e,e,e,e,e,e,e,e,e,e,e,e,e,0.67,2.07,3.46,4.85,6.26,7.72,9.11,10.01,10.64,11.18,11.73,12.29,12.87,13.49,14.09,14.71,15.29,15.86,16.46,17.00,17.55,18.10,18.63,19.10,19.58,20.21,20.91,21.46,21.73,21.87,21.96,22.02,21.97,22.02,22.10,22.17,22.25,22.11,21.95,21.73,21.41,21.02,20.58,19.99,19.34,19.13,20.54,22.84,25.64,28.50,30.86,32.98,34.94,36.84,38.79,40.21,41.57,42.95,44.21,45.38,46.63,47.96,49.34,50.38,51.26,52.07,52.92,53.95,54.83,55.46,56.01,56.82,57.58,58.56,59.54,60.35,60.85,61.06,61.17,61.23,61.23,61.31,61.65,62.13,62.55,62.68,63.01,63.51,64.11,64.61,64.53,64.86,65.63,66.54,67.43,68.34,69.28,70.29,71.54,72.84,74.35,76.06,77.77,79.60,81.42,83.28,85.28,87.06,88.56,90.20,92.13,93.90,95.15,96.33,97.47,98.48,100.08,101.75,103.51,105.26,105.94,106.58,107.29,108.08,108.82,110.00,111.29,112.65,114.04,114.60,114.94,115.26,115.75,116.80,118.10,120.07,122.72,125.94,129.27
e,e,e,e,e,e,e,e,e,e,e,e,e,e,e,e,e,e,e,e,e,e,e,e,e,e,e,e,e,e,e,e,e,e,e,e,e,e,e,e,e,e,e,e,e,e,e,e,e,e,e,e,e,e,e,e,e,e,e,e,e,e,e,e,e,e,e,e,e,e,e,e,e,e,e,e,e,e,e,e,e,e,e,e,e,e,e,e,e,e,e,e,e,e,e,e,e,e,e,e,e,e,e,e,e,e,e,e,e,e,e,e,e,e,e,e,e,0.62,1.86,3.24,4.63,6.04,7.51,8.90,9.88,10.57,11.11,11.66,12.20,12.76,13.34,13.92,14.54,15.13,15.71,16.28,16.83,17.37,17.89,18.39,18.85,19.15,19.61,20.20,20.82,21.16,21.32,21.41,21.51,21.47,21.46,21.49,21.54,21.61,21.51,21.34,21.12,20.85,20.50,19.73,19.00,18.72,19.69,21.99,24.71,27.63,30.60,33.19,35.37,37.32,39.17,41.00,42.47,43.88,45.29,46.63,47.91,49.23,50.56,51.83,52.95,53.81,54.65,55.59,56.68,57.75,58.63,59.37,60.14,60.91,61.80,62.63,63.26,63.65,63.82,63.92,63.98,64.02,64.10,64.43,64.96,65.52,65.59,65.76,66.02,66.34,66.69,66.48,66.54,67.03,67.84,68.73,69.74,70.83,71.97,73.28,74.59,76.06,77.73,79.58,81.74,83.74,85.61,87.44,89.48,91.78,94.15,96.43,98.29,99.55,100.83,102.05,102.78,103.87,104.92,106.11,107.49,108.07,108.76,109.61,110.57,111.57,112.88,114.28,115.55,116.45,116.79,117.06,117.31,117.65,118.43,119.75,121.75,124.40,127.57,130.81
e,e,e,e,e,e,e,e,e,e,e,e,e,e,e,e,e,e,e,e,e,e,e,e,e,e,e,e,e,e,e,e,e,e,e,e,e,e,e,e,e,e,e,e,e,e,e,e,e,e,e,e,e,e,e,e,e,e,e,e,e,e,e,e,e,e,e,e,e,e,e,e,e,e,e,e,e,e,e,e,e,e,e,e,e,e,e,e,e,e,e,e,e,e,e,e,e,e,e,e,e,e,e,e,e,e,e,e,e,e,e,e,e,e,e,e,e,0.59,1.67,3.00,4.37,5.76,7.23,8.63,9.72,10.51,11.05,11.59,12.13,12.67,13.20,13.74,14.35,14.96,15.55,16.09,16.62,17.16,17.66,18.12,18.53,18.62,18.86,19.33,20.03,20.52,20.74,20.87,21.00,21.01,20.96,20.92,20.93,20.99,20.91,20.68,20.37,20.03,19.64,18.78,18.31,18.80,20.92,23.74,26.66,29.59,32.58,35.45,37.70,39.60,41.34,42.96,44.48,45.95,47.42,48.88,50.27,51.67,53.01,54.20,55.35,56.25,57.20,58.31,59.43,60.65,61.75,62.67,63.39,64.14,64.85,65.47,65.95,66.24,66.42,66.55,66.64,66.74,66.86,67.28,67.92,68.63,68.73,68.75,68.73,68.74,68.91,68.65,68.47,68.60,69.28,70.18,71.31,72.54,73.75,75.06,76.37,77.81,79.48,81.57,84.08,86.29,88.23,90.01,92.43,95.60,98.66,101.14,103.01,104.49,105.99,107.30,107.91,108.42,108.72,109.16,109.96,110.49,111.23,112.21,113.37,114.59,115.94,117.33,118.40,118.74,119.06,119.33,119.59,119.88,120.43,121.75,123.64,126.06,129.02,132.17
e,e,e,e,e,e,e,e,e,e,e,e,e,e,e,e,e,e,e,e,e,e,e,e,e,e,e,e,e,e,e,e,e,e,e,e,e,e,e,e,e,e,e,e,e,e,e,e,e,e,e,e,e,e,e,e,e,e,e,e,e,e,e,e,e,e,e,e,e,e,e,e,e,e,e,e,e,e,e,e,e,e,e,e,e,e,e,e,e,e,e,e,e,e,e,e,e,e,e,e,e,e,e,e,e,e,e,e,e,e,e,e,e,e,e,e,e,0.59,1.67,2.87,4.09,5.38,6.84,8.29,9.54,10.45,10.99,11.53,12.07,12.58,13.07,13.61,14.17,14.77,15.36,15.90,16.38,16.86,17.36,17.81,17.93,17.85,18.00,18.44,19.13,19.77,20.14,20.35,20.50,20.56,20.55,20.51,20.46,20.42,20.29,19.79,19.03,18.16,17.32,17.88,19.09,20.68,23.01,25.81,28.84,31.92,34.82,37.74,39.90,41.67,43.32,44.94,46.54,48.06,49.52,50.93,52.32,53.78,55.23,56.56,57.72,58.76,59.88,61.15,62.47,63.72,64.79,65.71,66.58,67.24,67.88,68.39,68.69,68.88,69.04,69.22,69.41,69.61,69.96,70.41,71.05,71.96,72.15,72.16,72.08,71.95,71.77,71.38,70.96,70.81,71.39,72.20,73.29,74.46,75.54,76.79,78.09,79.58,81.42,83.96,86.51,88.97,91.42,93.99,96.95,100.12,103.14,105.81,108.17,110.53,112.25,113.19,113.36,113.71,113.83,113.79,113.72,114.21,114.75,115.57,116.67,117.79,119.05,120.19,121.07,121.55,121.92,122.32,122.70,123.08,123.68,124.68,126.15,128.06,130.32,133.02
e,e,e,e,e,e,e,e,e,e,e,e,e,e,e,e,e,e,e,e,e,e,e,e,e,e,e,e,e,e,e,e,e,e,e,e,e,e,e,e,e,e,e,e,e,e,e,e,e,e,e,e,e,e,e,e,e,e,e,e,e,e,e,e,e,e,e,e,e,e,e,e,e,e,e,e,e,e,e,e,e,e,e,e,e,e,e,e,e,e,e,e,e,e,e,e,e,e,e,e,e,e,e,e,e,e,e,e,e,e,e,e,e,e,e,e,e,0.59,1.67,2.82,3.98,5.19,6.50,7.94,9.30,10.30,10.84,11.38,11.92,12.44,12.95,13.49,14.03,14.58,15.13,15.67,16.13,16.59,16.98,17.21,17.15,17.01,17.14,17.54,18.12,18.60,18.83,19.03,19.30,19.32,19.35,19.16,18.79,18.46,18.04,17.81,17.73,17.71,17.84,19.26,21.16,23.19,25.58,28.35,31.58,34.89,37.66,40.13,42.10,43.80,45.42,47.01,48.68,50.20,51.58,52.97,54.36,55.83,57.37,58.94,60.37,61.57,62.77,64.10,65.52,66.78,67.93,69.00,70.05,70.95,71.70,72.27,72.64,72.92,73.17,73.46,73.78,74.07,74.55,74.87,75.17,75.64,75.72,75.66,75.53,75.34,74.97,74.47,73.92,73.59,73.95,74.50,75.41,76.43,77.36,78.50,79.95,81.57,83.46,86.14,88.89,91.72,94.62,97.64,100.96,104.33,107.84,111.41,114.36,116.74,118.28,118.99,118.99,119.14,119.04,118.70,118.23,118.35,118.43,118.93,119.87,120.73,121.85,122.84,123.67,124.33,124.87,125.46,126.02,126.51,127.07,127.75,128.85,130.33,132.03,133.98
e,e,e,e,e,e,e,e,e,e,e,e,e,e,e,e,e,e,e,e,e,e,e,e,e,e,e,e,e,e,e,e,e,e,e,e,e,e,e,e,e,e,e,e,e,e,e,e,e,e,e,e,e,e,e,e,e,e,e,e,e,e,e,e,e,e,e,e,e,e,e,e,e,e,e,e,e,e,e,e,e,e,e,e,e,e,e,e,e,e,e,e,e,e,e,e,e,e,e,e,e,e,e,e,e,e,e,e,e,e,e,e,e,e,e,e,e,0.59,1.67,2.82,3.98,5.12,6.20,7.58,9.02,10.10,10.66,11.20,11.74,12.28,12.82,13.35,13.89,14.38,14.87,15.41,15.87,16.32,16.52,16.42,16.27,16.11,16.25,16.61,16.99,17.14,17.08,17.20,17.65,17.55,17.57,17.21,16.51,15.90,15.16,15.52,16.70,18.23,20.09,22.00,23.98,26.06,28.48,31.22,34.65,38.18,40.78,42.57,44.30,45.97,47.59,49.15,50.88,52.37,53.64,55.03,56.42,57.87,59.49,61.35,63.22,64.55,65.78,67.13,68.63,69.92,71.21,72.50,73.74,75.06,76.02,76.75,77.36,77.85,78.28,78.72,79.18,79.55,80.07,80.17,79.97,79.67,79.52,79.37,79.20,78.96,78.44,77.83,77.19,76.74,76.78,77.00,77.63,78.41,79.18,80.17,81.86,83.65,85.56,88.19,91.25,94.48,97.80,101.09,104.67,108.39,112.68,117.46,121.01,122.93,124.09,124.68,124.72,124.65,124.32,123.80,123.19,122.77,122.23,122.29,122.99,123.51,124.46,125.37,126.21,127.06,127.82,128.65,129.39,129.99,130.47,130.87,131.63,132.76,134.02,135.10
e,e,e,e,e,e,e,e,e,e,e,e,e,e,e,e,e,e,e,e,e,e,e,e,e,e,e,e,e,e,e,e,e,e,e,e,e,e,e,e,e,e,e,e,e,e,e,e,e,e,e,e,e,e,e,e,e,e,e,e,e,e,e,e,e,e,e,e,e,e,e,e,e,e,e,e,e,e,e,e,e,e,e,e,e,e,e,e,e,e,e,e,e,e,e,e,e,e,e,e,e,e,e,e,e,e,e,e,e,e,e,e,e,e,e,e,e,0.59,1.67,2.82,3.98,5.12,6.20,7.43,8.72,9.80,10.53,11.07,11.61,12.15,12.67,13.10,13.59,14.09,14.60,15.09,15.61,15.76,15.73,15.59,15.44,15.28,15.08,14.96,15.13,15.29,15.19,15.18,15.37,14.88,14.42,14.80,15.89,16.82,17.60,18.52,19.55,20.66,22.46,24.48,26.58,28.81,31.62,34.59,37.70,40.60,42.70,44.54,46.31,48.07,49.85,51.55,53.23,54.67,55.93,57.27,58.66,60.33,62.24,64.30,66.36,67.71,68.96,70.46,72.40,74.14,75.59,76.87,78.21,79.68,80.89,81.86,82.64,83.47,84.40,85.19,85.73,85.96,86.23,86.27,86.14,85.94,85.84,85.69,85.24,84.33,83.03,82.09,81.18,80.34,79.73,79.94,80.13,80.33,80.64,81.54,83.36,85.42,87.62,90.29,93.49,96.81,100.40,104.43,108.45,112.93,117.47,121.72,125.12,127.10,128.44,129.39,130.07,130.02,129.75,129.24,128.46,127.60,126.45,125.85,125.95,126.28,127.03,127.86,128.68,129.42,130.09,130.81,131.52,132.19,132.81,133.23,134.03,135.26,136.81,137.82
e,e,e,e,e,e,e,e,e,e,e,e,e,e,e,e,e,e,e,e,e,e,e,e,e,e,e,e,e,e,e,e,e,e,e,e,e,e,e,e,e,e,e,e,e,e,e,e,e,e,e,e,e,e,e,e,e,e,e,e,e,e,e,e,e,e,e,e,e,e,e,e,e,e,e,e,e,e,e,e,e,e,e,e,e,e,e,e,e,e,e,e,e,e,e,e,e,e,e,e,e,e,e,e,e,e,e,e,e,e,e,e,e,e,e,e,e,0.59,1.67,2.82,3.98,5.12,6.20,7.36,8.55,9.60,10.37,10.91,11.41,11.91,12.41,12.82,13.32,13.84,14.34,14.79,15.11,15.07,14.90,14.73,14.58,14.42,14.03,13.56,13.35,13.45,13.29,13.29,13.68,13.79,13.88,15.05,17.04,18.44,19.89,21.05,22.00,22.89,24.47,26.56,28.89,31.40,34.47,37.47,40.26,42.69,44.59,46.42,48.28,50.22,52.22,53.99,55.59,57.01,58.37,59.90,61.49,63.34,65.40,67.56,69.75,71.33,72.81,74.52,76.71,78.80,80.50,81.91,83.35,84.89,86.21,87.27,88.10,88.98,90.07,90.96,91.50,91.66,91.79,91.78,91.62,91.34,91.04,90.81,90.19,88.98,87.50,86.34,85.14,83.94,82.94,82.97,82.77,82.49,82.36,82.92,84.71,86.86,89.20,92.13,95.48,99.09,103.10,107.67,112.16,117.33,122.17,126.09,129.00,131.07,132.75,134.12,135.20,135.28,134.76,133.91,132.95,131.87,130.50,129.50,129.12,129.33,129.58,130.15,130.90,131.59,132.21,132.87,133.56,134.28,135.00,135.54,136.39,137.69,139.46,140.61
e,e,e,e,e,e,e,e,e,e,e,e,e,e,e,e,e,e,e,e,e,e,e,e,e,e,e,e,e,e,e,e,e,e,e,e,e,e,e,e,e,e,e,e,e,e,e,e,e,e,e,e,e,e,e,e,e,e,e,e,e,e,e,e,e,e,e,e,e,e,e,e,e,e,e,e,e,e,e,e,e,e,e,e,e,e,e,e,e,e,e,e,e,e,e,e,e,e,e,e,e,e,e,e,e,e,e,e,e,e,e,e,e,e,e,e,e,0.59,1.67,2.82,3.98,5.12,6.20,7.36,8.52,9.49,10.18,10.72,11.14,11.57,12.03,12.49,13.10,13.61,14.08,14.51,14.39,14.24,14.05,13.84,13.68,13.53,13.10,12.43,11.63,11.63,11.36,11.53,12.58,14.32,16.00,18.00,19.97,20.78,22.00,23.10,24.05,24.91,26.10,28.24,30.91,33.85,37.01,39.85,42.30,44.44,46.44,48.23,50.21,52.40,54.71,56.49,57.96,59.39,60.96,62.94,64.92,66.92,68.98,71.14,73.38,75.42,77.36,79.32,81.56,83.91,85.93,87.63,89.16,90.71,91.99,93.00,93.77,94.40,95.28,96.02,96.49,96.64,96.73,96.67,96.39,95.86,95.12,94.70,94.02,92.88,91.85,90.58,89.08,87.54,86.39,86.08,85.54,84.90,84.36,84.32,85.91,87.96,90.32,93.68,97.21,101.30,105.89,110.81,115.80,121.57,126.77,130.58,132.64,134.84,137.00,138.89,140.12,140.44,139.34,137.80,136.66,135.58,134.36,133.25,132.50,132.65,132.10,132.23,132.88,133.57,134.19,134.81,135.50,136.27,137.04,137.79,138.73,140.02,141.95,143.48
e,e,e,e,e,e,e,e,e,e,e,e,e,e,e,e,e,e,e,e,e,e,e,e,e,e,e,e,e,e,e,e,e,e,e,e,e,e,e,e,e,e,e,e,e,e,e,e,e,e,e,e,e,e,e,e,e,e,e,e,e,e,e,e,e,e,e,e,e,e,e,e,e,e,e,e,e,e,e,e,e,e,e,e,e,e,e,e,e,e,e,e,e,e,e,e,e,e,e,e,e,e,e,e,e,e,e,e,e,e,e,e,e,e,e,e,e,0.59,1.67,2.82,3.98,5.12,6.20,7.36,8.39,9.21,9.80,10.30,10.78,11.25,11.72,12.23,12.80,13.27,13.59,13.72,13.56,13.41,13.22,13.00,12.85,12.69,12.29,11.59,10.56,10.64,11.30,12.52,14.25,16.34,18.17,19.80,21.15,22.01,22.96,24.10,25.33,26.55,27.80,30.00,32.69,35.61,38.69,41.26,43.63,45.86,48.06,50.25,52.49,54.81,57.14,58.92,60.61,62.29,64.03,65.95,67.91,70.07,72.39,74.79,77.16,79.54,81.90,84.28,86.79,89.12,91.23,93.17,95.03,96.45,97.50,98.27,98.85,99.38,100.08,100.79,101.34,101.45,101.49,101.38,101.02,100.33,99.33,98.33,97.22,95.99,94.90,93.57,92.10,90.62,89.37,88.72,87.99,87.14,86.25,85.80,86.72,88.31,90.63,94.58,98.29,102.61,107.48,112.71,118.19,124.43,129.70,133.22,135.73,138.17,140.60,142.82,144.43,144.92,144.16,142.92,141.82,140.32,138.74,137.39,136.38,135.76,134.90,134.65,134.94,135.50,136.11,136.80,137.52,138.24,138.97,139.70,140.79,142.35,144.37,146.07
e,e,e,e,e,e,e,e,e,e,e,e,e,e,e,e,e,e,e,e,e,e,e,e,e,e,e,e,e,e,e,e,e,e,e,e,e,e,e,e,e,e,e,e,e,e,e,e,e,e,e,e,e,e,e,e,e,e,e,e,e,e,e,e,e,e,e,e,e,e,e,e,e,e,e,e,e,e,e,e,e,e,e,e,e,e,e,e,e,e,e,e,e,e,e,e,e,e,e,e,e,e,e,e,e,e,e,e,e,e,e,e,e,e,e,e,e,0.59,1.67,2.82,3.98,5.12,6.20,7.29,8.17,8.86,9.39,9.89,10.44,10.95,11.43,11.97,12.48,12.84,12.99,12.91,12.76,12.59,12.39,12.17,11.99,11.84,11.48,10.84,9.88,10.51,12.02,14.03,16.20,18.30,19.99,21.23,22.16,23.11,23.93,25.03,26.36,27.82,29.25,31.54,34.25,37.14,40.13,42.61,44.98,47.32,49.67,52.18,54.66,57.09,59.41,61.22,63.05,64.92,66.82,68.74,70.77,73.09,75.61,78.25,80.91,83.59,86.33,89.13,91.94,94.19,96.24,98.20,100.16,101.44,102.35,102.99,103.48,104.07,104.77,105.51,106.12,106.18,106.19,106.05,105.63,104.77,103.56,102.07,100.57,99.20,97.91,96.47,95.02,93.60,92.27,91.40,90.52,89.42,88.07,87.38,87.66,88.80,91.06,95.39,99.34,103.74,108.67,114.11,120.01,126.52,131.93,135.54,138.43,141.08,143.76,146.33,148.44,149.24,148.99,148.18,147.23,145.64,143.81,142.13,140.67,139.24,137.96,137.28,137.18,137.55,138.19,138.82,139.47,140.15,140.84,141.60,142.82,144.54,146.68,148.52
e,e,e,e,e,e,e,e,e,e,e,e,e,e,e,e,e,e,e,e,e,e,e,e,e,e,e,e,e,e,e,e,e,e,e,e,e,e,e,e,e,e,e,e,e,e,e,e,e,e,e,e,e,e,e,e,e,e,e,e,e,e,e,e,e,e,e,e,e,e,e,e,e,e,e,e,e,e,e,e,e,e,e,e,e,e,e,e,e,e,e,e,e,e,e,e,e,e,e,e,e,e,e,e,e,e,e,e,e,e,e,e,e,e,e,e,e,0.59,1.67,2.82,3.98,5.12,6.20,7.09,7.81,8.41,8.96,9.56,10.16,10.70,11.18,11.72,12.13,12.26,12.23,12.14,11.99,11.78,11.56,11.33,11.11,10.94,10.64,10.23,9.82,11.77,13.89,16.09,18.27,19.97,21.18,22.19,23.13,24.13,25.04,25.96,27.06,28.54,30.26,32.70,35.47,38.34,41.29,43.98,46.48,48.88,51.33,53.94,56.59,59.12,61.40,63.31,65.12,67.01,69.03,71.16,73.48,75.90,78.51,81.40,84.55,87.51,90.56,93.77,96.88,99.01,100.78,102.39,104.00,105.13,106.09,106.85,107.41,108.35,109.36,110.22,110.78,110.79,110.79,110.68,110.23,109.18,107.82,106.03,104.25,102.66,101.03,99.37,97.86,96.46,95.08,94.22,93.23,91.78,89.80,89.10,88.87,89.64,91.83,96.16,100.42,104.68,109.33,114.82,121.02,127.46,133.15,137.53,140.53,143.31,146.22,149.19,151.99,153.39,153.80,153.53,152.89,151.79,149.99,147.85,145.57,143.40,141.43,140.20,139.72,139.86,140.54,140.90,141.30,141.94,142.63,143.56,144.81,146.49,148.78,150.78
e,e,e,e,e,e,e,e,e,e,e,e,e,e,e,e,e,e,e,e,e,e,e,e,e,e,e,e,e,e,e,e,e,e,e,e,e,e,e,e,e,e,e,e,e,e,e,e,e,e,e,e,e,e,e,e,e,e,e,e,e,e,e,e,e,e,e,e,e,e,e,e,e,e,e,e,e,e,e,e,e,e,e,e,e,e,e,e,e,e,e,e,e,e,e,e,e,e,e,e,e,e,e,e,e,e,e,e,e,e,e,e,e,e,e,e,e,0.59,1.67,2.82,3.98,5.08,6.05,6.74,7.38,8.00,8.62,9.23,9.82,10.27,10.66,11.16,11.51,11.56,11.44,11.33,11.17,10.96,10.71,10.44,10.21,10.12,10.16,10.41,10.97,13.59,15.95,18.03,19.82,21.13,22.19,23.17,24.13,25.05,25.98,26.91,27.95,29.26,31.31,33.80,36.53,39.40,42.34,45.17,47.89,50.50,53.05,55.63,58.25,60.75,63.03,65.04,66.99,69.01,71.15,73.52,76.02,78.75,81.74,84.96,88.44,91.93,95.29,98.39,100.97,102.99,104.70,106.28,107.94,109.42,110.74,111.75,112.45,113.45,114.23,114.82,115.20,115.28,115.32,115.29,114.96,114.10,112.79,110.76,108.47,106.26,104.52,102.75,101.08,99.49,97.90,96.95,95.97,94.60,92.72,91.71,91.35,91.83,93.43,96.80,100.97,105.15,109.73,115.27,121.57,127.95,133.91,138.96,142.01,144.90,148.02,151.33,154.58,156.76,157.81,158.02,157.67,156.82,155.13,152.99,150.63,148.28,146.02,144.34,143.34,143.07,143.33,143.29,143.36,143.80,144.61,145.58,146.78,148.41,150.88,152.91
e,e,e,e,e,e,e,e,e,e,e,e,e,e,e,e,e,e,e,e,e,e,e,e,e,e,e,e,e,e,e,e,e,e,e,e,e,e,e,e,e,e,e,e,e,e,e,e,e,e,e,e,e,e,e,e,e,e,e,e,e,e,e,e,e,e,e,e,e,e,e,e,e,e,e,e,e,e,e,e,e,e,e,e,e,e,e,e,e,e,e,e,e,e,e,e,e,e,e,e,e,e,e,e,e,e,e,e,e,e,e,e,e,e,e,e,e,0.59,1.67,2.82,3.96,4.99,5.79,6.36,6.96,7.61,8.28,8.90,9.45,9.82,10.08,10.52,10.85,10.86,10.70,10.51,10.32,10.15,9.98,9.82,9.74,9.86,10.33,11.27,12.79,15.64,17.97,19.78,21.14,22.14,23.15,24.15,25.12,25.97,26.89,27.86,28.91,30.11,32.39,34.86,37.54,40.42,43.36,46.30,49.19,51.98,54.63,57.21,59.76,62.23,64.55,66.66,68.79,70.96,73.25,75.79,78.53,81.64,85.06,88.66,92.49,96.33,99.80,102.67,104.73,106.78,108.66,110.45,112.35,114.08,115.63,116.80,117.55,118.49,119.08,119.44,119.65,119.81,119.88,119.86,119.60,118.94,117.73,115.68,113.10,110.38,108.39,106.31,104.37,102.56,100.75,99.70,98.73,97.55,96.01,94.80,94.44,94.66,95.58,97.78,101.54,105.53,110.04,115.56,121.85,128.22,134.44,140.00,143.09,146.08,149.48,153.23,157.01,159.75,161.33,161.95,161.88,161.26,159.76,157.85,155.74,153.43,151.05,148.97,147.39,146.51,146.19,145.75,145.49,145.64,146.50,147.47,148.69,150.41,152.99,155.03
e,e,e,e,e,e,e,e,e,e,e,e,e,e,e,e,e,e,e,e,e,e,e,e,e,e,e,e,e,e,e,e,e,e,e,e,e,e,e,e,e,e,e,e,e,e,e,e,e,e,e,e,e,e,e,e,e,e,e,e,e,e,e,e,e,e,e,e,e,e,e,e,e,e,e,e,e,e,e,e,e,e,e,e,e,e,e,e,e,e,e,e,e,e,e,e,e,e,e,e,e,e,e,e,e,e,e,e,e,e,e,e,e,e,e,e,e,0.59,1.67,2.82,3.87,4.74,5.35,6.01,6.64,7.27,7.90,8.52,9.07,9.38,9.55,9.89,10.26,10.29,10.07,9.73,9.40,9.42,9.66,10.05,10.62,11.38,12.32,13.66,15.72,17.94,19.66,21.00,22.10,23.10,24.10,25.11,26.08,26.93,27.85,28.79,29.90,31.38,33.52,35.87,38.52,41.45,44.38,47.37,50.25,53.03,55.78,58.46,61.04,63.55,65.96,68.17,70.48,72.88,75.35,77.84,81.08,84.61,88.42,92.52,96.83,100.29,103.23,105.84,108.15,110.66,113.22,115.77,118.22,119.43,120.57,121.46,122.00,122.70,123.59,124.17,124.38,124.54,124.56,124.34,123.85,123.10,121.99,120.58,118.63,116.06,113.19,110.09,107.61,105.65,103.69,102.54,101.51,100.51,99.50,98.74,98.51,98.53,98.87,99.93,102.60,106.02,110.28,115.56,121.65,128.18,134.61,140.26,143.35,146.46,150.36,154.95,159.73,162.17,163.89,164.84,164.97,164.70,163.62,162.31,160.86,158.89,156.59,154.23,151.95,149.95,148.94,148.24,147.71,147.39,147.95,148.83,150.47,152.72,155.11,157.19
e,e,e,e,e,e,e,e,e,e,e,e,e,e,e,e,e,e,e,e,e,e,e,e,e,e,e,e,e,e,e,e,e,e,e,e,e,e,e,e,e,e,e,e,e,e,e,e,e,e,e,e,e,e,e,e,e,e,e,e,e,e,e,e,e,e,e,e,e,e,e,e,e,e,e,e,e,e,e,e,e,e,e,e,e,e,e,e,e,e,e,e,e,e,e,e,e,e,e,e,e,e,e,e,e,e,e,e,e,e,e,e,e,e,e,e,e,0.59,1.67,2.77,3.66,4.38,4.99,5.61,6.24,6.85,7.47,8.09,8.67,8.95,9.01,9.26,9.60,9.61,9.42,9.24,9.29,9.73,10.39,11.16,11.94,12.88,14.10,15.68,17.72,19.49,20.88,22.02,23.05,24.06,25.06,26.07,27.04,27.93,28.79,29.88,31.23,32.82,34.74,37.02,39.63,42.52,45.48,48.46,51.29,54.00,56.72,59.39,62.00,64.59,67.18,69.65,72.20,74.75,77.40,80.40,84.15,87.99,91.95,96.13,100.17,103.44,106.31,109.04,111.84,114.69,117.39,119.83,121.96,123.08,124.12,125.00,125.70,126.46,127.58,128.55,129.14,129.23,129.21,128.86,128.16,127.08,125.80,124.43,122.67,120.39,117.58,114.21,111.29,108.90,106.72,105.41,104.33,103.46,102.75,102.17,101.93,101.76,101.69,102.12,103.68,106.39,110.20,115.03,120.66,127.55,134.44,140.28,143.53,146.80,151.00,156.01,161.17,164.00,166.14,167.58,168.29,168.50,167.77,166.73,165.58,164.12,162.10,159.91,157.62,155.24,153.77,152.58,151.60,150.88,150.98,151.63,153.13,155.25,157.40,159.71
e,e,e,e,e,e,e,e,e,e,e,e,e,e,e,e,e,e,e,e,e,e,e,e,e,e,e,e,e,e,e,e,e,e,e,e,e,e,e,e,e,e,e,e,e,e,e,e,e,e,e,e,e,e,e,e,e,e,e,e,e,e,e,e,e,e,e,e,e,e,e,e,e,e,e,e,e,e,e,e,e,e,e,e,e,e,e,e,e,e,e,e,e,e,e,e,e,e,e,e,e,e,e,e,e,e,e,e,e,e,e,e,e,e,e,e,e,0.59,1.66,2.65,3.37,3.96,4.65,5.20,5.79,6.41,7.03,7.65,8.27,8.52,8.50,8.66,8.94,8.93,8.85,9.00,9.65,10.57,11.62,12.65,13.45,14.36,15.72,17.41,19.18,20.64,21.83,22.91,23.99,25.00,26.01,27.02,28.01,28.96,29.78,31.10,32.71,34.33,36.04,38.26,40.83,43.66,46.66,49.59,52.33,54.95,57.57,60.21,62.85,65.54,68.32,71.11,73.90,76.61,79.48,83.26,87.43,91.47,95.45,99.51,102.98,106.20,109.27,112.32,115.62,118.68,121.21,123.19,124.66,125.94,127.09,128.18,129.26,130.25,131.52,132.84,133.87,133.87,133.80,133.41,132.55,131.12,129.53,127.82,125.97,123.94,121.62,118.38,115.16,112.27,109.87,108.34,107.23,106.44,105.90,105.35,105.03,104.65,104.28,104.35,104.87,106.78,110.03,114.32,119.37,126.64,134.02,140.07,143.61,147.06,151.46,156.65,161.92,165.47,168.20,170.24,171.71,172.48,172.11,171.23,170.20,169.27,167.61,165.83,163.84,161.50,159.71,157.94,156.44,155.39,155.01,155.30,156.30,157.89,159.77,162.30
e,e,e,e,e,e,e,e,e,e,e,e,e,e,e,e,e,e,e,e,e,e,e,e,e,e,e,e,e,e,e,e,e,e,e,e,e,e,e,e,e,e,e,e,e,e,e,e,e,e,e,e,e,e,e,e,e,e,e,e,e,e,e,e,e,e,e,e,e,e,e,e,e,e,e,e,e,e,e,e,e,e,e,e,e,e,e,e,e,e,e,e,e,e,e,e,e,e,e,e,e,e,e,e,e,e,e,e,e,e,e,e,e,e,e,e,e,0.57,1.55,2.30,2.96,3.56,4.20,4.80,5.41,6.03,6.65,7.27,7.88,8.13,8.12,8.33,8.48,8.70,9.05,9.59,10.53,11.57,12.66,13.77,14.76,15.75,16.89,18.30,20.08,21.39,22.53,23.64,24.76,25.82,26.88,27.91,28.95,30.09,31.30,32.63,34.11,35.74,37.49,39.69,42.28,45.18,48.14,50.89,53.49,56.02,58.60,61.33,64.06,66.82,69.61,72.50,75.35,78.46,82.04,86.41,90.31,94.15,98.04,102.00,105.48,108.99,112.52,115.99,119.09,121.62,123.87,125.83,127.41,128.97,130.83,132.75,134.55,136.14,137.13,137.83,138.28,138.28,138.21,138.04,137.52,136.41,134.43,131.74,129.01,126.56,124.24,121.63,118.82,116.02,113.58,111.76,110.52,109.68,109.09,108.49,107.92,107.28,106.69,106.72,106.78,107.96,110.45,114.25,118.80,125.83,133.00,138.87,143.00,146.84,151.39,156.62,161.98,166.34,170.04,172.96,175.03,176.49,176.88,176.48,175.57,174.70,173.36,171.92,170.29,168.34,166.40,164.16,162.36,161.41,161.08,160.42,160.21,160.70,162.09,164.03
e,e,e,e,e,e,e,e,e,e,e,e,e,e,e,e,e,e,e,e,e,e,e,e,e,e,e,e,e,e,e,e,e,e,e,e,e,e,e,e,e,e,e,e,e,e,e,e,e,e,e,e,e,e,e,e,e,e,e,e,e,e,e,e,e,e,e,e,e,e,e,e,e,e,e,e,e,e,e,e,e,e,e,e,e,e,e,e,e,e,e,e,e,e,e,e,e,e,e,e,e,e,e,e,e,e,e,e,e,e,e,e,e,e,e,e,e,0.48,1.30,1.94,2.56,3.18,3.83,4.44,5.06,5.68,6.30,6.98,7.65,8.00,8.12,8.46,8.63,8.98,9.53,10.28,11.36,12.46,13.59,14.74,15.82,16.88,17.93,19.13,20.70,21.96,23.14,24.30,25.50,26.61,27.70,28.79,29.97,31.37,32.78,34.17,35.59,37.15,38.98,41.24,43.89,46.83,49.66,52.27,54.77,57.23,59.72,62.53,65.33,68.13,70.93,73.86,76.74,80.29,84.60,89.23,92.94,96.63,100.43,104.36,108.03,111.82,115.60,119.18,122.06,124.36,126.55,128.65,130.57,132.74,134.96,136.99,138.67,140.12,140.91,141.34,141.56,141.61,141.55,141.50,141.24,140.43,138.54,135.79,132.71,129.62,126.82,124.41,121.89,119.36,117.24,115.43,114.08,113.13,112.48,111.72,110.91,110.05,109.28,109.07,108.86,109.48,111.29,114.52,118.52,124.93,131.66,137.49,142.08,146.43,151.25,156.56,162.11,167.08,171.45,175.04,177.76,179.56,180.54,180.62,180.00,179.44,178.44,177.32,176.02,174.48,172.39,169.81,167.52,165.97,165.24,163.99,163.18,163.17,164.20,165.84
e,e,e,e,e,e,e,e,e,e,e,e,e,e,e,e,e,e,e,e,e,e,e,e,e,e,e,e,e,e,e,e,e,e,e,e,e,e,e,e,e,e,e,e,e,e,e,e,e,e,e,e,e,e,e,e,e,e,e,e,e,e,e,e,e,e,e,e,e,e,e,e,e,e,e,e,e,e,e,e,e,e,e,e,e,e,e,e,e,e,e,e,e,e,e,e,e,e,e,e,e,e,e,e,e,e,e,e,e,e,e,e,e,e,e,e,e,0.31,0.94,1.55,2.17,2.81,3.51,4.12,4.74,5.36,6.00,6.77,7.54,8.06,8.42,8.96,9.28,9.68,10.25,11.04,12.12,13.26,14.42,15.57,16.65,17.80,18.86,19.92,21.08,22.39,23.65,24.92,26.21,27.37,28.46,29.66,31.06,32.75,34.23,35.70,37.14,38.56,40.49,42.88,45.64,48.59,51.22,53.72,56.15,58.54,60.94,63.79,66.65,69.47,72.27,75.21,78.08,82.11,87.16,91.79,95.36,98.93,102.67,106.61,110.62,114.69,118.54,121.95,124.58,126.94,129.26,131.61,134.07,137.13,139.42,140.94,141.80,142.51,143.15,143.61,143.88,144.03,143.98,143.99,143.89,143.39,141.99,139.95,136.96,133.07,129.38,126.80,124.45,122.34,120.86,119.31,117.88,116.75,116.03,115.04,113.98,112.94,112.01,111.40,111.07,111.29,112.49,115.08,118.49,123.94,130.07,135.94,140.87,145.87,151.05,156.50,162.29,167.70,172.48,176.60,180.00,181.85,183.27,183.82,183.62,183.61,182.97,182.13,181.15,180.04,177.80,175.00,172.04,169.32,167.79,166.25,165.38,165.35,166.12,167.71
e,e,e,e,e,e,e,e,e,e,e,e,e,e,e,e,e,e,e,e,e,e,e,e,e,e,e,e,e,e,e,e,e,e,e,e,e,e,e,e,e,e,e,e,e,e,e,e,e,e,e,e,e,e,e,e,e,e,e,e,e,e,e,e,e,e,e,e,e,e,e,e,e,e,e,e,e,e,e,e,e,e,e,e,e,e,e,e,e,e,e,e,e,e,e,e,e,e,e,e,e,e,e,e,e,e,e,e,e,e,e,e,e,e,e,e,e,0.25,0.87,1.48,2.10,2.76,3.50,4.21,4.93,5.64,6.36,7.14,7.91,8.44,8.81,9.40,10.04,10.67,11.30,11.99,12.98,14.09,15.23,16.32,17.30,18.23,19.11,20.07,21.28,22.59,23.88,25.20,26.55,27.86,29.14,30.66,32.42,34.21,35.70,37.17,38.68,40.29,42.46,44.92,47.55,50.23,52.71,55.19,57.61,60.02,62.47,65.17,67.99,70.83,73.66,76.50,79.90,84.35,89.42,93.57,97.10,100.61,104.36,108.55,112.80,116.98,120.83,124.21,126.88,129.41,131.82,134.32,137.32,139.61,141.41,142.74,143.62,144.31,145.02,145.65,146.15,146.45,146.45,146.49,146.42,146.01,144.53,143.02,140.75,137.44,133.64,129.51,126.59,124.73,123.07,121.76,120.66,119.75,119.00,118.09,117.12,116.20,115.36,114.59,114.33,114.40,114.84,115.70,118.57,123.40,128.90,134.32,139.55,144.85,150.49,156.39,162.23,167.79,173.14,177.74,181.14,183.38,185.20,186.42,187.02,187.07,186.75,185.99,184.90,183.67,181.81,179.33,176.37,173.19,170.63,168.64,167.62,167.55,168.17,169.71
e,e,e,e,e,e,e,e,e,e,e,e,e,e,e,e,e,e,e,e,e,e,e,e,e,e,e,e,e,e,e,e,e,e,e,e,e,e,e,e,e,e,e,e,e,e,e,e,e,e,e,e,e,e,e,e,e,e,e,e,e,e,e,e,e,e,e,e,e,e,e,e,e,e,e,e,e,e,e,e,e,e,e,e,e,e,e,e,e,e,e,e,e,e,e,e,e,e,e,e,e,e,e,e,e,e,e,e,e,e,e,e,e,e,e,e,e,e,e,1.53,2.19,2.89,3.66,4.45,5.23,6.00,6.77,7.55,8.30,8.81,9.18,9.82,10.67,11.47,12.21,12.92,13.85,14.89,15.93,16.91,17.82,18.63,19.43,20.37,21.63,22.96,24.28,25.63,27.01,28.38,29.90,31.71,33.73,35.62,37.18,38.73,40.38,42.21,44.48,46.93,49.38,51.75,54.19,56.66,59.08,61.50,63.97,66.56,69.34,72.22,75.10,77.92,81.84,86.54,91.43,95.29,98.82,102.29,106.04,110.40,114.98,119.19,123.01,126.41,129.19,131.84,134.34,136.91,139.95,141.77,143.23,144.42,145.38,146.10,146.86,147.64,148.41,149.04,149.29,149.44,149.39,149.01,147.56,146.25,144.32,141.44,137.86,133.01,129.33,126.95,125.17,124.07,123.23,122.50,121.77,121.13,120.36,119.56,118.75,117.90,117.59,117.45,117.32,117.11,119.11,123.20,128.09,133.05,138.44,144.08,150.08,156.26,162.21,167.88,173.61,178.62,182.28,184.83,187.04,188.92,190.32,190.73,190.75,190.13,188.96,187.46,185.67,183.39,180.54,177.22,174.07,171.73,170.49,170.27,170.75,172.00
e,e,e,e,e,e,e,e,e,e,e,e,e,e,e,e,e,e,e,e,e,e,e,e,e,e,e,e,e,e,e,e,e,e,e,e,e,e,e,e,e,e,e,e,e,e,e,e,e,e,e,e,e,e,e,e,e,e,e,e,e,e,e,e,e,e,e,e,e,e,e,e,e,e,e,e,e,e,e,e,e,e,e,e,e,e,e,e,e,e,e,e,e,e,e,e,e,e,e,e,e,e,e,e,e,e,e,e,e,e,e,e,e,e,e,e,e,e,e,1.75,2.51,3.27,4.04,4.88,5.68,6.45,7.22,7.99,8.71,9.17,9.51,10.20,11.10,12.01,12.92,13.82,14.74,15.63,16.48,17.29,18.15,18.99,19.87,20.90,22.20,23.59,24.92,26.26,27.65,28.97,30.80,32.85,34.97,36.96,38.66,40.42,42.32,44.37,46.55,48.90,51.09,53.11,55.65,58.13,60.55,62.97,65.44,67.93,70.72,73.65,76.58,79.50,83.92,88.62,93.09,96.95,100.52,103.98,107.72,112.14,117.17,121.30,125.03,128.55,131.53,134.21,136.82,139.34,141.69,143.55,144.89,146.01,147.11,147.88,148.65,149.56,150.64,151.86,152.67,153.05,153.00,152.53,151.33,149.76,147.60,144.87,141.98,137.61,132.90,128.93,127.15,126.25,125.53,124.90,124.31,124.16,123.72,123.05,122.20,121.35,120.82,120.37,119.97,119.63,120.30,123.49,127.74,132.28,137.61,143.67,149.89,156.12,162.27,167.99,173.80,179.13,183.45,186.20,188.80,191.29,193.48,194.67,195.09,194.69,193.49,191.54,189.36,187.11,184.51,181.44,178.35,175.81,174.27,173.75,174.08,174.71
e,e,e,e,e,e,e,e,e,e,e,e,e,e,e,e,e,e,e,e,e,e,e,e,e,e,e,e,e,e,e,e,e,e,e,e,e,e,e,e,e,e,e,e,e,e,e,e,e,e,e,e,e,e,e,e,e,e,e,e,e,e,e,e,e,e,e,e,e,e,e,e,e,e,e,e,e,e,e,e,e,e,e,e,e,e,e,e,e,e,e,e,e,e,e,e,e,e,e,e,e,e,e,e,e,e,e,e,e,e,e,e,e,e,e,e,e,e,e,1.79,2.66,3.53,4.43,5.28,6.07,6.84,7.62,8.39,9.10,9.61,10.07,10.85,11.77,12.69,13.62,14.54,15.43,16.29,17.12,17.94,18.79,19.79,20.78,21.81,23.00,24.26,25.56,26.89,28.25,29.73,31.78,33.97,36.14,38.19,40.15,42.17,44.25,46.38,48.55,50.66,52.65,54.58,56.88,59.43,61.94,64.37,66.80,69.36,72.18,75.13,78.15,81.54,86.09,90.59,94.70,98.56,102.06,105.49,109.32,114.03,119.09,123.35,127.11,130.46,133.22,135.94,138.55,141.00,143.20,145.14,146.58,147.77,148.94,150.26,151.48,152.76,154.14,155.54,156.43,157.11,157.40,157.08,156.18,154.35,151.90,149.04,146.05,142.08,137.68,133.45,130.21,128.92,128.16,127.72,127.46,127.38,127.16,126.70,125.96,125.03,124.38,123.59,122.80,122.22,122.23,124.61,128.14,132.25,137.88,143.93,150.09,156.23,162.28,168.09,174.11,179.61,184.01,187.55,190.70,193.58,196.13,197.98,198.97,199.08,198.34,196.82,194.37,191.65,188.79,185.90,182.93,180.17,178.36,177.56,177.53,177.97
e,e,e,e,e,e,e,e,e,e,e,e,e,e,e,e,e,e,e,e,e,e,e,e,e,e,e,e,e,e,e,e,e,e,e,e,e,e,e,e,e,e,e,e,e,e,e,e,e,e,e,e,e,e,e,e,e,e,e,e,e,e,e,e,e,e,e,e,e,e,e,e,e,e,e,e,e,e,e,e,e,e,e,e,e,e,e,e,e,e,e,e,e,e,e,e,e,e,e,e,e,e,e,e,e,e,e,e,e,e,e,e,e,e,e,e,e,e,e,1.75,2.71,3.66,4.66,5.53,6.36,7.17,7.98,8.77,9.51,10.14,10.75,11.57,12.47,13.41,14.34,15.25,16.08,16.93,17.78,18.63,19.53,20.69,21.80,22.84,23.88,25.04,26.28,27.55,28.87,30.57,32.78,35.08,37.32,39.42,41.59,43.81,46.03,48.20,50.38,52.33,54.20,56.07,58.13,60.69,63.25,65.72,68.13,70.81,73.67,76.66,79.77,83.53,88.08,92.38,96.25,100.07,103.49,106.90,110.88,115.94,120.87,125.24,129.06,132.30,134.82,137.52,140.07,142.42,144.62,146.71,148.38,149.76,151.06,152.90,154.61,156.26,157.84,159.31,160.23,161.10,161.66,161.53,160.86,158.91,156.23,153.22,150.05,146.43,142.48,138.30,134.03,132.57,131.81,131.49,131.41,131.29,131.06,130.61,129.90,128.82,127.85,126.69,125.56,124.81,124.36,125.93,128.82,132.75,138.59,144.51,150.53,156.58,162.47,168.25,174.44,180.14,184.65,188.89,192.51,195.72,198.57,200.94,202.47,203.09,202.86,201.86,199.30,196.26,193.21,190.39,187.54,184.69,182.68,181.60,181.23,181.47
e,e,e,e,e,e,e,e,e,e,e,e,e,e,e,e,e,e,e,e,e,e,e,e,e,e,e,e,e,e,e,e,e,e,e,e,e,e,e,e,e,e,e,e,e,e,e,e,e,e,e,e,e,e,e,e,e,e,e,e,e,e,e,e,e,e,e,e,e,e,e,e,e,e,e,e,e,e,e,e,e,e,e,e,e,e,e,e,e,e,e,e,e,e,e,e,e,e,e,e,e,e,e,e,e,e,e,e,e,e,e,e,e,e,e,e,e,e,e,1.62,2.58,3.53,4.54,5.45,6.40,7.36,8.31,9.14,10.02,10.85,11.62,12.34,13.19,14.14,15.09,15.95,16.73,17.57,18.42,19.30,20.34,21.65,22.91,24.02,24.91,26.06,27.20,28.32,29.54,31.54,33.80,36.18,38.54,40.69,42.91,45.15,47.38,49.61,51.84,53.88,55.77,57.59,59.55,61.88,64.39,66.95,69.41,72.28,75.24,78.30,81.49,85.15,89.51,93.77,97.69,101.36,104.72,108.18,112.37,117.85,122.42,126.75,130.68,134.08,136.50,139.01,141.36,143.60,145.89,148.28,150.41,152.24,153.83,155.92,158.03,159.90,161.49,162.96,163.91,164.72,165.23,165.24,164.67,162.89,160.24,157.05,153.88,150.51,146.75,142.84,139.31,138.45,137.88,137.45,137.08,136.81,136.04,135.13,134.13,132.81,130.96,129.31,128.07,127.36,126.66,127.37,129.86,134.20,139.95,145.56,151.42,157.42,163.12,168.55,174.80,180.82,185.76,190.24,194.08,197.56,200.71,203.29,205.24,206.24,206.37,205.76,203.45,200.73,197.81,194.87,192.07,189.48,187.44,186.09,185.52,185.32
e,e,e,e,e,e,e,e,e,e,e,e,e,e,e,e,e,e,e,e,e,e,e,e,e,e,e,e,e,e,e,e,e,e,e,e,e,e,e,e,e,e,e,e,e,e,e,e,e,e,e,e,e,e,e,e,e,e,e,e,e,e,e,e,e,e,e,e,e,e,e,e,e,e,e,e,e,e,e,e,e,e,e,e,e,e,e,e,e,e,e,e,e,e,e,e,e,e,e,e,e,e,e,e,e,e,e,e,e,e,e,e,e,e,e,e,e,e,e,1.56,2.59,3.61,4.68,5.61,6.57,7.55,8.54,9.43,10.37,11.33,12.26,13.10,13.95,14.85,15.76,16.60,17.41,18.25,19.13,20.09,21.25,22.64,24.00,25.20,26.16,27.21,28.23,29.49,31.17,33.40,35.75,38.06,40.21,42.13,44.14,46.26,48.47,50.74,53.02,55.20,57.24,59.18,61.18,63.39,65.80,68.34,70.96,73.92,76.92,80.01,83.25,86.85,91.04,95.27,99.23,102.62,105.88,109.61,114.12,119.57,123.98,128.24,132.24,135.79,138.29,140.92,143.37,145.70,148.09,150.45,152.70,154.76,156.63,158.87,161.16,163.24,165.01,166.55,167.65,168.51,169.04,169.13,168.45,166.64,164.03,160.83,157.31,153.81,150.24,146.64,143.10,142.26,141.77,141.42,141.07,140.87,140.11,139.23,138.27,136.91,135.05,133.29,131.77,130.51,129.49,129.53,131.72,136.27,141.39,146.54,152.27,158.28,163.85,169.12,175.31,181.49,186.82,191.59,195.75,199.52,202.95,205.93,208.23,209.66,210.19,209.80,207.49,204.84,202.05,199.29,196.79,194.32,192.03,190.21,189.27,188.97
e,e,e,e,e,e,e,e,e,e,e,e,e,e,e,e,e,e,e,e,e,e,e,e,e,e,e,e,e,e,e,e,e,e,e,e,e,e,e,e,e,e,e,e,e,e,e,e,e,e,e,e,e,e,e,e,e,e,e,e,e,e,e,e,e,e,e,e,e,e,e,e,e,e,e,e,e,e,e,e,e,e,e,e,e,e,e,e,e,e,e,e,e,e,e,e,e,e,e,e,e,e,e,e,e,e,e,e,e,e,e,e,e,e,e,e,e,e,e,1.50,2.61,3.72,4.87,5.82,6.76,7.74,8.75,9.68,10.67,11.72,12.77,13.79,14.66,15.53,16.39,17.25,18.09,18.96,19.90,20.96,22.20,23.64,25.07,26.39,27.49,28.46,29.45,30.93,33.13,35.53,37.98,40.15,42.00,43.63,45.39,47.36,49.56,51.96,54.28,56.59,58.78,60.84,62.91,65.05,67.34,69.86,72.66,75.67,78.66,81.73,84.99,88.58,92.64,96.82,100.77,103.87,107.03,111.12,115.97,121.22,125.56,129.75,133.78,137.48,140.16,142.99,145.66,148.16,150.62,152.88,155.12,157.33,159.50,161.82,164.20,166.48,168.53,170.17,171.49,172.46,173.03,173.12,172.23,170.34,167.76,164.60,160.66,156.83,153.37,150.05,146.32,145.27,144.80,144.57,144.38,144.31,143.79,143.14,142.34,141.07,139.50,137.82,136.03,134.16,132.83,132.24,134.00,138.43,142.81,147.49,153.07,159.13,164.58,169.79,175.89,182.13,187.81,192.94,197.55,201.67,205.35,208.78,211.40,213.24,214.13,213.91,211.56,208.89,206.16,203.58,201.41,198.98,196.39,194.06,192.72,192.38
e,e,e,e,e,e,e,e,e,e,e,e,e,e,e,e,e,e,e,e,e,e,e,e,e,e,e,e,e,e,e,e,e,e,e,e,e,e,e,e,e,e,e,e,e,e,e,e,e,e,e,e,e,e,e,e,e,e,e,e,e,e,e,e,e,e,e,e,e,e,e,e,e,e,e,e,e,e,e,e,e,e,e,e,e,e,e,e,e,e,e,e,e,e,e,e,e,e,e,e,e,e,e,e,e,e,e,e,e,e,e,e,e,e,e,e,e,e,e,1.33,2.45,3.58,4.68,5.78,6.83,7.91,9.01,9.99,10.99,12.01,13.04,14.10,15.07,16.04,16.98,17.88,18.73,19.67,20.73,21.93,23.22,24.67,26.12,27.51,28.77,29.98,31.39,33.00,34.86,37.31,39.69,41.76,43.55,45.23,46.95,48.90,51.28,54.20,56.57,58.82,60.86,62.75,64.77,66.77,69.06,71.68,74.57,77.58,80.44,83.34,86.48,90.26,94.36,98.37,102.06,105.21,108.38,112.74,117.80,122.82,127.26,131.33,135.32,139.19,142.22,145.10,147.93,150.64,153.05,155.35,157.65,160.04,162.57,164.94,167.33,169.86,172.32,174.06,175.75,176.87,177.39,177.33,176.14,174.17,171.59,168.44,164.50,160.08,156.26,152.96,149.63,148.30,147.74,147.57,147.51,147.49,147.30,146.92,146.29,145.26,143.90,142.41,140.85,139.27,137.84,136.47,136.87,139.75,143.98,148.30,153.76,159.85,165.10,170.45,176.49,182.68,188.51,194.33,199.82,204.54,208.46,212.08,215.08,217.07,218.06,218.13,216.08,213.42,210.38,207.28,205.06,202.58,199.81,197.22,195.73,194.96
e,e,e,e,e,e,e,e,e,e,e,e,e,e,e,e,e,e,e,e,e,e,e,e,e,e,e,e,e,e,e,e,e,e,e,e,e,e,e,e,e,e,e,e,e,e,e,e,e,e,e,e,e,e,e,e,e,e,e,e,e,e,e,e,e,e,e,e,e,e,e,e,e,e,e,e,e,e,e,e,e,e,e,e,e,e,e,e,e,e,e,e,e,e,e,e,e,e,e,e,e,e,e,e,e,e,e,e,e,e,e,e,e,e,e,e,e,e,e,1.28,2.46,3.59,4.68,5.83,6.96,8.08,9.20,10.26,11.30,12.32,13.34,14.42,15.43,16.45,17.46,18.42,19.35,20.43,21.62,22.90,24.24,25.66,27.10,28.54,29.97,31.40,33.00,34.71,36.54,38.93,41.21,43.23,45.01,46.71,48.52,50.71,53.37,56.47,58.87,60.95,62.85,64.66,66.67,68.71,71.05,73.69,76.57,79.40,82.15,84.95,88.01,91.96,95.99,99.82,103.35,106.51,110.03,114.59,119.61,124.31,128.76,133.03,137.10,140.87,143.98,146.94,149.95,152.91,155.63,158.04,160.48,163.04,165.73,168.27,170.90,173.66,176.26,177.89,179.56,180.52,180.84,180.76,179.59,177.65,175.06,171.90,168.22,163.69,159.50,155.91,152.95,151.79,151.34,151.41,151.80,152.10,152.09,151.81,151.18,150.02,148.51,146.89,145.22,143.55,141.96,140.28,139.76,141.20,145.14,149.13,154.40,160.40,165.54,171.02,177.06,183.21,189.15,195.49,201.99,207.45,211.68,215.50,218.53,220.58,221.69,221.94,220.36,218.20,215.42,212.15,209.03,206.15,203.27,200.57,198.53,197.48
e,e,e,e,e,e,e,e,e,e,e,e,e,e,e,e,e,e,e,e,e,e,e,e,e,e,e,e,e,e,e,e,e,e,e,e,e,e,e,e,e,e,e,e,e,e,e,e,e,e,e,e,e,e,e,e,e,e,e,e,e,e,e,e,e,e,e,e,e,e,e,e,e,e,e,e,e,e,e,e,e,e,e,e,e,e,e,e,e,e,e,e,e,e,e,e,e,e,e,e,e,e,e,e,e,e,e,e,e,e,e,e,e,e,e,e,e,e,e,1.33,2.58,3.72,4.81,5.97,7.12,8.25,9.34,10.50,11.60,12.64,13.66,14.74,15.75,16.80,17.86,18.87,19.95,21.21,22.53,23.86,25.26,26.65,28.04,29.49,31.11,32.73,34.36,36.14,38.17,40.41,42.59,44.60,46.42,48.13,50.13,52.73,55.72,58.76,61.15,63.03,64.76,66.58,68.59,70.81,73.23,75.84,78.61,81.16,83.81,86.57,89.55,93.64,97.55,101.21,104.62,107.79,111.89,116.60,121.38,125.70,130.11,134.81,139.04,142.50,145.52,148.61,151.80,155.06,158.30,160.87,163.53,166.25,168.99,171.78,174.80,177.76,180.28,181.67,183.05,183.62,183.67,183.63,182.71,180.87,178.27,175.09,171.85,167.56,163.01,158.91,156.28,155.60,155.41,155.82,156.88,157.65,157.75,157.44,156.70,155.16,153.27,151.29,149.28,147.26,145.47,143.80,142.68,142.78,146.29,149.97,155.00,160.83,165.93,171.55,177.61,183.74,189.76,196.52,204.09,210.36,214.93,218.94,221.79,223.85,225.11,225.48,224.48,223.15,221.03,217.82,213.29,209.78,206.82,204.13,201.28,200.04
e,e,e,e,e,e,e,e,e,e,e,e,e,e,e,e,e,e,e,e,e,e,e,e,e,e,e,e,e,e,e,e,e,e,e,e,e,e,e,e,e,e,e,e,e,e,e,e,e,e,e,e,e,e,e,e,e,e,e,e,e,e,e,e,e,e,e,e,e,e,e,e,e,e,e,e,e,e,e,e,e,e,e,e,e,e,e,e,e,e,e,e,e,e,e,e,e,e,e,e,e,e,e,e,e,e,e,e,e,e,e,e,e,e,e,e,e,e,e,1.26,2.61,3.88,5.06,6.22,7.38,8.53,9.66,10.76,11.85,12.89,13.91,15.00,16.05,17.12,18.18,19.19,20.37,21.73,23.24,24.86,26.51,27.88,29.08,30.30,31.87,33.60,35.32,37.10,39.01,41.35,43.83,46.03,47.94,49.84,52.40,55.22,58.06,60.67,62.86,64.84,66.68,68.54,70.80,73.17,75.63,78.12,80.60,82.94,85.43,88.09,91.01,94.95,98.79,102.40,105.80,109.12,113.51,118.04,122.51,126.80,131.40,136.22,140.42,143.72,146.79,150.53,154.26,157.80,161.05,164.01,166.86,170.14,174.07,177.15,179.84,182.10,183.85,184.89,186.02,186.43,186.37,186.19,185.32,183.60,181.17,178.15,174.86,171.16,167.04,163.09,160.31,159.68,159.67,160.22,161.22,161.94,161.99,161.73,161.15,159.81,158.30,156.41,154.07,151.27,148.99,147.22,146.00,145.61,147.44,151.03,155.85,161.29,166.44,172.16,178.21,184.30,190.39,198.68,206.35,212.20,216.31,220.23,223.74,226.54,228.44,229.26,228.71,227.68,225.91,223.27,219.77,216.38,213.08,209.98,207.28,205.86
e,e,e,e,e,e,e,e,e,e,e,e,e,e,e,e,e,e,e,e,e,e,e,e,e,e,e,e,e,e,e,e,e,e,e,e,e,e,e,e,e,e,e,e,e,e,e,e,e,e,e,e,e,e,e,e,e,e,e,e,e,e,e,e,e,e,e,e,e,e,e,e,e,e,e,e,e,e,e,e,e,e,e,e,e,e,e,e,e,e,e,e,e,e,e,e,e,e,e,e,e,e,e,e,e,e,e,e,e,e,e,e,e,e,e,e,e,e,e,e,2.56,3.92,5.20,6.43,7.62,8.79,9.94,11.02,12.09,13.13,14.17,15.25,16.33,17.41,18.47,19.49,20.86,22.40,24.07,25.85,27.62,29.07,30.21,31.28,32.64,34.42,36.18,37.90,39.67,42.36,45.06,47.45,49.55,51.69,54.43,57.20,59.86,62.29,64.47,66.55,68.53,70.50,72.90,75.38,77.82,80.19,82.46,84.70,87.06,89.63,92.55,96.27,100.12,103.76,107.19,110.63,115.03,119.40,123.67,127.92,132.68,137.47,141.57,144.77,147.86,152.12,156.52,160.61,163.94,167.45,171.01,174.86,179.03,182.14,184.56,186.35,187.59,188.48,189.29,189.53,189.35,188.99,188.18,186.66,184.48,181.66,178.13,174.62,170.90,167.31,164.54,163.91,163.99,164.58,165.46,166.00,165.97,165.71,165.22,164.10,162.78,161.03,158.71,155.70,153.13,151.12,149.59,148.63,149.13,152.45,156.90,161.87,166.98,172.75,178.79,184.88,191.12,200.28,207.88,213.43,217.30,221.19,225.15,228.67,231.36,232.89,233.02,232.40,230.93,228.63,225.81,222.49,219.05,215.83,213.25,211.43
e,e,e,e,e,e,e,e,e,e,e,e,e,e,e,e,e,e,e,e,e,e,e,e,e,e,e,e,e,e,e,e,e,e,e,e,e,e,e,e,e,e,e,e,e,e,e,e,e,e,e,e,e,e,e,e,e,e,e,e,e,e,e,e,e,e,e,e,e,e,e,e,e,e,e,e,e,e,e,e,e,e,e,e,e,e,e,e,e,e,e,e,e,e,e,e,e,e,e,e,e,e,e,e,e,e,e,e,e,e,e,e,e,e,e,e,e,e,e,e,2.43,3.82,5.20,6.57,7.85,9.05,10.20,11.28,12.30,13.35,14.43,15.51,16.59,17.67,18.72,19.76,21.43,23.22,25.03,26.80,28.58,30.20,31.46,32.45,33.41,35.18,36.91,38.50,40.12,43.46,46.28,48.84,51.28,53.72,56.15,58.58,61.05,63.58,65.95,68.16,70.31,72.49,74.88,77.41,79.78,82.02,84.19,86.43,88.68,91.20,94.18,97.61,101.56,105.32,108.81,112.35,116.44,120.64,124.87,129.08,133.93,138.53,142.44,145.60,148.69,153.34,158.55,163.47,167.00,171.24,176.11,180.57,183.86,186.67,188.92,190.48,191.50,192.50,192.91,192.95,192.65,192.06,191.35,190.11,188.28,185.68,181.71,177.92,174.53,171.58,169.01,168.34,168.40,168.92,169.58,169.78,169.63,169.33,168.85,167.97,166.63,165.08,163.15,160.62,158.00,155.58,153.49,151.88,151.44,154.29,158.17,162.60,167.56,173.33,179.33,185.48,191.96,201.22,208.57,213.94,217.82,221.76,225.95,230.13,233.79,236.36,237.42,237.35,236.13,233.91,231.33,228.00,224.69,221.67,219.19,216.71
e,e,e,e,e,e,e,e,e,e,e,e,e,e,e,e,e,e,e,e,e,e,e,e,e,e,e,e,e,e,e,e,e,e,e,e,e,e,e,e,e,e,e,e,e,e,e,e,e,e,e,e,e,e,e,e,e,e,e,e,e,e,e,e,e,e,e,e,e,e,e,e,e,e,e,e,e,e,e,e,e,e,e,e,e,e,e,e,e,e,e,e,e,e,e,e,e,e,e,e,e,e,e,e,e,e,e,e,e,e,e,e,e,e,e,e,e,e,e,e,2.48,3.85,5.20,6.59,7.90,9.17,10.40,11.48,12.53,13.58,14.62,15.70,16.79,17.87,18.94,20.02,21.77,23.56,25.34,27.08,28.85,30.45,31.83,33.04,34.24,35.79,37.32,38.88,40.70,44.23,47.49,50.21,52.52,54.85,57.20,59.64,62.15,64.69,67.22,69.57,71.85,74.12,76.52,78.93,81.32,83.66,85.91,88.15,90.49,92.99,95.76,99.03,102.93,106.80,110.48,114.13,117.98,122.17,126.44,130.48,134.64,139.01,143.01,146.46,149.77,155.14,160.66,165.91,170.79,175.95,180.65,184.73,188.07,190.72,192.85,194.48,195.70,196.75,197.00,196.72,196.07,195.23,194.09,192.76,191.18,189.18,186.22,182.11,178.52,175.76,173.70,173.30,173.74,174.62,175.52,175.76,175.80,175.50,174.73,173.35,171.60,169.59,167.34,164.92,162.42,159.90,157.53,155.55,154.66,156.01,159.08,163.39,168.20,174.00,179.93,186.04,192.58,201.36,208.45,213.76,217.76,221.96,226.72,231.23,235.31,238.91,240.60,240.98,240.33,238.91,237.11,234.05,230.37,226.67,223.89,221.33
e,e,e,e,e,e,e,e,e,e,e,e,e,e,e,e,e,e,e,e,e,e,e,e,e,e,e,e,e,e,e,e,e,e,e,e,e,e,e,e,e,e,e,e,e,e,e,e,e,e,e,e,e,e,e,e,e,e,e,e,e,e,e,e,e,e,e,e,e,e,e,e,e,e,e,e,e,e,e,e,e,e,e,e,e,e,e,e,e,e,e,e,e,e,e,e,e,e,e,e,e,e,e,e,e,e,e,e,e,e,e,e,e,e,e,e,e,e,e,e,2.54,3.91,5.24,6.63,7.99,9.31,10.57,11.65,12.73,13.77,14.79,15.88,16.96,18.04,19.13,20.26,22.00,23.75,25.48,27.20,28.98,30.54,31.99,33.40,34.85,36.31,37.71,39.29,41.38,45.04,48.56,51.38,53.60,55.82,58.15,60.62,63.16,65.70,68.33,70.80,73.18,75.51,77.89,80.32,82.78,85.20,87.55,89.89,92.32,94.82,97.42,100.64,104.49,108.41,112.21,115.85,119.65,123.90,128.17,131.95,135.53,139.63,143.66,147.42,151.25,157.12,162.82,168.40,174.68,180.42,184.86,188.60,192.07,194.67,196.66,198.24,199.48,200.35,200.55,200.10,199.22,198.20,196.71,195.29,193.86,192.31,190.22,186.33,182.82,180.19,178.52,178.24,178.87,179.94,180.96,181.31,181.47,181.17,180.26,178.58,176.57,174.25,171.76,169.28,166.82,164.23,161.66,159.33,157.86,157.90,160.20,164.29,168.89,174.78,180.63,186.62,193.05,201.04,207.98,213.33,217.39,221.68,227.06,232.01,236.58,241.03,243.33,244.23,244.16,243.43,242.29,239.67,235.98,231.91,228.61,225.78
e,e,e,e,e,e,e,e,e,e,e,e,e,e,e,e,e,e,e,e,e,e,e,e,e,e,e,e,e,e,e,e,e,e,e,e,e,e,e,e,e,e,e,e,e,e,e,e,e,e,e,e,e,e,e,e,e,e,e,e,e,e,e,e,e,e,e,e,e,e,e,e,e,e,e,e,e,e,e,e,e,e,e,e,e,e,e,e,e,e,e,e,e,e,e,e,e,e,e,e,e,e,e,e,e,e,e,e,e,e,e,e,e,e,e,e,e,e,e,e,2.60,3.99,5.37,6.76,8.19,9.53,10.70,11.78,12.86,13.90,14.92,16.00,17.08,18.17,19.27,20.44,22.09,23.74,25.44,27.20,28.98,30.50,31.92,33.39,35.04,36.70,38.12,39.81,42.22,45.98,49.36,52.16,54.48,56.66,59.02,61.51,64.04,66.53,69.16,71.71,74.14,76.46,78.79,81.56,84.15,86.57,89.02,91.65,94.18,96.65,99.23,102.59,106.43,110.30,114.02,117.46,121.52,125.94,130.13,133.48,136.91,140.68,144.54,148.55,153.47,159.32,165.04,171.10,178.61,184.19,188.53,192.26,195.80,198.54,200.32,201.56,202.35,202.57,202.90,202.59,201.77,200.75,199.22,197.74,196.31,194.83,192.93,190.43,187.67,185.14,183.57,183.05,183.37,184.14,185.00,185.44,185.55,185.27,184.53,183.15,181.31,179.14,176.66,173.94,171.29,168.60,165.90,163.22,160.81,160.12,161.82,165.42,169.67,175.73,181.52,187.25,193.27,199.98,207.03,212.61,216.56,220.50,226.51,232.27,237.57,242.51,245.45,246.99,247.44,247.05,246.21,244.30,241.45,237.83,233.70,230.08
e,e,e,e,e,e,e,e,e,e,e,e,e,e,e,e,e,e,e,e,e,e,e,e,e,e,e,e,e,e,e,e,e,e,e,e,e,e,e,e,e,e,e,e,e,e,e,e,e,e,e,e,e,e,e,e,e,e,e,e,e,e,e,e,e,e,e,e,e,e,e,e,e,e,e,e,e,e,e,e,e,e,e,e,e,e,e,e,e,e,e,e,e,e,e,e,e,e,e,e,e,e,e,e,e,e,e,e,e,e,e,e,e,e,e,e,e,e,e,1.38,2.77,4.17,5.60,6.99,8.40,9.72,10.87,11.91,12.99,14.05,15.09,16.13,17.21,18.27,19.37,20.59,22.21,23.83,25.49,27.20,28.94,30.47,32.02,33.63,35.33,37.07,38.51,40.24,42.73,46.25,49.54,52.35,54.71,56.99,59.38,61.87,64.43,67.02,69.72,72.45,75.02,77.38,79.82,82.82,85.51,87.95,90.54,93.35,96.01,98.64,101.40,104.64,108.39,112.25,116.10,119.92,124.55,129.21,133.42,136.78,140.18,143.89,147.71,151.75,156.93,163.09,169.65,176.38,183.08,188.00,192.18,195.96,199.47,201.91,203.52,204.52,205.01,205.01,205.26,205.00,204.33,203.45,201.87,200.32,198.81,197.29,195.47,193.65,191.50,189.38,188.02,187.49,187.65,188.22,188.93,189.43,189.54,189.27,188.57,187.26,185.56,183.51,181.15,178.56,176.09,173.44,170.58,167.53,164.76,163.62,164.37,166.93,171.03,177.06,182.60,187.90,193.30,198.92,205.89,211.67,215.78,219.68,226.12,232.48,238.41,243.85,247.62,250.52,252.23,252.67,252.05,249.82,246.71,243.02,239.04,234.95
e,e,e,e,e,e,e,e,e,e,e,e,e,e,e,e,e,e,e,e,e,e,e,e,e,e,e,e,e,e,e,e,e,e,e,e,e,e,e,e,e,e,e,e,e,e,e,e,e,e,e,e,e,e,e,e,e,e,e,e,e,e,e,e,e,e,e,e,e,e,e,e,e,e,e,e,e,e,e,e,e,e,e,e,e,e,e,e,e,e,e,e,e,e,e,e,e,e,e,e,e,e,e,e,e,e,e,e,e,e,e,e,e,e,e,e,e,e,e,1.56,2.96,4.37,5.84,7.23,8.62,9.91,11.04,12.06,13.12,14.20,15.26,16.26,17.34,18.37,19.45,20.72,22.37,24.00,25.62,27.25,28.93,30.54,32.23,33.96,35.65,37.42,38.92,40.72,43.23,46.39,49.57,52.35,54.74,57.13,59.55,62.09,64.73,67.44,70.23,73.12,75.82,78.30,80.90,84.07,86.84,89.35,92.08,95.01,97.79,100.59,103.54,106.62,110.35,114.26,118.33,122.83,127.97,132.80,137.08,140.69,144.16,147.90,151.76,155.89,161.29,167.87,175.13,182.17,187.58,191.77,195.77,199.60,203.11,205.20,206.66,207.51,207.82,207.72,207.82,207.55,206.96,206.16,204.58,202.98,201.41,199.85,198.12,196.69,195.05,193.39,192.26,191.82,191.86,192.26,192.86,193.37,193.47,193.20,192.51,191.25,189.68,187.73,185.47,183.03,180.78,178.25,175.37,172.23,169.40,167.81,167.49,168.89,172.86,178.61,183.79,188.64,193.47,198.24,204.92,210.78,215.18,219.20,225.86,232.63,239.05,244.95,249.68,254.04,257.12,258.44,258.12,255.65,252.32,248.57,244.70,240.15
e,e,e,e,e,e,e,e,e,e,e,e,e,e,e,e,e,e,e,e,e,e,e,e,e,e,e,e,e,e,e,e,e,e,e,e,e,e,e,e,e,e,e,e,e,e,e,e,e,e,e,e,e,e,e,e,e,e,e,e,e,e,e,e,e,e,e,e,e,e,e,e,e,e,e,e,e,e,e,e,e,e,e,e,e,e,e,e,e,e,e,e,e,e,e,e,e,e,e,e,e,e,e,e,e,e,e,e,e,e,e,e,e,e,e,e,e,e,e,1.73,3.15,4.56,6.03,7.42,8.81,10.08,11.18,12.24,13.27,14.32,15.39,16.39,17.47,18.46,19.53,20.85,22.65,24.32,25.94,27.55,29.14,30.94,32.68,34.33,35.97,37.69,39.41,41.48,44.08,46.85,49.71,52.35,54.74,57.13,59.64,62.40,65.24,67.95,70.79,73.66,76.45,79.17,82.08,85.28,88.14,90.80,93.68,96.56,99.35,102.18,105.13,108.16,112.28,116.46,120.84,126.57,131.53,136.19,140.64,144.92,148.74,152.46,156.48,161.24,167.72,174.66,181.17,186.89,191.56,195.30,199.13,202.98,206.63,208.77,210.16,211.03,211.44,211.24,211.15,210.68,209.85,208.73,207.34,205.87,204.37,202.89,201.41,200.06,198.66,197.33,196.34,196.10,196.07,196.33,196.87,197.23,197.31,197.01,196.34,195.38,193.93,191.98,189.61,186.93,184.63,182.34,180.11,177.93,175.59,173.24,171.73,172.10,175.88,180.62,185.19,189.72,194.36,199.09,204.85,210.36,215.19,219.61,225.95,232.56,239.07,245.30,251.26,256.67,260.55,262.44,262.80,261.65,259.58,256.39,251.33,245.93
e,e,e,e,e,e,e,e,e,e,e,e,e,e,e,e,e,e,e,e,e,e,e,e,e,e,e,e,e,e,e,e,e,e,e,e,e,e,e,e,e,e,e,e,e,e,e,e,e,e,e,e,e,e,e,e,e,e,e,e,e,e,e,e,e,e,e,e,e,e,e,e,e,e,e,e,e,e,e,e,e,e,e,e,e,e,e,e,e,e,e,e,e,e,e,e,e,e,e,e,e,e,e,e,e,e,e,e,e,e,e,e,e,e,e,e,e,e,e,1.89,3.32,4.75,6.18,7.57,8.96,10.23,11.30,12.35,13.39,14.34,15.27,16.47,17.53,18.52,19.61,20.98,22.80,24.55,26.23,27.87,29.41,31.35,33.20,34.91,36.54,38.20,40.13,42.40,44.99,47.59,50.13,52.48,54.69,57.06,59.56,62.46,65.49,68.39,71.37,74.28,77.18,80.15,83.41,86.60,89.54,92.31,95.16,97.98,100.78,103.59,106.50,109.70,114.18,118.74,123.38,128.99,133.61,138.19,142.77,147.30,151.97,156.35,160.91,166.09,172.84,179.44,185.34,190.42,194.60,198.41,202.49,206.55,210.23,212.42,214.04,215.18,215.81,215.80,215.63,215.14,214.24,212.86,211.24,209.47,207.71,206.07,204.68,203.35,202.15,201.11,200.31,200.17,200.32,200.72,201.32,201.85,202.13,202.01,201.47,200.62,199.10,196.97,194.34,191.34,188.62,186.26,184.23,182.44,180.59,178.58,177.15,177.14,179.78,183.51,187.59,191.99,196.70,201.76,206.93,211.75,216.21,220.74,226.79,233.44,240.14,246.33,253.56,259.22,263.22,265.62,266.74,266.49,265.04,262.21,257.61,252.15
e,e,e,e,e,e,e,e,e,e,e,e,e,e,e,e,e,e,e,e,e,e,e,e,e,e,e,e,e,e,e,e,e,e,e,e,e,e,e,e,e,e,e,e,e,e,e,e,e,e,e,e,e,e,e,e,e,e,e,e,e,e,e,e,e,e,e,e,e,e,e,e,e,e,e,e,e,e,e,e,e,e,e,e,e,e,e,e,e,e,e,e,e,e,e,e,e,e,e,e,e,e,e,e,e,e,e,e,e,e,e,e,e,e,e,e,e,e,e,2.04,3.47,4.91,6.30,7.69,9.07,10.34,11.41,12.40,13.44,14.23,15.01,16.48,17.53,18.55,19.69,21.10,22.88,24.72,26.50,28.18,29.74,31.76,33.76,35.61,37.24,38.87,40.99,43.42,45.97,48.52,50.74,52.72,54.67,56.96,59.40,62.38,65.63,68.82,71.98,74.98,78.00,81.20,84.84,88.01,91.02,93.90,96.60,99.39,102.15,104.92,107.77,111.29,116.07,121.03,125.85,130.63,134.83,139.37,144.03,148.56,154.31,159.73,165.03,170.51,177.06,182.95,188.38,193.19,197.08,201.30,205.86,210.22,213.88,216.09,218.06,219.55,220.46,220.76,220.58,220.17,219.32,217.80,215.78,213.56,211.38,209.45,208.02,206.65,205.57,204.79,204.20,204.15,204.62,205.31,206.01,206.86,207.47,207.63,207.29,206.46,204.80,202.46,199.56,196.27,192.89,190.24,188.10,186.32,184.88,183.79,183.16,183.20,184.28,187.02,190.66,195.05,200.01,205.55,210.29,214.29,217.98,222.52,228.29,235.00,241.83,247.82,256.23,261.72,265.54,268.48,270.40,270.80,269.61,267.07,263.65,258.56
e,e,e,e,e,e,e,e,e,e,e,e,e,e,e,e,e,e,e,e,e,e,e,e,e,e,e,e,e,e,e,e,e,e,e,e,e,e,e,e,e,e,e,e,e,e,e,e,e,e,e,e,e,e,e,e,e,e,e,e,e,e,e,e,e,e,e,e,e,e,e,e,e,e,e,e,e,e,e,e,e,e,e,e,e,e,e,e,e,e,e,e,e,e,e,e,e,e,e,e,e,e,e,e,e,e,e,e,e,e,e,e,e,e,e,e,e,e,e,2.23,3.61,4.96,6.30,7.64,8.97,10.25,11.39,12.13,12.75,13.52,14.56,16.03,17.41,18.58,19.75,21.17,23.00,24.81,26.61,28.41,30.16,32.16,34.20,36.16,37.94,39.72,42.03,44.61,47.24,49.74,51.75,53.54,55.29,57.24,59.38,62.53,66.23,69.84,72.90,75.91,79.09,82.58,86.47,89.76,92.87,95.81,98.52,101.40,103.96,106.50,109.36,113.42,118.19,122.87,127.36,131.99,135.95,140.14,144.51,148.96,155.21,161.31,167.21,173.02,179.27,185.08,190.35,195.08,199.31,204.26,209.05,213.55,217.49,219.35,221.06,222.33,223.08,223.39,223.30,223.04,222.49,221.47,220.45,218.62,216.49,214.35,212.38,210.38,209.03,208.34,208.09,208.68,209.42,210.10,210.61,211.40,212.12,212.41,212.22,211.80,210.58,208.92,206.73,203.85,199.79,196.27,193.25,190.70,188.62,188.06,188.28,189.02,190.10,191.98,195.10,199.51,205.04,210.28,214.53,218.23,222.04,227.42,232.69,238.32,244.18,250.12,258.38,264.29,268.97,273.02,275.88,276.71,276.20,274.02,269.27,264.26
e,e,e,e,e,e,e,e,e,e,e,e,e,e,e,e,e,e,e,e,e,e,e,e,e,e,e,e,e,e,e,e,e,e,e,e,e,e,e,e,e,e,e,e,e,e,e,e,e,e,e,e,e,e,e,e,e,e,e,e,e,e,e,e,e,e,e,e,e,e,e,e,e,e,e,e,e,e,e,e,e,e,e,e,e,e,e,e,e,e,e,e,e,e,e,e,e,e,e,e,e,e,e,e,e,e,e,e,e,e,e,e,e,e,e,e,e,e,e,2.40,3.72,5.01,6.30,7.54,8.78,9.93,10.91,11.45,11.97,12.85,14.12,15.61,17.13,18.45,19.76,21.27,23.15,24.99,26.84,28.74,30.74,32.79,34.82,36.80,38.68,40.75,43.25,45.95,48.63,50.93,52.84,54.53,56.14,57.84,60.03,63.29,67.09,70.79,73.76,76.72,80.07,83.93,88.07,91.45,94.66,97.73,100.56,103.52,105.98,108.47,111.46,115.69,120.33,124.84,129.11,133.27,136.83,140.74,144.96,149.42,156.01,162.58,168.92,174.98,180.96,186.63,191.94,196.96,201.79,207.31,212.52,217.02,220.47,222.22,223.78,224.96,225.70,226.04,225.99,225.85,225.51,224.84,224.33,223.06,221.28,219.19,217.13,215.24,213.87,213.09,212.83,213.55,214.24,214.77,215.13,215.80,216.62,216.99,216.87,216.66,215.59,214.24,212.43,209.87,206.02,202.20,198.71,195.73,193.47,193.10,193.72,194.92,196.33,197.99,200.82,204.79,209.70,214.57,218.67,222.66,227.04,232.56,237.47,242.34,247.61,253.72,261.71,267.88,273.08,277.68,280.73,281.92,281.99,280.45,276.02,271.38
e,e,e,e,e,e,e,e,e,e,e,e,e,e,e,e,e,e,e,e,e,e,e,e,e,e,e,e,e,e,e,e,e,e,e,e,e,e,e,e,e,e,e,e,e,e,e,e,e,e,e,e,e,e,e,e,e,e,e,e,e,e,e,e,e,e,e,e,e,e,e,e,e,e,e,e,e,e,e,e,e,e,e,e,e,e,e,e,e,e,e,e,e,e,e,e,e,e,e,e,e,e,e,e,e,e,e,e,e,e,e,e,e,e,e,e,e,e,e,2.55,3.82,5.06,6.30,7.39,8.48,9.38,10.00,10.39,11.08,12.21,13.68,15.23,16.70,18.16,19.70,21.40,23.33,25.25,27.18,29.17,31.47,33.65,35.63,37.51,39.44,41.96,44.66,47.44,50.13,52.08,54.01,55.70,57.19,58.74,61.34,64.63,68.22,71.68,74.55,77.41,80.93,85.25,89.64,93.09,96.41,99.66,102.73,105.74,108.22,110.82,114.06,118.09,122.50,126.94,131.11,134.48,137.48,141.15,145.38,149.94,156.73,163.57,170.19,176.41,182.14,187.61,193.17,198.85,204.52,210.44,216.25,220.64,222.84,224.69,226.24,227.47,228.33,228.72,228.68,228.60,228.39,227.91,227.44,226.88,225.76,223.98,222.26,221.17,220.06,219.00,218.40,218.78,219.08,219.33,219.59,220.06,220.95,221.37,221.22,221.06,219.86,218.46,216.72,214.38,211.61,208.04,204.46,201.39,199.37,198.88,199.46,200.90,202.95,205.01,207.78,210.86,214.01,218.44,222.71,227.56,232.94,237.91,242.59,247.06,252.08,258.57,266.16,272.44,277.85,282.46,284.97,286.45,287.02,286.36,283.86,279.88
e,e,e,e,e,e,e,e,e,e,e,e,e,e,e,e,e,e,e,e,e,e,e,e,e,e,e,e,e,e,e,e,e,e,e,e,e,e,e,e,e,e,e,e,e,e,e,e,e,e,e,e,e,e,e,e,e,e,e,e,e,e,e,e,e,e,e,e,e,e,e,e,e,e,e,e,e,e,e,e,e,e,e,e,e,e,e,e,e,e,e,e,e,e,e,e,e,e,e,e,e,e,e,e,e,e,e,e,e,e,e,e,e,e,e,e,e,e,e,2.60,3.72,4.77,5.82,6.81,7.83,8.67,9.22,9.61,10.50,11.85,13.50,15.14,16.79,18.42,20.10,21.95,23.88,25.77,27.68,29.70,32.16,34.56,36.64,38.59,40.75,43.44,46.19,48.84,51.24,53.17,55.10,56.86,58.50,60.23,63.08,66.40,69.68,72.45,75.12,77.93,81.57,86.11,90.56,94.27,97.90,101.48,104.90,108.10,111.03,113.95,117.19,121.49,126.08,130.40,134.19,137.28,140.31,143.81,147.81,152.36,158.41,165.14,171.47,177.00,182.48,188.18,194.07,200.29,207.12,213.41,218.72,222.55,224.75,226.83,228.91,230.84,232.42,233.18,233.17,232.98,232.59,231.94,231.29,230.62,229.72,228.59,227.68,227.07,226.45,225.87,225.58,225.68,225.71,225.71,225.72,225.86,226.09,225.96,225.43,224.91,223.62,222.19,220.50,218.31,215.70,212.82,210.07,207.81,206.69,206.67,207.18,208.08,209.32,210.71,212.08,213.86,216.50,221.09,225.70,231.36,237.77,242.90,247.75,252.39,257.46,263.78,271.02,277.05,282.06,286.18,289.16,291.29,292.21,291.65,289.31,285.41
e,e,e,e,e,e,e,e,e,e,e,e,e,e,e,e,e,e,e,e,e,e,e,e,e,e,e,e,e,e,e,e,e,e,e,e,e,e,e,e,e,e,e,e,e,e,e,e,e,e,e,e,e,e,e,e,e,e,e,e,e,e,e,e,e,e,e,e,e,e,e,e,e,e,e,e,e,e,e,e,e,e,e,e,e,e,e,e,e,e,e,e,e,e,e,e,e,e,e,e,e,e,e,e,e,e,e,e,e,e,e,e,e,e,e,e,e,0.33,1.49,2.58,3.55,4.45,5.35,6.24,7.19,8.03,8.69,9.23,10.33,11.87,13.67,15.38,17.17,18.92,20.72,22.67,24.60,26.47,28.39,30.46,32.95,35.43,37.62,39.73,42.16,44.96,47.73,50.32,52.61,54.52,56.42,58.24,60.05,62.01,64.97,68.14,71.06,73.35,75.79,78.54,82.20,86.77,91.19,95.21,99.15,103.02,106.71,110.27,113.72,117.15,120.74,125.36,130.05,134.26,137.83,140.86,143.88,147.21,151.01,155.44,160.78,167.01,172.75,177.62,183.04,188.91,194.95,201.54,209.43,216.01,220.84,224.26,226.71,229.15,231.83,234.43,236.59,237.64,237.63,237.33,236.84,236.19,235.44,234.70,233.98,233.33,232.92,232.58,232.25,231.96,231.82,231.73,231.59,231.43,231.26,231.17,230.95,230.45,229.69,228.94,227.50,225.93,224.18,222.14,219.74,217.46,215.39,213.71,213.00,213.21,213.66,214.23,214.92,215.82,216.20,216.98,219.08,223.62,228.91,235.25,242.08,247.30,252.34,257.29,262.61,268.82,275.59,281.27,286.04,290.05,293.60,296.18,297.30,296.76,294.46,290.56
e,e,e,e,e,e,e,e,e,e,e,e,e,e,e,e,e,e,e,e,e,e,e,e,e,e,e,e,e,e,e,e,e,e,e,e,e,e,e,e,e,e,e,e,e,e,e,e,e,e,e,e,e,e,e,e,e,e,e,e,e,e,e,e,e,e,e,e,e,e,e,e,e,e,e,e,e,e,e,e,e,e,e,e,e,e,e,e,e,e,e,e,e,e,e,e,e,e,e,e,e,e,e,e,e,e,e,e,e,e,e,e,e,e,e,e,e,0.61,1.58,2.47,3.30,4.11,4.97,5.76,6.61,7.54,8.54,9.47,10.82,12.50,14.38,16.15,17.99,19.78,21.63,23.63,25.56,27.43,29.42,31.59,33.93,36.22,38.53,40.97,43.70,46.54,49.30,51.96,54.46,56.32,58.13,59.98,61.97,64.23,67.07,69.81,72.31,74.49,76.63,79.31,82.83,87.13,91.41,95.79,100.03,104.08,107.92,112.12,116.17,120.37,124.93,129.89,134.49,138.63,142.30,145.57,148.42,151.62,155.28,159.44,164.19,169.32,174.04,178.36,184.03,189.94,195.86,202.54,211.27,218.00,222.51,225.81,228.80,231.79,235.13,238.27,240.77,241.91,241.87,241.49,241.04,240.73,240.03,239.37,238.80,238.31,237.85,237.46,237.05,236.65,236.36,236.22,236.06,235.88,235.67,235.52,235.25,234.75,234.05,233.34,231.64,229.71,227.74,225.86,223.85,221.96,220.23,218.70,217.54,217.47,217.90,218.57,219.27,220.12,220.29,220.60,221.98,226.08,232.55,239.38,245.64,250.76,255.97,261.45,267.29,273.53,279.61,284.86,289.68,294.29,298.43,301.10,302.19,301.63,299.38,295.38
e,e,e,e,e,e,e,e,e,e,e,e,e,e,e,e,e,e,e,e,e,e,e,e,e,e,e,e,e,e,e,e,e,e,e,e,e,e,e,e,e,e,e,e,e,e,e,e,e,e,e,e,e,e,e,e,e,e,e,e,e,e,e,e,e,e,e,e,e,e,e,e,e,e,e,e,e,e,e,e,e,e,e,e,e,e,e,e,e,e,e,e,e,e,e,e,e,e,e,e,e,e,e,e,e,e,e,e,e,e,e,e,e,e,e,e,e,0.98,1.90,2.80,3.67,4.52,5.37,6.18,7.02,7.95,9.07,10.84,12.56,14.32,16.12,17.85,19.36,21.06,22.93,24.90,26.83,28.76,30.86,33.15,35.47,37.72,40.16,42.80,45.54,48.28,50.80,53.33,56.00,58.29,60.33,62.28,64.27,66.47,69.21,71.89,74.36,76.50,78.14,80.37,83.44,87.34,91.51,96.40,100.86,105.05,109.59,114.87,119.53,124.18,129.23,134.01,138.61,142.77,146.53,150.17,153.31,156.55,159.98,163.66,167.93,172.19,176.45,180.98,186.98,191.86,197.11,203.75,212.95,219.30,223.88,227.51,230.88,234.21,237.82,241.18,243.91,245.43,245.38,245.22,245.14,245.18,244.76,244.32,243.87,243.43,242.84,242.33,241.84,241.38,240.91,240.63,240.41,240.21,240.03,239.96,239.79,239.41,238.82,238.17,236.79,235.19,233.31,231.00,228.27,226.09,224.35,222.95,221.72,221.63,222.31,223.41,224.38,225.66,226.31,226.78,227.67,230.92,236.69,243.02,249.03,254.25,259.72,265.49,271.54,277.79,283.66,288.89,293.72,298.25,302.14,305.04,306.45,306.04,303.43,299.63
e,e,e,e,e,e,e,e,e,e,e,e,e,e,e,e,e,e,e,e,e,e,e,e,e,e,e,e,e,e,e,e,e,e,e,e,e,e,e,e,e,e,e,e,e,e,e,e,e,e,e,e,e,e,e,e,e,e,e,e,e,e,e,e,e,e,e,e,e,e,e,e,e,e,e,e,e,e,e,e,e,e,e,e,e,e,e,e,e,e,e,e,e,e,e,e,e,e,e,e,e,e,e,e,e,e,e,e,e,e,e,e,e,e,e,e,e,1.36,2.29,3.21,4.14,5.05,5.91,6.77,7.64,8.56,9.80,12.73,14.98,16.88,18.56,20.15,21.16,22.60,24.38,26.31,28.27,30.31,32.51,34.85,37.15,39.46,42.05,44.82,47.51,50.04,52.28,54.63,57.33,60.19,62.63,64.76,66.74,68.87,71.52,74.21,76.70,78.75,80.02,81.75,84.27,87.68,91.79,97.12,101.92,106.46,111.72,117.78,122.97,127.96,133.19,137.79,142.49,146.78,150.67,154.65,158.13,161.43,164.69,168.02,171.94,175.73,179.85,184.59,190.27,194.05,198.73,205.33,214.61,220.46,225.16,229.13,232.76,236.31,240.15,243.77,246.78,248.50,248.49,248.55,248.79,249.09,249.08,248.87,248.59,248.26,247.61,247.01,246.52,246.06,245.45,245.02,244.72,244.51,244.37,244.44,244.47,244.32,243.94,243.41,242.51,241.40,239.75,237.18,233.68,231.02,228.98,227.38,225.80,225.68,226.78,228.59,230.19,231.95,233.13,233.84,234.40,236.78,241.38,246.85,252.51,257.87,263.61,269.56,275.63,281.77,287.56,292.87,297.67,301.92,305.48,308.35,309.92,309.69,307.00,303.45
e,e,e,e,e,e,e,e,e,e,e,e,e,e,e,e,e,e,e,e,e,e,e,e,e,e,e,e,e,e,e,e,e,e,e,e,e,e,e,e,e,e,e,e,e,e,e,e,e,e,e,e,e,e,e,e,e,e,e,e,e,e,e,e,e,e,e,e,e,e,e,e,e,e,e,e,e,e,e,e,e,e,e,e,e,e,e,e,e,e,e,e,e,e,e,e,e,e,e,e,e,e,e,e,e,e,e,e,e,e,e,e,e,e,e,e,e,1.74,2.67,3.60,4.53,5.45,6.36,7.27,8.18,9.16,10.65,15.41,18.55,20.80,22.42,23.56,23.85,24.65,26.03,27.91,30.03,32.25,34.48,36.69,38.88,41.44,44.19,46.97,49.62,51.75,53.78,55.88,58.29,61.74,64.89,67.38,69.40,71.73,74.35,77.00,79.35,81.12,82.54,83.90,85.76,88.52,92.67,98.15,103.74,109.30,114.91,120.54,126.03,131.24,136.08,140.89,145.90,150.53,154.73,158.86,162.48,165.81,169.12,172.68,176.50,180.86,185.43,189.85,193.21,196.42,201.22,207.90,216.30,221.74,226.37,230.41,234.03,237.59,241.82,246.07,249.54,250.72,250.89,250.98,251.16,251.47,252.06,252.08,252.05,252.12,251.68,251.19,250.85,250.54,249.99,249.42,249.03,248.79,248.68,248.99,249.43,249.75,249.83,249.64,249.32,248.64,247.43,245.49,241.89,238.62,235.62,232.81,229.84,229.47,231.29,234.47,237.55,239.60,241.00,241.85,242.40,244.08,247.41,251.59,256.37,261.82,267.84,273.75,279.52,285.22,291.01,296.39,301.03,304.86,308.48,310.44,311.47,311.41,309.71,306.34
e,e,e,e,e,e,e,e,e,e,e,e,e,e,e,e,e,e,e,e,e,e,e,e,e,e,e,e,e,e,e,e,e,e,e,e,e,e,e,e,e,e,e,e,e,e,e,e,e,e,e,e,e,e,e,e,e,e,e,e,e,e,e,e,e,e,e,e,e,e,e,e,e,e,e,e,e,e,e,e,e,e,e,e,e,e,e,e,e,e,e,e,e,e,e,e,e,e,e,e,e,e,e,e,e,e,e,e,e,e,e,e,e,e,e,e,1.18,2.08,2.97,3.89,4.82,5.74,6.63,7.56,8.46,9.90,12.59,18.73,22.39,24.62,25.84,26.37,26.41,26.79,27.82,29.69,31.99,34.28,36.51,38.66,40.75,43.38,46.22,49.03,51.55,53.60,55.61,57.74,60.22,63.92,67.40,70.20,72.48,74.91,77.49,80.00,82.17,83.79,85.16,86.29,87.80,90.12,93.92,99.42,105.38,111.30,116.71,122.29,127.99,133.51,138.67,143.60,148.65,153.44,157.99,162.60,166.43,169.97,173.43,177.00,180.85,185.30,189.61,193.31,195.97,199.12,204.08,210.66,218.02,222.83,227.26,231.37,235.19,238.85,243.33,247.60,250.91,252.22,252.69,252.95,253.21,253.67,254.44,254.76,255.02,255.35,255.20,254.90,254.68,254.51,254.17,253.69,253.44,253.38,253.50,253.95,254.64,255.23,255.54,255.50,255.39,254.97,253.99,252.19,249.07,245.87,242.49,238.92,235.42,234.64,236.22,239.38,242.77,244.80,246.51,248.13,249.83,251.47,253.77,256.80,260.77,266.22,271.75,277.27,282.84,288.54,294.30,299.23,303.44,307.03,310.12,311.92,313.00,313.12,311.49,308.65
