4.30,4.30,4.38,4.52,4.67,4.81,4.88,4.49,4.44,4.67,4.89,4.89,4.89,4.89,4.90,4.90,4.90,4.90,4.90,4.90,4.90,4.90,4.90,4.90,4.90,4.90,4.90,4.90,4.90,4.89,4.89,4.89,4.89,4.89,4.89,4.89,4.89,4.89,4.83,4.71,4.56,4.40,4.40,4.51,4.66,4.80,4.87,4.89,4.89,4.89,4.89,4.89,4.85,4.77,4.70,4.69,4.64,4.56,4.48,4.41,4.39,4.35,4.27,4.20,4.13,4.09,4.06,3.99,3.92,3.89,3.86,3.78,3.70,3.63,3.60,3.57,3.49,3.41,3.34,3.30,3.28,3.21,3.13,3.10,3.10,3.11,3.11,3.15,3.20,3.21,3.28,3.31,3.31,3.32,3.40,3.29,3.18,3.12,3.11,3.10,3.10,3.13,3.20,3.20,3.20,3.20,3.20,3.20,3.21,3.25,3.30,3.30,3.30,3.30,3.30,3.30,3.30,3.30,3.30,3.30,3.31,3.31,3.31,3.31,3.31,3.31,3.31,3.31,3.31,3.31,3.37,3.40,3.40,3.40,3.40,3.40,3.40,3.40,3.40,3.40,3.40,3.40,3.41,3.41,3.41,3.41,3.41,3.41,3.41,3.41,3.41,3.41,3.47,3.50,3.50,3.50,3.50,3.50,3.50,3.50,3.50,3.50,3.50,3.51,3.51,3.51,3.51,3.51,3.51,3.51,3.51,3.51,3.52,3.59,3.60,3.60,3.60,3.60,3.60,3.60,3.60,3.60,3.60,3.61,3.61,3.61,3.61,3.61,3.61,3.61,3.61,3.61,3.61,3.64,3.70,3.70,3.70,3.70,3.70,3.70,3.71,3.71,3.74,3.80,3.81,3.87,3.94,4.02,4.09,4.17,4.21,4.23,4.30,4.38,4.46,4.53,4.60,4.61,4.67,4.74,4.82,4.90,4.98,5.01,5.04,5.11,5.18,5.26,5.34,5.40,5.41,5.47,5.51,5.51,5.51,5.51,5.51,5.51,5.51,5.51,5.51,5.51,5.51,5.51,5.51,5.51,5.51,5.50,5.50,5.45,5.41,5.41,5.41,5.41,5.41,5.41
4.30,4.31,4.42,4.54,4.67,4.81,4.89,4.53,4.46,4.67,4.90,4.90,4.90,4.90,4.90,4.90,4.90,4.90,4.90,4.90,4.90,4.90,4.90,4.90,4.90,4.90,4.90,4.90,4.90,4.90,4.90,4.90,4.90,4.90,4.90,4.90,4.90,4.90,4.87,4.77,4.62,4.47,4.38,4.44,4.60,4.75,4.87,4.90,4.90,4.90,4.90,4.90,4.88,4.83,4.76,4.71,4.68,4.62,4.55,4.47,4.42,4.38,4.34,4.26,4.18,4.13,4.09,4.05,3.97,3.92,3.88,3.84,3.76,3.69,3.63,3.59,3.55,3.48,3.40,3.34,3.30,3.26,3.19,3.13,3.10,3.10,3.10,3.12,3.15,3.15,3.23,3.25,3.26,3.30,3.29,3.20,3.13,3.10,3.10,3.10,3.10,3.13,3.20,3.20,3.20,3.20,3.20,3.20,3.20,3.22,3.25,3.25,3.25,3.25,3.25,3.25,3.25,3.25,3.25,3.26,3.30,3.30,3.30,3.30,3.30,3.30,3.30,3.30,3.30,3.30,3.33,3.35,3.35,3.35,3.35,3.35,3.35,3.35,3.35,3.35,3.35,3.36,3.40,3.40,3.40,3.40,3.40,3.40,3.40,3.40,3.40,3.40,3.43,3.45,3.45,3.45,3.45,3.45,3.45,3.45,3.45,3.45,3.47,3.50,3.50,3.50,3.50,3.50,3.50,3.50,3.50,3.50,3.51,3.54,3.55,3.55,3.55,3.55,3.55,3.55,3.55,3.55,3.55,3.58,3.60,3.60,3.60,3.60,3.60,3.60,3.60,3.60,3.60,3.62,3.65,3.65,3.65,3.65,3.65,3.65,3.69,3.70,3.71,3.75,3.79,3.86,3.94,4.01,4.04,4.12,4.17,4.23,4.30,4.38,4.43,4.48,4.55,4.59,4.67,4.74,4.81,4.85,4.92,4.97,5.03,5.11,5.18,5.23,5.29,5.36,5.40,5.43,5.45,5.45,5.45,5.45,5.45,5.45,5.45,5.45,5.45,5.45,5.45,5.45,5.45,5.45,5.45,5.45,5.45,5.42,5.40,5.39,5.35,5.35,5.35,5.35
4.30,4.31,4.46,4.56,4.67,4.81,4.89,4.57,4.50,4.68,4.96,5.07,5.19,5.29,5.38,5.43,5.45,5.47,5.49,5.48,5.44,5.43,5.42,5.41,5.38,5.36,5.34,5.34,5.31,5.27,5.23,5.20,5.17,5.13,5.09,5.07,5.07,5.11,5.14,5.08,4.91,4.70,4.56,4.59,4.73,4.87,5.00,5.01,4.97,4.93,4.90,4.90,4.90,4.88,4.82,4.74,4.71,4.68,4.61,4.53,4.46,4.41,4.39,4.32,4.25,4.17,4.11,4.10,4.03,3.96,3.91,3.89,3.81,3.75,3.67,3.61,3.60,3.54,3.47,3.39,3.32,3.30,3.25,3.18,3.11,3.10,3.09,3.08,3.09,3.10,3.17,3.18,3.22,3.27,3.18,3.11,3.09,3.10,3.10,3.10,3.10,3.12,3.18,3.18,3.18,3.18,3.18,3.18,3.18,3.19,3.20,3.20,3.20,3.20,3.20,3.20,3.20,3.20,3.20,3.22,3.28,3.28,3.28,3.28,3.28,3.28,3.28,3.28,3.28,3.28,3.29,3.30,3.30,3.30,3.30,3.30,3.30,3.30,3.30,3.30,3.30,3.32,3.38,3.38,3.38,3.38,3.38,3.38,3.38,3.38,3.38,3.38,3.39,3.40,3.40,3.40,3.40,3.40,3.40,3.40,3.40,3.40,3.43,3.48,3.48,3.48,3.48,3.48,3.48,3.48,3.48,3.48,3.49,3.50,3.50,3.50,3.50,3.50,3.50,3.50,3.50,3.50,3.50,3.55,3.58,3.58,3.58,3.58,3.58,3.58,3.58,3.58,3.58,3.59,3.60,3.60,3.60,3.60,3.60,3.60,3.66,3.68,3.69,3.71,3.79,3.85,3.92,3.99,4.00,4.07,4.15,4.22,4.29,4.36,4.39,4.43,4.51,4.59,4.66,4.73,4.79,4.80,4.88,4.95,5.02,5.09,5.17,5.19,5.24,5.32,5.39,5.40,5.40,5.40,5.38,5.38,5.38,5.38,5.38,5.38,5.38,5.38,5.38,5.38,5.38,5.38,5.38,5.38,5.38,5.38,5.38,5.37,5.31,5.29,5.28,5.28
4.30,4.31,4.46,4.56,4.67,4.81,4.89,4.62,4.53,4.74,5.22,5.72,6.26,6.77,7.19,7.44,7.54,7.63,7.72,7.65,7.48,7.41,7.39,7.32,7.20,7.07,7.00,6.98,6.86,6.68,6.49,6.32,6.20,6.01,5.82,5.71,5.73,5.91,6.05,6.03,5.83,5.42,5.31,5.33,5.42,5.51,5.54,5.41,5.22,5.04,4.92,4.90,4.90,4.90,4.88,4.81,4.74,4.69,4.67,4.60,4.52,4.45,4.40,4.38,4.31,4.23,4.16,4.10,4.08,4.02,3.95,3.89,3.81,3.79,3.74,3.66,3.60,3.59,3.53,3.45,3.38,3.31,3.29,3.24,3.17,3.11,3.04,3.02,3.04,3.10,3.12,3.12,3.15,3.20,3.06,3.03,3.05,3.10,3.10,3.10,3.10,3.11,3.12,3.12,3.12,3.12,3.12,3.12,3.12,3.16,3.20,3.20,3.20,3.20,3.20,3.20,3.20,3.20,3.20,3.20,3.22,3.22,3.22,3.22,3.22,3.22,3.22,3.22,3.22,3.22,3.27,3.30,3.30,3.30,3.30,3.30,3.30,3.30,3.30,3.30,3.30,3.30,3.32,3.32,3.32,3.32,3.32,3.32,3.32,3.32,3.32,3.32,3.37,3.40,3.40,3.40,3.40,3.40,3.40,3.40,3.40,3.40,3.41,3.42,3.42,3.42,3.42,3.42,3.42,3.42,3.42,3.42,3.43,3.49,3.50,3.50,3.50,3.50,3.50,3.50,3.50,3.50,3.50,3.51,3.52,3.52,3.52,3.52,3.52,3.52,3.52,3.52,3.52,3.55,3.60,3.60,3.60,3.60,3.60,3.60,3.61,3.62,3.64,3.71,3.79,3.81,3.86,3.93,4.00,4.07,4.15,4.20,4.22,4.30,4.37,4.43,4.51,4.59,4.61,4.66,4.74,4.80,4.88,4.95,5.01,5.03,5.10,5.17,5.24,5.32,5.39,5.40,5.40,5.38,5.32,5.32,5.32,5.32,5.32,5.32,5.32,5.32,5.32,5.32,5.32,5.32,5.32,5.32,5.32,5.32,5.32,5.32,5.30,5.24,5.22,5.22
4.40,4.45,4.67,4.86,5.12,5.49,5.84,5.92,6.12,6.53,7.17,7.79,8.37,8.94,9.53,9.87,10.03,10.14,10.26,10.35,10.11,10.04,10.07,10.09,9.93,9.75,9.62,9.54,9.38,9.19,9.03,8.92,8.83,8.70,8.57,8.50,8.53,8.86,9.00,9.00,8.87,8.58,8.45,8.37,8.28,8.11,7.94,7.59,7.24,6.94,6.64,6.42,6.20,5.90,5.45,4.99,4.79,4.74,4.74,4.66,4.58,4.51,4.44,4.40,4.36,4.30,4.22,4.14,4.11,4.07,4.01,3.93,3.86,3.82,3.78,3.72,3.65,3.61,3.57,3.52,3.44,3.36,3.32,3.28,3.23,3.15,3.07,3.02,3.01,3.06,3.06,3.08,3.10,3.10,3.01,3.00,3.02,3.06,3.06,3.09,3.10,3.10,3.10,3.10,3.10,3.10,3.10,3.10,3.10,3.13,3.16,3.16,3.16,3.16,3.16,3.16,3.16,3.16,3.16,3.16,3.20,3.20,3.20,3.20,3.20,3.20,3.20,3.20,3.20,3.20,3.24,3.26,3.26,3.26,3.26,3.26,3.26,3.26,3.26,3.26,3.27,3.30,3.30,3.30,3.30,3.30,3.30,3.30,3.30,3.30,3.30,3.30,3.34,3.36,3.36,3.36,3.36,3.36,3.36,3.36,3.36,3.36,3.37,3.40,3.40,3.40,3.40,3.40,3.40,3.40,3.40,3.40,3.41,3.45,3.46,3.46,3.46,3.46,3.46,3.46,3.46,3.46,3.46,3.48,3.50,3.50,3.50,3.50,3.50,3.50,3.50,3.50,3.50,3.52,3.56,3.56,3.56,3.56,3.56,3.60,3.60,3.60,3.63,3.70,3.75,3.78,3.84,3.92,3.99,4.07,4.13,4.17,4.20,4.28,4.36,4.43,4.51,4.55,4.59,4.64,4.72,4.80,4.88,4.93,4.97,5.01,5.08,5.16,5.24,5.31,5.35,5.36,5.36,5.34,5.30,5.26,5.26,5.26,5.26,5.26,5.26,5.26,5.26,5.26,5.26,5.26,5.26,5.26,5.26,5.26,5.26,5.26,5.26,5.22,5.20,5.19
4.78,4.87,5.16,5.47,5.92,6.56,7.27,7.79,8.36,9.00,9.75,10.36,10.83,11.35,12.03,12.46,12.70,12.84,13.00,13.36,13.16,13.16,13.30,13.44,13.31,13.11,12.89,12.69,12.53,12.36,12.28,12.26,12.26,12.24,12.22,12.21,12.26,12.69,12.78,12.78,12.77,12.70,12.56,12.37,12.07,11.63,11.25,10.69,10.17,9.74,9.25,8.77,8.23,7.53,6.54,5.57,5.11,4.93,4.80,4.73,4.66,4.58,4.50,4.42,4.41,4.37,4.29,4.22,4.14,4.11,4.07,4.00,3.93,3.85,3.81,3.79,3.71,3.63,3.61,3.58,3.50,3.43,3.35,3.31,3.29,3.22,3.14,3.06,3.01,3.00,3.00,3.05,3.06,3.00,3.00,3.00,3.00,3.00,3.00,3.07,3.09,3.09,3.09,3.09,3.09,3.09,3.09,3.09,3.09,3.10,3.10,3.10,3.10,3.10,3.10,3.10,3.10,3.10,3.10,3.12,3.19,3.19,3.19,3.19,3.19,3.19,3.19,3.19,3.19,3.19,3.20,3.20,3.20,3.20,3.20,3.20,3.20,3.20,3.20,3.20,3.24,3.29,3.29,3.29,3.29,3.29,3.29,3.29,3.29,3.29,3.29,3.30,3.30,3.30,3.30,3.30,3.30,3.30,3.30,3.30,3.30,3.30,3.34,3.39,3.39,3.39,3.39,3.39,3.39,3.39,3.39,3.39,3.39,3.40,3.40,3.40,3.40,3.40,3.40,3.40,3.40,3.40,3.40,3.46,3.49,3.49,3.49,3.49,3.49,3.49,3.49,3.49,3.49,3.49,3.50,3.50,3.50,3.50,3.52,3.59,3.59,3.60,3.63,3.69,3.70,3.76,3.84,3.92,3.99,4.06,4.10,4.13,4.20,4.28,4.35,4.43,4.49,4.50,4.57,4.64,4.72,4.79,4.87,4.90,4.93,5.01,5.08,5.16,5.23,5.29,5.29,5.29,5.29,5.29,5.29,5.22,5.20,5.20,5.19,5.19,5.19,5.19,5.19,5.19,5.19,5.19,5.19,5.19,5.19,5.19,5.19,5.19,5.19,5.19,5.19,5.17
6.63,6.71,6.91,7.19,7.67,8.36,9.17,9.92,10.56,11.12,11.67,12.23,12.75,13.37,14.17,14.89,15.47,15.83,16.15,16.91,17.19,17.65,18.09,18.24,18.25,18.13,17.76,17.22,17.01,16.75,16.54,16.41,16.41,16.25,16.08,16.00,16.07,16.25,16.29,16.32,16.36,16.34,16.30,16.13,15.90,15.66,15.27,14.75,14.15,13.48,12.79,12.24,11.46,10.50,9.61,8.30,7.06,5.89,4.87,4.85,4.78,4.71,4.63,4.55,4.49,4.46,4.42,4.34,4.27,4.20,4.14,4.07,4.05,3.98,3.91,3.85,3.78,3.70,3.67,3.64,3.57,3.49,3.41,3.34,3.30,3.27,3.20,3.13,3.05,3.00,3.00,3.02,3.02,3.00,3.00,3.00,3.00,3.00,3.00,3.02,3.03,3.03,3.03,3.03,3.03,3.03,3.03,3.03,3.03,3.06,3.10,3.10,3.10,3.10,3.10,3.10,3.10,3.10,3.10,3.11,3.13,3.13,3.13,3.13,3.13,3.13,3.13,3.13,3.13,3.13,3.18,3.20,3.20,3.20,3.20,3.20,3.20,3.20,3.20,3.20,3.21,3.23,3.23,3.23,3.23,3.23,3.23,3.23,3.23,3.23,3.24,3.29,3.30,3.30,3.30,3.30,3.30,3.30,3.30,3.30,3.30,3.30,3.31,3.33,3.33,3.33,3.33,3.33,3.33,3.33,3.33,3.33,3.34,3.39,3.40,3.40,3.40,3.40,3.40,3.40,3.40,3.40,3.40,3.42,3.43,3.43,3.43,3.43,3.43,3.43,3.43,3.43,3.43,3.45,3.50,3.50,3.50,3.50,3.51,3.53,3.53,3.57,3.61,3.63,3.69,3.76,3.84,3.90,3.93,4.00,4.06,4.13,4.20,4.28,4.32,4.36,4.44,4.49,4.57,4.64,4.71,4.73,4.80,4.87,4.93,5.01,5.08,5.12,5.17,5.23,5.23,5.23,5.23,5.23,5.23,5.21,5.20,5.18,5.13,5.13,5.13,5.13,5.13,5.13,5.13,5.13,5.13,5.13,5.13,5.13,5.13,5.13,5.13,5.13,5.13,5.12
8.40,8.45,8.58,8.86,9.31,9.95,10.86,11.69,12.41,13.03,13.55,14.09,14.65,15.34,16.22,17.07,17.86,18.49,19.05,19.89,20.52,21.16,21.71,22.05,22.07,22.15,22.01,21.66,21.79,21.59,21.43,21.41,21.58,21.39,21.20,21.10,21.13,21.21,21.20,21.21,21.24,21.22,21.21,21.09,20.83,20.47,19.83,19.14,18.32,17.35,16.38,15.58,14.55,13.40,12.49,10.87,9.09,7.25,5.56,5.22,5.09,5.03,4.98,4.90,4.82,4.77,4.74,4.69,4.61,4.53,4.46,4.39,4.39,4.33,4.25,4.17,4.09,4.04,4.01,3.96,3.88,3.81,3.75,3.69,3.62,3.59,3.52,3.43,3.31,3.18,3.12,3.03,2.96,2.96,2.96,2.96,2.96,2.96,2.96,2.99,3.00,3.00,3.00,3.00,3.00,3.00,3.00,3.00,3.00,3.03,3.06,3.06,3.06,3.06,3.06,3.06,3.06,3.06,3.06,3.07,3.10,3.10,3.10,3.10,3.10,3.10,3.10,3.10,3.10,3.10,3.14,3.16,3.16,3.16,3.16,3.16,3.16,3.16,3.16,3.16,3.18,3.20,3.20,3.20,3.20,3.20,3.20,3.20,3.20,3.20,3.21,3.26,3.26,3.26,3.26,3.26,3.26,3.26,3.26,3.26,3.26,3.29,3.30,3.30,3.30,3.30,3.30,3.30,3.30,3.30,3.30,3.30,3.31,3.36,3.36,3.36,3.36,3.36,3.36,3.36,3.36,3.36,3.36,3.39,3.40,3.40,3.40,3.40,3.40,3.40,3.40,3.40,3.40,3.42,3.46,3.46,3.46,3.46,3.47,3.50,3.50,3.53,3.57,3.61,3.69,3.74,3.80,3.87,3.90,3.97,4.05,4.13,4.20,4.25,4.28,4.33,4.41,4.49,4.57,4.63,4.67,4.70,4.78,4.85,4.93,5.00,5.05,5.09,5.12,5.16,5.16,5.16,5.16,5.16,5.16,5.16,5.16,5.14,5.10,5.10,5.08,5.06,5.06,5.06,5.06,5.06,5.06,5.06,5.06,5.06,5.06,5.06,5.06,5.06,5.06,5.06
10.11,10.11,10.19,10.50,10.88,11.37,12.38,13.18,14.00,14.78,15.40,15.94,16.54,17.28,18.20,19.05,19.96,20.89,21.76,22.46,23.30,23.90,24.45,25.11,25.03,25.42,25.79,26.04,26.81,26.79,26.81,27.05,27.51,27.37,27.27,27.19,27.13,27.20,27.16,27.12,27.10,27.03,27.02,26.92,26.59,25.88,24.80,23.78,22.64,21.32,20.01,18.83,17.53,16.25,15.24,13.33,11.19,8.92,6.73,5.79,5.54,5.50,5.49,5.41,5.33,5.26,5.20,5.20,5.12,5.05,4.97,4.90,4.90,4.84,4.76,4.68,4.61,4.60,4.55,4.47,4.40,4.32,4.30,4.26,4.19,4.11,4.03,3.91,3.73,3.50,3.34,3.08,2.90,2.90,2.90,2.90,2.90,2.90,2.90,2.97,3.00,3.00,3.00,3.00,3.00,3.00,3.00,3.00,3.00,3.00,3.00,3.00,3.00,3.00,3.00,3.00,3.00,3.00,3.00,3.02,3.10,3.10,3.10,3.10,3.10,3.10,3.10,3.10,3.10,3.10,3.10,3.10,3.10,3.10,3.10,3.10,3.10,3.10,3.10,3.10,3.14,3.20,3.20,3.20,3.20,3.20,3.20,3.20,3.20,3.20,3.20,3.20,3.20,3.20,3.20,3.20,3.20,3.20,3.20,3.20,3.20,3.26,3.30,3.30,3.30,3.30,3.30,3.30,3.30,3.30,3.30,3.30,3.30,3.30,3.30,3.30,3.30,3.30,3.30,3.30,3.30,3.30,3.30,3.36,3.40,3.40,3.40,3.40,3.40,3.40,3.40,3.40,3.40,3.40,3.40,3.40,3.40,3.40,3.42,3.50,3.50,3.50,3.53,3.61,3.68,3.70,3.74,3.82,3.89,3.97,4.05,4.13,4.20,4.20,4.26,4.33,4.41,4.49,4.57,4.60,4.62,4.70,4.78,4.85,4.93,5.00,5.00,5.06,5.10,5.10,5.10,5.10,5.10,5.10,5.10,5.10,5.10,5.10,5.10,5.10,5.03,5.00,5.00,5.00,5.00,5.00,5.00,5.00,5.00,5.00,5.00,5.00,5.00,5.00,5.00,5.00
11.38,11.39,11.46,11.74,12.12,12.65,13.65,14.59,15.47,16.29,17.06,17.70,18.43,19.26,20.19,21.14,22.07,23.02,23.95,24.69,25.67,26.49,27.23,28.00,28.37,28.87,29.35,29.79,30.47,30.81,31.08,31.35,31.67,31.71,31.71,31.62,31.45,31.33,31.25,31.21,31.20,31.17,31.17,31.11,30.86,30.30,29.52,28.64,27.53,26.12,24.41,22.70,20.98,19.31,17.81,16.08,14.27,11.94,8.90,6.53,6.22,6.31,6.25,6.18,6.10,6.05,6.02,5.97,5.89,5.81,5.76,5.73,5.68,5.60,5.53,5.46,5.44,5.39,5.32,5.24,5.16,5.09,4.95,4.79,4.62,4.50,4.33,4.16,3.98,3.75,3.30,3.02,2.90,2.90,2.90,2.90,2.90,2.90,2.90,2.93,2.94,2.94,2.94,2.94,2.94,2.94,2.94,2.94,2.94,2.97,3.00,3.00,3.00,3.00,3.00,3.00,3.00,3.00,3.00,3.01,3.03,3.04,3.04,3.04,3.04,3.04,3.04,3.04,3.04,3.04,3.08,3.10,3.10,3.10,3.10,3.10,3.10,3.10,3.10,3.10,3.11,3.14,3.14,3.14,3.14,3.14,3.14,3.14,3.14,3.14,3.14,3.19,3.20,3.20,3.20,3.20,3.20,3.20,3.20,3.20,3.20,3.22,3.24,3.24,3.24,3.24,3.24,3.24,3.24,3.24,3.24,3.24,3.24,3.29,3.30,3.30,3.30,3.30,3.30,3.30,3.30,3.30,3.30,3.32,3.34,3.34,3.34,3.34,3.34,3.34,3.34,3.34,3.34,3.36,3.40,3.40,3.40,3.40,3.41,3.44,3.44,3.47,3.53,3.60,3.63,3.68,3.74,3.82,3.89,3.97,4.02,4.06,4.14,4.19,4.26,4.33,4.40,4.43,4.50,4.56,4.62,4.70,4.78,4.82,4.87,4.94,4.99,5.02,5.04,5.04,5.04,5.04,5.04,5.04,5.04,5.04,5.04,5.04,5.04,5.04,5.01,4.97,4.94,4.94,4.94,4.94,4.94,4.94,4.94,4.94,4.94,4.94,4.94,4.94,4.94,4.94
12.64,12.66,12.74,12.99,13.37,13.92,14.88,15.92,16.89,17.79,18.63,19.44,20.30,21.22,22.18,23.20,24.17,25.14,26.11,26.92,28.00,29.01,29.94,30.81,31.49,32.13,32.73,33.30,33.94,34.48,34.89,35.21,35.48,35.68,35.68,35.54,35.31,35.05,34.91,34.85,34.85,34.85,34.85,34.81,34.62,34.15,33.54,32.70,31.61,30.23,28.40,26.53,24.58,22.58,20.65,19.00,17.40,15.09,11.63,8.39,7.43,7.17,7.02,6.94,6.87,6.84,6.81,6.73,6.66,6.58,6.54,6.53,6.45,6.37,6.29,6.23,6.18,6.06,5.94,5.82,5.70,5.61,5.40,5.17,4.95,4.80,4.59,4.40,4.18,3.86,3.26,2.99,2.90,2.90,2.90,2.88,2.87,2.88,2.90,2.90,2.90,2.90,2.90,2.90,2.90,2.90,2.90,2.90,2.90,2.93,2.97,2.97,2.97,2.97,2.97,2.97,2.97,2.97,2.97,2.98,3.00,3.00,3.00,3.00,3.00,3.00,3.00,3.00,3.00,3.00,3.05,3.07,3.07,3.07,3.07,3.07,3.07,3.07,3.07,3.07,3.08,3.10,3.10,3.10,3.10,3.10,3.10,3.10,3.10,3.10,3.11,3.17,3.17,3.17,3.17,3.17,3.17,3.17,3.17,3.17,3.17,3.19,3.20,3.20,3.20,3.20,3.20,3.20,3.20,3.20,3.20,3.20,3.21,3.27,3.27,3.27,3.27,3.27,3.27,3.27,3.27,3.27,3.27,3.29,3.30,3.30,3.30,3.30,3.30,3.30,3.30,3.30,3.30,3.33,3.37,3.37,3.37,3.37,3.38,3.40,3.40,3.44,3.50,3.57,3.60,3.66,3.74,3.81,3.87,3.94,3.99,4.03,4.10,4.18,4.24,4.31,4.38,4.40,4.47,4.54,4.62,4.67,4.75,4.79,4.83,4.91,4.96,4.97,4.97,4.97,4.97,4.97,4.97,4.97,4.97,4.97,4.97,4.97,4.97,4.97,4.97,4.94,4.90,4.90,4.88,4.87,4.87,4.87,4.87,4.87,4.87,4.87,4.87,4.87,4.87,4.87
13.87,13.94,14.02,14.27,14.65,15.18,16.04,17.15,18.25,19.25,20.10,21.15,22.16,23.16,24.16,25.24,26.25,27.25,28.24,29.15,30.28,31.47,32.58,33.50,34.33,35.15,35.88,36.51,37.20,37.69,38.11,38.49,38.87,39.16,39.06,38.80,38.56,38.26,38.02,37.91,37.91,37.91,37.91,37.91,37.75,37.28,36.67,35.72,34.64,33.46,31.88,30.30,28.36,26.13,23.86,22.15,20.60,18.41,15.06,11.68,9.32,8.09,7.79,7.71,7.63,7.60,7.58,7.50,7.42,7.35,7.30,7.29,7.21,7.14,7.06,6.97,6.82,6.61,6.39,6.17,5.96,5.81,5.59,5.36,5.15,4.99,4.83,4.63,4.31,3.80,3.25,2.99,2.90,2.90,2.90,2.84,2.81,2.83,2.90,2.90,2.90,2.90,2.90,2.90,2.90,2.90,2.90,2.90,2.90,2.90,2.91,2.91,2.91,2.91,2.91,2.91,2.91,2.91,2.91,2.93,3.00,3.00,3.00,3.00,3.00,3.00,3.00,3.00,3.00,3.00,3.01,3.01,3.01,3.01,3.01,3.01,3.01,3.01,3.01,3.01,3.05,3.10,3.10,3.10,3.10,3.10,3.10,3.10,3.10,3.10,3.10,3.11,3.11,3.11,3.11,3.11,3.11,3.11,3.11,3.11,3.11,3.17,3.20,3.20,3.20,3.20,3.20,3.20,3.20,3.20,3.20,3.20,3.20,3.21,3.21,3.21,3.21,3.21,3.21,3.21,3.21,3.21,3.21,3.27,3.30,3.30,3.30,3.30,3.30,3.30,3.30,3.30,3.30,3.30,3.31,3.31,3.31,3.31,3.33,3.40,3.40,3.40,3.44,3.52,3.59,3.66,3.74,3.80,3.81,3.88,3.95,4.03,4.10,4.18,4.20,4.24,4.32,4.39,4.47,4.54,4.60,4.61,4.68,4.76,4.83,4.90,4.91,4.91,4.91,4.91,4.91,4.91,4.91,4.91,4.91,4.91,4.91,4.91,4.91,4.91,4.91,4.90,4.90,4.90,4.83,4.81,4.81,4.81,4.81,4.81,4.81,4.81,4.81,4.81,4.81,4.81
15.14,15.22,15.34,15.54,15.89,16.45,17.26,18.33,19.50,20.68,21.79,22.88,23.90,24.92,25.97,27.01,28.02,29.14,30.36,31.59,32.75,33.93,35.08,36.13,37.06,37.97,38.95,40.01,40.93,41.56,42.09,42.55,42.98,43.16,43.18,43.15,43.10,42.74,42.42,42.15,41.98,41.98,41.90,41.63,41.19,40.63,39.93,38.82,37.62,36.44,34.94,33.29,31.42,29.35,27.16,25.28,23.60,21.63,19.08,16.46,13.32,10.62,8.84,8.50,8.44,8.40,8.34,8.27,8.19,8.08,7.96,7.83,7.71,7.55,7.39,7.23,7.07,6.84,6.61,6.38,6.15,5.95,5.76,5.57,5.38,5.19,4.99,4.77,4.36,3.57,3.20,2.96,2.84,2.84,2.84,2.82,2.80,2.81,2.84,2.84,2.84,2.84,2.84,2.84,2.84,2.84,2.84,2.84,2.88,2.90,2.90,2.90,2.90,2.90,2.90,2.90,2.90,2.90,2.90,2.91,2.94,2.94,2.94,2.94,2.94,2.94,2.94,2.94,2.94,2.94,2.98,3.00,3.00,3.00,3.00,3.00,3.00,3.00,3.00,3.00,3.02,3.04,3.04,3.04,3.04,3.04,3.04,3.04,3.04,3.04,3.05,3.09,3.10,3.10,3.10,3.10,3.10,3.10,3.10,3.10,3.10,3.13,3.14,3.14,3.14,3.14,3.14,3.14,3.14,3.14,3.14,3.16,3.20,3.20,3.20,3.20,3.20,3.20,3.20,3.20,3.20,3.20,3.20,3.23,3.24,3.24,3.24,3.24,3.24,3.24,3.24,3.24,3.24,3.26,3.30,3.30,3.30,3.30,3.31,3.34,3.34,3.37,3.43,3.51,3.59,3.66,3.72,3.75,3.80,3.87,3.95,4.03,4.10,4.14,4.18,4.23,4.31,4.39,4.47,4.52,4.56,4.60,4.68,4.75,4.83,4.90,4.85,4.84,4.84,4.84,4.84,4.84,4.84,4.84,4.84,4.84,4.84,4.84,4.84,4.84,4.84,4.84,4.84,4.84,4.81,4.80,4.78,4.74,4.74,4.74,4.74,4.74,4.74,4.74,4.74,4.74
16.44,16.52,16.66,16.80,17.12,17.69,18.47,19.57,20.81,22.13,23.46,24.57,25.62,26.66,27.74,28.82,29.92,31.17,32.59,34.06,35.24,36.42,37.64,38.92,40.12,41.22,42.44,43.81,44.86,45.56,46.12,46.59,47.00,47.09,47.22,47.36,47.47,47.18,46.84,46.48,46.18,46.07,45.86,45.37,44.72,44.10,43.34,42.12,40.81,39.53,37.95,36.16,34.34,32.45,30.38,28.36,26.50,24.67,22.75,20.77,17.51,14.06,11.21,10.10,9.42,9.11,9.01,8.92,8.81,8.65,8.46,8.24,8.08,7.86,7.63,7.42,7.26,7.04,6.79,6.56,6.36,6.14,5.96,5.80,5.61,5.38,5.15,4.85,4.32,3.40,3.18,2.95,2.81,2.80,2.80,2.80,2.80,2.80,2.80,2.80,2.80,2.80,2.80,2.80,2.80,2.80,2.80,2.80,2.86,2.88,2.88,2.88,2.88,2.88,2.88,2.88,2.88,2.88,2.89,2.90,2.90,2.90,2.90,2.90,2.90,2.90,2.90,2.90,2.90,2.90,2.96,2.98,2.98,2.98,2.98,2.98,2.98,2.98,2.98,2.98,2.99,3.00,3.00,3.00,3.00,3.00,3.00,3.00,3.00,3.00,3.01,3.07,3.08,3.08,3.08,3.08,3.08,3.08,3.08,3.08,3.08,3.09,3.10,3.10,3.10,3.10,3.10,3.10,3.10,3.10,3.10,3.13,3.18,3.18,3.18,3.18,3.18,3.18,3.18,3.18,3.18,3.18,3.20,3.20,3.20,3.20,3.20,3.20,3.20,3.20,3.20,3.20,3.20,3.23,3.28,3.28,3.28,3.28,3.28,3.30,3.30,3.35,3.43,3.51,3.57,3.64,3.69,3.72,3.79,3.87,3.94,4.01,4.08,4.10,4.16,4.23,4.31,4.37,4.45,4.49,4.52,4.60,4.68,4.74,4.81,4.87,4.81,4.80,4.79,4.78,4.78,4.78,4.78,4.78,4.78,4.78,4.78,4.78,4.78,4.78,4.78,4.78,4.78,4.78,4.78,4.78,4.76,4.70,4.68,4.68,4.68,4.68,4.68,4.68,4.68,4.68
17.78,17.86,17.95,18.04,18.31,18.84,19.68,20.96,22.28,23.61,24.99,26.20,27.31,28.39,29.49,30.82,32.20,33.63,35.08,36.55,37.73,38.97,40.39,42.07,43.92,45.51,46.91,48.13,49.09,49.65,50.06,50.37,50.58,50.72,50.83,50.94,51.08,51.08,50.88,50.62,50.32,49.87,49.45,48.94,48.36,47.74,47.03,45.87,44.47,42.92,41.00,39.04,37.21,35.40,33.38,31.31,29.27,27.31,25.44,23.56,21.42,19.06,16.45,13.52,10.79,9.62,9.44,9.30,9.09,8.87,8.65,8.43,8.27,8.05,7.82,7.61,7.46,7.23,6.95,6.73,6.62,6.45,6.25,6.03,5.80,5.57,5.34,4.83,4.13,3.40,3.23,3.02,2.86,2.80,2.80,2.80,2.80,2.80,2.80,2.80,2.80,2.80,2.80,2.80,2.80,2.80,2.80,2.80,2.81,2.82,2.82,2.82,2.82,2.82,2.82,2.82,2.82,2.82,2.85,2.90,2.90,2.90,2.90,2.90,2.90,2.90,2.90,2.90,2.90,2.90,2.91,2.92,2.92,2.92,2.92,2.92,2.92,2.92,2.92,2.92,2.95,3.00,3.00,3.00,3.00,3.00,3.00,3.00,3.00,3.00,3.00,3.01,3.02,3.02,3.02,3.02,3.02,3.02,3.02,3.02,3.02,3.07,3.10,3.10,3.10,3.10,3.10,3.10,3.10,3.10,3.10,3.11,3.12,3.12,3.12,3.12,3.12,3.12,3.12,3.12,3.12,3.12,3.19,3.20,3.20,3.20,3.20,3.20,3.20,3.20,3.20,3.20,3.20,3.21,3.22,3.22,3.22,3.22,3.23,3.30,3.30,3.35,3.43,3.50,3.51,3.58,3.65,3.72,3.79,3.87,3.91,3.94,4.02,4.08,4.16,4.23,4.30,4.31,4.38,4.45,4.52,4.60,4.68,4.71,4.75,4.82,4.80,4.80,4.77,4.72,4.72,4.72,4.72,4.72,4.72,4.72,4.72,4.72,4.72,4.72,4.72,4.72,4.72,4.72,4.72,4.72,4.71,4.69,4.63,4.62,4.62,4.62,4.62,4.62,4.62,4.62
19.08,19.15,19.23,19.31,19.60,20.18,20.99,22.31,23.70,25.08,26.47,27.75,29.04,30.36,31.71,33.17,34.64,36.11,37.61,39.27,40.83,42.40,44.10,46.05,47.73,49.17,50.40,51.41,52.23,52.74,53.14,53.43,53.59,53.78,53.91,54.02,54.09,54.09,53.94,53.61,53.14,52.60,52.13,51.66,51.16,50.58,49.92,48.99,47.82,46.36,44.35,42.28,40.29,38.36,36.38,34.23,32.02,29.86,27.84,25.95,24.12,22.18,20.01,17.41,14.06,11.32,9.69,9.54,9.30,9.07,8.84,8.62,8.47,8.25,8.01,7.79,7.60,7.41,7.18,6.99,6.87,6.68,6.46,6.23,6.00,5.76,5.43,4.74,3.95,3.44,3.25,3.03,2.87,2.80,2.80,2.80,2.80,2.79,2.75,2.75,2.75,2.75,2.75,2.75,2.75,2.75,2.75,2.75,2.79,2.80,2.80,2.80,2.80,2.80,2.80,2.80,2.80,2.80,2.82,2.85,2.85,2.85,2.85,2.85,2.85,2.85,2.85,2.85,2.86,2.90,2.90,2.90,2.90,2.90,2.90,2.90,2.90,2.90,2.90,2.90,2.92,2.95,2.95,2.95,2.95,2.95,2.95,2.95,2.95,2.95,2.96,3.00,3.00,3.00,3.00,3.00,3.00,3.00,3.00,3.00,3.00,3.03,3.05,3.05,3.05,3.05,3.05,3.05,3.05,3.05,3.05,3.07,3.10,3.10,3.10,3.10,3.10,3.10,3.10,3.10,3.10,3.10,3.14,3.15,3.15,3.15,3.15,3.15,3.15,3.15,3.15,3.15,3.18,3.20,3.20,3.20,3.20,3.20,3.21,3.25,3.29,3.33,3.38,3.46,3.49,3.56,3.64,3.71,3.75,3.82,3.88,3.93,4.00,4.08,4.16,4.22,4.26,4.29,4.37,4.44,4.52,4.60,4.64,4.68,4.72,4.75,4.75,4.75,4.73,4.69,4.66,4.65,4.65,4.65,4.65,4.65,4.65,4.65,4.65,4.65,4.65,4.65,4.65,4.65,4.65,4.65,4.65,4.65,4.61,4.60,4.58,4.55,4.55,4.55,4.55,4.55
20.31,20.39,20.46,20.58,20.95,21.61,22.38,23.66,25.06,26.50,27.90,29.33,30.86,32.46,34.08,35.63,37.15,38.66,40.26,42.13,44.15,46.06,47.98,50.02,51.34,52.48,53.46,54.30,54.99,55.49,55.91,56.25,56.43,56.67,56.85,56.94,56.93,56.85,56.65,56.18,55.51,54.96,54.49,54.05,53.59,53.04,52.41,51.73,50.83,49.57,47.64,45.54,43.39,41.29,39.34,37.13,34.80,32.47,30.23,28.25,26.40,24.61,22.85,21.14,17.88,13.80,10.50,9.75,9.50,9.26,9.03,8.81,8.65,8.43,8.20,7.98,7.76,7.61,7.45,7.28,7.11,6.88,6.65,6.42,6.19,5.95,5.46,4.60,3.78,3.50,3.26,3.03,2.87,2.80,2.79,2.79,2.79,2.77,2.70,2.70,2.70,2.70,2.70,2.70,2.70,2.70,2.70,2.70,2.76,2.79,2.79,2.79,2.79,2.79,2.79,2.79,2.79,2.79,2.79,2.80,2.80,2.80,2.80,2.80,2.80,2.80,2.80,2.80,2.81,2.88,2.89,2.89,2.89,2.89,2.89,2.89,2.89,2.89,2.89,2.89,2.89,2.90,2.90,2.90,2.90,2.90,2.90,2.90,2.90,2.90,2.91,2.98,2.99,2.99,2.99,2.99,2.99,2.99,2.99,2.99,2.99,3.00,3.00,3.00,3.00,3.00,3.00,3.00,3.00,3.00,3.00,3.03,3.09,3.09,3.09,3.09,3.09,3.09,3.09,3.09,3.09,3.09,3.10,3.10,3.10,3.10,3.10,3.10,3.10,3.10,3.10,3.10,3.15,3.19,3.19,3.19,3.19,3.19,3.20,3.20,3.27,3.29,3.33,3.41,3.49,3.56,3.64,3.69,3.70,3.77,3.85,3.93,4.00,4.07,4.15,4.19,4.21,4.29,4.37,4.44,4.51,4.59,4.60,4.65,4.69,4.69,4.69,4.69,4.69,4.67,4.61,4.60,4.59,4.59,4.59,4.59,4.59,4.59,4.59,4.59,4.59,4.59,4.59,4.59,4.59,4.59,4.59,4.59,4.59,4.59,4.55,4.50,4.50,4.49,4.49,4.49
21.33,21.41,21.48,21.83,22.42,23.21,23.98,25.04,26.28,27.66,29.11,31.23,33.07,34.78,36.45,38.05,39.73,41.49,43.34,45.32,47.48,49.38,51.07,52.64,54.01,55.12,56.12,57.04,57.74,58.24,58.69,59.10,59.43,59.72,59.92,59.99,59.93,59.85,59.29,58.61,57.93,57.33,56.80,56.26,55.69,55.08,54.41,53.67,52.79,51.68,50.20,48.33,46.27,44.14,42.09,40.02,37.77,35.43,33.08,30.80,28.74,26.84,25.07,23.31,21.17,18.05,14.18,10.07,9.72,9.46,9.22,9.00,8.78,8.55,8.35,8.20,8.08,7.93,7.73,7.52,7.31,7.07,6.84,6.61,6.37,6.08,5.32,4.38,3.63,3.50,3.26,3.03,2.87,2.79,2.73,2.72,2.72,2.72,2.70,2.70,2.70,2.70,2.70,2.70,2.70,2.70,2.70,2.70,2.72,2.72,2.72,2.72,2.72,2.72,2.72,2.72,2.72,2.72,2.76,2.80,2.80,2.80,2.80,2.80,2.80,2.80,2.80,2.80,2.80,2.82,2.82,2.82,2.82,2.82,2.82,2.82,2.82,2.82,2.82,2.82,2.86,2.90,2.90,2.90,2.90,2.90,2.90,2.90,2.90,2.90,2.90,2.92,2.92,2.92,2.92,2.92,2.92,2.92,2.92,2.92,2.92,2.97,3.00,3.00,3.00,3.00,3.00,3.00,3.00,3.00,3.00,3.01,3.02,3.02,3.02,3.02,3.02,3.02,3.02,3.02,3.02,3.03,3.09,3.10,3.10,3.10,3.10,3.10,3.10,3.10,3.10,3.10,3.11,3.12,3.12,3.12,3.12,3.16,3.20,3.20,3.22,3.26,3.33,3.41,3.49,3.56,3.61,3.64,3.70,3.77,3.85,3.93,4.00,4.02,4.08,4.15,4.21,4.29,4.37,4.41,4.45,4.52,4.58,4.61,4.62,4.62,4.62,4.62,4.62,4.62,4.60,4.60,4.56,4.52,4.52,4.52,4.52,4.52,4.52,4.52,4.52,4.52,4.52,4.52,4.52,4.52,4.52,4.52,4.52,4.52,4.52,4.50,4.50,4.45,4.42,4.42
22.35,22.43,22.60,23.14,23.89,24.73,25.54,26.46,27.60,29.02,30.79,33.21,35.29,37.15,38.91,40.72,42.57,44.49,46.43,48.32,50.34,52.16,53.77,55.22,56.61,57.81,58.92,59.96,60.71,61.27,61.81,62.37,62.94,63.40,63.67,63.80,63.84,63.89,63.36,62.75,62.17,61.43,60.26,58.89,57.71,57.09,56.39,55.62,54.73,53.67,52.36,50.69,48.85,46.88,44.80,42.76,40.63,38.44,36.18,33.79,31.47,29.28,27.28,25.60,23.87,21.43,18.13,14.00,11.25,9.93,9.38,9.15,8.95,8.77,8.61,8.46,8.32,8.17,7.96,7.73,7.50,7.27,7.03,6.79,6.49,6.03,5.12,4.22,3.61,3.50,3.26,3.03,2.85,2.75,2.71,2.70,2.70,2.70,2.70,2.70,2.70,2.70,2.70,2.70,2.68,2.66,2.66,2.66,2.69,2.70,2.70,2.70,2.70,2.70,2.70,2.70,2.70,2.70,2.73,2.76,2.76,2.76,2.76,2.76,2.76,2.76,2.76,2.76,2.77,2.80,2.80,2.80,2.80,2.80,2.80,2.80,2.80,2.80,2.80,2.80,2.83,2.86,2.86,2.86,2.86,2.86,2.86,2.86,2.86,2.86,2.87,2.90,2.90,2.90,2.90,2.90,2.90,2.90,2.90,2.90,2.90,2.94,2.96,2.96,2.96,2.96,2.96,2.96,2.96,2.96,2.96,2.97,3.00,3.00,3.00,3.00,3.00,3.00,3.00,3.00,3.00,3.01,3.05,3.06,3.06,3.06,3.06,3.06,3.06,3.06,3.06,3.06,3.08,3.10,3.10,3.10,3.10,3.13,3.16,3.16,3.19,3.25,3.33,3.40,3.45,3.52,3.58,3.62,3.69,3.77,3.83,3.89,3.96,3.99,4.06,4.13,4.21,4.25,4.33,4.38,4.42,4.50,4.55,4.56,4.56,4.56,4.56,4.56,4.56,4.56,4.56,4.56,4.53,4.50,4.50,4.47,4.46,4.46,4.46,4.46,4.46,4.46,4.46,4.46,4.46,4.46,4.46,4.46,4.46,4.46,4.46,4.46,4.46,4.42,4.40,4.39
23.37,23.46,23.79,24.51,25.36,26.21,27.05,27.90,28.99,30.55,32.79,35.26,37.52,39.57,41.45,43.54,45.56,47.56,49.49,51.18,52.88,54.58,56.23,57.79,59.19,60.54,61.82,62.98,63.83,64.49,65.16,65.91,66.78,67.49,67.90,68.16,68.42,68.68,68.43,68.09,67.65,66.72,64.60,62.05,59.98,59.31,58.52,57.62,56.65,55.59,54.28,52.77,51.22,49.54,47.47,45.39,43.41,41.45,39.41,37.02,34.45,31.86,29.52,27.96,26.19,24.22,22.16,20.03,13.75,10.74,9.58,9.29,9.14,9.05,8.92,8.75,8.52,8.36,8.15,7.92,7.69,7.46,7.22,6.95,6.56,5.86,4.88,4.12,3.65,3.50,3.26,3.03,2.83,2.70,2.70,2.70,2.70,2.70,2.70,2.70,2.70,2.70,2.70,2.70,2.64,2.60,2.60,2.60,2.67,2.70,2.70,2.70,2.70,2.70,2.70,2.70,2.70,2.70,2.70,2.70,2.70,2.70,2.70,2.70,2.70,2.70,2.70,2.70,2.71,2.79,2.80,2.80,2.80,2.80,2.80,2.80,2.80,2.80,2.80,2.80,2.80,2.80,2.80,2.80,2.80,2.80,2.80,2.80,2.80,2.80,2.81,2.89,2.90,2.90,2.90,2.90,2.90,2.90,2.90,2.90,2.90,2.90,2.90,2.90,2.90,2.90,2.90,2.90,2.90,2.90,2.90,2.93,3.00,3.00,3.00,3.00,3.00,3.00,3.00,3.00,3.00,3.00,3.00,3.00,3.00,3.00,3.00,3.00,3.00,3.00,3.00,3.00,3.06,3.10,3.10,3.10,3.10,3.10,3.10,3.10,3.18,3.25,3.33,3.40,3.40,3.46,3.54,3.62,3.69,3.77,3.80,3.83,3.90,3.98,4.06,4.13,4.20,4.20,4.27,4.34,4.42,4.50,4.50,4.50,4.50,4.50,4.50,4.50,4.50,4.50,4.50,4.50,4.50,4.50,4.49,4.42,4.40,4.40,4.40,4.40,4.40,4.40,4.40,4.40,4.40,4.40,4.40,4.40,4.40,4.40,4.40,4.40,4.40,4.40,4.40,4.37
24.35,24.50,25.17,25.98,26.83,27.65,28.35,29.13,30.75,32.99,35.28,37.70,40.05,42.28,44.39,46.48,48.38,50.18,51.89,53.49,55.18,56.88,58.68,60.68,62.27,63.81,65.13,66.18,67.03,67.81,68.72,69.76,70.92,71.88,72.94,73.95,74.80,75.65,75.76,75.57,75.09,74.01,72.29,70.31,68.28,66.40,63.74,60.81,58.65,57.51,56.19,54.73,53.20,51.60,49.82,47.95,46.03,44.07,42.05,39.86,37.40,34.87,32.47,30.67,28.61,26.52,24.46,22.41,18.78,14.72,11.42,9.62,9.52,9.35,9.15,8.94,8.71,8.55,8.34,8.11,7.88,7.65,7.38,7.03,6.52,5.62,4.62,4.01,3.70,3.50,3.26,3.03,2.83,2.70,2.70,2.70,2.70,2.70,2.70,2.70,2.67,2.63,2.63,2.63,2.61,2.60,2.60,2.60,2.62,2.63,2.63,2.63,2.63,2.63,2.63,2.63,2.63,2.63,2.66,2.70,2.70,2.70,2.70,2.70,2.70,2.70,2.70,2.70,2.70,2.73,2.73,2.73,2.73,2.73,2.73,2.73,2.73,2.73,2.73,2.78,2.80,2.80,2.80,2.80,2.80,2.80,2.80,2.80,2.80,2.80,2.80,2.83,2.83,2.83,2.83,2.83,2.83,2.83,2.83,2.83,2.83,2.88,2.90,2.90,2.90,2.90,2.90,2.90,2.90,2.90,2.90,2.91,2.93,2.93,2.93,2.93,2.93,2.93,2.93,2.93,2.93,2.94,2.99,3.00,3.00,3.00,3.00,3.00,3.00,3.00,3.00,3.00,3.02,3.03,3.03,3.03,3.03,3.06,3.10,3.10,3.18,3.25,3.31,3.34,3.39,3.46,3.54,3.62,3.69,3.72,3.77,3.83,3.90,3.98,4.06,4.11,4.14,4.19,4.27,4.34,4.41,4.43,4.43,4.43,4.43,4.43,4.43,4.43,4.43,4.43,4.43,4.43,4.43,4.43,4.43,4.41,4.36,4.33,4.33,4.33,4.33,4.33,4.33,4.33,4.33,4.33,4.33,4.33,4.33,4.33,4.33,4.33,4.33,4.33,4.33,4.32
25.13,25.50,26.30,27.09,27.88,28.65,29.27,30.58,32.71,35.30,37.71,40.20,42.62,44.97,47.22,49.17,50.94,52.62,54.25,55.79,57.61,59.66,61.80,63.83,65.51,67.12,68.50,69.56,70.46,71.54,72.74,74.05,75.50,77.01,78.79,80.40,81.54,82.48,82.67,82.40,81.69,80.39,78.99,77.48,75.60,73.09,69.70,66.00,62.93,60.74,58.36,56.70,55.15,53.60,52.03,50.35,48.46,46.46,44.40,42.34,40.06,37.69,35.36,33.28,31.04,28.81,26.64,24.56,22.34,18.45,14.48,11.49,10.20,9.67,9.36,9.14,8.93,8.75,8.52,8.27,8.04,7.81,7.52,7.06,6.38,5.37,4.41,3.93,3.73,3.50,3.26,3.03,2.83,2.70,2.70,2.70,2.69,2.67,2.67,2.67,2.63,2.60,2.60,2.60,2.60,2.60,2.60,2.60,2.60,2.60,2.60,2.60,2.60,2.60,2.60,2.60,2.60,2.60,2.63,2.67,2.67,2.67,2.67,2.67,2.67,2.67,2.67,2.67,2.67,2.70,2.70,2.70,2.70,2.70,2.70,2.70,2.70,2.70,2.70,2.74,2.77,2.77,2.77,2.77,2.77,2.77,2.77,2.77,2.77,2.78,2.80,2.80,2.80,2.80,2.80,2.80,2.80,2.80,2.80,2.80,2.80,2.84,2.87,2.87,2.87,2.87,2.87,2.87,2.87,2.87,2.87,2.88,2.90,2.90,2.90,2.90,2.90,2.90,2.90,2.90,2.90,2.91,2.96,2.97,2.97,2.97,2.97,2.97,2.97,2.97,2.97,2.97,2.99,3.00,3.00,3.00,3.00,3.03,3.08,3.10,3.15,3.22,3.28,3.31,3.39,3.46,3.53,3.59,3.66,3.69,3.75,3.83,3.90,3.96,4.03,4.08,4.11,4.19,4.27,4.33,4.37,4.37,4.37,4.37,4.37,4.37,4.37,4.37,4.37,4.37,4.37,4.37,4.37,4.37,4.37,4.37,4.33,4.30,4.30,4.27,4.27,4.27,4.27,4.27,4.27,4.27,4.27,4.27,4.27,4.27,4.27,4.27,4.27,4.27,4.27,4.28
25.72,26.45,27.16,27.81,28.47,29.16,29.78,32.25,34.89,37.46,40.07,42.76,45.24,47.63,49.94,51.59,53.22,54.89,56.55,58.09,60.19,62.97,65.62,67.28,68.91,70.47,71.91,73.16,74.15,75.72,77.26,78.79,80.54,82.93,85.49,87.55,88.65,89.15,89.13,88.54,87.38,85.78,84.63,83.47,81.86,79.37,76.47,73.34,69.67,65.38,60.78,58.68,57.07,55.54,54.07,52.58,50.70,48.59,46.45,44.44,42.41,40.33,38.17,35.80,33.48,31.08,28.70,26.48,24.31,21.91,18.84,15.02,11.22,10.01,9.56,9.34,9.18,8.96,8.68,8.40,8.17,7.94,7.65,7.04,6.12,5.12,4.25,3.86,3.73,3.50,3.26,3.03,2.83,2.70,2.70,2.70,2.66,2.61,2.61,2.61,2.60,2.60,2.60,2.60,2.60,2.60,2.60,2.60,2.60,2.60,2.60,2.60,2.60,2.60,2.60,2.60,2.60,2.60,2.60,2.61,2.61,2.61,2.61,2.61,2.61,2.61,2.61,2.61,2.62,2.69,2.70,2.70,2.70,2.70,2.70,2.70,2.70,2.70,2.70,2.70,2.71,2.71,2.71,2.71,2.71,2.71,2.71,2.71,2.71,2.74,2.80,2.80,2.80,2.80,2.80,2.80,2.80,2.80,2.80,2.80,2.80,2.80,2.81,2.81,2.81,2.81,2.81,2.81,2.81,2.81,2.81,2.84,2.90,2.90,2.90,2.90,2.90,2.90,2.90,2.90,2.90,2.90,2.90,2.91,2.91,2.91,2.91,2.91,2.91,2.91,2.91,2.91,2.96,3.00,3.00,3.00,3.00,3.00,3.03,3.10,3.10,3.16,3.23,3.31,3.39,3.46,3.50,3.52,3.60,3.67,3.75,3.83,3.90,3.90,3.96,4.04,4.11,4.19,4.27,4.30,4.31,4.31,4.31,4.31,4.31,4.31,4.31,4.31,4.31,4.31,4.31,4.31,4.31,4.31,4.31,4.31,4.30,4.30,4.29,4.22,4.21,4.21,4.21,4.21,4.21,4.21,4.21,4.21,4.21,4.21,4.21,4.21,4.21,4.21,4.21,4.23
26.18,26.94,27.64,28.31,28.97,29.81,31.60,34.36,37.06,39.72,42.66,45.55,47.94,50.00,51.87,53.49,55.11,56.77,58.61,60.92,63.97,66.77,69.00,70.49,72.02,73.56,75.11,76.66,78.30,80.38,82.55,84.73,86.87,88.89,90.70,91.98,92.55,92.75,92.26,91.39,90.33,89.34,88.60,87.89,86.81,84.94,82.21,79.43,76.13,72.13,67.57,63.75,60.46,57.91,56.58,54.80,52.82,50.70,48.55,46.54,44.50,42.45,40.37,38.11,35.75,33.27,30.74,28.28,26.07,23.75,21.06,17.85,13.92,11.49,10.11,9.52,9.32,9.09,8.84,8.59,8.35,8.08,7.60,6.84,5.87,4.86,4.20,3.88,3.73,3.50,3.26,3.03,2.83,2.69,2.65,2.64,2.62,2.60,2.60,2.60,2.60,2.60,2.60,2.60,2.60,2.60,2.59,2.55,2.54,2.54,2.54,2.54,2.54,2.54,2.54,2.54,2.54,2.54,2.57,2.60,2.60,2.60,2.60,2.60,2.60,2.60,2.60,2.60,2.61,2.64,2.64,2.64,2.64,2.64,2.64,2.64,2.64,2.64,2.64,2.68,2.70,2.70,2.70,2.70,2.70,2.70,2.70,2.70,2.70,2.72,2.74,2.74,2.74,2.74,2.74,2.74,2.74,2.74,2.74,2.75,2.79,2.80,2.80,2.80,2.80,2.80,2.80,2.80,2.80,2.80,2.80,2.81,2.84,2.84,2.84,2.84,2.84,2.84,2.84,2.84,2.84,2.85,2.89,2.90,2.90,2.90,2.90,2.90,2.90,2.90,2.90,2.90,2.92,2.94,2.94,2.94,2.94,2.97,3.01,3.04,3.09,3.15,3.23,3.30,3.34,3.40,3.46,3.52,3.59,3.67,3.72,3.77,3.84,3.89,3.96,4.03,4.11,4.19,4.23,4.27,4.29,4.24,4.24,4.24,4.24,4.24,4.24,4.24,4.24,4.24,4.24,4.24,4.24,4.24,4.24,4.24,4.24,4.24,4.24,4.20,4.20,4.17,4.14,4.14,4.14,4.14,4.14,4.14,4.14,4.14,4.14,4.14,4.14,4.18,4.20,4.21
26.62,27.37,28.06,28.76,29.59,30.88,33.61,36.52,39.30,42.10,45.21,48.09,50.34,52.16,53.74,55.34,56.98,58.84,61.12,64.12,67.54,70.15,72.05,73.53,75.03,76.67,78.44,80.37,82.61,85.05,87.58,90.10,92.42,94.13,95.38,96.03,96.05,95.69,94.73,93.62,92.63,92.02,91.70,91.35,90.73,89.57,87.22,84.83,81.94,78.40,74.41,69.74,65.28,61.67,59.69,57.27,55.08,52.96,50.78,48.67,46.57,44.50,42.45,40.31,37.97,35.43,32.79,30.15,27.79,25.39,22.92,20.22,16.61,13.34,11.07,9.85,9.48,9.24,9.01,8.77,8.52,8.19,7.51,6.61,5.61,4.61,4.17,3.93,3.75,3.52,3.29,3.05,2.85,2.69,2.61,2.60,2.60,2.60,2.60,2.60,2.60,2.60,2.60,2.58,2.58,2.58,2.57,2.51,2.50,2.50,2.50,2.50,2.50,2.50,2.50,2.50,2.50,2.50,2.53,2.58,2.58,2.58,2.58,2.58,2.58,2.58,2.58,2.58,2.58,2.60,2.60,2.60,2.60,2.60,2.60,2.60,2.60,2.60,2.60,2.65,2.68,2.68,2.68,2.68,2.68,2.68,2.68,2.68,2.68,2.69,2.70,2.70,2.70,2.70,2.70,2.70,2.70,2.70,2.70,2.71,2.77,2.78,2.78,2.78,2.78,2.78,2.78,2.78,2.78,2.78,2.79,2.80,2.80,2.80,2.80,2.80,2.80,2.80,2.80,2.80,2.80,2.81,2.87,2.88,2.88,2.88,2.88,2.88,2.88,2.88,2.88,2.88,2.89,2.90,2.90,2.90,2.90,2.93,2.98,3.00,3.08,3.15,3.22,3.28,3.30,3.36,3.44,3.52,3.59,3.66,3.69,3.73,3.80,3.88,3.96,4.03,4.09,4.17,4.19,4.23,4.26,4.20,4.20,4.19,4.18,4.18,4.18,4.18,4.18,4.18,4.18,4.18,4.18,4.18,4.18,4.18,4.18,4.18,4.18,4.18,4.18,4.14,4.10,4.10,4.08,4.08,4.08,4.08,4.08,4.08,4.09,4.10,4.10,4.15,4.19,4.20
27.05,27.75,28.45,29.14,30.48,32.72,35.74,38.69,41.67,44.67,47.64,50.13,52.19,53.98,55.65,57.21,58.87,61.32,64.53,67.93,70.51,72.68,74.56,76.28,77.88,79.84,82.04,84.46,87.15,89.65,91.99,94.19,96.32,98.03,99.34,99.87,99.34,97.94,96.53,95.26,94.18,93.38,93.50,93.33,92.97,92.60,91.04,89.14,86.59,83.43,80.63,76.89,72.51,67.93,63.83,60.21,57.64,55.49,53.25,50.84,48.64,46.52,44.44,42.35,40.10,37.57,34.88,32.19,29.48,26.95,24.45,21.86,19.00,15.70,12.68,10.45,9.68,9.43,9.20,8.95,8.64,8.27,7.38,6.36,5.36,4.35,4.14,3.99,3.81,3.58,3.35,3.12,2.89,2.69,2.61,2.60,2.60,2.60,2.60,2.60,2.60,2.60,2.59,2.53,2.51,2.51,2.51,2.50,2.50,2.50,2.50,2.50,2.50,2.50,2.50,2.50,2.50,2.50,2.51,2.51,2.51,2.51,2.51,2.51,2.51,2.51,2.51,2.51,2.53,2.59,2.60,2.60,2.60,2.60,2.60,2.60,2.60,2.60,2.60,2.61,2.61,2.61,2.61,2.61,2.61,2.61,2.61,2.61,2.61,2.65,2.70,2.70,2.70,2.70,2.70,2.70,2.70,2.70,2.70,2.70,2.71,2.71,2.71,2.71,2.71,2.71,2.71,2.71,2.71,2.71,2.76,2.80,2.80,2.80,2.80,2.80,2.80,2.80,2.80,2.80,2.80,2.80,2.81,2.81,2.81,2.81,2.81,2.81,2.81,2.81,2.81,2.81,2.86,2.90,2.90,2.90,2.90,2.91,2.93,3.00,3.08,3.15,3.20,3.22,3.29,3.36,3.44,3.52,3.59,3.61,3.66,3.73,3.80,3.88,3.96,4.00,4.03,4.10,4.17,4.21,4.21,4.20,4.20,4.15,4.11,4.11,4.11,4.11,4.11,4.11,4.11,4.11,4.11,4.11,4.11,4.11,4.11,4.11,4.11,4.11,4.11,4.11,4.10,4.10,4.04,4.01,4.01,4.01,4.01,4.01,4.05,4.10,4.10,4.11,4.15,4.20
27.45,28.19,28.88,29.93,31.69,34.29,37.54,40.71,43.86,46.87,49.57,51.74,53.69,55.51,57.28,58.98,60.99,63.76,67.15,70.51,72.72,74.72,76.64,78.55,80.87,83.37,85.90,88.41,90.92,93.29,95.56,98.19,101.94,106.15,107.85,106.78,103.22,99.66,98.06,96.92,95.79,94.79,94.99,95.08,94.97,94.67,93.75,92.28,90.08,87.23,84.37,81.31,77.92,73.97,69.14,64.92,61.41,58.40,55.68,53.21,50.86,48.62,46.46,44.30,42.03,39.58,36.98,34.27,31.34,28.57,25.94,23.37,20.75,17.73,14.73,12.07,10.21,9.70,9.37,9.08,8.75,8.13,7.18,6.13,5.13,4.28,4.13,4.01,3.83,3.60,3.36,3.13,2.90,2.69,2.61,2.60,2.60,2.60,2.60,2.56,2.55,2.55,2.55,2.51,2.50,2.50,2.50,2.50,2.50,2.50,2.50,2.50,2.50,2.47,2.45,2.45,2.45,2.45,2.47,2.50,2.50,2.50,2.50,2.50,2.50,2.50,2.50,2.50,2.51,2.55,2.55,2.55,2.55,2.55,2.55,2.55,2.55,2.55,2.55,2.58,2.60,2.60,2.60,2.60,2.60,2.60,2.60,2.60,2.60,2.62,2.65,2.65,2.65,2.65,2.65,2.65,2.65,2.65,2.65,2.65,2.69,2.70,2.70,2.70,2.70,2.70,2.70,2.70,2.70,2.70,2.73,2.75,2.75,2.75,2.75,2.75,2.75,2.75,2.75,2.75,2.75,2.75,2.79,2.80,2.80,2.80,2.80,2.80,2.80,2.80,2.80,2.80,2.83,2.85,2.85,2.85,2.88,2.90,2.92,3.00,3.04,3.10,3.17,3.21,3.29,3.36,3.42,3.47,3.54,3.59,3.65,3.73,3.80,3.84,3.91,3.97,4.01,4.09,4.13,4.15,4.15,4.15,4.15,4.12,4.08,4.05,4.05,4.05,4.05,4.05,4.05,4.05,4.05,4.05,4.05,4.05,4.05,4.05,4.05,4.05,4.05,4.05,4.05,4.05,4.01,3.97,3.95,3.95,3.99,4.00,4.02,4.06,4.10,4.10,4.12,4.16
27.88,28.65,29.42,30.93,33.08,35.82,39.16,42.58,45.86,48.82,51.22,53.17,55.06,56.93,58.81,60.69,63.06,65.95,69.26,72.67,74.72,76.68,78.72,80.93,83.94,86.82,89.49,91.92,94.20,96.53,99.16,102.75,108.32,114.29,115.63,112.44,105.71,100.72,99.14,98.23,97.16,96.10,96.32,96.67,96.80,96.51,96.25,95.17,93.29,90.66,87.45,84.83,82.37,79.33,74.58,70.04,65.65,61.67,58.30,55.67,53.16,50.77,48.48,46.21,43.89,41.53,39.05,36.36,33.27,30.22,27.38,24.81,22.28,19.53,16.71,13.85,10.99,10.02,9.52,9.20,8.80,7.93,6.95,5.91,4.92,4.28,4.14,4.01,3.83,3.60,3.36,3.13,2.90,2.69,2.61,2.59,2.59,2.59,2.59,2.52,2.50,2.50,2.50,2.50,2.50,2.50,2.50,2.50,2.50,2.49,2.49,2.49,2.49,2.44,2.40,2.40,2.40,2.40,2.44,2.49,2.49,2.49,2.49,2.49,2.49,2.49,2.49,2.49,2.49,2.50,2.50,2.50,2.50,2.50,2.50,2.50,2.50,2.50,2.50,2.55,2.59,2.59,2.59,2.59,2.59,2.59,2.59,2.59,2.59,2.59,2.60,2.60,2.60,2.60,2.60,2.60,2.60,2.60,2.60,2.61,2.67,2.69,2.69,2.69,2.69,2.69,2.69,2.69,2.69,2.69,2.69,2.70,2.70,2.70,2.70,2.70,2.70,2.70,2.70,2.70,2.70,2.71,2.77,2.79,2.79,2.79,2.79,2.79,2.79,2.79,2.79,2.79,2.79,2.80,2.80,2.80,2.86,2.89,2.92,2.98,3.00,3.05,3.13,3.21,3.29,3.35,3.39,3.42,3.49,3.57,3.65,3.72,3.79,3.80,3.86,3.93,4.01,4.08,4.09,4.09,4.09,4.09,4.09,4.09,4.06,4.00,4.00,3.99,3.99,3.99,3.99,3.99,3.99,3.99,3.99,3.99,3.99,3.99,3.99,3.99,3.99,3.99,3.99,3.99,3.99,3.94,3.90,3.91,3.97,3.99,4.00,4.01,4.08,4.10,4.10,4.12
28.39,29.18,30.30,32.34,34.79,37.44,40.54,44.05,47.40,50.27,52.38,54.37,56.31,58.25,60.23,62.26,64.70,67.34,70.38,74.53,76.68,78.79,81.21,84.12,87.14,89.69,91.93,94.06,96.48,99.26,103.65,109.41,115.72,118.42,116.46,110.67,102.74,99.96,98.94,98.30,97.64,97.02,97.42,97.91,98.29,98.46,99.14,98.38,96.59,94.01,90.61,87.79,85.19,82.50,79.33,74.93,70.37,65.85,61.56,58.24,55.55,53.01,50.49,48.07,45.75,43.38,40.95,38.41,35.32,31.90,28.74,26.10,23.61,20.87,18.05,15.19,12.33,10.46,9.65,9.25,8.66,7.69,6.70,5.65,4.71,4.32,4.21,4.05,3.83,3.60,3.36,3.13,2.90,2.69,2.61,2.55,2.52,2.52,2.52,2.51,2.50,2.50,2.50,2.50,2.50,2.50,2.50,2.50,2.50,2.46,2.42,2.42,2.42,2.41,2.40,2.40,2.40,2.40,2.41,2.42,2.42,2.42,2.42,2.42,2.42,2.42,2.42,2.42,2.43,2.49,2.50,2.50,2.50,2.50,2.50,2.50,2.50,2.50,2.50,2.51,2.52,2.52,2.52,2.52,2.52,2.52,2.52,2.52,2.52,2.55,2.60,2.60,2.60,2.60,2.60,2.60,2.60,2.60,2.60,2.60,2.62,2.62,2.62,2.62,2.62,2.62,2.62,2.62,2.62,2.62,2.67,2.70,2.70,2.70,2.70,2.70,2.70,2.70,2.70,2.70,2.70,2.70,2.72,2.72,2.72,2.72,2.72,2.72,2.72,2.72,2.72,2.72,2.77,2.80,2.80,2.80,2.81,2.86,2.90,2.92,2.98,3.05,3.13,3.21,3.29,3.31,3.35,3.42,3.49,3.57,3.65,3.71,3.72,3.78,3.86,3.93,4.00,4.02,4.02,4.02,4.02,4.02,4.02,4.02,4.02,4.00,4.00,3.95,3.92,3.92,3.92,3.92,3.92,3.92,3.92,3.92,3.92,3.92,3.92,3.92,3.92,3.92,3.92,3.92,3.92,3.91,3.90,3.90,3.92,3.97,4.00,4.00,4.02,4.08,4.10,4.11
28.82,29.63,31.25,33.50,35.97,38.56,41.71,45.36,48.67,51.40,53.44,55.48,57.47,59.54,61.79,64.10,66.29,68.63,71.58,76.05,78.78,81.37,84.15,87.24,89.51,91.74,93.89,96.05,98.56,102.09,107.00,112.44,116.81,116.37,112.10,106.17,100.77,99.44,98.79,98.32,97.88,97.58,97.96,98.42,98.85,99.22,100.12,99.97,99.04,97.41,94.61,91.61,88.64,85.80,83.15,79.26,75.00,70.50,65.92,61.66,58.14,55.16,52.56,50.02,47.60,45.17,42.73,40.25,37.32,33.82,30.40,27.41,24.88,22.10,19.27,16.41,13.55,11.18,9.96,9.25,8.45,7.45,6.44,5.43,4.57,4.36,4.24,4.06,3.83,3.60,3.36,3.13,2.90,2.68,2.58,2.52,2.50,2.50,2.50,2.50,2.50,2.50,2.50,2.50,2.50,2.48,2.46,2.46,2.46,2.43,2.40,2.40,2.40,2.40,2.40,2.40,2.40,2.40,2.40,2.40,2.40,2.40,2.40,2.40,2.40,2.40,2.40,2.40,2.41,2.45,2.46,2.46,2.46,2.46,2.46,2.46,2.46,2.46,2.46,2.48,2.50,2.50,2.50,2.50,2.50,2.50,2.50,2.50,2.50,2.52,2.56,2.56,2.56,2.56,2.56,2.56,2.56,2.56,2.56,2.56,2.59,2.60,2.60,2.60,2.60,2.60,2.60,2.60,2.60,2.60,2.63,2.66,2.66,2.66,2.66,2.66,2.66,2.66,2.66,2.66,2.67,2.70,2.70,2.70,2.70,2.70,2.70,2.70,2.70,2.70,2.70,2.70,2.73,2.76,2.76,2.76,2.79,2.83,2.87,2.90,2.98,3.05,3.12,3.17,3.24,3.28,3.34,3.42,3.49,3.54,3.61,3.67,3.70,3.78,3.86,3.92,3.96,3.96,3.96,3.96,3.96,3.96,3.96,3.96,3.96,3.96,3.96,3.92,3.90,3.89,3.86,3.86,3.86,3.86,3.86,3.86,3.86,3.86,3.86,3.86,3.86,3.86,3.86,3.86,3.86,3.86,3.87,3.90,3.90,3.94,3.97,4.00,4.00,4.04,4.08,4.10
29.20,30.09,32.25,34.52,36.86,39.41,42.76,46.56,49.79,52.35,54.44,56.53,58.60,60.88,63.49,66.10,67.96,70.08,73.04,77.54,81.02,84.21,87.25,90.16,91.40,93.29,95.50,97.86,100.43,104.76,109.44,113.16,114.22,110.95,105.29,100.68,99.44,99.06,98.68,98.30,97.99,97.94,98.22,98.57,98.95,99.34,100.08,100.60,100.82,100.52,98.81,95.77,92.45,89.23,86.45,83.20,79.45,75.29,70.76,65.51,60.90,57.31,54.61,51.97,49.42,46.92,44.45,41.97,39.28,35.85,32.21,28.76,26.10,23.27,20.42,17.56,14.70,12.07,10.36,9.20,8.19,7.19,6.19,5.23,4.48,4.41,4.26,4.06,3.83,3.60,3.36,3.13,2.90,2.68,2.52,2.50,2.50,2.50,2.50,2.50,2.50,2.50,2.49,2.49,2.49,2.46,2.40,2.40,2.40,2.40,2.40,2.40,2.40,2.40,2.40,2.40,2.40,2.39,2.39,2.39,2.39,2.39,2.39,2.39,2.39,2.39,2.39,2.40,2.40,2.40,2.40,2.40,2.40,2.40,2.40,2.40,2.40,2.40,2.40,2.46,2.49,2.49,2.49,2.49,2.49,2.49,2.49,2.49,2.49,2.50,2.50,2.50,2.50,2.50,2.50,2.50,2.50,2.50,2.50,2.51,2.58,2.59,2.59,2.59,2.59,2.59,2.59,2.59,2.59,2.59,2.60,2.60,2.60,2.60,2.60,2.60,2.60,2.60,2.60,2.60,2.63,2.69,2.69,2.69,2.69,2.69,2.69,2.69,2.69,2.69,2.69,2.70,2.70,2.70,2.70,2.70,2.76,2.80,2.82,2.90,2.97,3.05,3.10,3.11,3.19,3.26,3.34,3.41,3.49,3.50,3.55,3.63,3.70,3.78,3.85,3.89,3.89,3.89,3.89,3.89,3.89,3.89,3.89,3.89,3.89,3.89,3.89,3.89,3.89,3.88,3.81,3.80,3.80,3.79,3.79,3.79,3.79,3.79,3.79,3.79,3.79,3.79,3.79,3.79,3.79,3.80,3.83,3.89,3.90,3.90,3.94,4.00,4.00,4.00,4.04,4.10
29.53,30.98,33.14,35.34,37.56,40.04,43.74,47.62,50.70,53.07,55.21,57.29,59.85,62.78,65.89,68.31,70.69,73.47,76.81,80.72,84.11,87.12,89.60,91.37,92.61,94.10,96.06,98.53,101.30,105.35,108.53,109.77,108.02,104.30,101.49,99.80,99.19,98.86,98.52,98.25,98.11,98.30,98.60,98.89,99.19,99.52,99.86,100.10,100.34,100.56,100.37,98.96,96.45,93.17,89.60,86.09,82.53,78.74,74.53,69.28,64.23,59.89,56.36,53.52,51.00,48.51,46.04,43.57,41.03,37.79,34.10,30.31,27.30,24.42,21.57,18.72,15.92,13.23,10.78,8.94,7.94,6.93,5.93,5.07,4.48,4.41,4.26,4.06,3.83,3.60,3.36,3.13,2.90,2.68,2.52,2.50,2.50,2.50,2.50,2.50,2.50,2.48,2.43,2.43,2.43,2.42,2.40,2.40,2.40,2.40,2.40,2.40,2.40,2.40,2.40,2.39,2.34,2.33,2.33,2.33,2.33,2.33,2.33,2.33,2.33,2.33,2.33,2.36,2.40,2.40,2.40,2.40,2.40,2.40,2.40,2.40,2.40,2.40,2.40,2.42,2.43,2.43,2.43,2.43,2.43,2.43,2.43,2.43,2.43,2.46,2.50,2.50,2.50,2.50,2.50,2.50,2.50,2.50,2.50,2.50,2.53,2.53,2.53,2.53,2.53,2.53,2.53,2.53,2.53,2.53,2.57,2.60,2.60,2.60,2.60,2.60,2.60,2.60,2.60,2.60,2.61,2.63,2.63,2.63,2.63,2.63,2.63,2.63,2.63,2.63,2.63,2.69,2.70,2.70,2.70,2.70,2.72,2.76,2.82,2.90,2.92,2.98,3.05,3.11,3.19,3.26,3.31,3.35,3.42,3.48,3.55,3.63,3.70,3.72,3.79,3.83,3.83,3.83,3.83,3.83,3.83,3.83,3.83,3.83,3.83,3.83,3.83,3.83,3.83,3.83,3.80,3.80,3.77,3.73,3.73,3.73,3.73,3.73,3.73,3.73,3.73,3.73,3.73,3.73,3.73,3.77,3.81,3.84,3.89,3.90,3.91,3.94,4.00,4.00,4.01,4.05
29.74,31.61,33.77,35.93,38.12,40.62,44.56,48.43,51.40,53.69,55.91,58.05,61.09,64.66,68.27,70.85,73.38,76.45,80.07,83.83,86.94,89.47,91.36,92.62,93.86,95.13,96.78,99.01,101.99,104.58,105.80,105.41,103.30,100.61,99.55,99.25,98.94,98.63,98.32,98.14,98.17,98.47,98.78,99.04,99.28,99.54,99.69,99.77,99.94,100.28,100.82,100.46,99.08,96.56,92.77,88.81,85.25,81.73,77.85,72.75,67.47,62.37,57.91,55.06,52.55,50.06,47.56,45.07,42.54,39.59,36.05,32.07,28.56,25.59,22.72,19.86,17.03,14.30,11.50,9.16,7.68,6.68,5.67,4.93,4.52,4.44,4.27,4.06,3.83,3.60,3.36,3.13,2.90,2.68,2.52,2.50,2.50,2.49,2.47,2.47,2.47,2.45,2.40,2.40,2.40,2.40,2.40,2.40,2.40,2.40,2.40,2.40,2.40,2.38,2.37,2.36,2.31,2.30,2.30,2.30,2.30,2.30,2.30,2.30,2.30,2.30,2.30,2.32,2.37,2.37,2.37,2.37,2.37,2.37,2.37,2.37,2.37,2.37,2.37,2.39,2.40,2.40,2.40,2.40,2.40,2.40,2.40,2.40,2.40,2.42,2.47,2.47,2.47,2.47,2.47,2.47,2.47,2.47,2.47,2.47,2.50,2.50,2.50,2.50,2.50,2.50,2.50,2.50,2.50,2.50,2.54,2.57,2.57,2.57,2.57,2.57,2.57,2.57,2.57,2.57,2.58,2.60,2.60,2.60,2.60,2.60,2.60,2.60,2.60,2.60,2.60,2.65,2.67,2.67,2.67,2.67,2.69,2.74,2.81,2.87,2.89,2.95,3.03,3.11,3.19,3.24,3.28,3.32,3.39,3.47,3.55,3.62,3.67,3.69,3.74,3.77,3.77,3.77,3.77,3.77,3.77,3.77,3.77,3.77,3.77,3.77,3.77,3.77,3.77,3.77,3.77,3.77,3.73,3.69,3.67,3.67,3.67,3.67,3.67,3.67,3.67,3.67,3.67,3.70,3.70,3.75,3.80,3.80,3.86,3.89,3.90,3.91,3.96,3.99,4.00,4.02
29.84,31.99,34.15,36.32,38.55,41.16,45.24,49.01,51.91,54.23,56.54,58.78,62.34,66.52,70.62,73.69,76.04,79.04,82.87,86.87,89.55,91.30,92.59,93.90,95.13,96.37,97.66,99.30,102.54,102.55,101.42,100.18,99.94,99.61,99.30,98.99,98.68,98.37,98.06,97.98,98.17,98.47,98.78,99.04,99.25,99.41,99.57,99.61,99.61,99.71,100.25,100.43,100.44,99.45,95.96,91.38,87.65,84.29,80.75,75.95,70.61,64.77,59.29,56.58,54.08,51.56,49.02,46.47,43.85,41.26,38.05,34.02,29.87,26.76,23.87,20.99,18.06,15.27,12.49,9.81,7.43,6.42,5.42,4.79,4.58,4.50,4.29,4.06,3.83,3.60,3.36,3.13,2.90,2.68,2.52,2.50,2.50,2.48,2.41,2.40,2.40,2.40,2.40,2.40,2.40,2.40,2.40,2.40,2.40,2.40,2.40,2.40,2.40,2.35,2.30,2.30,2.30,2.30,2.30,2.30,2.30,2.30,2.30,2.30,2.30,2.30,2.30,2.30,2.30,2.30,2.30,2.30,2.30,2.30,2.30,2.30,2.30,2.30,2.30,2.36,2.40,2.40,2.40,2.40,2.40,2.40,2.40,2.40,2.40,2.40,2.40,2.40,2.40,2.40,2.40,2.40,2.40,2.40,2.40,2.41,2.49,2.50,2.50,2.50,2.50,2.50,2.50,2.50,2.50,2.50,2.50,2.50,2.50,2.50,2.50,2.50,2.50,2.50,2.50,2.50,2.53,2.60,2.60,2.60,2.60,2.60,2.60,2.60,2.60,2.60,2.60,2.60,2.60,2.60,2.60,2.60,2.67,2.74,2.80,2.80,2.88,2.95,3.03,3.11,3.19,3.20,3.24,3.32,3.39,3.47,3.55,3.60,3.61,3.68,3.70,3.70,3.70,3.70,3.70,3.70,3.70,3.70,3.70,3.70,3.70,3.70,3.70,3.70,3.70,3.70,3.70,3.70,3.70,3.68,3.60,3.60,3.60,3.60,3.60,3.60,3.60,3.60,3.62,3.70,3.70,3.75,3.80,3.80,3.80,3.86,3.90,3.90,3.90,3.97,4.00,4.00
29.97,32.13,34.34,36.59,38.98,41.79,45.88,49.48,52.33,54.70,57.06,59.58,63.44,67.72,71.65,74.89,77.98,81.68,85.77,89.07,90.89,92.24,93.39,94.56,95.70,96.84,98.00,99.24,100.88,100.81,100.27,99.71,99.56,99.33,99.04,98.73,98.43,98.12,97.92,97.97,98.22,98.48,98.78,99.02,99.17,99.28,99.34,99.39,99.42,99.44,99.60,100.00,100.27,100.03,98.73,94.55,90.19,86.17,82.70,78.53,73.27,67.45,61.86,58.31,55.74,53.10,50.38,47.69,45.11,42.55,39.55,35.85,31.49,28.10,24.97,21.93,18.90,16.20,13.48,10.64,7.75,6.27,5.28,4.77,4.64,4.51,4.29,4.06,3.83,3.60,3.36,3.17,2.96,2.73,2.53,2.46,2.44,2.43,2.40,2.40,2.40,2.40,2.40,2.40,2.40,2.40,2.40,2.40,2.40,2.37,2.34,2.34,2.34,2.32,2.30,2.30,2.30,2.30,2.30,2.30,2.30,2.30,2.30,2.28,2.24,2.24,2.24,2.26,2.30,2.30,2.30,2.30,2.30,2.30,2.30,2.30,2.30,2.30,2.30,2.32,2.34,2.34,2.34,2.34,2.34,2.34,2.34,2.34,2.34,2.36,2.40,2.40,2.40,2.40,2.40,2.40,2.40,2.40,2.40,2.40,2.43,2.44,2.44,2.44,2.44,2.44,2.44,2.44,2.44,2.44,2.47,2.50,2.50,2.50,2.50,2.50,2.50,2.50,2.50,2.50,2.51,2.54,2.54,2.54,2.54,2.54,2.54,2.54,2.54,2.54,2.54,2.59,2.60,2.60,2.60,2.60,2.63,2.68,2.75,2.80,2.88,2.95,3.01,3.05,3.12,3.18,3.24,3.32,3.39,3.43,3.49,3.55,3.60,3.68,3.70,3.68,3.64,3.64,3.64,3.64,3.64,3.64,3.64,3.64,3.64,3.64,3.64,3.64,3.64,3.64,3.64,3.64,3.64,3.63,3.60,3.60,3.57,3.54,3.54,3.54,3.58,3.60,3.61,3.64,3.68,3.72,3.76,3.80,3.80,3.82,3.86,3.90,3.90,3.93,3.97,4.00
30.10,32.29,34.53,36.81,39.31,42.28,46.35,49.90,52.78,55.20,57.60,60.43,64.49,68.80,72.64,76.11,79.95,84.18,88.20,90.46,91.66,92.76,93.83,94.90,95.98,97.06,98.14,99.14,99.68,99.67,99.57,99.46,99.30,99.07,98.79,98.48,98.17,97.86,97.80,97.96,98.25,98.48,98.75,98.93,99.04,99.10,99.12,99.17,99.20,99.19,99.13,99.59,99.99,100.23,100.35,97.23,92.73,88.17,84.48,80.62,75.57,70.01,64.56,60.35,57.46,54.63,51.76,48.93,46.36,43.81,40.99,37.63,33.17,29.38,25.95,22.74,19.63,16.99,14.34,11.46,8.32,6.16,5.15,4.76,4.67,4.51,4.31,4.08,3.85,3.62,3.39,3.20,3.00,2.77,2.54,2.43,2.40,2.40,2.40,2.40,2.40,2.40,2.40,2.40,2.40,2.39,2.37,2.37,2.37,2.34,2.30,2.30,2.30,2.30,2.30,2.30,2.30,2.30,2.30,2.30,2.28,2.27,2.27,2.25,2.20,2.20,2.20,2.23,2.27,2.27,2.27,2.27,2.27,2.27,2.27,2.27,2.27,2.28,2.30,2.30,2.30,2.30,2.30,2.30,2.30,2.30,2.30,2.30,2.30,2.33,2.37,2.37,2.37,2.37,2.37,2.37,2.37,2.37,2.37,2.38,2.40,2.40,2.40,2.40,2.40,2.40,2.40,2.40,2.40,2.40,2.44,2.47,2.47,2.47,2.47,2.47,2.47,2.47,2.47,2.47,2.48,2.50,2.50,2.50,2.50,2.50,2.50,2.50,2.50,2.50,2.50,2.56,2.57,2.57,2.58,2.60,2.60,2.64,2.72,2.80,2.88,2.94,2.98,3.01,3.09,3.16,3.24,3.31,3.37,3.39,3.45,3.53,3.60,3.66,3.67,3.65,3.60,3.60,3.58,3.57,3.57,3.57,3.57,3.57,3.57,3.57,3.57,3.57,3.57,3.57,3.57,3.57,3.57,3.57,3.57,3.57,3.53,3.50,3.50,3.50,3.55,3.59,3.60,3.60,3.66,3.69,3.72,3.78,3.80,3.80,3.83,3.88,3.90,3.90,3.94,3.98
30.25,32.48,34.72,36.96,39.49,42.52,46.55,50.27,53.28,55.78,58.17,61.35,65.44,69.71,73.64,77.51,82.02,86.46,89.91,90.64,91.63,92.69,93.75,94.77,95.85,96.93,98.01,98.98,99.32,99.41,99.35,99.20,99.05,98.82,98.53,98.22,97.91,97.61,97.70,97.96,98.25,98.48,98.66,98.78,98.84,98.85,98.92,98.94,98.94,98.94,98.93,99.23,99.62,100.00,100.22,99.12,95.25,90.39,86.06,82.00,77.35,72.38,67.38,62.87,59.28,56.13,53.18,50.21,47.59,45.02,42.37,39.37,34.95,30.59,26.73,23.37,20.21,17.56,14.98,12.26,9.26,6.11,5.05,4.76,4.67,4.51,4.35,4.15,3.92,3.68,3.45,3.23,3.00,2.77,2.54,2.43,2.40,2.40,2.40,2.40,2.40,2.40,2.40,2.40,2.40,2.37,2.31,2.31,2.31,2.31,2.30,2.30,2.30,2.30,2.30,2.30,2.30,2.30,2.30,2.28,2.21,2.21,2.21,2.21,2.20,2.20,2.20,2.20,2.21,2.21,2.21,2.21,2.21,2.21,2.21,2.21,2.21,2.22,2.29,2.30,2.30,2.30,2.30,2.30,2.30,2.30,2.30,2.30,2.30,2.30,2.31,2.31,2.31,2.31,2.31,2.31,2.31,2.31,2.31,2.32,2.39,2.40,2.40,2.40,2.40,2.40,2.40,2.40,2.40,2.40,2.41,2.41,2.41,2.41,2.41,2.41,2.41,2.41,2.41,2.41,2.44,2.50,2.50,2.50,2.50,2.50,2.50,2.50,2.50,2.50,2.50,2.51,2.51,2.51,2.52,2.59,2.60,2.64,2.72,2.80,2.88,2.91,2.94,3.01,3.09,3.16,3.24,3.30,3.31,3.37,3.45,3.53,3.60,3.61,3.61,3.61,3.60,3.60,3.54,3.51,3.51,3.51,3.51,3.51,3.51,3.51,3.51,3.51,3.51,3.51,3.51,3.51,3.51,3.51,3.51,3.51,3.50,3.50,3.50,3.50,3.51,3.55,3.60,3.60,3.61,3.66,3.70,3.72,3.79,3.80,3.80,3.82,3.89,3.90,3.91,3.93
30.30,32.62,34.90,37.15,39.69,42.76,46.70,50.44,53.66,56.39,58.75,61.98,66.05,70.50,74.95,79.17,83.99,87.93,90.38,90.92,91.63,92.58,93.65,94.69,95.77,96.86,97.90,98.78,99.00,99.10,99.07,98.95,98.79,98.56,98.28,97.97,97.67,97.48,97.67,97.96,98.24,98.43,98.51,98.59,98.64,98.64,98.68,98.69,98.71,98.74,98.74,98.87,99.21,99.66,99.93,98.63,94.60,89.69,85.46,81.65,77.97,73.90,69.44,65.08,61.43,58.09,54.87,51.59,48.84,46.21,43.55,40.60,36.49,31.89,27.81,24.28,20.95,17.98,15.08,12.18,9.26,6.51,5.27,4.81,4.72,4.57,4.38,4.16,3.93,3.70,3.46,3.23,3.00,2.77,2.54,2.43,2.40,2.40,2.40,2.40,2.40,2.38,2.35,2.35,2.35,2.33,2.30,2.30,2.30,2.30,2.30,2.30,2.30,2.30,2.30,2.29,2.25,2.25,2.25,2.24,2.20,2.20,2.20,2.20,2.20,2.20,2.20,2.20,2.20,2.20,2.20,2.20,2.20,2.20,2.20,2.20,2.20,2.20,2.24,2.25,2.25,2.25,2.25,2.25,2.25,2.25,2.25,2.25,2.28,2.30,2.30,2.30,2.30,2.30,2.30,2.30,2.30,2.30,2.30,2.30,2.34,2.35,2.35,2.35,2.35,2.35,2.35,2.35,2.35,2.35,2.38,2.40,2.40,2.40,2.40,2.40,2.40,2.40,2.40,2.40,2.41,2.45,2.45,2.45,2.45,2.45,2.45,2.45,2.45,2.45,2.45,2.49,2.50,2.50,2.51,2.54,2.58,2.64,2.71,2.75,2.82,2.88,2.93,3.01,3.09,3.13,3.19,3.26,3.30,3.37,3.45,3.51,3.55,3.55,3.55,3.55,3.55,3.55,3.52,3.50,3.49,3.45,3.45,3.45,3.45,3.45,3.45,3.45,3.45,3.45,3.45,3.45,3.45,3.45,3.45,3.45,3.45,3.45,3.45,3.49,3.50,3.52,3.56,3.60,3.60,3.65,3.70,3.70,3.74,3.78,3.80,3.81,3.84,3.88,3.90,3.91
30.32,32.71,35.05,37.33,39.91,43.00,46.84,50.56,53.97,56.95,59.35,62.61,66.61,71.19,76.16,80.86,85.83,89.14,90.60,91.21,91.69,92.50,93.53,94.61,95.69,96.78,97.77,98.54,98.68,98.77,98.77,98.69,98.54,98.31,98.02,97.71,97.43,97.41,97.65,97.94,98.19,98.32,98.34,98.39,98.43,98.43,98.43,98.44,98.48,98.53,98.53,98.54,98.83,99.26,99.48,97.61,93.24,88.22,84.11,80.67,78.03,74.99,71.27,67.21,63.61,60.16,56.70,53.15,50.17,47.40,44.67,41.73,37.98,33.27,29.01,25.32,21.87,18.58,15.29,12.10,9.15,6.98,5.55,4.88,4.77,4.61,4.39,4.16,3.93,3.70,3.46,3.23,3.00,2.77,2.54,2.43,2.40,2.40,2.38,2.38,2.38,2.36,2.30,2.30,2.30,2.30,2.30,2.30,2.30,2.30,2.30,2.30,2.29,2.28,2.28,2.27,2.21,2.20,2.20,2.20,2.20,2.20,2.20,2.20,2.20,2.20,2.19,2.18,2.18,2.18,2.18,2.18,2.18,2.18,2.18,2.18,2.18,2.18,2.20,2.20,2.20,2.20,2.20,2.20,2.20,2.20,2.20,2.20,2.25,2.28,2.28,2.28,2.28,2.28,2.28,2.28,2.28,2.28,2.29,2.30,2.30,2.30,2.30,2.30,2.30,2.30,2.30,2.30,2.30,2.30,2.35,2.38,2.38,2.38,2.38,2.38,2.38,2.38,2.38,2.38,2.39,2.40,2.40,2.40,2.40,2.40,2.40,2.40,2.40,2.40,2.40,2.47,2.48,2.48,2.49,2.50,2.56,2.63,2.69,2.70,2.78,2.85,2.93,2.99,3.07,3.09,3.14,3.22,3.29,3.36,3.43,3.48,3.48,3.48,3.48,3.48,3.48,3.48,3.48,3.48,3.47,3.40,3.39,3.38,3.38,3.38,3.38,3.38,3.38,3.38,3.38,3.38,3.38,3.38,3.38,3.38,3.39,3.40,3.41,3.47,3.49,3.50,3.52,3.58,3.60,3.64,3.69,3.70,3.70,3.75,3.79,3.80,3.80,3.86,3.89,3.90
30.32,32.72,35.10,37.47,40.12,43.24,46.98,50.69,54.16,57.30,60.05,63.41,67.20,71.65,76.88,82.42,87.35,90.09,90.84,91.40,91.93,92.57,93.40,94.48,95.57,96.65,97.57,98.21,98.30,98.38,98.44,98.43,98.28,98.05,97.77,97.46,97.19,97.37,97.65,97.89,98.05,98.08,98.13,98.17,98.18,98.18,98.18,98.22,98.26,98.28,98.28,98.33,98.56,98.78,98.66,96.54,91.76,86.30,81.91,78.92,77.19,75.39,72.89,69.28,65.72,62.26,58.80,55.18,51.70,48.67,45.78,42.81,39.51,34.83,30.40,26.56,23.21,19.78,16.11,12.50,9.30,7.37,5.81,4.96,4.77,4.61,4.39,4.16,3.93,3.70,3.46,3.23,3.00,2.77,2.54,2.43,2.40,2.38,2.32,2.32,2.32,2.31,2.30,2.30,2.30,2.30,2.30,2.30,2.30,2.30,2.30,2.30,2.24,2.22,2.22,2.22,2.20,2.20,2.20,2.20,2.20,2.20,2.20,2.20,2.20,2.20,2.15,2.12,2.12,2.12,2.12,2.12,2.12,2.12,2.12,2.12,2.12,2.13,2.19,2.20,2.20,2.20,2.20,2.20,2.20,2.20,2.20,2.20,2.21,2.22,2.22,2.22,2.22,2.22,2.22,2.22,2.22,2.22,2.24,2.30,2.30,2.30,2.30,2.30,2.30,2.30,2.30,2.30,2.30,2.30,2.31,2.32,2.32,2.32,2.32,2.32,2.32,2.32,2.32,2.32,2.34,2.40,2.40,2.40,2.40,2.40,2.40,2.40,2.40,2.40,2.40,2.42,2.42,2.42,2.43,2.49,2.51,2.56,2.64,2.70,2.78,2.85,2.91,2.93,3.00,3.07,3.14,3.22,3.29,3.31,3.37,3.42,3.42,3.42,3.42,3.42,3.42,3.42,3.42,3.42,3.42,3.40,3.34,3.32,3.32,3.32,3.32,3.32,3.32,3.32,3.32,3.32,3.32,3.32,3.32,3.32,3.37,3.40,3.40,3.42,3.47,3.50,3.50,3.52,3.58,3.61,3.64,3.70,3.70,3.71,3.75,3.80,3.80,3.81,3.86,3.90
30.31,32.68,35.10,37.51,40.25,43.49,47.20,50.85,54.32,57.62,60.75,64.15,67.77,72.27,77.95,83.78,88.20,90.49,91.06,91.64,92.18,92.75,93.44,94.36,95.44,96.52,97.36,97.85,97.96,98.04,98.12,98.14,98.02,97.79,97.51,97.25,97.13,97.39,97.61,97.77,97.87,97.87,97.91,97.92,97.93,97.97,97.97,98.00,98.02,98.03,98.06,98.10,98.26,98.31,97.83,95.31,90.96,85.96,81.38,78.04,75.70,74.15,72.82,70.27,66.87,63.52,60.20,56.73,53.14,49.88,46.78,43.73,40.63,36.11,31.53,27.38,24.06,20.62,16.80,12.93,9.45,7.81,6.24,5.22,4.81,4.62,4.39,4.16,3.93,3.70,3.46,3.23,3.00,2.77,2.54,2.41,2.36,2.34,2.30,2.30,2.30,2.30,2.30,2.30,2.30,2.30,2.30,2.30,2.27,2.26,2.26,2.25,2.21,2.20,2.20,2.20,2.20,2.20,2.20,2.20,2.20,2.20,2.18,2.16,2.16,2.16,2.12,2.10,2.10,2.10,2.10,2.10,2.10,2.10,2.10,2.10,2.10,2.11,2.15,2.16,2.16,2.16,2.16,2.16,2.16,2.16,2.16,2.16,2.18,2.20,2.20,2.20,2.20,2.20,2.20,2.20,2.20,2.20,2.22,2.26,2.26,2.26,2.26,2.26,2.26,2.26,2.26,2.26,2.26,2.29,2.30,2.30,2.30,2.30,2.30,2.30,2.30,2.30,2.30,2.30,2.32,2.36,2.36,2.36,2.36,2.36,2.36,2.36,2.36,2.36,2.36,2.39,2.40,2.40,2.41,2.45,2.49,2.54,2.62,2.70,2.78,2.83,2.87,2.91,2.99,3.06,3.14,3.21,3.25,3.29,3.33,3.36,3.36,3.36,3.36,3.36,3.36,3.36,3.36,3.36,3.36,3.36,3.31,3.30,3.29,3.26,3.26,3.26,3.26,3.26,3.26,3.26,3.26,3.27,3.30,3.30,3.33,3.37,3.40,3.40,3.44,3.47,3.50,3.50,3.54,3.58,3.62,3.66,3.69,3.70,3.72,3.76,3.80,3.80,3.83,3.87
30.27,32.61,35.08,37.50,40.32,43.71,47.41,51.00,54.49,57.94,61.41,64.81,68.32,72.92,79.04,84.93,88.71,90.63,91.25,91.87,92.42,92.97,93.56,94.26,95.32,96.39,97.15,97.48,97.63,97.72,97.80,97.84,97.77,97.54,97.25,97.08,97.13,97.42,97.54,97.61,97.67,97.67,97.67,97.67,97.70,97.77,97.77,97.77,97.77,97.79,97.86,97.87,97.95,97.84,97.01,94.13,90.65,86.45,81.58,77.63,74.17,72.36,71.89,70.66,67.56,64.40,61.28,58.06,54.51,51.06,47.76,44.61,41.57,37.26,32.52,28.02,24.70,21.30,17.44,13.39,9.60,8.22,6.72,5.54,4.85,4.62,4.39,4.16,3.93,3.70,3.46,3.23,3.00,2.77,2.54,2.37,2.30,2.30,2.30,2.30,2.30,2.30,2.30,2.30,2.29,2.29,2.29,2.29,2.23,2.20,2.20,2.20,2.20,2.20,2.20,2.20,2.20,2.20,2.20,2.19,2.19,2.19,2.15,2.10,2.10,2.10,2.10,2.10,2.10,2.10,2.10,2.10,2.10,2.09,2.09,2.09,2.09,2.09,2.10,2.10,2.10,2.10,2.10,2.10,2.10,2.10,2.10,2.10,2.15,2.19,2.19,2.19,2.19,2.19,2.19,2.19,2.19,2.19,2.19,2.20,2.20,2.20,2.20,2.20,2.20,2.20,2.20,2.20,2.20,2.27,2.29,2.29,2.29,2.29,2.29,2.29,2.29,2.29,2.29,2.29,2.29,2.30,2.30,2.30,2.30,2.30,2.30,2.30,2.30,2.30,2.30,2.37,2.39,2.39,2.39,2.40,2.47,2.54,2.62,2.69,2.77,2.80,2.83,2.91,2.99,3.06,3.13,3.19,3.20,3.27,3.29,3.29,3.29,3.29,3.29,3.29,3.29,3.29,3.29,3.29,3.29,3.29,3.29,3.29,3.26,3.20,3.20,3.19,3.19,3.19,3.19,3.19,3.20,3.22,3.29,3.30,3.30,3.33,3.39,3.40,3.40,3.44,3.49,3.50,3.50,3.55,3.59,3.61,3.68,3.70,3.70,3.71,3.79,3.80,3.80,3.82
30.10,32.48,34.95,37.41,40.26,43.64,47.35,51.02,54.73,58.37,61.79,65.19,68.77,73.33,79.24,85.28,88.90,90.72,91.38,92.00,92.60,93.19,93.79,94.38,95.24,96.26,96.95,97.15,97.25,97.33,97.44,97.53,97.51,97.28,97.00,96.90,97.11,97.26,97.35,97.39,97.41,97.41,97.41,97.45,97.49,97.51,97.51,97.55,97.58,97.59,97.61,97.61,97.67,97.41,96.19,93.88,91.63,87.87,81.83,77.84,74.24,71.59,70.16,70.17,67.98,65.23,62.26,59.27,55.72,52.24,48.89,45.67,42.49,38.28,33.44,28.71,25.34,21.94,18.15,13.97,9.73,8.40,6.99,5.74,4.85,4.62,4.39,4.16,3.93,3.70,3.46,3.23,3.00,2.77,2.54,2.37,2.30,2.30,2.30,2.30,2.30,2.30,2.30,2.30,2.26,2.23,2.23,2.23,2.21,2.20,2.20,2.20,2.20,2.20,2.20,2.20,2.20,2.20,2.17,2.13,2.13,2.13,2.11,2.10,2.10,2.10,2.10,2.10,2.10,2.10,2.10,2.10,2.08,2.03,2.03,2.03,2.03,2.03,2.09,2.10,2.10,2.10,2.10,2.10,2.10,2.10,2.10,2.10,2.12,2.13,2.13,2.13,2.13,2.13,2.13,2.13,2.13,2.13,2.15,2.20,2.20,2.20,2.20,2.20,2.20,2.20,2.20,2.20,2.20,2.22,2.23,2.23,2.23,2.23,2.23,2.23,2.23,2.23,2.23,2.23,2.25,2.30,2.30,2.30,2.30,2.30,2.30,2.30,2.30,2.30,2.30,2.32,2.33,2.33,2.34,2.39,2.47,2.54,2.61,2.63,2.70,2.77,2.83,2.91,2.99,3.02,3.07,3.14,3.20,3.22,3.23,3.23,3.23,3.23,3.23,3.23,3.23,3.23,3.23,3.23,3.23,3.23,3.23,3.23,3.22,3.20,3.20,3.16,3.13,3.13,3.13,3.13,3.16,3.21,3.23,3.29,3.30,3.31,3.34,3.39,3.40,3.41,3.44,3.50,3.50,3.51,3.55,3.60,3.62,3.67,3.70,3.70,3.73,3.78,3.80,3.81
29.95,32.35,34.85,37.33,40.18,43.54,47.22,50.90,54.70,58.49,62.03,65.48,69.19,73.75,79.47,85.49,88.99,90.76,91.44,92.05,92.70,93.33,93.94,94.54,95.26,96.12,96.68,96.80,96.87,96.97,97.09,97.20,97.25,97.03,96.82,96.80,97.03,97.08,97.13,97.16,97.16,97.19,97.19,97.22,97.26,97.26,97.28,97.33,97.36,97.36,97.36,97.36,97.37,97.07,95.90,94.03,92.38,89.58,84.74,79.72,75.55,71.76,68.86,68.84,67.37,65.02,62.38,60.03,56.84,53.42,49.98,46.63,43.30,39.17,34.33,29.48,25.95,22.54,18.74,14.48,10.03,8.58,7.20,5.91,4.88,4.62,4.39,4.16,3.93,3.70,3.46,3.23,3.00,2.77,2.57,2.38,2.30,2.30,2.30,2.30,2.28,2.26,2.26,2.26,2.23,2.20,2.20,2.20,2.20,2.20,2.20,2.20,2.20,2.20,2.19,2.16,2.16,2.16,2.14,2.10,2.10,2.10,2.10,2.10,2.10,2.10,2.10,2.10,2.09,2.07,2.06,2.06,2.05,2.00,2.00,2.00,2.00,2.01,2.06,2.06,2.06,2.06,2.06,2.06,2.06,2.06,2.06,2.06,2.09,2.10,2.10,2.10,2.10,2.10,2.10,2.10,2.10,2.10,2.12,2.16,2.16,2.16,2.16,2.16,2.16,2.16,2.16,2.16,2.17,2.19,2.20,2.20,2.20,2.20,2.20,2.20,2.20,2.20,2.20,2.20,2.22,2.26,2.26,2.26,2.26,2.26,2.26,2.26,2.26,2.26,2.27,2.29,2.30,2.30,2.31,2.39,2.47,2.53,2.57,2.60,2.68,2.75,2.83,2.90,2.95,2.99,3.04,3.12,3.19,3.17,3.16,3.16,3.16,3.16,3.16,3.16,3.16,3.16,3.16,3.16,3.16,3.16,3.16,3.16,3.16,3.16,3.16,3.12,3.09,3.07,3.10,3.10,3.15,3.20,3.20,3.25,3.28,3.30,3.31,3.36,3.39,3.40,3.41,3.46,3.49,3.50,3.53,3.60,3.60,3.64,3.68,3.70,3.70,3.74,3.78,3.80
29.82,32.23,34.77,37.27,40.09,43.40,47.03,50.66,54.47,58.37,62.15,65.71,69.58,74.19,79.71,85.58,89.01,90.76,91.44,92.05,92.74,93.39,94.03,94.73,95.34,95.96,96.33,96.41,96.49,96.63,96.74,96.84,97.00,96.77,96.70,96.76,96.90,96.90,96.90,96.90,96.92,96.99,97.00,97.00,97.00,97.00,97.08,97.10,97.10,97.10,97.10,97.10,97.06,96.79,96.02,94.50,92.95,91.50,89.69,82.90,77.82,72.64,67.89,66.89,65.95,64.03,61.85,60.43,57.88,54.59,51.04,47.50,44.02,39.96,35.18,30.31,26.53,23.12,19.25,14.92,10.46,8.76,7.37,6.05,4.94,4.63,4.39,4.16,3.93,3.70,3.46,3.23,3.00,2.78,2.62,2.40,2.30,2.30,2.30,2.30,2.25,2.20,2.20,2.20,2.20,2.20,2.20,2.20,2.20,2.20,2.20,2.20,2.20,2.20,2.17,2.10,2.10,2.10,2.10,2.10,2.10,2.10,2.10,2.10,2.10,2.10,2.10,2.10,2.09,2.01,2.00,2.00,2.00,2.00,2.00,2.00,2.00,2.00,2.00,2.00,2.00,2.00,2.00,2.00,2.00,2.00,2.00,2.00,2.06,2.10,2.10,2.10,2.10,2.10,2.10,2.10,2.10,2.10,2.10,2.10,2.10,2.10,2.10,2.10,2.10,2.10,2.10,2.10,2.10,2.18,2.20,2.20,2.20,2.20,2.20,2.20,2.20,2.20,2.20,2.20,2.20,2.20,2.20,2.20,2.20,2.20,2.20,2.20,2.20,2.20,2.20,2.28,2.30,2.30,2.31,2.39,2.47,2.50,2.52,2.60,2.68,2.75,2.83,2.90,2.90,2.96,3.04,3.12,3.19,3.13,3.10,3.10,3.10,3.10,3.10,3.10,3.10,3.10,3.10,3.10,3.10,3.10,3.10,3.10,3.10,3.10,3.10,3.10,3.06,3.02,3.09,3.10,3.15,3.20,3.20,3.20,3.26,3.30,3.30,3.30,3.37,3.40,3.40,3.40,3.47,3.50,3.53,3.60,3.60,3.60,3.64,3.70,3.70,3.70,3.75,3.80
29.49,31.84,34.44,37.02,39.92,43.27,46.85,50.47,54.34,58.30,62.09,65.60,69.46,74.14,79.79,85.22,88.81,90.67,91.32,91.99,92.68,93.33,93.95,94.60,95.22,95.69,95.97,96.09,96.17,96.27,96.39,96.51,96.61,96.53,96.54,96.59,96.64,96.64,96.64,96.64,96.65,96.68,96.68,96.65,96.62,96.62,96.65,96.65,96.65,96.65,96.65,96.61,96.57,96.36,95.64,94.11,92.67,91.49,90.50,87.75,81.62,74.37,68.15,66.85,65.49,63.78,62.09,60.82,58.72,55.52,51.89,48.21,44.34,40.13,35.31,30.44,26.66,23.24,19.41,15.17,10.83,8.93,7.49,6.18,5.05,4.64,4.39,4.16,3.94,3.76,3.53,3.30,3.06,2.84,2.63,2.40,2.27,2.24,2.24,2.24,2.22,2.20,2.20,2.20,2.20,2.20,2.20,2.20,2.20,2.20,2.18,2.14,2.14,2.14,2.12,2.10,2.10,2.10,2.10,2.10,2.10,2.10,2.10,2.10,2.10,2.05,2.04,2.04,2.03,2.00,2.00,2.00,2.00,2.00,2.00,2.00,2.00,2.00,2.00,2.00,2.00,2.00,2.00,2.00,2.00,2.00,2.00,2.00,2.02,2.04,2.04,2.04,2.04,2.04,2.04,2.04,2.04,2.04,2.06,2.10,2.10,2.10,2.10,2.10,2.10,2.10,2.10,2.10,2.10,2.13,2.14,2.14,2.14,2.14,2.14,2.14,2.14,2.14,2.14,2.17,2.20,2.20,2.20,2.20,2.20,2.20,2.20,2.20,2.20,2.20,2.20,2.23,2.24,2.26,2.30,2.33,2.40,2.46,2.52,2.60,2.68,2.72,2.77,2.84,2.89,2.96,3.04,3.11,3.13,3.11,3.07,3.04,3.04,3.04,3.04,3.04,3.04,3.04,3.04,3.04,3.04,3.04,3.04,3.04,3.04,3.04,3.04,3.04,3.02,3.01,3.03,3.08,3.12,3.15,3.20,3.20,3.22,3.26,3.30,3.30,3.32,3.36,3.40,3.40,3.43,3.47,3.51,3.54,3.59,3.60,3.61,3.65,3.70,3.70,3.72,3.75
29.17,31.46,34.11,36.81,39.79,43.12,46.59,50.16,54.06,58.11,61.91,65.35,69.06,73.67,79.43,84.69,88.56,90.59,91.22,91.89,92.59,93.23,93.85,94.44,95.06,95.42,95.62,95.75,95.82,95.92,96.04,96.16,96.26,96.28,96.28,96.29,96.31,96.31,96.31,96.31,96.31,96.31,96.31,96.26,96.21,96.21,96.21,96.21,96.21,96.21,96.21,96.14,96.11,95.93,95.28,93.80,92.54,91.64,91.12,90.64,85.63,77.27,68.58,67.01,65.41,63.85,62.42,61.16,59.39,56.24,52.58,48.82,44.66,40.31,35.45,30.59,26.78,23.35,19.54,15.35,11.03,9.03,7.57,6.26,5.14,4.67,4.42,4.19,3.97,3.80,3.56,3.33,3.10,2.87,2.64,2.40,2.26,2.20,2.20,2.20,2.20,2.20,2.20,2.20,2.20,2.20,2.20,2.17,2.17,2.17,2.16,2.10,2.10,2.10,2.10,2.10,2.10,2.10,2.10,2.10,2.10,2.08,2.07,2.07,2.07,2.01,2.00,2.00,2.00,2.00,2.00,2.00,2.00,2.00,2.00,1.98,1.97,1.97,1.97,1.97,1.97,1.97,1.97,1.97,1.97,1.97,1.97,1.97,1.99,2.00,2.00,2.00,2.00,2.00,2.00,2.00,2.00,2.00,2.02,2.07,2.07,2.07,2.07,2.07,2.07,2.07,2.07,2.07,2.07,2.09,2.10,2.10,2.10,2.10,2.10,2.10,2.10,2.10,2.10,2.14,2.17,2.17,2.17,2.17,2.17,2.17,2.17,2.17,2.17,2.18,2.20,2.20,2.20,2.23,2.28,2.30,2.37,2.44,2.52,2.57,2.65,2.69,2.73,2.81,2.89,2.94,3.01,3.07,3.07,3.07,3.04,3.00,3.00,2.98,2.97,2.97,2.97,2.97,2.97,2.97,2.97,2.97,2.97,2.97,2.97,2.97,2.97,2.97,2.98,3.00,3.00,3.05,3.09,3.12,3.17,3.19,3.20,3.22,3.28,3.30,3.30,3.33,3.38,3.40,3.40,3.44,3.48,3.50,3.56,3.59,3.60,3.61,3.67,3.69,3.70,3.72
28.88,31.08,33.78,36.64,39.70,42.96,46.23,49.69,53.61,57.74,61.59,64.93,68.30,72.67,78.49,83.95,88.25,90.53,91.15,91.77,92.46,93.11,93.70,94.25,94.87,95.15,95.28,95.36,95.44,95.58,95.69,95.79,95.94,96.01,95.89,95.79,95.86,95.86,95.86,95.86,95.86,95.86,95.86,95.81,95.76,95.76,95.76,95.76,95.76,95.76,95.76,95.69,95.66,95.51,94.96,93.58,92.62,91.98,91.50,90.97,89.91,81.70,69.23,67.41,65.84,64.33,62.87,61.42,59.85,56.72,53.05,49.31,45.01,40.50,35.61,30.77,26.91,23.43,19.64,15.44,11.03,9.03,7.57,6.29,5.20,4.74,4.48,4.25,4.02,3.80,3.56,3.33,3.10,2.87,2.64,2.40,2.26,2.20,2.20,2.20,2.20,2.20,2.20,2.20,2.20,2.20,2.19,2.12,2.11,2.11,2.11,2.10,2.10,2.10,2.10,2.10,2.10,2.10,2.10,2.10,2.10,2.03,2.01,2.01,2.01,2.00,2.00,2.00,2.00,2.00,2.00,2.00,2.00,2.00,2.00,1.95,1.91,1.91,1.91,1.91,1.91,1.91,1.91,1.91,1.91,1.91,1.91,1.91,1.96,2.00,2.00,2.00,2.00,2.00,2.00,2.00,2.00,2.00,2.00,2.01,2.01,2.01,2.01,2.01,2.01,2.01,2.01,2.01,2.01,2.08,2.10,2.10,2.10,2.10,2.10,2.10,2.10,2.10,2.10,2.10,2.11,2.11,2.11,2.11,2.11,2.11,2.11,2.11,2.11,2.13,2.20,2.20,2.20,2.20,2.22,2.29,2.37,2.44,2.50,2.51,2.58,2.66,2.73,2.81,2.89,2.91,2.95,3.01,3.01,3.01,3.00,3.00,3.00,2.93,2.91,2.91,2.91,2.91,2.91,2.91,2.91,2.91,2.91,2.91,2.91,2.91,2.91,2.91,2.94,3.00,3.00,3.01,3.05,3.10,3.11,3.18,3.20,3.20,3.22,3.29,3.30,3.30,3.33,3.40,3.40,3.40,3.44,3.50,3.51,3.56,3.60,3.60,3.61,3.67,3.70,3.70
28.48,30.59,33.38,36.31,39.40,42.60,45.85,49.15,52.92,56.98,60.88,64.17,67.39,71.46,76.88,82.50,87.57,90.34,91.03,91.64,92.29,92.90,93.46,94.00,94.58,94.81,94.92,95.03,95.11,95.22,95.31,95.39,95.45,95.57,95.54,95.44,95.35,95.26,95.24,95.24,95.24,95.24,95.24,95.25,95.26,95.26,95.26,95.26,95.26,95.26,95.26,95.23,95.21,95.09,94.63,93.64,92.91,92.34,91.83,91.34,90.77,83.02,70.65,67.98,66.34,64.81,63.29,61.73,60.06,56.89,53.18,49.34,44.76,40.23,35.47,30.80,26.99,23.54,19.74,15.46,10.93,9.01,7.57,6.25,5.11,4.74,4.49,4.26,4.03,3.80,3.56,3.33,3.10,2.87,2.64,2.40,2.26,2.20,2.20,2.20,2.20,2.20,2.20,2.15,2.14,2.14,2.14,2.10,2.10,2.10,2.10,2.10,2.10,2.10,2.10,2.10,2.10,2.06,2.04,2.04,2.04,2.01,2.00,2.00,2.00,2.00,2.00,2.00,2.00,2.00,2.00,1.97,1.94,1.94,1.94,1.92,1.90,1.90,1.90,1.90,1.90,1.90,1.90,1.90,1.90,1.90,1.90,1.90,1.93,1.94,1.94,1.94,1.94,1.94,1.94,1.94,1.94,1.94,1.96,2.00,2.00,2.00,2.00,2.00,2.00,2.00,2.00,2.00,2.00,2.04,2.04,2.04,2.04,2.04,2.04,2.04,2.04,2.04,2.04,2.07,2.10,2.10,2.10,2.10,2.10,2.10,2.10,2.10,2.10,2.11,2.14,2.14,2.14,2.16,2.21,2.29,2.37,2.42,2.46,2.50,2.58,2.65,2.73,2.80,2.84,2.88,2.92,2.94,2.94,2.94,2.94,2.94,2.94,2.91,2.90,2.88,2.84,2.84,2.84,2.84,2.84,2.84,2.84,2.84,2.84,2.85,2.89,2.90,2.92,2.95,3.00,3.00,3.02,3.06,3.10,3.14,3.18,3.20,3.21,3.24,3.28,3.30,3.31,3.34,3.39,3.40,3.43,3.50,3.50,3.53,3.57,3.60,3.60,3.63,3.67,3.70
28.05,30.09,32.94,35.93,39.02,42.20,45.41,48.58,52.22,56.15,60.00,63.24,66.40,70.22,75.15,80.87,86.57,89.89,90.87,91.48,92.09,92.66,93.21,93.76,94.26,94.45,94.57,94.70,94.77,94.84,94.89,94.93,94.96,95.13,95.21,95.15,94.92,94.74,94.65,94.62,94.62,94.62,94.62,94.66,94.71,94.71,94.71,94.71,94.71,94.71,94.71,94.71,94.71,94.61,94.25,93.66,93.15,92.64,92.10,91.62,91.02,84.49,73.61,68.60,66.75,65.19,63.59,61.95,60.19,57.00,53.23,49.25,44.43,39.87,35.21,30.70,26.95,23.55,19.72,15.37,10.77,8.95,7.51,6.16,5.01,4.73,4.49,4.26,4.03,3.80,3.56,3.33,3.10,2.87,2.64,2.40,2.26,2.20,2.20,2.19,2.18,2.18,2.18,2.11,2.10,2.10,2.10,2.10,2.10,2.10,2.10,2.10,2.10,2.09,2.08,2.08,2.08,2.03,2.00,2.00,2.00,2.00,2.00,2.00,2.00,2.00,2.00,1.99,1.98,1.98,1.98,1.94,1.90,1.90,1.90,1.90,1.90,1.90,1.90,1.90,1.90,1.90,1.88,1.88,1.88,1.88,1.88,1.88,1.89,1.90,1.90,1.90,1.90,1.90,1.90,1.90,1.90,1.90,1.93,1.98,1.98,1.98,1.98,1.98,1.98,1.98,1.98,1.98,1.98,2.00,2.00,2.00,2.00,2.00,2.00,2.00,2.00,2.00,2.00,2.04,2.08,2.08,2.08,2.08,2.08,2.08,2.08,2.08,2.08,2.09,2.10,2.10,2.10,2.14,2.21,2.27,2.35,2.39,2.42,2.50,2.58,2.64,2.71,2.78,2.80,2.85,2.88,2.88,2.88,2.88,2.88,2.88,2.88,2.88,2.88,2.85,2.80,2.78,2.78,2.78,2.78,2.78,2.78,2.79,2.80,2.81,2.87,2.89,2.90,2.91,2.98,2.99,3.00,3.03,3.10,3.10,3.15,3.19,3.20,3.20,3.25,3.29,3.30,3.30,3.36,3.39,3.42,3.48,3.50,3.50,3.53,3.58,3.60,3.60,3.64,3.69
27.59,29.57,32.43,35.46,38.57,41.73,44.85,48.01,51.55,55.30,58.86,62.04,65.29,68.96,73.36,79.08,84.94,88.89,90.67,91.23,91.84,92.41,92.97,93.56,93.91,94.11,94.22,94.31,94.39,94.41,94.39,94.39,94.51,94.73,94.93,94.96,94.72,94.44,94.18,94.05,94.05,94.05,94.05,94.06,94.07,94.07,94.07,94.07,94.07,94.07,94.07,94.07,94.07,94.00,93.74,93.43,93.18,92.82,92.22,91.69,91.04,87.33,79.81,69.28,66.94,65.32,63.64,61.95,60.24,57.06,53.21,49.04,44.12,39.47,34.79,30.35,26.69,23.35,19.47,15.07,10.52,8.80,7.35,6.00,4.90,4.72,4.49,4.26,4.03,3.80,3.56,3.33,3.10,2.87,2.64,2.40,2.26,2.20,2.20,2.14,2.12,2.12,2.12,2.10,2.10,2.10,2.10,2.10,2.10,2.10,2.10,2.10,2.10,2.05,2.02,2.02,2.02,2.01,2.00,2.00,2.00,2.00,2.00,2.00,2.00,2.00,2.00,1.97,1.92,1.92,1.92,1.91,1.90,1.90,1.90,1.90,1.90,1.90,1.90,1.90,1.90,1.88,1.82,1.82,1.82,1.82,1.82,1.82,1.87,1.90,1.90,1.90,1.90,1.90,1.90,1.90,1.90,1.90,1.91,1.92,1.92,1.92,1.92,1.92,1.92,1.92,1.92,1.92,1.92,1.98,2.00,2.00,2.00,2.00,2.00,2.00,2.00,2.00,2.00,2.01,2.02,2.02,2.02,2.02,2.02,2.02,2.02,2.02,2.02,2.04,2.10,2.10,2.10,2.14,2.20,2.21,2.28,2.35,2.42,2.50,2.58,2.61,2.65,2.72,2.79,2.81,2.82,2.82,2.82,2.82,2.82,2.82,2.82,2.82,2.82,2.81,2.79,2.73,2.72,2.72,2.72,2.72,2.72,2.76,2.80,2.80,2.81,2.87,2.90,2.90,2.92,2.98,3.00,3.03,3.10,3.10,3.11,3.15,3.20,3.20,3.21,3.25,3.30,3.30,3.31,3.36,3.40,3.42,3.49,3.50,3.51,3.53,3.59,3.60,3.61,3.64
27.13,29.10,31.78,34.79,37.94,41.10,44.22,47.39,50.74,54.18,57.47,60.64,64.04,67.68,71.69,77.19,83.11,87.73,90.44,91.02,91.60,92.18,92.75,93.32,93.60,93.75,93.85,93.92,93.92,93.89,93.87,93.92,94.11,94.31,94.53,94.64,94.53,94.22,93.91,93.70,93.59,93.44,93.43,93.43,93.43,93.43,93.43,93.43,93.44,93.47,93.47,93.44,93.41,93.32,93.09,92.89,92.75,92.45,91.87,91.33,90.79,86.42,78.10,69.19,66.99,65.35,63.66,62.00,60.30,57.05,52.90,48.28,43.33,38.75,34.24,29.99,26.43,23.07,19.11,14.66,10.14,8.63,7.21,5.89,4.87,4.71,4.49,4.26,4.03,3.80,3.56,3.33,3.10,2.87,2.64,2.40,2.24,2.15,2.15,2.11,2.10,2.10,2.10,2.10,2.10,2.10,2.10,2.10,2.10,2.08,2.05,2.05,2.05,2.02,2.00,2.00,2.00,2.00,2.00,2.00,2.00,2.00,2.00,1.99,1.95,1.95,1.95,1.93,1.90,1.90,1.90,1.90,1.90,1.90,1.90,1.90,1.90,1.90,1.86,1.85,1.85,1.84,1.80,1.80,1.80,1.80,1.80,1.80,1.83,1.85,1.85,1.85,1.85,1.85,1.85,1.85,1.85,1.85,1.87,1.90,1.90,1.90,1.90,1.90,1.90,1.90,1.90,1.90,1.90,1.94,1.95,1.95,1.95,1.95,1.95,1.95,1.95,1.95,1.95,1.98,2.00,2.00,2.00,2.00,2.00,2.00,2.00,2.00,2.00,2.01,2.05,2.05,2.08,2.12,2.16,2.20,2.27,2.34,2.42,2.50,2.54,2.58,2.63,2.70,2.74,2.75,2.75,2.75,2.75,2.75,2.75,2.75,2.75,2.75,2.75,2.75,2.75,2.71,2.70,2.68,2.66,2.70,2.70,2.73,2.77,2.80,2.80,2.83,2.87,2.90,2.90,2.94,2.98,3.01,3.05,3.09,3.10,3.12,3.16,3.19,3.20,3.22,3.26,3.30,3.30,3.33,3.37,3.40,3.44,3.48,3.50,3.51,3.55,3.59,3.60,3.62
26.65,28.61,31.04,34.02,37.19,40.36,43.52,46.68,49.86,53.01,56.08,59.20,62.62,66.20,69.97,75.17,81.14,86.39,89.98,90.80,91.36,91.95,92.54,93.06,93.28,93.38,93.45,93.49,93.42,93.34,93.36,93.49,93.72,93.88,94.09,94.27,94.32,94.02,93.72,93.45,93.20,92.89,92.84,92.81,92.80,92.80,92.80,92.80,92.83,92.89,92.89,92.81,92.73,92.62,92.38,92.24,92.14,91.90,91.36,90.82,89.26,83.09,73.73,68.72,66.89,65.29,63.65,62.03,60.35,56.90,52.37,47.31,42.36,37.88,33.57,29.55,26.13,22.75,18.73,14.23,9.77,8.46,7.08,5.81,4.87,4.70,4.49,4.26,4.04,3.80,3.56,3.33,3.10,2.87,2.64,2.40,2.22,2.10,2.10,2.10,2.10,2.10,2.10,2.10,2.10,2.10,2.09,2.09,2.09,2.05,2.00,2.00,2.00,2.00,2.00,2.00,2.00,2.00,2.00,2.00,1.99,1.99,1.99,1.96,1.90,1.90,1.90,1.90,1.90,1.90,1.90,1.90,1.90,1.90,1.89,1.89,1.89,1.88,1.81,1.80,1.80,1.80,1.80,1.80,1.80,1.80,1.80,1.80,1.80,1.80,1.80,1.80,1.80,1.80,1.80,1.80,1.80,1.80,1.83,1.89,1.89,1.89,1.89,1.89,1.89,1.89,1.89,1.89,1.89,1.90,1.90,1.90,1.90,1.90,1.90,1.90,1.90,1.90,1.90,1.95,1.99,1.99,1.99,1.99,1.99,1.99,1.99,1.99,1.99,1.99,2.00,2.00,2.05,2.09,2.11,2.19,2.27,2.34,2.41,2.49,2.50,2.55,2.63,2.69,2.69,2.69,2.69,2.69,2.69,2.69,2.69,2.69,2.69,2.69,2.69,2.69,2.69,2.69,2.69,2.65,2.62,2.69,2.70,2.70,2.73,2.79,2.80,2.80,2.83,2.89,2.90,2.90,2.94,2.99,3.00,3.07,3.10,3.10,3.11,3.18,3.20,3.20,3.22,3.29,3.30,3.30,3.33,3.40,3.40,3.45,3.49,3.50,3.50,3.56,3.59,3.62
26.01,27.96,30.14,33.07,36.23,39.39,42.50,45.66,48.89,52.09,55.06,57.88,60.64,63.83,67.83,72.68,78.87,84.43,88.50,90.46,91.15,91.73,92.28,92.80,92.92,92.96,92.96,92.92,92.90,92.83,92.91,93.10,93.27,93.48,93.71,93.90,94.01,93.81,93.53,93.26,93.01,92.70,92.46,92.30,92.23,92.23,92.23,92.23,92.23,92.25,92.25,92.08,91.99,91.91,91.68,91.58,91.54,91.34,90.85,90.31,82.15,74.57,70.08,67.78,66.33,64.93,63.47,61.91,60.32,56.25,51.26,46.28,41.28,36.83,32.61,28.73,25.61,22.38,18.34,13.88,9.64,8.33,6.95,5.74,4.86,4.65,4.47,4.29,4.08,3.80,3.56,3.33,3.10,2.87,2.64,2.40,2.22,2.10,2.10,2.10,2.10,2.10,2.10,2.10,2.10,2.07,2.03,2.03,2.03,2.01,2.00,2.00,2.00,2.00,2.00,2.00,2.00,2.00,2.00,1.99,1.93,1.93,1.93,1.92,1.90,1.90,1.90,1.90,1.90,1.90,1.90,1.90,1.90,1.90,1.84,1.83,1.83,1.82,1.80,1.80,1.80,1.80,1.80,1.80,1.80,1.80,1.80,1.80,1.80,1.80,1.80,1.80,1.80,1.80,1.80,1.80,1.80,1.80,1.81,1.83,1.83,1.83,1.83,1.83,1.83,1.83,1.83,1.83,1.83,1.89,1.90,1.90,1.90,1.90,1.90,1.90,1.90,1.90,1.90,1.91,1.93,1.93,1.93,1.93,1.93,1.93,1.93,1.93,1.93,1.94,2.00,2.00,2.01,2.05,2.11,2.19,2.27,2.31,2.35,2.42,2.48,2.55,2.61,2.63,2.63,2.63,2.63,2.63,2.63,2.63,2.63,2.63,2.63,2.63,2.63,2.63,2.63,2.63,2.63,2.61,2.61,2.62,2.68,2.70,2.71,2.73,2.79,2.80,2.81,2.84,2.90,2.90,2.91,2.94,3.00,3.02,3.07,3.10,3.10,3.12,3.17,3.20,3.21,3.22,3.28,3.30,3.33,3.40,3.40,3.42,3.45,3.50,3.50,3.52,3.56,3.61
25.34,27.27,29.30,32.03,35.08,38.23,41.32,44.64,47.99,51.17,53.93,56.42,58.79,61.71,65.66,70.35,76.23,81.85,86.60,90.05,90.88,91.47,92.01,92.47,92.52,92.51,92.45,92.38,92.35,92.36,92.48,92.68,92.86,93.09,93.31,93.50,93.66,93.60,93.36,93.09,92.82,92.51,92.20,91.95,91.78,91.69,91.63,91.61,91.61,91.60,91.54,91.36,91.27,91.23,91.05,91.00,90.97,90.23,88.08,83.09,75.34,70.03,68.07,66.86,65.61,64.34,63.00,61.53,59.57,55.00,49.79,44.96,40.09,35.61,31.51,27.89,24.97,21.90,17.84,13.43,9.47,8.13,6.73,5.57,4.82,4.62,4.46,4.29,4.08,3.83,3.57,3.33,3.11,2.91,2.68,2.44,2.24,2.10,2.10,2.10,2.10,2.09,2.06,2.06,2.06,2.04,2.00,2.00,2.00,2.00,2.00,2.00,2.00,2.00,2.00,2.00,1.97,1.96,1.96,1.95,1.90,1.90,1.90,1.90,1.90,1.90,1.90,1.90,1.90,1.90,1.87,1.86,1.86,1.86,1.81,1.80,1.80,1.80,1.80,1.80,1.80,1.80,1.80,1.80,1.78,1.76,1.76,1.76,1.76,1.76,1.76,1.76,1.76,1.76,1.76,1.76,1.76,1.78,1.80,1.80,1.80,1.80,1.80,1.80,1.80,1.80,1.80,1.80,1.80,1.85,1.86,1.86,1.86,1.86,1.86,1.86,1.86,1.86,1.86,1.88,1.90,1.90,1.90,1.90,1.90,1.90,1.90,1.90,1.90,1.92,1.96,1.96,1.98,2.04,2.11,2.15,2.23,2.28,2.32,2.40,2.48,2.53,2.57,2.60,2.57,2.56,2.56,2.56,2.56,2.56,2.56,2.56,2.56,2.56,2.56,2.56,2.56,2.56,2.56,2.56,2.57,2.60,2.65,2.68,2.70,2.70,2.75,2.79,2.80,2.81,2.86,2.89,2.90,2.93,3.00,3.00,3.03,3.07,3.10,3.10,3.14,3.18,3.20,3.20,3.25,3.28,3.32,3.36,3.39,3.40,3.42,3.47,3.50,3.50,3.55,3.60
24.63,26.56,28.49,30.93,33.79,36.95,40.03,43.58,47.08,50.22,52.72,54.91,57.11,59.88,63.60,68.17,73.36,78.86,84.39,89.49,90.52,91.17,91.71,92.08,92.08,92.02,91.94,91.86,91.79,91.91,92.07,92.25,92.48,92.71,92.89,93.07,93.29,93.37,93.20,92.93,92.63,92.32,92.01,91.70,91.42,91.19,91.03,90.98,90.96,90.91,90.69,90.48,90.39,90.35,90.26,90.21,90.06,88.37,83.62,71.95,68.95,68.10,67.12,65.96,64.80,63.60,62.34,60.99,58.31,53.35,48.08,43.44,38.81,34.25,30.31,27.03,24.25,21.31,17.22,12.88,9.26,7.88,6.43,5.35,4.77,4.61,4.46,4.26,4.05,3.89,3.59,3.33,3.14,2.97,2.74,2.50,2.27,2.10,2.10,2.10,2.10,2.07,2.00,2.00,2.00,2.00,2.00,2.00,2.00,2.00,2.00,2.00,2.00,2.00,2.00,1.99,1.91,1.90,1.90,1.90,1.90,1.90,1.90,1.90,1.90,1.90,1.90,1.90,1.90,1.90,1.83,1.80,1.80,1.80,1.80,1.80,1.80,1.80,1.80,1.80,1.80,1.80,1.80,1.80,1.75,1.70,1.70,1.70,1.70,1.70,1.70,1.70,1.70,1.70,1.70,1.70,1.70,1.75,1.80,1.80,1.80,1.80,1.80,1.80,1.80,1.80,1.80,1.80,1.80,1.80,1.80,1.80,1.80,1.80,1.80,1.80,1.80,1.80,1.80,1.85,1.90,1.90,1.90,1.90,1.90,1.90,1.90,1.90,1.90,1.90,1.90,1.90,1.96,2.03,2.10,2.10,2.17,2.24,2.32,2.40,2.47,2.50,2.53,2.59,2.51,2.50,2.50,2.50,2.50,2.50,2.50,2.50,2.50,2.50,2.50,2.50,2.50,2.50,2.50,2.50,2.52,2.60,2.60,2.65,2.70,2.70,2.70,2.76,2.80,2.80,2.80,2.87,2.90,2.92,3.00,3.00,3.00,3.03,3.10,3.10,3.10,3.14,3.20,3.20,3.20,3.25,3.30,3.31,3.38,3.40,3.40,3.42,3.49,3.50,3.55,3.60
23.73,25.66,27.59,29.70,32.32,35.45,38.39,41.66,45.12,48.51,51.50,54.38,57.41,60.63,64.02,67.11,70.70,75.56,81.34,86.49,89.35,90.76,91.30,91.56,91.51,91.44,91.37,91.30,91.33,91.47,91.65,91.86,92.10,92.28,92.47,92.67,92.85,93.03,92.96,92.74,92.43,92.13,91.82,91.54,91.27,90.99,90.73,90.55,90.15,89.27,87.52,86.21,85.47,85.11,84.78,83.57,81.09,77.83,74.16,69.60,68.05,67.15,66.09,64.94,63.82,62.67,61.49,60.25,56.13,51.09,46.03,41.41,36.88,32.46,28.86,25.96,23.23,20.05,15.65,11.47,8.76,7.42,6.06,5.15,4.77,4.61,4.41,4.22,4.05,3.89,3.64,3.40,3.18,2.97,2.74,2.50,2.27,2.09,2.04,2.03,2.03,2.02,2.00,2.00,2.00,2.00,2.00,2.00,2.00,2.00,2.00,2.00,1.95,1.93,1.93,1.93,1.90,1.90,1.90,1.90,1.90,1.90,1.90,1.90,1.90,1.90,1.86,1.83,1.83,1.83,1.81,1.80,1.80,1.80,1.80,1.80,1.80,1.80,1.80,1.80,1.77,1.73,1.73,1.73,1.72,1.70,1.70,1.70,1.70,1.70,1.70,1.70,1.70,1.70,1.70,1.70,1.70,1.72,1.73,1.73,1.73,1.73,1.73,1.73,1.73,1.73,1.73,1.75,1.80,1.80,1.80,1.80,1.80,1.80,1.80,1.80,1.80,1.80,1.80,1.82,1.83,1.83,1.83,1.83,1.83,1.83,1.83,1.83,1.83,1.85,1.90,1.90,1.96,2.01,2.04,2.09,2.17,2.24,2.32,2.40,2.43,2.47,2.51,2.53,2.50,2.46,2.43,2.43,2.43,2.43,2.43,2.43,2.43,2.43,2.43,2.43,2.43,2.43,2.48,2.50,2.52,2.60,2.60,2.62,2.65,2.70,2.70,2.72,2.76,2.80,2.80,2.82,2.87,2.91,2.94,2.99,3.00,3.01,3.04,3.09,3.10,3.11,3.15,3.20,3.20,3.22,3.25,3.30,3.33,3.37,3.40,3.41,3.43,3.48,3.52,3.55
22.84,24.77,26.70,28.63,31.03,33.97,36.80,39.82,43.18,46.71,50.09,53.50,57.00,60.36,63.38,65.68,68.37,72.44,77.76,83.22,87.21,89.65,90.82,91.08,91.01,90.89,90.80,90.77,90.87,91.04,91.24,91.45,91.68,91.86,92.06,92.26,92.44,92.65,92.70,92.55,92.24,91.93,91.62,91.36,91.11,90.80,90.49,89.87,88.51,86.28,83.54,81.47,79.98,78.91,77.93,76.35,73.51,70.49,68.26,67.58,67.01,66.21,65.14,64.00,62.92,61.80,60.43,58.49,53.75,48.72,43.81,39.20,34.79,30.80,27.59,24.94,22.23,18.61,14.08,10.23,8.28,6.96,5.73,4.98,4.74,4.58,4.38,4.21,4.04,3.87,3.66,3.43,3.20,2.97,2.74,2.50,2.27,2.08,2.00,2.00,2.00,2.00,2.00,2.00,2.00,2.00,2.00,2.00,1.98,1.97,1.97,1.97,1.92,1.90,1.90,1.90,1.90,1.90,1.90,1.90,1.90,1.90,1.88,1.87,1.87,1.87,1.83,1.80,1.80,1.80,1.80,1.80,1.80,1.80,1.80,1.80,1.79,1.77,1.77,1.77,1.74,1.70,1.70,1.70,1.70,1.70,1.70,1.70,1.70,1.70,1.70,1.67,1.67,1.67,1.67,1.67,1.67,1.69,1.70,1.70,1.70,1.70,1.70,1.70,1.70,1.70,1.70,1.72,1.77,1.77,1.77,1.77,1.77,1.77,1.77,1.77,1.77,1.77,1.77,1.79,1.80,1.80,1.80,1.80,1.80,1.80,1.80,1.80,1.80,1.82,1.87,1.87,1.93,1.98,2.01,2.09,2.17,2.23,2.29,2.37,2.39,2.44,2.47,2.47,2.47,2.43,2.40,2.39,2.37,2.37,2.37,2.37,2.37,2.37,2.37,2.38,2.40,2.40,2.45,2.48,2.51,2.57,2.59,2.60,2.62,2.67,2.70,2.70,2.73,2.77,2.80,2.80,2.83,2.88,2.90,2.96,2.99,3.00,3.01,3.06,3.09,3.10,3.11,3.17,3.19,3.20,3.23,3.30,3.30,3.34,3.38,3.40,3.40,3.47,3.50,3.52
21.94,23.87,25.80,27.74,29.93,32.49,35.28,38.08,41.27,44.81,48.49,52.25,55.81,58.97,61.59,63.83,66.40,69.51,73.61,79.66,84.01,87.80,90.28,90.64,90.56,90.37,90.25,90.27,90.42,90.64,90.82,91.00,91.23,91.46,91.64,91.83,92.05,92.21,92.41,92.36,92.05,91.74,91.43,91.17,90.91,90.61,90.30,88.91,85.99,81.81,78.68,76.21,73.89,71.66,69.59,68.51,67.45,66.65,66.25,65.91,65.81,65.28,64.25,63.17,62.09,61.00,59.14,55.63,51.12,46.24,41.38,36.80,32.54,29.27,26.52,23.98,21.28,16.99,12.53,9.20,7.83,6.52,5.43,4.84,4.67,4.52,4.36,4.21,4.03,3.80,3.64,3.43,3.20,2.97,2.74,2.50,2.27,2.08,2.00,2.00,2.00,2.00,2.00,2.00,2.00,2.00,2.00,2.00,1.93,1.91,1.91,1.91,1.90,1.90,1.90,1.90,1.90,1.90,1.90,1.90,1.90,1.90,1.85,1.81,1.81,1.81,1.80,1.80,1.80,1.80,1.80,1.80,1.80,1.80,1.80,1.80,1.77,1.71,1.71,1.71,1.70,1.70,1.70,1.70,1.70,1.70,1.70,1.70,1.70,1.70,1.69,1.61,1.61,1.61,1.61,1.61,1.61,1.66,1.70,1.70,1.70,1.70,1.70,1.70,1.70,1.70,1.70,1.70,1.71,1.71,1.71,1.71,1.71,1.71,1.71,1.71,1.71,1.71,1.71,1.76,1.80,1.80,1.80,1.80,1.80,1.80,1.80,1.80,1.80,1.80,1.81,1.81,1.86,1.94,2.01,2.09,2.17,2.20,2.23,2.30,2.38,2.40,2.41,2.41,2.41,2.40,2.40,2.38,2.31,2.31,2.31,2.31,2.31,2.31,2.31,2.34,2.40,2.40,2.40,2.45,2.50,2.51,2.58,2.60,2.60,2.61,2.69,2.70,2.70,2.72,2.79,2.80,2.80,2.83,2.90,2.90,2.96,3.00,3.00,3.00,3.07,3.10,3.10,3.11,3.18,3.20,3.23,3.30,3.30,3.30,3.34,3.40,3.40,3.47,3.50,3.52
20.95,22.92,24.80,26.69,28.68,30.87,33.42,36.06,38.90,42.07,45.73,49.47,53.00,56.25,59.20,61.85,64.37,67.02,70.17,74.47,79.30,83.61,87.08,89.46,90.06,89.13,88.52,88.98,89.77,90.19,90.46,90.66,90.85,91.08,91.29,91.48,91.67,91.87,92.06,92.06,91.86,91.55,91.24,90.95,90.68,90.40,89.55,86.89,83.29,79.53,77.00,74.74,72.50,70.18,67.70,66.13,64.94,64.18,63.87,63.74,64.11,64.06,63.38,62.39,61.36,59.54,56.61,52.34,47.72,43.04,38.61,34.54,30.65,27.81,25.29,22.79,20.08,15.22,11.28,8.64,7.33,6.01,5.19,4.77,4.61,4.46,4.30,4.15,3.98,3.80,3.64,3.43,3.20,2.97,2.74,2.50,2.27,2.08,2.00,2.00,2.00,2.00,2.00,2.00,1.96,1.94,1.94,1.94,1.91,1.90,1.90,1.90,1.90,1.90,1.90,1.90,1.90,1.90,1.88,1.84,1.84,1.84,1.82,1.80,1.80,1.80,1.80,1.80,1.80,1.80,1.80,1.80,1.79,1.74,1.74,1.74,1.73,1.70,1.70,1.70,1.70,1.70,1.70,1.70,1.70,1.70,1.70,1.65,1.64,1.64,1.64,1.60,1.60,1.60,1.60,1.60,1.60,1.62,1.64,1.64,1.64,1.64,1.64,1.64,1.64,1.64,1.64,1.66,1.70,1.70,1.70,1.70,1.70,1.70,1.70,1.70,1.70,1.70,1.70,1.72,1.74,1.74,1.74,1.74,1.74,1.74,1.74,1.74,1.74,1.76,1.80,1.80,1.86,1.94,2.01,2.09,2.13,2.17,2.22,2.30,2.33,2.34,2.34,2.34,2.34,2.34,2.34,2.33,2.30,2.30,2.27,2.24,2.24,2.29,2.30,2.31,2.35,2.39,2.40,2.42,2.45,2.50,2.53,2.57,2.60,2.60,2.64,2.68,2.70,2.71,2.74,2.78,2.80,2.83,2.90,2.90,2.92,2.96,3.00,3.00,3.03,3.07,3.10,3.10,3.13,3.17,3.21,3.25,3.29,3.30,3.32,3.35,3.40,3.43,3.47,3.52
19.67,21.71,23.57,25.42,27.28,29.21,31.52,34.02,36.60,39.43,42.77,46.36,49.88,53.30,56.54,59.49,62.11,64.58,67.09,69.99,74.49,78.84,82.96,86.85,88.41,87.33,86.59,87.43,88.63,89.37,89.92,90.32,90.51,90.72,90.95,91.15,91.31,91.52,91.69,91.75,91.64,91.32,91.02,90.72,90.37,89.91,88.19,84.67,80.94,77.90,75.81,73.72,71.57,69.21,66.45,64.50,62.98,61.98,61.56,61.75,62.47,62.80,62.48,61.57,60.11,57.42,53.58,48.84,44.21,39.91,35.94,32.30,28.94,26.40,24.00,21.44,18.37,13.37,10.09,8.11,6.80,5.55,4.98,4.70,4.55,4.41,4.26,4.11,3.95,3.80,3.62,3.42,3.20,2.97,2.74,2.50,2.27,2.08,2.00,2.00,1.99,1.98,1.98,1.98,1.93,1.90,1.90,1.90,1.90,1.90,1.90,1.90,1.90,1.90,1.89,1.88,1.88,1.88,1.85,1.80,1.80,1.80,1.80,1.80,1.80,1.80,1.80,1.80,1.80,1.78,1.78,1.78,1.76,1.70,1.70,1.70,1.70,1.70,1.70,1.70,1.70,1.70,1.70,1.68,1.68,1.68,1.67,1.61,1.60,1.60,1.60,1.60,1.60,1.60,1.60,1.60,1.60,1.60,1.60,1.60,1.60,1.60,1.60,1.60,1.60,1.60,1.60,1.62,1.68,1.68,1.68,1.68,1.68,1.68,1.68,1.68,1.68,1.68,1.69,1.70,1.70,1.70,1.70,1.70,1.70,1.70,1.70,1.70,1.70,1.72,1.78,1.80,1.86,1.93,1.99,2.07,2.09,2.14,2.22,2.28,2.28,2.28,2.28,2.28,2.28,2.28,2.28,2.28,2.28,2.28,2.24,2.20,2.20,2.26,2.29,2.30,2.31,2.37,2.39,2.40,2.42,2.50,2.50,2.54,2.58,2.60,2.60,2.65,2.69,2.70,2.70,2.76,2.79,2.82,2.88,2.90,2.90,2.93,2.98,3.00,3.00,3.03,3.08,3.10,3.10,3.14,3.18,3.21,3.27,3.28,3.29,3.32,3.39,3.40,3.45,3.52
17.86,20.05,21.91,23.76,25.62,27.50,29.57,31.99,34.56,37.15,39.65,42.89,46.51,50.14,53.48,56.48,59.42,62.11,64.59,67.14,69.74,73.37,77.58,81.67,84.61,84.61,84.51,85.49,86.60,87.84,89.04,89.96,90.25,90.42,90.63,90.83,90.99,91.15,91.31,91.41,91.38,91.00,90.75,90.46,89.94,88.90,85.80,82.29,79.27,77.07,74.98,72.89,70.65,68.15,65.24,63.29,61.43,60.03,59.44,60.17,61.00,61.53,61.53,60.67,57.86,54.19,49.85,45.01,40.63,37.01,33.53,30.05,27.48,25.06,22.66,19.82,15.72,11.40,8.96,7.53,6.24,5.19,4.81,4.64,4.50,4.41,4.26,4.11,3.95,3.80,3.57,3.39,3.20,2.97,2.74,2.50,2.27,2.08,2.00,2.00,1.96,1.91,1.91,1.91,1.91,1.90,1.90,1.90,1.90,1.90,1.90,1.90,1.90,1.90,1.87,1.81,1.81,1.81,1.81,1.80,1.80,1.80,1.80,1.80,1.80,1.80,1.80,1.80,1.79,1.72,1.71,1.71,1.71,1.70,1.70,1.70,1.70,1.70,1.70,1.70,1.70,1.70,1.70,1.64,1.61,1.61,1.61,1.60,1.60,1.60,1.60,1.60,1.60,1.60,1.60,1.60,1.60,1.60,1.60,1.60,1.60,1.60,1.60,1.60,1.60,1.60,1.60,1.60,1.61,1.61,1.61,1.61,1.61,1.61,1.61,1.61,1.61,1.61,1.68,1.70,1.70,1.70,1.70,1.70,1.70,1.70,1.70,1.70,1.70,1.70,1.72,1.78,1.86,1.90,1.93,2.00,2.07,2.14,2.20,2.21,2.21,2.21,2.21,2.21,2.21,2.21,2.21,2.21,2.21,2.21,2.21,2.20,2.20,2.21,2.26,2.30,2.30,2.31,2.37,2.40,2.42,2.50,2.50,2.51,2.54,2.60,2.60,2.61,2.65,2.70,2.70,2.71,2.76,2.80,2.82,2.88,2.90,2.90,2.92,2.99,3.00,3.01,3.03,3.10,3.10,3.11,3.14,3.20,3.21,3.21,3.25,3.32,3.39,3.40,3.45,3.52
15.74,18.00,20.05,21.98,23.87,25.79,27.84,29.99,32.33,34.76,37.07,39.81,43.01,46.48,50.04,53.33,56.42,59.31,61.97,64.33,66.50,69.33,72.59,75.96,79.63,81.36,82.44,83.52,84.56,85.90,87.27,88.47,89.29,89.98,90.33,90.51,90.67,90.82,90.91,90.95,90.88,90.58,90.34,89.79,88.87,87.48,84.16,80.96,78.27,76.19,74.14,72.06,69.67,66.95,63.98,62.06,60.27,58.79,57.82,58.05,59.21,59.73,59.17,57.78,54.03,49.81,45.45,41.10,37.51,34.34,31.28,28.24,25.77,23.33,20.56,17.16,12.80,9.96,8.19,6.92,5.69,5.00,4.73,4.59,4.48,4.36,4.21,4.06,3.90,3.75,3.55,3.39,3.20,2.97,2.74,2.50,2.27,2.07,1.95,1.95,1.92,1.90,1.90,1.90,1.90,1.90,1.90,1.90,1.90,1.90,1.89,1.85,1.85,1.85,1.83,1.80,1.80,1.80,1.80,1.80,1.80,1.80,1.80,1.80,1.80,1.76,1.75,1.75,1.74,1.70,1.70,1.70,1.70,1.70,1.70,1.70,1.70,1.70,1.70,1.67,1.65,1.65,1.65,1.61,1.60,1.60,1.60,1.60,1.60,1.60,1.60,1.60,1.60,1.58,1.55,1.55,1.55,1.55,1.55,1.55,1.55,1.55,1.55,1.55,1.55,1.55,1.55,1.56,1.60,1.60,1.60,1.60,1.60,1.60,1.60,1.60,1.60,1.60,1.64,1.65,1.65,1.65,1.65,1.65,1.65,1.65,1.65,1.65,1.67,1.70,1.70,1.74,1.81,1.87,1.91,1.99,2.07,2.12,2.15,2.15,2.15,2.15,2.15,2.15,2.15,2.15,2.15,2.15,2.15,2.15,2.15,2.16,2.20,2.20,2.23,2.27,2.30,2.30,2.33,2.37,2.41,2.45,2.49,2.50,2.52,2.55,2.59,2.60,2.62,2.66,2.70,2.70,2.72,2.76,2.80,2.84,2.88,2.90,2.91,2.94,2.98,3.00,3.01,3.05,3.09,3.10,3.13,3.20,3.20,3.20,3.24,3.31,3.35,3.39,3.45,3.52
13.53,15.83,18.07,20.12,22.07,23.98,26.03,27.89,30.01,32.33,34.65,36.96,39.65,42.80,46.42,50.01,53.27,56.35,59.19,61.49,63.71,65.88,68.15,70.68,74.47,77.59,79.83,81.24,82.50,83.84,85.20,86.54,87.85,89.12,89.70,89.94,90.15,90.33,90.37,90.31,90.14,89.84,89.53,88.73,87.48,85.90,82.81,79.98,77.49,75.34,73.31,71.20,68.65,65.74,62.73,60.87,59.24,57.76,56.43,55.89,57.20,57.51,56.15,53.97,49.47,45.07,41.05,37.43,34.57,31.76,29.07,26.49,23.96,21.37,18.11,14.27,10.24,8.80,7.53,6.32,5.22,4.86,4.66,4.55,4.46,4.30,4.15,3.99,3.84,3.68,3.53,3.37,3.19,2.97,2.75,2.51,2.28,2.07,1.91,1.90,1.90,1.90,1.90,1.90,1.90,1.90,1.90,1.89,1.89,1.89,1.87,1.80,1.80,1.80,1.80,1.80,1.80,1.80,1.80,1.80,1.80,1.79,1.79,1.79,1.78,1.72,1.70,1.70,1.70,1.70,1.70,1.70,1.70,1.70,1.70,1.69,1.69,1.69,1.69,1.63,1.60,1.60,1.60,1.60,1.60,1.60,1.60,1.60,1.60,1.59,1.59,1.59,1.59,1.55,1.50,1.50,1.50,1.50,1.50,1.50,1.50,1.50,1.50,1.50,1.50,1.50,1.50,1.52,1.59,1.59,1.59,1.59,1.59,1.59,1.59,1.59,1.59,1.59,1.60,1.60,1.60,1.60,1.60,1.60,1.60,1.60,1.60,1.60,1.64,1.69,1.69,1.70,1.76,1.84,1.91,1.99,2.06,2.09,2.09,2.09,2.09,2.09,2.09,2.09,2.09,2.09,2.09,2.09,2.09,2.10,2.10,2.12,2.19,2.20,2.20,2.23,2.29,2.30,2.30,2.34,2.39,2.40,2.47,2.49,2.50,2.51,2.57,2.59,2.60,2.61,2.68,2.70,2.70,2.73,2.80,2.80,2.85,2.89,2.90,2.90,2.96,2.99,3.00,3.00,3.06,3.09,3.13,3.19,3.19,3.19,3.24,3.30,3.30,3.37,3.45,3.52
11.39,13.59,15.83,18.11,20.12,21.84,23.69,25.49,27.58,29.90,32.22,34.54,36.95,39.55,42.48,46.27,49.88,53.10,55.93,58.53,60.95,63.20,65.35,67.49,69.84,72.50,75.24,77.91,80.36,81.74,82.91,84.11,85.42,86.84,87.80,88.46,88.95,89.22,89.33,89.16,88.73,88.08,87.43,86.64,85.60,84.14,81.74,79.23,76.83,74.62,72.49,70.20,67.54,64.59,61.58,59.81,58.29,56.83,55.35,54.12,54.74,54.36,52.21,48.90,43.89,40.14,37.35,34.68,31.82,29.27,26.86,24.46,22.03,18.91,15.20,11.59,9.29,8.10,6.89,5.79,4.97,4.77,4.60,4.48,4.39,4.24,4.08,3.93,3.77,3.62,3.46,3.31,3.15,2.98,2.80,2.53,2.31,2.12,1.91,1.90,1.90,1.90,1.90,1.90,1.90,1.90,1.89,1.83,1.82,1.82,1.82,1.80,1.80,1.80,1.80,1.80,1.80,1.80,1.80,1.80,1.80,1.74,1.72,1.72,1.72,1.70,1.70,1.70,1.70,1.70,1.70,1.70,1.70,1.70,1.70,1.66,1.62,1.62,1.62,1.61,1.60,1.60,1.60,1.60,1.60,1.60,1.60,1.60,1.60,1.57,1.52,1.52,1.52,1.51,1.50,1.50,1.50,1.50,1.50,1.50,1.50,1.50,1.50,1.50,1.50,1.50,1.50,1.51,1.52,1.52,1.52,1.52,1.52,1.52,1.52,1.52,1.52,1.52,1.58,1.60,1.60,1.60,1.60,1.60,1.60,1.60,1.60,1.60,1.61,1.62,1.63,1.69,1.76,1.84,1.91,1.99,2.01,2.02,2.02,2.02,2.02,2.02,2.02,2.02,2.02,2.02,2.02,2.02,2.02,2.08,2.10,2.11,2.12,2.18,2.20,2.21,2.23,2.29,2.30,2.31,2.34,2.40,2.42,2.46,2.50,2.50,2.52,2.57,2.60,2.60,2.62,2.68,2.70,2.73,2.80,2.80,2.81,2.85,2.90,2.90,2.91,2.96,3.00,3.00,3.02,3.06,3.11,3.12,3.12,3.17,3.24,3.30,3.30,3.37,3.45,3.51
9.92,11.56,13.80,16.18,18.20,19.74,21.35,23.08,25.14,27.40,29.63,31.85,34.13,36.52,39.09,42.37,45.92,49.32,52.45,55.29,57.87,60.31,62.56,64.59,66.48,68.66,71.09,73.70,76.43,78.13,79.70,81.33,83.03,84.50,85.60,86.43,87.08,87.45,87.54,87.33,86.81,86.01,85.23,84.46,83.59,82.48,80.16,78.01,75.88,73.70,71.51,68.43,65.38,62.58,60.09,58.49,57.04,55.59,54.06,52.62,52.44,50.70,47.10,43.61,39.68,36.70,34.34,31.98,29.38,26.99,24.67,22.30,19.65,16.19,12.72,9.86,8.45,7.36,6.21,5.30,4.85,4.69,4.54,4.40,4.29,4.17,4.02,3.86,3.71,3.56,3.43,3.29,3.13,2.97,2.79,2.55,2.34,2.14,1.91,1.90,1.90,1.90,1.90,1.87,1.86,1.86,1.85,1.80,1.80,1.80,1.80,1.80,1.80,1.80,1.80,1.80,1.80,1.77,1.76,1.76,1.76,1.72,1.70,1.70,1.70,1.70,1.70,1.70,1.70,1.70,1.70,1.68,1.66,1.66,1.66,1.63,1.60,1.60,1.60,1.60,1.60,1.60,1.60,1.60,1.60,1.59,1.56,1.56,1.56,1.54,1.50,1.50,1.50,1.50,1.50,1.50,1.50,1.50,1.50,1.50,1.46,1.46,1.46,1.46,1.46,1.46,1.46,1.47,1.50,1.50,1.50,1.50,1.50,1.50,1.50,1.50,1.50,1.50,1.54,1.56,1.56,1.56,1.56,1.56,1.56,1.56,1.56,1.56,1.58,1.60,1.60,1.68,1.76,1.82,1.87,1.95,1.99,2.00,1.99,1.96,1.96,1.96,1.96,1.96,1.96,1.96,1.96,1.97,2.00,2.04,2.08,2.10,2.10,2.15,2.18,2.20,2.21,2.25,2.29,2.30,2.32,2.40,2.40,2.43,2.47,2.50,2.50,2.54,2.57,2.60,2.60,2.64,2.68,2.71,2.76,2.79,2.80,2.82,2.86,2.90,2.90,2.93,2.97,3.00,3.00,3.03,3.07,3.10,3.10,3.16,3.22,3.26,3.30,3.37,3.45,3.50
8.83,9.75,11.91,14.31,16.28,17.67,19.06,20.72,22.70,24.87,26.95,29.03,31.27,33.60,36.00,38.47,41.71,45.25,48.77,51.81,54.56,57.23,59.69,61.81,63.77,65.53,67.27,69.16,71.66,73.77,75.96,78.24,80.48,82.05,83.21,84.11,84.85,85.32,85.35,85.12,84.63,83.78,82.98,82.16,81.38,80.64,78.12,76.32,74.56,72.48,70.07,66.06,62.62,60.13,58.38,56.98,55.59,54.15,52.62,51.14,49.98,46.65,41.58,38.47,36.30,34.08,31.74,29.35,27.10,24.81,22.48,20.02,17.00,13.40,10.54,8.67,7.66,6.58,5.54,4.86,4.78,4.63,4.47,4.32,4.18,4.10,3.95,3.80,3.65,3.49,3.42,3.28,3.13,2.96,2.74,2.57,2.37,2.14,1.91,1.90,1.89,1.89,1.89,1.82,1.80,1.80,1.80,1.80,1.80,1.80,1.80,1.80,1.80,1.80,1.79,1.79,1.79,1.73,1.70,1.70,1.70,1.70,1.70,1.70,1.70,1.70,1.70,1.70,1.69,1.69,1.69,1.65,1.60,1.60,1.60,1.60,1.60,1.60,1.60,1.60,1.60,1.60,1.59,1.59,1.59,1.57,1.50,1.50,1.50,1.50,1.50,1.50,1.50,1.50,1.50,1.50,1.50,1.49,1.49,1.49,1.41,1.40,1.40,1.40,1.40,1.40,1.40,1.43,1.49,1.49,1.49,1.49,1.49,1.49,1.49,1.49,1.49,1.49,1.50,1.50,1.50,1.50,1.50,1.50,1.50,1.50,1.50,1.50,1.55,1.60,1.60,1.68,1.75,1.80,1.81,1.89,1.96,1.99,1.97,1.90,1.90,1.90,1.89,1.89,1.89,1.90,1.90,1.92,1.99,2.00,2.05,2.10,2.10,2.10,2.15,2.20,2.20,2.20,2.26,2.30,2.32,2.39,2.40,2.40,2.43,2.49,2.50,2.50,2.54,2.60,2.60,2.60,2.65,2.70,2.70,2.78,2.80,2.80,2.81,2.88,2.90,2.90,2.92,2.99,3.00,3.00,3.03,3.09,3.10,3.16,3.20,3.22,3.29,3.37,3.44,3.50
8.13,9.00,10.33,12.48,14.43,15.82,17.21,18.82,20.50,22.30,24.33,26.36,28.48,30.69,33.00,35.47,38.19,41.12,44.23,47.51,50.55,53.39,56.09,58.70,60.95,62.79,64.50,66.26,68.22,69.96,71.81,73.83,76.07,78.66,80.58,81.87,82.62,83.14,83.18,82.95,82.46,81.61,80.49,79.11,77.67,76.37,74.09,72.36,70.95,69.24,64.80,61.72,59.50,57.84,56.39,55.05,53.68,52.29,50.80,48.29,44.84,41.41,38.41,36.04,33.98,31.81,29.50,27.11,24.81,22.58,20.09,17.20,14.08,11.26,9.23,7.89,6.83,5.75,5.10,4.78,4.65,4.55,4.41,4.25,4.12,4.04,3.89,3.74,3.58,3.43,3.35,3.22,3.06,2.91,2.73,2.57,2.37,2.14,1.91,1.85,1.83,1.83,1.83,1.81,1.80,1.80,1.80,1.80,1.80,1.80,1.80,1.80,1.80,1.76,1.73,1.73,1.73,1.71,1.70,1.70,1.70,1.70,1.70,1.70,1.70,1.70,1.70,1.67,1.63,1.63,1.63,1.62,1.60,1.60,1.60,1.60,1.60,1.60,1.60,1.60,1.60,1.59,1.53,1.53,1.53,1.52,1.50,1.50,1.50,1.50,1.50,1.50,1.50,1.50,1.50,1.50,1.45,1.43,1.43,1.43,1.40,1.40,1.40,1.40,1.40,1.40,1.40,1.41,1.43,1.43,1.43,1.43,1.43,1.43,1.43,1.43,1.43,1.43,1.48,1.50,1.50,1.50,1.50,1.50,1.50,1.50,1.50,1.50,1.52,1.55,1.60,1.62,1.69,1.76,1.81,1.89,1.92,1.93,1.92,1.90,1.90,1.86,1.83,1.83,1.83,1.87,1.90,1.92,1.99,2.00,2.01,2.05,2.10,2.10,2.12,2.15,2.20,2.20,2.22,2.26,2.31,2.33,2.38,2.40,2.41,2.44,2.49,2.50,2.51,2.54,2.60,2.60,2.61,2.65,2.70,2.72,2.77,2.80,2.80,2.83,2.88,2.90,2.91,2.93,2.98,3.00,3.01,3.04,3.09,3.16,3.20,3.22,3.29,3.37,3.41,3.45
7.40,8.28,9.21,10.87,12.58,14.05,15.51,17.12,18.60,20.10,21.88,23.84,25.88,28.00,30.17,32.47,34.88,37.45,40.21,43.28,46.39,49.49,52.54,55.50,57.85,59.80,61.63,63.43,65.08,66.64,68.26,70.02,72.00,74.54,76.73,78.43,79.54,80.21,80.15,79.71,78.97,77.86,76.45,74.91,73.33,71.77,69.79,67.92,66.33,64.62,60.52,58.35,56.87,55.65,54.34,53.02,51.35,49.45,47.41,44.45,40.71,37.73,35.72,33.71,31.59,29.40,27.15,24.81,22.51,20.22,17.57,14.49,11.66,9.59,8.15,7.09,6.00,5.20,4.83,4.68,4.56,4.46,4.33,4.19,4.05,3.94,3.82,3.67,3.52,3.37,3.29,3.15,3.00,2.85,2.69,2.54,2.35,2.14,1.91,1.83,1.80,1.80,1.80,1.80,1.80,1.80,1.80,1.80,1.80,1.78,1.77,1.77,1.77,1.73,1.70,1.70,1.70,1.70,1.70,1.70,1.70,1.70,1.70,1.69,1.67,1.67,1.67,1.64,1.60,1.60,1.60,1.60,1.60,1.60,1.60,1.60,1.60,1.60,1.57,1.57,1.57,1.55,1.50,1.50,1.50,1.50,1.50,1.50,1.50,1.50,1.50,1.50,1.48,1.47,1.47,1.47,1.42,1.40,1.40,1.40,1.40,1.40,1.40,1.40,1.40,1.40,1.38,1.38,1.40,1.40,1.40,1.40,1.40,1.40,1.40,1.40,1.40,1.40,1.45,1.47,1.47,1.47,1.47,1.47,1.47,1.47,1.47,1.47,1.48,1.52,1.57,1.59,1.66,1.74,1.81,1.86,1.87,1.87,1.87,1.87,1.87,1.83,1.80,1.80,1.80,1.84,1.88,1.91,1.96,1.99,2.00,2.02,2.07,2.09,2.10,2.12,2.17,2.20,2.20,2.23,2.27,2.30,2.35,2.38,2.40,2.40,2.46,2.49,2.50,2.51,2.56,2.59,2.60,2.63,2.70,2.70,2.74,2.78,2.80,2.80,2.84,2.88,2.90,2.90,2.95,2.98,3.00,3.01,3.08,3.14,3.18,3.22,3.29,3.37,3.40,3.42
6.65,7.58,8.50,9.46,10.73,12.35,13.96,15.58,16.99,18.25,19.59,21.44,23.45,25.51,27.52,29.47,31.78,34.22,36.69,39.11,42.08,45.52,49.05,52.24,54.49,56.60,58.68,60.67,62.22,63.76,65.27,66.75,68.24,69.75,71.76,73.86,75.66,76.58,76.34,75.50,74.27,72.67,70.98,69.66,68.41,66.86,65.23,63.05,60.78,58.74,57.16,55.85,54.69,53.54,52.23,50.92,48.63,45.72,42.56,39.70,37.51,35.49,33.49,31.48,29.13,26.88,24.69,22.44,20.20,17.74,14.93,11.90,9.71,8.37,7.28,6.26,5.17,4.89,4.70,4.58,4.49,4.34,4.24,4.13,3.97,3.82,3.73,3.61,3.45,3.30,3.22,3.09,2.94,2.78,2.63,2.47,2.32,2.14,1.91,1.83,1.80,1.80,1.80,1.80,1.80,1.80,1.80,1.80,1.80,1.75,1.70,1.70,1.70,1.70,1.70,1.70,1.70,1.70,1.70,1.70,1.70,1.70,1.70,1.67,1.60,1.60,1.60,1.60,1.60,1.60,1.60,1.60,1.60,1.60,1.60,1.60,1.60,1.59,1.52,1.50,1.50,1.50,1.50,1.50,1.50,1.50,1.50,1.50,1.50,1.50,1.50,1.50,1.43,1.40,1.40,1.40,1.40,1.40,1.40,1.40,1.40,1.40,1.40,1.40,1.40,1.40,1.35,1.33,1.40,1.40,1.40,1.40,1.40,1.40,1.40,1.40,1.40,1.40,1.40,1.40,1.40,1.40,1.40,1.40,1.40,1.40,1.40,1.40,1.45,1.50,1.51,1.58,1.66,1.74,1.80,1.80,1.80,1.80,1.80,1.80,1.80,1.80,1.80,1.80,1.80,1.80,1.84,1.90,1.90,1.97,2.00,2.00,2.01,2.08,2.10,2.10,2.11,2.19,2.20,2.20,2.22,2.30,2.30,2.35,2.40,2.40,2.40,2.46,2.50,2.50,2.50,2.57,2.60,2.63,2.70,2.70,2.70,2.74,2.80,2.80,2.80,2.84,2.90,2.90,2.90,2.95,3.00,3.01,3.08,3.10,3.14,3.22,3.29,3.37,3.40,3.42
