38.63,38.26,38.03,37.74,37.44,37.13,36.83,36.53,36.27,36.03,35.80,35.57,35.34,35.11,34.88,34.64,34.41,34.18,33.93,33.63,33.32,33.06,32.80,32.50,32.21,32.18,32.14,31.99,31.83,31.65,31.49,31.33,31.17,30.87,30.49,30.24,30.26,30.40,30.36,30.28,30.22,30.22,30.22,30.07,29.86,29.70,29.55,29.39,29.24,29.08,28.93,28.78,28.62,28.47,28.31,28.16,28.00,27.85,27.69,27.54,27.39,27.27,27.17,27.01,26.79,26.61,26.43,26.20,26.04,25.83,25.61,25.37,25.15,24.98,24.86,24.76,24.61,24.46,24.30,24.18,24.09,23.86,23.69,23.53,23.37,23.21,23.06,22.91,22.75,22.60,22.44,22.29,22.10,21.88,21.72,21.50,21.32,21.14,20.92,20.83,20.69,20.50,20.27,20.04,19.94,19.90,19.90,19.90,19.83,19.80,19.78,19.71,19.70,19.70,19.67,19.61,19.60,19.60,19.56,19.50,19.50,19.50,19.45,19.41,19.41,19.41,19.41,19.40,19.40,19.40,19.40,19.40,19.38,19.31,19.31,19.31,19.31,19.30,19.30,19.30,19.30,19.30,19.30,19.23,19.21,19.21,19.21,19.20,19.15,19.11,19.11,19.10,19.10,19.06,19.01,19.00,18.93,18.91,18.91,18.90,18.82,18.81,18.81,18.81,18.81,18.81,18.81,18.81,18.80,18.73,18.71,18.71,18.71,18.71,18.71,18.71,18.71,18.71,18.63,18.61,18.61,18.61,18.61,18.61,18.57,18.52,18.60,18.61,18.61,18.61,18.61,18.68,18.70,18.71,18.72,18.79,18.80,18.85,18.91,18.91,18.91,18.96,19.01,19.01,19.01,19.01,19.01,19.01,19.01,19.08,19.11,19.11,19.11,19.11,19.11,19.14,19.19,19.12,19.11,19.11,19.11,19.10,18.96,19.02,19.11,19.10,19.03,19.01,19.01,18.99,18.92,18.91,18.91,18.88,18.81,18.73,18.59,18.44,18.30,18.22,18.08,17.96,17.87,17.71,17.56,17.46,17.34,17.18,17.01,16.67,16.28,15.94,15.79,15.71,15.63,15.58
38.91,38.57,38.29,37.99,37.70,37.43,37.12,36.81,36.52,36.25,35.97,35.70,35.42,35.15,34.87,34.60,34.36,34.12,33.89,33.62,33.31,33.03,32.74,32.43,32.17,31.99,31.83,31.66,31.68,31.55,31.40,31.24,31.09,30.87,30.60,30.39,30.31,30.29,30.19,30.09,30.03,30.03,30.03,29.94,29.79,29.64,29.48,29.33,29.17,29.02,28.87,28.71,28.56,28.40,28.25,28.09,27.94,27.78,27.63,27.48,27.32,27.20,27.11,26.96,26.77,26.58,26.38,26.19,26.00,25.77,25.54,25.31,25.08,24.91,24.78,24.66,24.55,24.39,24.24,24.11,24.03,23.84,23.64,23.49,23.37,23.21,23.06,22.91,22.75,22.60,22.44,22.29,22.10,21.88,21.72,21.50,21.32,21.15,20.96,20.84,20.70,20.51,20.29,20.10,19.96,19.90,19.89,19.85,19.81,19.80,19.78,19.70,19.70,19.67,19.63,19.60,19.60,19.56,19.53,19.50,19.50,19.46,19.42,19.40,19.40,19.40,19.40,19.40,19.39,19.35,19.34,19.34,19.33,19.30,19.30,19.30,19.30,19.29,19.25,19.24,19.24,19.24,19.24,19.21,19.20,19.18,19.14,19.14,19.12,19.08,19.04,19.04,19.04,19.00,18.94,18.94,18.91,18.87,18.84,18.84,18.81,18.76,18.74,18.74,18.74,18.74,18.74,18.74,18.74,18.71,18.67,18.64,18.64,18.64,18.64,18.64,18.64,18.64,18.61,18.57,18.54,18.54,18.54,18.54,18.53,18.51,18.54,18.54,18.54,18.54,18.55,18.62,18.64,18.64,18.66,18.73,18.78,18.82,18.84,18.84,18.84,18.87,18.90,18.94,18.94,18.94,18.94,18.94,18.94,18.97,19.01,19.04,19.04,19.04,19.04,19.06,19.09,19.10,19.06,19.04,19.04,19.04,18.98,18.97,19.00,19.04,18.96,18.94,18.92,18.88,18.85,18.84,18.82,18.78,18.74,18.62,18.51,18.38,18.23,18.10,17.99,17.88,17.76,17.65,17.49,17.36,17.24,17.13,16.98,16.74,16.44,16.14,15.98,15.90,15.85,15.81
39.19,38.87,38.56,38.26,38.00,37.75,37.44,37.13,36.82,36.51,36.21,35.90,35.59,35.28,34.97,34.66,34.40,34.15,33.88,33.62,33.33,33.03,32.71,32.39,32.14,31.86,31.59,31.39,31.45,31.36,31.25,31.12,30.96,30.81,30.65,30.50,30.34,30.19,30.04,29.92,29.86,29.86,29.84,29.80,29.71,29.57,29.42,29.27,29.11,28.96,28.80,28.65,28.49,28.34,28.18,28.03,27.87,27.72,27.57,27.41,27.26,27.14,27.05,26.89,26.74,26.54,26.32,26.15,25.92,25.70,25.48,25.25,25.01,24.85,24.70,24.58,24.48,24.33,24.19,24.06,23.97,23.81,23.61,23.45,23.35,23.19,23.04,22.90,22.75,22.60,22.44,22.28,22.09,21.88,21.72,21.52,21.34,21.18,21.01,20.85,20.70,20.51,20.29,20.13,19.98,19.90,19.89,19.81,19.80,19.79,19.76,19.70,19.70,19.64,19.60,19.60,19.58,19.53,19.50,19.50,19.48,19.42,19.40,19.39,19.38,19.38,19.38,19.38,19.37,19.31,19.30,19.30,19.30,19.30,19.28,19.28,19.28,19.27,19.21,19.20,19.20,19.20,19.18,19.18,19.18,19.15,19.08,19.08,19.08,19.05,19.00,18.98,18.98,18.94,18.90,18.88,18.88,18.84,18.79,18.78,18.78,18.73,18.69,18.68,18.68,18.68,18.68,18.68,18.68,18.68,18.63,18.59,18.58,18.58,18.58,18.58,18.58,18.58,18.58,18.53,18.48,18.48,18.48,18.48,18.48,18.48,18.48,18.48,18.48,18.48,18.50,18.56,18.58,18.59,18.61,18.67,18.75,18.78,18.78,18.78,18.78,18.78,18.80,18.86,18.86,18.87,18.88,18.88,18.88,18.88,18.92,18.96,18.98,18.98,18.98,18.98,18.99,19.05,19.01,18.98,18.98,18.98,18.98,18.94,18.92,18.97,18.90,18.87,18.83,18.78,18.78,18.78,18.74,18.70,18.69,18.54,18.44,18.33,18.18,18.02,17.92,17.80,17.68,17.58,17.43,17.29,17.16,17.07,16.91,16.76,16.55,16.31,16.17,16.09,16.06,16.04
39.49,39.12,38.81,38.55,38.31,38.07,37.76,37.45,37.14,36.83,36.53,36.22,35.91,35.60,35.29,34.98,34.68,34.35,33.99,33.63,33.37,33.09,32.76,32.39,32.09,31.83,31.57,31.28,31.04,31.05,31.05,30.99,30.83,30.68,30.53,30.37,30.22,30.06,29.91,29.79,29.73,29.73,29.67,29.64,29.60,29.51,29.36,29.20,29.05,28.89,28.74,28.58,28.43,28.27,28.12,27.97,27.81,27.66,27.50,27.35,27.19,27.08,26.98,26.83,26.67,26.47,26.24,26.02,25.79,25.61,25.41,25.18,24.95,24.78,24.67,24.56,24.42,24.27,24.16,24.05,23.90,23.75,23.58,23.43,23.28,23.13,22.98,22.86,22.75,22.60,22.44,22.24,22.04,21.88,21.72,21.56,21.40,21.23,21.01,20.85,20.70,20.51,20.29,20.13,19.98,19.90,19.89,19.81,19.80,19.76,19.71,19.70,19.70,19.64,19.60,19.59,19.53,19.51,19.50,19.48,19.42,19.40,19.40,19.38,19.32,19.32,19.32,19.32,19.31,19.30,19.30,19.30,19.30,19.30,19.23,19.22,19.22,19.21,19.20,19.20,19.20,19.18,19.12,19.12,19.12,19.09,19.02,19.02,19.02,19.01,18.99,18.92,18.92,18.91,18.88,18.82,18.82,18.81,18.77,18.72,18.72,18.71,18.67,18.62,18.62,18.62,18.62,18.62,18.62,18.62,18.61,18.57,18.52,18.52,18.52,18.52,18.52,18.52,18.52,18.46,18.42,18.42,18.42,18.42,18.42,18.42,18.42,18.42,18.42,18.44,18.50,18.51,18.52,18.55,18.60,18.61,18.68,18.72,18.72,18.72,18.72,18.72,18.72,18.73,18.73,18.78,18.82,18.82,18.82,18.82,18.82,18.85,18.92,18.92,18.92,18.92,18.92,18.93,18.92,18.92,18.92,18.92,18.92,18.91,18.90,18.91,18.83,18.76,18.73,18.72,18.72,18.72,18.71,18.70,18.69,18.54,18.44,18.33,18.18,18.02,17.88,17.77,17.66,17.52,17.37,17.26,17.15,17.00,16.85,16.69,16.56,16.45,16.36,16.28,16.25,16.25
39.76,39.38,39.11,38.87,38.63,38.39,38.08,37.77,37.46,37.15,36.84,36.54,36.23,35.92,35.61,35.30,34.93,34.55,34.16,33.77,33.46,33.13,32.78,32.44,32.17,31.95,31.72,31.44,31.09,30.85,30.67,30.60,30.70,30.52,30.37,30.24,30.09,29.89,29.73,29.64,29.60,29.56,29.52,29.48,29.43,29.35,29.27,29.14,28.98,28.83,28.67,28.52,28.36,28.21,28.06,27.90,27.75,27.59,27.44,27.28,27.13,27.01,26.92,26.77,26.58,26.41,26.23,25.99,25.76,25.56,25.35,25.12,24.93,24.77,24.64,24.52,24.40,24.25,24.12,24.01,23.89,23.73,23.58,23.42,23.27,23.11,22.96,22.83,22.70,22.55,22.39,22.21,22.03,21.87,21.68,21.52,21.37,21.19,20.96,20.80,20.65,20.49,20.34,20.18,20.03,19.93,19.89,19.81,19.80,19.75,19.70,19.70,19.66,19.62,19.60,19.59,19.51,19.50,19.48,19.44,19.40,19.40,19.38,19.34,19.30,19.30,19.30,19.30,19.29,19.26,19.25,19.25,19.25,19.25,19.21,19.20,19.20,19.20,19.20,19.17,19.15,19.14,19.10,19.06,19.05,19.04,19.00,18.96,18.95,18.95,18.94,18.90,18.87,18.85,18.84,18.80,18.76,18.75,18.74,18.70,18.66,18.65,18.61,18.55,18.55,18.55,18.55,18.55,18.55,18.55,18.55,18.52,18.45,18.45,18.45,18.45,18.45,18.45,18.45,18.42,18.38,18.35,18.35,18.35,18.35,18.35,18.35,18.35,18.35,18.38,18.45,18.45,18.45,18.49,18.55,18.55,18.62,18.65,18.65,18.65,18.65,18.65,18.65,18.65,18.65,18.68,18.72,18.75,18.75,18.75,18.75,18.77,18.81,18.84,18.85,18.85,18.85,18.85,18.85,18.85,18.85,18.85,18.85,18.83,18.80,18.80,18.76,18.72,18.72,18.75,18.75,18.75,18.75,18.75,18.74,18.63,18.51,18.40,18.27,18.12,17.96,17.83,17.72,17.60,17.45,17.32,17.20,17.08,16.93,16.77,16.66,16.59,16.55,16.51,16.47,16.44
40.03,39.66,39.42,39.19,38.96,38.71,38.40,38.09,37.78,37.47,37.16,36.86,36.54,36.23,35.92,35.60,35.16,34.74,34.35,33.95,33.58,33.19,32.83,32.53,32.28,32.08,31.87,31.62,31.25,30.77,30.39,30.26,30.57,30.36,30.22,30.10,29.94,29.71,29.54,29.46,29.45,29.38,29.37,29.32,29.24,29.18,29.17,29.06,28.91,28.76,28.61,28.46,28.30,28.15,27.99,27.84,27.68,27.53,27.37,27.22,27.07,26.94,26.84,26.69,26.47,26.33,26.20,25.99,25.75,25.52,25.29,25.07,24.91,24.76,24.61,24.48,24.40,24.25,24.10,23.97,23.88,23.72,23.57,23.41,23.26,23.10,22.95,22.79,22.64,22.50,22.34,22.19,22.03,21.86,21.64,21.46,21.30,21.13,20.90,20.74,20.59,20.46,20.36,20.22,20.07,19.95,19.89,19.81,19.80,19.75,19.70,19.70,19.62,19.60,19.60,19.58,19.51,19.50,19.46,19.40,19.40,19.39,19.34,19.30,19.30,19.29,19.29,19.29,19.28,19.21,19.20,19.20,19.20,19.20,19.19,19.19,19.19,19.19,19.19,19.13,19.10,19.09,19.09,19.02,18.99,18.99,18.98,18.92,18.90,18.90,18.89,18.89,18.83,18.79,18.79,18.79,18.72,18.69,18.69,18.68,18.61,18.59,18.55,18.50,18.49,18.49,18.49,18.49,18.49,18.49,18.49,18.46,18.40,18.39,18.39,18.39,18.39,18.39,18.39,18.39,18.36,18.30,18.29,18.29,18.29,18.29,18.29,18.29,18.29,18.32,18.39,18.39,18.39,18.42,18.49,18.49,18.55,18.58,18.59,18.59,18.59,18.59,18.59,18.59,18.59,18.59,18.62,18.68,18.69,18.69,18.69,18.69,18.69,18.76,18.78,18.79,18.79,18.79,18.79,18.79,18.80,18.81,18.81,18.77,18.72,18.71,18.71,18.71,18.75,18.81,18.82,18.82,18.82,18.82,18.82,18.74,18.61,18.49,18.39,18.25,18.09,17.94,17.80,17.73,17.57,17.42,17.29,17.20,17.05,16.91,16.80,16.74,16.74,16.74,16.69,16.65
40.37,40.04,39.75,39.55,39.32,39.03,38.72,38.41,38.10,37.79,37.48,37.18,36.83,36.48,36.17,35.80,35.35,34.93,34.53,34.09,33.75,33.38,33.02,32.71,32.36,32.03,31.74,31.51,31.24,30.99,30.74,30.53,30.45,30.28,30.09,29.91,29.75,29.52,29.35,29.27,29.27,29.25,29.19,29.12,29.07,29.05,28.99,28.90,28.81,28.70,28.55,28.39,28.24,28.08,27.93,27.77,27.62,27.46,27.31,27.16,27.00,26.86,26.72,26.56,26.39,26.20,26.05,25.99,25.70,25.45,25.22,25.00,24.85,24.74,24.61,24.48,24.40,24.25,24.10,23.95,23.81,23.66,23.50,23.35,23.19,23.04,22.88,22.73,22.59,22.50,22.34,22.19,22.01,21.80,21.63,21.42,21.24,21.07,20.83,20.68,20.52,20.37,20.24,20.14,20.00,19.91,19.89,19.81,19.80,19.75,19.70,19.70,19.62,19.60,19.58,19.52,19.50,19.50,19.46,19.40,19.40,19.34,19.31,19.30,19.30,19.24,19.22,19.22,19.22,19.20,19.20,19.20,19.20,19.20,19.14,19.12,19.12,19.12,19.12,19.11,19.07,19.02,19.02,19.01,18.96,18.92,18.92,18.90,18.90,18.87,18.82,18.82,18.81,18.77,18.72,18.72,18.71,18.66,18.62,18.62,18.60,18.55,18.51,18.49,18.43,18.42,18.42,18.42,18.42,18.42,18.42,18.42,18.39,18.33,18.32,18.32,18.32,18.32,18.32,18.32,18.32,18.29,18.23,18.22,18.22,18.22,18.22,18.22,18.26,18.31,18.32,18.32,18.32,18.36,18.42,18.42,18.44,18.48,18.52,18.52,18.52,18.52,18.52,18.52,18.52,18.52,18.53,18.56,18.62,18.62,18.62,18.62,18.62,18.64,18.69,18.72,18.72,18.72,18.72,18.76,18.82,18.87,18.88,18.86,18.83,18.78,18.78,18.78,18.82,18.89,18.95,18.95,18.95,18.95,18.95,18.87,18.74,18.59,18.46,18.37,18.22,18.07,17.93,17.85,17.70,17.55,17.40,17.27,17.17,17.08,16.99,16.93,16.93,16.93,16.92,16.89
40.66,40.39,40.14,39.94,39.68,39.35,39.04,38.73,38.40,38.07,37.76,37.45,37.11,36.76,36.42,36.00,35.57,35.15,34.72,34.25,33.91,33.56,33.21,32.86,32.51,32.13,31.79,31.50,31.24,31.01,30.79,30.56,30.32,30.14,29.94,29.76,29.60,29.37,29.20,29.12,29.11,29.08,29.01,28.95,28.91,28.88,28.80,28.75,28.69,28.60,28.48,28.33,28.17,28.02,27.86,27.71,27.56,27.40,27.25,27.09,26.94,26.78,26.62,26.44,26.28,26.10,25.95,25.91,25.67,25.43,25.20,24.98,24.82,24.73,24.61,24.47,24.36,24.24,24.10,23.94,23.78,23.60,23.44,23.28,23.13,22.97,22.85,22.71,22.57,22.46,22.30,22.15,21.97,21.77,21.59,21.36,21.18,21.00,20.77,20.61,20.46,20.30,20.15,20.08,19.96,19.88,19.85,19.80,19.77,19.73,19.70,19.70,19.62,19.60,19.57,19.50,19.50,19.47,19.43,19.40,19.40,19.33,19.30,19.29,19.26,19.21,19.20,19.20,19.20,19.20,19.17,19.16,19.16,19.16,19.11,19.10,19.09,19.06,19.06,19.06,19.04,18.99,18.96,18.96,18.93,18.89,18.86,18.86,18.86,18.84,18.79,18.76,18.76,18.73,18.69,18.66,18.66,18.63,18.59,18.56,18.56,18.50,18.46,18.45,18.40,18.37,18.36,18.36,18.36,18.36,18.36,18.36,18.35,18.27,18.26,18.26,18.26,18.26,18.26,18.26,18.26,18.25,18.17,18.16,18.16,18.16,18.16,18.16,18.21,18.26,18.26,18.26,18.28,18.32,18.36,18.36,18.36,18.39,18.43,18.46,18.46,18.46,18.46,18.46,18.46,18.46,18.46,18.47,18.52,18.55,18.56,18.56,18.56,18.56,18.59,18.63,18.66,18.66,18.69,18.76,18.86,18.94,18.94,18.94,18.92,18.88,18.85,18.84,18.88,18.96,19.03,19.04,19.04,19.04,19.04,18.99,18.87,18.71,18.57,18.49,18.35,18.19,18.05,17.94,17.82,17.68,17.53,17.41,17.34,17.26,17.18,17.12,17.12,17.12,17.12,17.10
40.94,40.72,40.56,40.35,40.04,39.67,39.36,39.05,38.69,38.33,38.02,37.71,37.40,37.06,36.66,36.20,35.80,35.37,34.91,34.45,34.05,33.71,33.38,33.00,32.69,32.32,31.94,31.56,31.25,30.94,30.67,30.44,30.20,29.97,29.79,29.64,29.47,29.24,29.07,28.99,28.97,28.89,28.82,28.79,28.76,28.69,28.61,28.59,28.55,28.48,28.40,28.26,28.11,27.95,27.80,27.65,27.49,27.34,27.18,27.02,26.87,26.71,26.55,26.32,26.15,26.00,25.87,25.79,25.64,25.43,25.20,24.98,24.82,24.73,24.61,24.46,24.31,24.22,24.09,23.94,23.78,23.55,23.38,23.22,23.07,22.91,22.83,22.70,22.55,22.39,22.24,22.09,21.93,21.77,21.54,21.30,21.11,20.94,20.71,20.55,20.39,20.24,20.09,20.01,19.94,19.86,19.80,19.80,19.73,19.70,19.70,19.70,19.62,19.60,19.57,19.50,19.50,19.44,19.40,19.40,19.40,19.33,19.30,19.27,19.20,19.20,19.20,19.20,19.20,19.20,19.13,19.10,19.10,19.10,19.10,19.10,19.07,19.00,19.00,19.00,19.00,18.98,18.90,18.90,18.90,18.87,18.80,18.80,18.80,18.80,18.78,18.71,18.70,18.70,18.67,18.60,18.60,18.60,18.57,18.50,18.50,18.44,18.40,18.40,18.40,18.33,18.30,18.30,18.30,18.30,18.30,18.30,18.28,18.21,18.20,18.20,18.20,18.20,18.20,18.20,18.20,18.19,18.11,18.10,18.10,18.10,18.10,18.10,18.15,18.20,18.20,18.20,18.25,18.30,18.30,18.30,18.30,18.30,18.32,18.39,18.39,18.39,18.39,18.39,18.40,18.40,18.40,18.40,18.40,18.46,18.49,18.50,18.50,18.50,18.50,18.53,18.60,18.60,18.67,18.79,18.92,19.00,19.00,19.00,19.00,19.00,18.92,18.91,18.94,19.02,19.10,19.11,19.11,19.11,19.11,19.10,18.99,18.84,18.70,18.62,18.47,18.32,18.17,18.01,17.93,17.81,17.68,17.60,17.53,17.45,17.37,17.31,17.31,17.31,17.31,17.31
41.34,41.17,41.01,40.72,40.36,39.98,39.62,39.30,38.95,38.58,38.27,38.02,37.69,37.30,36.86,36.45,36.02,35.56,35.10,34.64,34.25,33.88,33.52,33.19,32.83,32.49,32.13,31.75,31.38,31.07,30.74,30.42,30.14,29.91,29.73,29.57,29.41,29.18,28.97,28.84,28.78,28.70,28.67,28.63,28.57,28.50,28.47,28.43,28.36,28.29,28.21,28.15,28.05,27.89,27.74,27.58,27.43,27.27,27.11,26.91,26.74,26.59,26.43,26.25,26.04,25.87,25.74,25.66,25.61,25.43,25.20,24.98,24.82,24.73,24.61,24.46,24.31,24.17,24.03,23.87,23.72,23.54,23.38,23.22,23.07,22.91,22.78,22.64,22.48,22.33,22.23,22.09,21.93,21.77,21.54,21.30,21.09,20.89,20.71,20.50,20.33,20.18,20.03,19.95,19.91,19.86,19.80,19.80,19.78,19.74,19.70,19.70,19.62,19.60,19.57,19.50,19.50,19.44,19.40,19.39,19.33,19.31,19.30,19.27,19.20,19.20,19.16,19.13,19.13,19.13,19.11,19.10,19.10,19.10,19.05,19.03,19.02,18.99,18.94,18.93,18.93,18.91,18.84,18.83,18.83,18.82,18.80,18.80,18.76,18.73,18.73,18.70,18.65,18.63,18.62,18.60,18.55,18.53,18.52,18.49,18.44,18.41,18.37,18.33,18.33,18.31,18.27,18.23,18.23,18.23,18.23,18.23,18.23,18.20,18.15,18.13,18.13,18.13,18.13,18.13,18.13,18.12,18.05,18.03,18.03,18.03,18.03,18.08,18.12,18.13,18.13,18.13,18.19,18.23,18.23,18.23,18.23,18.23,18.24,18.26,18.26,18.26,18.26,18.27,18.32,18.33,18.33,18.33,18.33,18.36,18.40,18.43,18.43,18.43,18.43,18.47,18.54,18.59,18.67,18.79,18.92,19.00,19.05,19.07,19.07,19.07,19.04,18.99,19.01,19.08,19.16,19.22,19.24,19.24,19.23,19.18,19.09,18.97,18.82,18.69,18.58,18.45,18.29,18.14,18.06,17.97,17.87,17.80,17.72,17.64,17.56,17.49,17.44,17.48,17.50,17.50
41.77,41.61,41.41,41.07,40.68,40.29,39.91,39.57,39.22,38.87,38.56,38.31,37.94,37.51,37.05,36.67,36.22,35.76,35.29,34.83,34.44,34.05,33.68,33.35,32.99,32.65,32.30,31.93,31.55,31.21,30.86,30.50,30.14,29.90,29.73,29.56,29.38,29.17,28.95,28.78,28.67,28.55,28.51,28.47,28.41,28.34,28.31,28.25,28.18,28.12,28.05,28.02,27.93,27.80,27.67,27.52,27.35,27.18,27.02,26.81,26.65,26.48,26.30,26.15,25.95,25.77,25.64,25.54,25.54,25.38,25.18,24.98,24.82,24.73,24.61,24.46,24.31,24.13,23.96,23.81,23.66,23.50,23.35,23.19,23.04,22.88,22.73,22.57,22.43,22.30,22.20,22.06,21.90,21.74,21.56,21.34,21.10,20.89,20.71,20.45,20.27,20.11,19.96,19.91,19.90,19.87,19.83,19.80,19.80,19.75,19.70,19.70,19.62,19.60,19.57,19.50,19.50,19.44,19.40,19.38,19.30,19.30,19.28,19.25,19.20,19.20,19.14,19.10,19.10,19.10,19.08,19.07,19.07,19.07,19.02,18.98,18.97,18.96,18.91,18.88,18.87,18.86,18.80,18.80,18.78,18.77,18.77,18.77,18.73,18.69,18.67,18.67,18.62,18.59,18.57,18.57,18.52,18.48,18.47,18.46,18.41,18.38,18.34,18.29,18.27,18.27,18.23,18.19,18.17,18.17,18.17,18.17,18.17,18.17,18.12,18.09,18.07,18.07,18.07,18.07,18.07,18.06,17.98,17.99,17.99,17.97,17.97,18.04,18.07,18.07,18.07,18.09,18.14,18.17,18.17,18.17,18.17,18.17,18.17,18.17,18.17,18.17,18.17,18.17,18.23,18.26,18.27,18.27,18.27,18.27,18.30,18.34,18.37,18.37,18.37,18.41,18.51,18.59,18.67,18.79,18.92,19.00,19.08,19.12,19.14,19.16,19.14,19.07,19.07,19.15,19.23,19.30,19.35,19.36,19.33,19.28,19.21,19.09,18.94,18.79,18.68,18.56,18.43,18.30,18.22,18.14,18.07,17.99,17.91,17.83,17.76,17.68,17.60,17.67,17.71,17.72
42.22,42.05,41.75,41.39,41.00,40.61,40.23,39.84,39.50,39.19,38.88,38.58,38.16,37.70,37.25,36.86,36.41,35.95,35.48,35.02,34.63,34.24,33.86,33.48,33.17,32.80,32.45,32.13,31.74,31.36,31.01,30.66,30.20,29.97,29.79,29.61,29.38,29.23,29.01,28.82,28.65,28.43,28.34,28.31,28.28,28.21,28.13,28.06,28.01,28.00,27.92,27.85,27.77,27.69,27.61,27.45,27.25,27.05,26.89,26.74,26.58,26.39,26.18,26.02,25.86,25.71,25.56,25.41,25.41,25.29,25.14,24.98,24.82,24.73,24.61,24.46,24.31,24.08,23.90,23.75,23.59,23.44,23.28,23.13,22.97,22.82,22.66,22.51,22.38,22.30,22.15,21.99,21.84,21.69,21.61,21.40,21.17,20.94,20.71,20.41,20.20,20.05,19.90,19.90,19.90,19.90,19.88,19.81,19.80,19.75,19.70,19.70,19.62,19.60,19.57,19.50,19.50,19.44,19.40,19.38,19.30,19.30,19.25,19.20,19.20,19.20,19.14,19.10,19.10,19.10,19.03,19.00,19.00,19.00,19.00,18.95,18.90,18.90,18.90,18.84,18.80,18.80,18.80,18.80,18.75,18.70,18.70,18.70,18.70,18.67,18.60,18.60,18.60,18.56,18.50,18.50,18.50,18.45,18.40,18.40,18.40,18.34,18.30,18.28,18.21,18.20,18.20,18.17,18.10,18.10,18.10,18.10,18.10,18.10,18.10,18.06,18.00,18.00,18.00,18.00,18.00,18.00,17.92,17.96,17.96,17.90,17.90,17.98,18.00,18.00,18.01,18.08,18.10,18.10,18.10,18.10,18.10,18.10,18.10,18.10,18.10,18.10,18.10,18.10,18.11,18.17,18.20,18.20,18.20,18.20,18.21,18.23,18.30,18.30,18.30,18.37,18.51,18.59,18.67,18.79,18.92,19.00,19.08,19.15,19.22,19.28,19.21,19.13,19.13,19.21,19.29,19.37,19.44,19.47,19.40,19.39,19.33,19.22,19.07,18.91,18.76,18.65,18.57,18.49,18.41,18.33,18.26,18.18,18.10,18.03,17.95,17.87,17.79,17.86,17.93,17.96
42.69,42.44,42.08,41.71,41.32,40.94,40.60,40.30,39.92,39.50,39.14,38.79,38.36,37.91,37.49,37.06,36.60,36.14,35.69,35.27,34.84,34.41,34.00,33.66,33.31,32.96,32.62,32.26,31.87,31.49,31.12,30.74,30.33,30.05,29.82,29.63,29.44,29.24,29.05,28.86,28.66,28.47,28.30,28.18,28.11,28.08,28.00,27.92,27.86,27.81,27.73,27.69,27.64,27.56,27.48,27.33,27.15,26.98,26.82,26.62,26.46,26.29,26.10,25.90,25.74,25.59,25.43,25.28,25.28,25.24,25.13,24.98,24.82,24.70,24.55,24.40,24.25,24.06,23.90,23.72,23.53,23.37,23.22,23.06,22.91,22.76,22.64,22.51,22.36,22.24,22.08,21.96,21.83,21.68,21.56,21.38,21.17,20.94,20.71,20.45,20.23,20.06,19.96,19.91,19.90,19.90,19.89,19.81,19.80,19.75,19.70,19.70,19.62,19.60,19.57,19.50,19.50,19.44,19.38,19.33,19.30,19.30,19.25,19.20,19.20,19.15,19.12,19.10,19.09,19.05,19.01,19.00,18.99,18.94,18.94,18.92,18.88,18.84,18.84,18.81,18.78,18.74,18.74,18.74,18.72,18.70,18.70,18.65,18.64,18.63,18.59,18.55,18.54,18.52,18.49,18.44,18.44,18.42,18.38,18.34,18.34,18.28,18.24,18.23,18.20,18.16,18.14,18.11,18.04,18.04,18.04,18.04,18.04,18.04,18.04,18.00,17.94,17.94,17.94,17.94,17.94,17.94,17.91,17.89,17.86,17.85,17.90,17.93,17.94,17.94,17.94,18.02,18.01,18.00,18.04,18.04,18.04,18.04,18.04,18.04,18.04,18.04,18.04,18.04,18.04,18.07,18.10,18.14,18.14,18.14,18.14,18.15,18.18,18.23,18.27,18.37,18.51,18.59,18.67,18.79,18.92,19.00,19.12,19.21,19.29,19.36,19.33,19.26,19.23,19.28,19.35,19.43,19.51,19.55,19.52,19.52,19.43,19.31,19.20,19.04,18.89,18.80,18.76,18.68,18.60,18.53,18.45,18.37,18.29,18.22,18.14,18.06,17.99,18.05,18.13,18.17
43.13,42.80,42.41,42.04,41.67,41.32,41.02,40.79,40.42,39.93,39.40,38.99,38.55,38.12,37.72,37.26,36.80,36.33,35.89,35.50,35.04,34.58,34.16,33.83,33.46,33.13,32.77,32.39,32.00,31.61,31.23,30.84,30.45,30.14,29.88,29.66,29.48,29.27,29.08,28.89,28.69,28.54,28.31,28.13,28.01,27.95,27.87,27.80,27.72,27.64,27.56,27.54,27.50,27.43,27.36,27.22,27.08,26.93,26.76,26.54,26.36,26.20,26.03,25.80,25.64,25.47,25.30,25.15,25.15,25.15,25.09,24.96,24.82,24.65,24.49,24.34,24.18,24.03,23.87,23.70,23.49,23.33,23.18,23.02,22.87,22.71,22.61,22.48,22.33,22.17,22.04,21.93,21.81,21.66,21.50,21.36,21.17,20.94,20.71,20.48,20.25,20.08,20.02,19.94,19.91,19.90,19.89,19.81,19.80,19.75,19.70,19.70,19.62,19.59,19.55,19.50,19.48,19.43,19.36,19.30,19.30,19.28,19.24,19.20,19.19,19.12,19.10,19.09,19.07,19.01,19.00,18.99,18.96,18.90,18.88,18.88,18.85,18.80,18.78,18.78,18.75,18.70,18.68,18.68,18.68,18.68,18.67,18.61,18.59,18.58,18.57,18.51,18.48,18.48,18.46,18.40,18.38,18.38,18.35,18.30,18.28,18.23,18.19,18.18,18.18,18.12,18.09,18.06,18.00,17.98,17.98,17.98,17.98,17.98,17.98,17.94,17.89,17.88,17.88,17.88,17.88,17.88,17.88,17.81,17.79,17.81,17.87,17.86,17.86,17.88,17.88,17.94,17.91,17.90,17.95,17.95,17.95,17.95,17.95,17.95,17.97,17.98,17.98,17.98,17.98,17.98,18.01,18.06,18.08,18.08,18.08,18.08,18.10,18.18,18.27,18.38,18.51,18.59,18.68,18.80,18.92,19.00,19.15,19.25,19.33,19.40,19.42,19.36,19.32,19.34,19.42,19.49,19.57,19.63,19.65,19.65,19.53,19.40,19.30,19.17,19.05,18.98,18.95,18.87,18.80,18.72,18.64,18.56,18.49,18.41,18.33,18.25,18.18,18.24,18.31,18.35
43.49,43.12,42.73,42.40,42.08,41.77,41.53,41.30,41.04,40.59,39.66,39.20,38.74,38.31,37.91,37.45,36.99,36.52,36.08,35.69,35.23,34.77,34.34,33.96,33.64,33.28,32.90,32.51,32.13,31.74,31.35,30.97,30.58,30.27,29.97,29.70,29.48,29.32,29.11,28.92,28.75,28.60,28.37,28.19,28.02,27.82,27.75,27.67,27.59,27.51,27.44,27.37,27.33,27.30,27.23,27.14,27.05,26.91,26.70,26.53,26.32,26.14,25.96,25.73,25.57,25.38,25.18,25.03,25.03,25.03,24.99,24.90,24.81,24.61,24.43,24.27,24.12,23.96,23.81,23.65,23.49,23.33,23.18,23.02,22.87,22.71,22.57,22.42,22.26,22.11,22.02,21.89,21.75,21.59,21.44,21.34,21.17,20.94,20.71,20.48,20.25,20.10,20.08,20.00,19.93,19.90,19.89,19.81,19.80,19.75,19.70,19.70,19.62,19.55,19.51,19.49,19.42,19.40,19.36,19.30,19.30,19.24,19.21,19.20,19.19,19.12,19.10,19.07,19.01,19.00,19.00,18.96,18.91,18.90,18.83,18.81,18.81,18.79,18.72,18.71,18.71,18.68,18.62,18.61,18.61,18.61,18.61,18.60,18.55,18.51,18.51,18.50,18.44,18.41,18.41,18.40,18.33,18.31,18.31,18.29,18.22,18.20,18.16,18.11,18.11,18.10,18.06,18.01,18.00,17.93,17.91,17.91,17.91,17.91,17.91,17.91,17.88,17.81,17.81,17.81,17.81,17.81,17.81,17.75,17.75,17.80,17.81,17.75,17.77,17.81,17.81,17.82,17.82,17.82,17.83,17.83,17.83,17.83,17.83,17.83,17.89,17.91,17.91,17.91,17.91,17.91,17.92,17.94,18.01,18.01,18.01,18.04,18.10,18.18,18.31,18.43,18.51,18.59,18.72,18.84,18.92,19.00,19.15,19.25,19.33,19.41,19.47,19.43,19.39,19.40,19.48,19.56,19.64,19.71,19.77,19.77,19.66,19.51,19.37,19.29,19.26,19.21,19.14,19.06,18.99,18.91,18.83,18.76,18.68,18.60,18.52,18.45,18.37,18.43,18.47,18.50
43.89,43.54,43.19,42.88,42.57,42.27,42.04,41.84,41.51,40.90,39.82,39.34,38.91,38.48,38.05,37.59,37.16,36.72,36.26,35.83,35.37,34.93,34.52,34.14,33.79,33.38,32.98,32.59,32.20,31.82,31.45,31.10,30.71,30.36,30.04,29.76,29.54,29.38,29.17,28.97,28.81,28.62,28.42,28.23,28.04,27.85,27.69,27.56,27.46,27.39,27.31,27.23,27.18,27.13,27.05,26.97,26.89,26.79,26.63,26.48,26.30,26.10,25.91,25.72,25.52,25.33,25.14,24.95,24.91,24.87,24.81,24.74,24.70,24.57,24.41,24.25,24.06,23.90,23.75,23.59,23.44,23.28,23.13,22.97,22.82,22.66,22.51,22.38,22.25,22.10,21.98,21.84,21.70,21.58,21.42,21.30,21.14,20.94,20.71,20.48,20.27,20.15,20.14,20.03,19.94,19.90,19.89,19.81,19.80,19.75,19.69,19.65,19.61,19.54,19.50,19.49,19.41,19.40,19.36,19.30,19.30,19.23,19.20,19.19,19.15,19.11,19.10,19.06,19.00,19.00,18.96,18.93,18.90,18.90,18.82,18.80,18.78,18.74,18.71,18.67,18.65,18.64,18.60,18.60,18.57,18.55,18.55,18.55,18.52,18.48,18.45,18.45,18.42,18.38,18.35,18.35,18.31,18.27,18.25,18.24,18.21,18.17,18.13,18.09,18.05,18.05,18.02,17.99,17.95,17.91,17.87,17.85,17.85,17.85,17.85,17.85,17.84,17.80,17.76,17.75,17.75,17.75,17.75,17.69,17.69,17.75,17.75,17.71,17.72,17.75,17.75,17.75,17.75,17.75,17.75,17.75,17.75,17.75,17.75,17.75,17.79,17.80,17.81,17.85,17.85,17.85,17.85,17.86,17.89,17.93,17.97,18.03,18.10,18.18,18.32,18.43,18.51,18.59,18.73,18.84,18.92,19.00,19.15,19.25,19.33,19.41,19.48,19.50,19.48,19.47,19.54,19.62,19.70,19.78,19.85,19.85,19.77,19.65,19.55,19.51,19.47,19.41,19.33,19.26,19.18,19.10,19.02,18.95,18.87,18.79,18.72,18.64,18.56,18.59,18.63,18.68
44.30,43.99,43.68,43.37,43.07,42.79,42.58,42.43,41.96,41.13,39.96,39.46,39.04,38.62,38.17,37.70,37.29,36.86,36.40,35.95,35.51,35.12,34.74,34.34,33.95,33.51,33.09,32.70,32.31,31.92,31.56,31.22,30.84,30.45,30.10,29.81,29.60,29.43,29.22,29.03,28.85,28.63,28.46,28.26,28.06,27.91,27.68,27.50,27.37,27.27,27.18,27.10,27.03,26.95,26.87,26.79,26.72,26.64,26.56,26.41,26.27,26.08,25.87,25.71,25.49,25.30,25.13,24.90,24.80,24.70,24.62,24.55,24.55,24.49,24.38,24.22,24.01,23.85,23.70,23.54,23.37,23.22,23.06,22.91,22.75,22.60,22.46,22.35,22.24,22.08,21.93,21.78,21.66,21.56,21.41,21.25,21.11,20.94,20.71,20.48,20.31,20.21,20.17,20.03,19.94,19.89,19.87,19.81,19.79,19.75,19.68,19.60,19.60,19.54,19.50,19.48,19.41,19.39,19.35,19.30,19.29,19.22,19.20,19.17,19.10,19.10,19.09,19.05,19.00,19.00,18.93,18.90,18.90,18.88,18.82,18.79,18.76,18.70,18.70,18.64,18.60,18.60,18.59,18.58,18.54,18.50,18.50,18.49,18.48,18.45,18.40,18.39,18.38,18.35,18.30,18.28,18.28,18.24,18.20,18.18,18.18,18.12,18.08,18.07,18.00,17.99,17.98,17.96,17.88,17.88,17.84,17.79,17.78,17.78,17.78,17.78,17.78,17.78,17.71,17.68,17.68,17.68,17.68,17.63,17.63,17.68,17.67,17.68,17.68,17.68,17.68,17.68,17.68,17.68,17.68,17.68,17.68,17.68,17.68,17.68,17.68,17.68,17.71,17.77,17.78,17.78,17.78,17.78,17.78,17.86,17.94,18.03,18.10,18.18,18.32,18.43,18.51,18.59,18.73,18.84,18.92,19.00,19.15,19.25,19.33,19.41,19.50,19.58,19.58,19.54,19.61,19.69,19.76,19.91,20.19,20.27,20.19,20.05,19.90,19.82,19.70,19.60,19.52,19.45,19.37,19.29,19.22,19.14,19.06,18.98,18.91,18.83,18.75,18.75,18.79,18.87
44.75,44.44,44.13,43.82,43.54,43.31,43.20,43.11,42.47,41.37,40.15,39.56,39.07,38.64,38.23,37.77,37.32,36.86,36.41,36.01,35.66,35.37,35.04,34.60,34.15,33.74,33.34,32.95,32.57,32.13,31.73,31.35,30.97,30.58,30.16,29.83,29.66,29.44,29.26,29.07,28.86,28.69,28.48,28.29,28.13,27.97,27.74,27.56,27.39,27.20,27.06,26.98,26.90,26.82,26.74,26.67,26.59,26.51,26.43,26.34,26.25,26.08,25.87,25.71,25.49,25.30,25.13,24.89,24.70,24.54,24.43,24.36,24.36,24.30,24.21,24.11,24.00,23.85,23.70,23.52,23.31,23.15,23.00,22.84,22.69,22.54,22.44,22.32,22.17,22.02,21.86,21.75,21.64,21.50,21.35,21.19,21.07,20.94,20.71,20.48,20.34,20.23,20.11,20.02,19.94,19.87,19.82,19.80,19.75,19.71,19.68,19.60,19.60,19.54,19.47,19.42,19.40,19.35,19.31,19.28,19.22,19.21,19.20,19.17,19.10,19.10,19.05,19.01,19.00,19.00,18.93,18.90,18.88,18.82,18.80,18.76,18.71,18.70,18.70,18.64,18.60,18.59,18.52,18.52,18.51,18.50,18.50,18.44,18.42,18.41,18.39,18.33,18.32,18.31,18.28,18.22,18.22,18.21,18.17,18.12,18.12,18.06,18.02,18.02,18.00,17.94,17.92,17.89,17.82,17.82,17.81,17.77,17.72,17.72,17.72,17.72,17.72,17.72,17.64,17.62,17.62,17.62,17.62,17.61,17.61,17.61,17.55,17.60,17.62,17.62,17.62,17.62,17.62,17.62,17.62,17.62,17.62,17.62,17.62,17.62,17.62,17.62,17.63,17.65,17.71,17.72,17.72,17.72,17.72,17.79,17.91,18.03,18.10,18.18,18.32,18.43,18.51,18.59,18.73,18.84,18.92,19.00,19.15,19.25,19.33,19.41,19.55,19.64,19.67,19.66,19.68,19.75,19.83,20.26,21.42,21.84,21.67,21.24,20.74,20.32,19.98,19.79,19.72,19.64,19.56,19.48,19.41,19.33,19.25,19.18,19.10,19.02,18.94,18.94,18.98,19.06
45.24,44.93,44.62,44.31,44.08,43.97,43.96,43.63,42.78,41.57,40.30,39.64,39.12,38.68,38.25,37.79,37.35,36.94,36.56,36.24,35.99,35.69,35.32,34.85,34.39,33.98,33.58,33.17,32.78,32.36,31.95,31.56,31.14,30.69,30.20,29.84,29.68,29.45,29.28,29.08,28.87,28.71,28.49,28.30,28.14,27.95,27.75,27.59,27.40,27.18,27.02,26.88,26.77,26.69,26.62,26.54,26.46,26.38,26.31,26.23,26.15,26.03,25.86,25.67,25.48,25.28,25.09,24.89,24.66,24.49,24.37,24.29,24.22,24.12,24.03,23.95,23.87,23.79,23.65,23.48,23.29,23.13,22.95,22.80,22.67,22.51,22.40,22.26,22.12,22.00,21.84,21.72,21.59,21.44,21.32,21.17,21.04,20.91,20.71,20.48,20.35,20.24,20.09,19.98,19.92,19.86,19.80,19.80,19.73,19.70,19.68,19.60,19.57,19.53,19.47,19.40,19.40,19.34,19.30,19.28,19.20,19.20,19.18,19.14,19.10,19.10,19.04,19.00,18.99,18.96,18.92,18.90,18.88,18.80,18.80,18.75,18.70,18.70,18.66,18.62,18.60,18.58,18.50,18.50,18.48,18.46,18.45,18.41,18.37,18.36,18.35,18.31,18.27,18.26,18.24,18.20,18.17,18.16,18.14,18.10,18.06,18.02,17.98,17.96,17.96,17.92,17.88,17.84,17.80,17.77,17.76,17.74,17.69,17.66,17.66,17.66,17.66,17.66,17.58,17.56,17.56,17.56,17.56,17.56,17.54,17.51,17.50,17.54,17.56,17.56,17.56,17.56,17.53,17.53,17.56,17.56,17.56,17.56,17.56,17.56,17.56,17.56,17.56,17.56,17.61,17.64,17.66,17.66,17.70,17.77,17.90,18.03,18.10,18.18,18.32,18.43,18.51,18.59,18.73,18.84,18.93,19.04,19.16,19.25,19.34,19.45,19.58,19.66,19.72,19.74,19.74,19.81,20.45,21.59,23.06,23.60,23.40,22.87,22.27,21.72,21.23,20.75,20.32,20.01,19.80,19.68,19.60,19.52,19.44,19.37,19.29,19.21,19.14,19.13,19.18,19.25
45.75,45.43,45.12,44.83,44.68,44.70,44.77,44.08,43.02,41.75,40.44,39.72,39.18,38.72,38.26,37.80,37.41,37.08,36.80,36.57,36.40,36.04,35.58,35.11,34.64,34.23,33.81,33.37,32.98,32.59,32.20,31.78,31.31,30.76,30.23,29.84,29.67,29.44,29.27,29.08,28.87,28.71,28.49,28.30,28.12,27.89,27.74,27.58,27.39,27.18,27.02,26.80,26.65,26.57,26.49,26.41,26.33,26.26,26.18,26.10,26.02,25.94,25.83,25.61,25.46,25.26,25.05,24.89,24.67,24.49,24.37,24.28,24.12,23.97,23.86,23.78,23.70,23.68,23.58,23.43,23.28,23.13,22.91,22.76,22.66,22.51,22.35,22.20,22.07,21.99,21.84,21.68,21.53,21.39,21.31,21.16,21.01,20.86,20.71,20.48,20.35,20.23,20.08,19.93,19.90,19.86,19.80,19.79,19.73,19.70,19.67,19.60,19.52,19.50,19.47,19.40,19.40,19.34,19.30,19.28,19.20,19.20,19.15,19.10,19.10,19.09,19.04,19.00,18.99,18.91,18.90,18.90,18.87,18.80,18.80,18.75,18.70,18.69,18.61,18.60,18.60,18.58,18.50,18.49,18.45,18.40,18.39,18.39,18.34,18.30,18.29,18.29,18.23,18.20,18.19,18.19,18.12,18.10,18.09,18.08,18.01,17.99,17.96,17.90,17.89,17.89,17.85,17.80,17.79,17.72,17.70,17.69,17.68,17.61,17.60,17.59,17.59,17.59,17.52,17.49,17.49,17.49,17.49,17.49,17.45,17.41,17.49,17.49,17.49,17.49,17.49,17.49,17.43,17.43,17.49,17.49,17.49,17.49,17.49,17.49,17.49,17.49,17.49,17.49,17.49,17.55,17.59,17.62,17.69,17.78,17.90,18.03,18.10,18.19,18.32,18.43,18.51,18.60,18.74,18.84,18.94,19.10,19.18,19.25,19.36,19.51,19.58,19.66,19.74,19.81,19.81,20.00,21.46,23.45,24.96,25.47,25.26,24.72,24.11,23.53,22.90,22.04,21.12,20.51,20.13,19.94,19.84,19.74,19.64,19.56,19.48,19.40,19.33,19.32,19.36,19.44
46.24,45.88,45.57,45.43,45.40,45.46,45.54,44.54,43.28,41.94,40.63,39.82,39.21,38.74,38.33,37.92,37.66,37.45,37.26,37.08,36.77,36.36,35.88,35.36,34.84,34.42,34.03,33.62,33.24,32.85,32.37,31.83,31.31,30.72,30.20,29.82,29.61,29.44,29.23,29.04,28.87,28.71,28.49,28.30,28.12,27.89,27.74,27.55,27.35,27.17,26.96,26.78,26.63,26.49,26.36,26.28,26.21,26.13,26.05,25.91,25.83,25.75,25.66,25.54,25.44,25.26,25.05,24.90,24.72,24.56,24.41,24.28,24.12,23.97,23.86,23.77,23.63,23.52,23.42,23.32,23.22,23.06,22.89,22.73,22.60,22.44,22.29,22.17,22.06,21.93,21.77,21.62,21.49,21.38,21.25,21.10,20.94,20.80,20.70,20.53,20.35,20.15,19.96,19.91,19.86,19.82,19.79,19.73,19.71,19.67,19.62,19.60,19.52,19.50,19.47,19.40,19.40,19.34,19.30,19.28,19.20,19.20,19.15,19.10,19.10,19.04,19.01,19.00,18.99,18.91,18.90,18.87,18.82,18.80,18.80,18.75,18.70,18.69,18.61,18.60,18.57,18.52,18.50,18.45,18.41,18.38,18.33,18.33,18.31,18.27,18.23,18.23,18.21,18.17,18.13,18.13,18.11,18.06,18.03,18.02,17.94,17.93,17.92,17.89,17.83,17.83,17.81,17.78,17.73,17.71,17.66,17.63,17.63,17.60,17.55,17.53,17.53,17.53,17.45,17.43,17.43,17.43,17.43,17.43,17.39,17.35,17.42,17.38,17.36,17.36,17.36,17.36,17.34,17.34,17.36,17.36,17.36,17.36,17.36,17.36,17.41,17.43,17.43,17.43,17.43,17.45,17.51,17.62,17.69,17.82,17.93,18.03,18.11,18.24,18.35,18.43,18.52,18.65,18.76,18.84,18.94,19.10,19.18,19.25,19.36,19.51,19.58,19.66,19.77,19.87,19.87,21.19,23.42,25.75,27.25,27.47,27.10,26.51,25.85,24.98,24.05,22.95,21.91,21.41,21.07,20.76,20.47,20.17,19.87,19.75,19.67,19.60,19.52,19.51,19.53,19.57
46.72,46.36,46.05,46.04,46.13,46.23,46.31,45.24,43.87,42.42,41.00,39.98,39.29,38.85,38.54,38.24,38.03,37.86,37.70,37.52,37.10,36.65,36.16,35.62,35.10,34.66,34.26,33.87,33.43,32.99,32.45,31.84,31.24,30.60,30.11,29.79,29.59,29.43,29.21,29.02,28.86,28.68,28.48,28.29,28.10,27.89,27.71,27.51,27.32,27.13,26.93,26.77,26.61,26.46,26.30,26.17,26.08,26.00,25.92,25.79,25.70,25.63,25.54,25.44,25.36,25.22,25.04,24.86,24.73,24.59,24.43,24.28,24.12,23.99,23.88,23.76,23.61,23.45,23.33,23.24,23.15,23.00,22.84,22.69,22.54,22.41,22.26,22.14,22.03,21.90,21.74,21.59,21.46,21.35,21.22,21.07,20.92,20.78,20.70,20.50,20.28,20.06,19.90,19.90,19.84,19.80,19.79,19.71,19.70,19.65,19.60,19.60,19.52,19.48,19.44,19.40,19.37,19.32,19.29,19.25,19.20,19.20,19.15,19.10,19.09,19.02,19.00,18.99,18.96,18.91,18.90,18.85,18.80,18.80,18.77,18.73,18.69,18.66,18.61,18.58,18.54,18.49,18.47,18.42,18.38,18.35,18.30,18.30,18.28,18.24,18.20,18.20,18.18,18.14,18.09,18.07,18.07,18.03,17.99,17.96,17.91,17.88,17.87,17.85,17.80,17.77,17.77,17.74,17.67,17.67,17.63,17.59,17.57,17.57,17.50,17.47,17.47,17.47,17.39,17.37,17.37,17.37,17.37,17.34,17.30,17.28,17.33,17.28,17.27,17.27,17.27,17.27,17.27,17.27,17.27,17.27,17.27,17.27,17.27,17.27,17.32,17.35,17.37,17.37,17.37,17.41,17.50,17.62,17.69,17.84,17.95,18.03,18.11,18.26,18.36,18.43,18.52,18.68,18.77,18.84,18.94,19.10,19.18,19.25,19.36,19.51,19.58,19.66,19.78,20.01,20.55,23.07,25.79,28.04,29.27,29.19,28.71,28.02,27.21,26.20,25.06,23.82,22.74,22.33,21.99,21.62,21.24,20.85,20.47,20.22,20.05,19.93,19.85,19.84,19.84,19.88
47.18,46.87,46.56,46.66,46.86,47.00,47.07,46.14,44.75,43.13,41.51,40.20,39.42,39.03,38.88,38.72,38.50,38.31,38.14,37.91,37.39,36.90,36.41,35.87,35.41,34.95,34.52,34.11,33.57,33.03,32.45,31.81,31.12,30.42,29.99,29.74,29.59,29.43,29.21,29.02,28.85,28.62,28.46,28.26,28.05,27.89,27.66,27.49,27.30,27.08,26.92,26.77,26.61,26.46,26.30,26.08,25.95,25.87,25.80,25.72,25.64,25.56,25.47,25.32,25.23,25.15,25.03,24.80,24.72,24.59,24.43,24.28,24.12,24.03,23.91,23.76,23.61,23.45,23.30,23.17,23.09,22.93,22.78,22.63,22.49,22.41,22.26,22.11,21.98,21.90,21.74,21.59,21.43,21.29,21.21,21.07,20.92,20.78,20.70,20.41,20.15,19.97,19.90,19.90,19.84,19.80,19.79,19.71,19.70,19.65,19.60,19.60,19.52,19.45,19.40,19.39,19.31,19.30,19.26,19.20,19.20,19.20,19.15,19.10,19.09,19.02,19.00,18.96,18.90,18.90,18.90,18.85,18.80,18.80,18.72,18.70,18.67,18.60,18.60,18.54,18.50,18.48,18.41,18.40,18.35,18.30,18.30,18.30,18.24,18.20,18.20,18.20,18.13,18.10,18.08,18.00,18.00,18.00,17.97,17.90,17.90,17.84,17.80,17.80,17.80,17.73,17.70,17.67,17.60,17.60,17.60,17.56,17.50,17.50,17.43,17.40,17.40,17.40,17.32,17.30,17.30,17.30,17.30,17.24,17.20,17.20,17.20,17.20,17.20,17.20,17.20,17.20,17.20,17.20,17.20,17.20,17.20,17.20,17.20,17.20,17.20,17.26,17.30,17.30,17.30,17.42,17.54,17.62,17.69,17.84,17.95,18.03,18.11,18.26,18.36,18.43,18.52,18.68,18.77,18.84,18.94,19.10,19.18,19.25,19.36,19.51,19.58,19.66,19.78,20.22,21.74,25.53,28.48,30.30,31.05,30.67,30.11,29.29,28.23,27.22,25.96,24.65,23.60,23.29,22.91,22.52,22.13,21.75,21.36,20.92,20.57,20.37,20.30,20.29,20.29,20.34
47.69,47.39,47.23,47.36,47.58,47.77,47.90,47.05,45.70,44.12,42.64,41.23,40.19,39.56,39.32,39.17,38.99,38.77,38.50,38.17,37.65,37.16,36.67,36.13,35.67,35.17,34.63,34.04,33.46,32.82,32.20,31.56,30.86,30.22,29.83,29.61,29.46,29.31,29.13,28.96,28.80,28.61,28.41,28.22,28.05,27.89,27.66,27.49,27.30,27.08,26.92,26.77,26.61,26.45,26.24,26.06,25.91,25.81,25.73,25.60,25.51,25.44,25.35,25.25,25.17,25.06,24.92,24.73,24.61,24.50,24.37,24.22,24.06,23.93,23.79,23.65,23.54,23.39,23.23,23.09,22.96,22.81,22.69,22.56,22.42,22.34,22.24,22.11,21.98,21.90,21.74,21.59,21.45,21.35,21.22,21.07,20.92,20.77,20.64,20.29,20.05,19.93,19.90,19.85,19.81,19.78,19.73,19.70,19.66,19.62,19.59,19.54,19.51,19.44,19.40,19.39,19.31,19.30,19.26,19.20,19.20,19.15,19.12,19.10,19.09,19.02,19.00,18.96,18.90,18.90,18.86,18.82,18.79,18.74,18.71,18.67,18.63,18.59,18.55,18.51,18.47,18.43,18.40,18.35,18.32,18.30,18.30,18.25,18.22,18.18,18.14,18.14,18.11,18.07,18.03,18.00,17.95,17.94,17.91,17.84,17.84,17.81,17.77,17.74,17.74,17.71,17.67,17.63,17.60,17.55,17.54,17.52,17.49,17.44,17.41,17.37,17.34,17.34,17.31,17.27,17.24,17.23,17.18,17.15,17.14,17.14,17.14,17.14,17.14,17.14,17.14,17.14,17.14,17.14,17.14,17.14,17.14,17.14,17.14,17.14,17.14,17.16,17.19,17.24,17.29,17.42,17.54,17.62,17.69,17.84,17.95,18.03,18.11,18.26,18.36,18.43,18.52,18.68,18.77,18.84,18.94,19.10,19.18,19.25,19.34,19.45,19.57,19.66,19.78,20.46,23.11,27.28,29.87,31.02,31.34,31.05,30.73,30.16,29.24,28.14,26.81,25.53,24.54,24.19,23.80,23.41,23.03,22.62,22.05,21.52,21.22,21.14,21.12,21.16,21.15,21.16
48.16,47.89,47.89,48.08,48.33,48.57,48.72,47.99,46.75,45.25,43.82,42.35,41.17,40.36,39.95,39.71,39.47,39.20,38.86,38.44,37.92,37.44,36.94,36.38,35.88,35.33,34.71,34.03,33.39,32.72,32.06,31.41,30.71,30.09,29.76,29.56,29.39,29.23,29.06,28.90,28.74,28.59,28.38,28.20,28.04,27.87,27.65,27.47,27.28,27.08,26.92,26.77,26.60,26.42,26.21,26.05,25.90,25.75,25.64,25.50,25.41,25.32,25.23,25.15,25.08,24.95,24.80,24.67,24.51,24.40,24.28,24.12,23.97,23.83,23.69,23.55,23.45,23.30,23.14,23.00,22.86,22.71,22.60,22.47,22.33,22.25,22.16,22.04,21.92,21.84,21.71,21.58,21.47,21.38,21.22,21.07,20.93,20.77,20.53,20.17,19.97,19.89,19.87,19.81,19.80,19.76,19.70,19.70,19.63,19.60,19.58,19.50,19.50,19.44,19.39,19.37,19.31,19.28,19.24,19.20,19.20,19.13,19.10,19.09,19.07,19.01,18.98,18.95,18.90,18.88,18.82,18.79,18.76,18.70,18.68,18.63,18.59,18.57,18.51,18.48,18.44,18.40,18.37,18.32,18.29,18.27,18.27,18.21,18.18,18.15,18.10,18.10,18.08,18.04,17.99,17.97,17.92,17.89,17.85,17.80,17.78,17.77,17.74,17.70,17.67,17.67,17.64,17.59,17.57,17.51,17.48,17.47,17.46,17.41,17.38,17.34,17.29,17.27,17.27,17.23,17.19,17.17,17.11,17.10,17.09,17.07,17.07,17.07,17.06,17.05,17.05,17.05,17.05,17.05,17.05,17.07,17.07,17.07,17.07,17.07,17.07,17.09,17.13,17.21,17.29,17.42,17.54,17.62,17.69,17.84,17.95,18.03,18.11,18.26,18.36,18.43,18.52,18.68,18.75,18.82,18.91,19.04,19.14,19.24,19.33,19.41,19.55,19.65,19.78,20.56,23.67,27.93,30.39,31.33,31.52,31.33,31.15,30.76,30.05,28.97,27.63,26.39,25.47,25.08,24.69,24.28,23.83,23.32,22.58,22.10,21.90,21.92,21.92,21.99,21.99,22.01
48.56,48.34,48.54,48.82,49.12,49.40,49.55,48.95,47.91,46.57,45.04,43.57,42.42,41.52,40.82,40.39,39.95,39.58,39.23,38.70,38.23,37.76,37.25,36.64,36.03,35.42,34.78,34.08,33.39,32.76,32.10,31.41,30.71,30.09,29.79,29.60,29.39,29.23,29.02,28.83,28.68,28.52,28.36,28.20,28.03,27.80,27.64,27.43,27.24,27.08,26.92,26.77,26.57,26.37,26.20,26.05,25.90,25.72,25.51,25.43,25.35,25.24,25.10,25.03,24.95,24.82,24.69,24.61,24.45,24.30,24.15,24.00,23.84,23.75,23.62,23.47,23.32,23.17,23.02,22.89,22.80,22.64,22.49,22.34,22.20,22.13,21.99,21.88,21.79,21.72,21.63,21.55,21.47,21.38,21.22,21.07,20.95,20.78,20.35,20.03,19.91,19.87,19.81,19.80,19.80,19.76,19.70,19.70,19.63,19.60,19.58,19.50,19.50,19.44,19.37,19.31,19.30,19.24,19.21,19.20,19.20,19.13,19.10,19.07,19.01,19.00,18.95,18.91,18.89,18.82,18.80,18.76,18.71,18.70,18.63,18.60,18.57,18.51,18.50,18.44,18.41,18.38,18.31,18.30,18.25,18.21,18.21,18.20,18.15,18.11,18.10,18.10,18.04,18.01,17.98,17.91,17.90,17.85,17.81,17.79,17.72,17.71,17.71,17.68,17.61,17.61,17.60,17.58,17.51,17.50,17.45,17.41,17.41,17.40,17.34,17.31,17.28,17.21,17.21,17.20,17.17,17.11,17.10,17.10,17.06,17.01,17.01,17.01,16.97,16.92,16.92,16.92,16.92,16.92,16.93,17.00,17.01,17.01,17.01,17.01,17.01,17.06,17.13,17.21,17.29,17.42,17.54,17.62,17.69,17.84,17.95,18.03,18.11,18.26,18.36,18.43,18.52,18.68,18.71,18.75,18.83,18.92,19.06,19.21,19.33,19.41,19.49,19.63,19.78,20.45,23.08,27.02,29.70,31.11,31.59,31.50,31.31,31.02,30.59,29.71,28.40,27.21,26.36,25.98,25.59,25.11,24.50,23.76,22.92,22.65,22.63,22.68,22.68,22.75,22.82,22.87
49.11,49.06,49.29,49.65,50.00,50.28,50.44,49.89,48.97,47.74,46.20,44.81,43.66,42.69,41.86,41.27,40.68,40.11,39.56,39.06,38.52,37.95,37.35,36.73,36.11,35.49,34.84,34.15,33.50,32.84,32.18,31.52,30.82,30.20,29.85,29.63,29.44,29.28,29.07,28.88,28.71,28.52,28.36,28.18,27.98,27.79,27.60,27.41,27.23,27.08,26.92,26.73,26.54,26.36,26.20,26.05,25.87,25.67,25.49,25.37,25.25,25.14,25.02,24.90,24.78,24.67,24.57,24.49,24.33,24.18,24.04,23.92,23.77,23.64,23.51,23.35,23.20,23.08,22.94,22.80,22.68,22.52,22.40,22.27,22.12,22.00,21.85,21.74,21.65,21.54,21.46,21.38,21.30,21.22,21.11,21.03,20.89,20.63,20.21,19.98,19.90,19.87,19.80,19.80,19.77,19.73,19.69,19.65,19.61,19.57,19.53,19.50,19.46,19.42,19.37,19.30,19.30,19.24,19.20,19.19,19.15,19.11,19.07,19.03,19.00,18.96,18.92,18.88,18.84,18.80,18.76,18.72,18.69,18.65,18.61,18.57,18.53,18.49,18.45,18.42,18.38,18.34,18.30,18.26,18.22,18.20,18.20,18.16,18.12,18.10,18.09,18.05,18.01,17.98,17.94,17.90,17.86,17.79,17.75,17.74,17.71,17.67,17.65,17.64,17.60,17.56,17.55,17.53,17.50,17.46,17.42,17.40,17.39,17.35,17.31,17.28,17.24,17.20,17.20,17.17,17.13,17.10,17.05,17.05,17.03,16.99,16.95,16.95,16.92,16.89,16.85,16.85,16.85,16.85,16.85,16.89,16.89,16.89,16.90,16.95,16.95,17.03,17.13,17.21,17.29,17.42,17.54,17.63,17.75,17.86,17.95,18.03,18.10,18.22,18.27,18.33,18.42,18.57,18.63,18.71,18.82,18.90,19.01,19.15,19.29,19.41,19.53,19.68,19.83,20.49,23.04,26.36,28.76,30.29,31.23,31.40,31.34,31.12,30.78,30.31,29.16,28.07,27.26,26.87,26.28,25.64,24.91,24.11,23.38,23.31,23.39,23.45,23.45,23.52,23.60,23.68
49.89,49.99,50.25,50.63,50.98,51.22,51.18,50.57,49.71,48.58,47.09,45.84,44.75,43.78,42.89,42.14,41.38,40.60,39.86,39.34,38.73,38.07,37.41,36.77,36.14,35.51,34.86,34.20,33.60,32.93,32.28,31.65,30.97,30.33,29.91,29.66,29.50,29.33,29.13,28.93,28.75,28.54,28.36,28.16,27.96,27.79,27.57,27.39,27.23,27.07,26.91,26.70,26.51,26.35,26.19,26.03,25.83,25.64,25.49,25.33,25.17,25.04,24.93,24.76,24.62,24.52,24.44,24.36,24.20,24.06,23.94,23.84,23.69,23.53,23.39,23.24,23.09,22.99,22.86,22.71,22.55,22.41,22.31,22.19,22.04,21.90,21.74,21.63,21.51,21.36,21.27,21.19,21.11,21.03,20.96,20.93,20.77,20.45,20.08,19.94,19.89,19.86,19.80,19.78,19.73,19.69,19.67,19.61,19.59,19.54,19.50,19.48,19.42,19.39,19.36,19.30,19.28,19.23,19.19,19.17,19.10,19.09,19.04,18.99,18.98,18.91,18.89,18.85,18.80,18.78,18.73,18.69,18.66,18.60,18.59,18.54,18.49,18.47,18.41,18.39,18.35,18.30,18.28,18.22,18.20,18.20,18.18,18.11,18.09,18.08,18.07,18.01,17.99,17.94,17.90,17.88,17.80,17.74,17.69,17.68,17.68,17.63,17.59,17.58,17.58,17.51,17.48,17.48,17.48,17.42,17.39,17.38,17.37,17.31,17.29,17.25,17.20,17.18,17.18,17.14,17.09,17.07,17.01,17.00,16.99,16.97,16.90,16.89,16.88,16.86,16.80,16.80,16.79,16.78,16.78,16.78,16.78,16.78,16.80,16.88,16.91,17.02,17.13,17.21,17.29,17.41,17.52,17.61,17.75,17.84,17.90,17.97,18.05,18.14,18.17,18.22,18.30,18.44,18.54,18.66,18.79,18.88,18.97,19.11,19.26,19.41,19.57,19.71,19.88,20.55,23.00,25.61,27.64,29.20,30.52,31.09,31.25,31.15,30.90,30.74,29.85,28.89,28.09,27.62,26.86,26.08,25.27,24.46,23.93,24.00,24.16,24.22,24.22,24.29,24.37,24.48
51.19,51.34,51.70,51.95,52.17,52.26,51.52,50.61,49.68,48.64,47.34,46.34,45.46,44.65,43.83,42.88,41.88,40.93,40.07,39.35,38.73,38.10,37.45,36.77,36.09,35.41,34.78,34.21,33.66,33.04,32.41,31.79,31.16,30.48,30.01,29.72,29.56,29.34,29.16,28.97,28.76,28.60,28.38,28.19,28.01,27.79,27.63,27.42,27.23,27.07,26.85,26.67,26.51,26.34,26.12,25.97,25.80,25.64,25.49,25.33,25.13,24.95,24.79,24.57,24.47,24.39,24.31,24.23,24.08,23.97,23.86,23.71,23.56,23.40,23.29,23.18,23.02,22.88,22.73,22.58,22.43,22.34,22.21,22.06,21.92,21.83,21.68,21.53,21.39,21.23,21.09,21.00,20.92,20.84,20.77,20.70,20.54,20.27,19.95,19.91,19.86,19.81,19.80,19.73,19.71,19.67,19.62,19.60,19.54,19.51,19.48,19.42,19.40,19.35,19.31,19.29,19.23,19.21,19.17,19.11,19.10,19.04,19.01,18.98,18.92,18.90,18.85,18.81,18.79,18.72,18.71,18.66,18.61,18.60,18.54,18.51,18.47,18.42,18.40,18.35,18.31,18.28,18.22,18.20,18.20,18.18,18.12,18.10,18.05,18.02,18.02,18.00,17.94,17.91,17.88,17.82,17.74,17.71,17.67,17.62,17.62,17.61,17.57,17.52,17.52,17.45,17.42,17.42,17.42,17.40,17.35,17.32,17.32,17.30,17.24,17.21,17.18,17.12,17.12,17.11,17.07,17.02,17.00,17.00,16.97,16.91,16.90,16.84,16.82,16.81,16.80,16.80,16.75,16.72,16.72,16.72,16.72,16.72,16.74,16.82,16.94,17.04,17.13,17.21,17.29,17.37,17.46,17.54,17.63,17.71,17.74,17.78,17.86,18.00,18.08,18.15,18.23,18.32,18.46,18.57,18.67,18.81,18.96,19.11,19.26,19.41,19.57,19.67,19.89,20.61,22.71,24.52,26.17,27.70,29.13,30.34,30.93,31.08,30.96,30.80,30.33,29.62,28.78,28.01,27.24,26.43,25.61,24.87,24.63,24.77,24.92,24.98,24.98,25.05,25.13,25.30
52.67,52.87,53.25,53.04,52.56,51.95,51.06,49.92,48.74,47.53,46.22,45.46,44.72,43.97,43.19,42.37,41.45,40.59,39.82,39.12,38.47,37.81,37.14,36.45,35.75,35.08,34.48,33.94,33.40,32.82,32.24,31.65,31.03,30.37,29.95,29.69,29.54,29.34,29.18,28.98,28.77,28.61,28.39,28.20,28.04,27.84,27.65,27.45,27.26,27.07,26.87,26.68,26.51,26.35,26.15,25.96,25.80,25.63,25.44,25.29,25.10,24.90,24.71,24.52,24.36,24.24,24.14,24.06,23.94,23.85,23.76,23.63,23.48,23.32,23.19,23.07,22.91,22.76,22.63,22.50,22.34,22.23,22.11,21.98,21.83,21.72,21.60,21.46,21.31,21.15,21.00,20.87,20.76,20.65,20.57,20.50,20.32,20.07,19.91,19.90,19.85,19.80,19.79,19.72,19.70,19.66,19.60,19.60,19.53,19.50,19.48,19.40,19.40,19.34,19.30,19.29,19.21,19.17,19.13,19.09,19.06,19.01,18.98,18.94,18.90,18.86,18.82,18.78,18.75,18.70,18.67,18.63,18.59,18.55,18.51,18.47,18.44,18.40,18.36,18.32,18.28,18.24,18.20,18.17,18.15,18.14,18.10,18.06,18.02,18.00,17.99,17.96,17.92,17.88,17.83,17.75,17.68,17.65,17.64,17.60,17.56,17.55,17.53,17.49,17.46,17.41,17.40,17.40,17.40,17.36,17.32,17.28,17.25,17.25,17.22,17.18,17.14,17.10,17.06,17.05,17.04,17.00,16.96,16.95,16.93,16.89,16.86,16.82,16.80,16.79,16.75,16.75,16.72,16.70,16.69,16.66,16.65,16.65,16.68,16.75,16.87,16.96,17.04,17.12,17.19,17.24,17.30,17.39,17.50,17.58,17.63,17.68,17.76,17.88,17.97,18.06,18.17,18.28,18.43,18.56,18.68,18.80,18.92,19.06,19.20,19.32,19.48,19.60,19.80,20.30,21.67,23.17,24.64,26.05,27.41,28.73,29.71,30.35,30.67,30.58,30.39,29.92,29.21,28.40,27.59,26.78,25.99,25.32,25.31,25.49,25.66,25.75,25.75,25.82,25.99,26.26
54.20,54.40,54.58,53.77,52.49,51.12,50.20,48.84,47.40,45.96,44.58,44.04,43.40,42.69,41.95,41.35,40.64,39.98,39.38,38.78,38.09,37.39,36.70,36.00,35.31,34.67,34.09,33.55,33.01,32.46,31.92,31.37,30.76,30.17,29.83,29.63,29.48,29.32,29.16,28.97,28.76,28.60,28.38,28.20,28.04,27.88,27.66,27.49,27.30,27.08,26.92,26.71,26.52,26.36,26.20,25.98,25.80,25.61,25.40,25.23,25.08,24.88,24.67,24.51,24.30,24.11,23.97,23.89,23.80,23.72,23.64,23.55,23.40,23.25,23.10,22.95,22.80,22.64,22.53,22.42,22.27,22.12,22.02,21.91,21.76,21.60,21.51,21.39,21.24,21.09,20.93,20.78,20.62,20.48,20.39,20.31,20.11,19.90,19.90,19.89,19.84,19.80,19.78,19.72,19.69,19.66,19.60,19.59,19.53,19.50,19.47,19.40,19.39,19.34,19.30,19.29,19.21,19.14,19.10,19.07,19.00,18.99,18.94,18.90,18.89,18.82,18.79,18.76,18.70,18.69,18.63,18.60,18.57,18.50,18.49,18.44,18.40,18.38,18.31,18.29,18.25,18.20,18.19,18.12,18.10,18.10,18.09,18.02,17.99,17.99,17.98,17.91,17.89,17.84,17.77,17.69,17.62,17.59,17.59,17.58,17.51,17.49,17.49,17.47,17.39,17.39,17.39,17.39,17.39,17.32,17.29,17.26,17.20,17.19,17.19,17.15,17.10,17.09,17.02,16.99,16.99,16.98,16.91,16.90,16.90,16.87,16.80,16.79,16.79,16.77,16.70,16.69,16.69,16.69,16.68,16.61,16.59,16.59,16.61,16.68,16.76,16.83,16.90,16.98,17.06,17.08,17.12,17.21,17.36,17.44,17.52,17.61,17.68,17.77,17.85,17.97,18.11,18.27,18.42,18.56,18.69,18.78,18.86,18.99,19.11,19.20,19.36,19.51,19.66,19.90,20.47,21.74,23.03,24.29,25.52,26.76,28.04,29.19,30.02,30.04,30.08,29.90,29.44,28.70,27.90,27.13,26.41,25.82,25.99,26.20,26.40,26.52,26.53,26.61,26.89,27.28
55.60,55.55,54.45,53.07,51.62,50.21,48.85,47.27,45.73,44.32,43.04,42.55,42.00,41.39,40.75,40.24,39.80,39.33,38.82,38.32,37.64,36.94,36.25,35.55,34.86,34.22,33.66,33.16,32.56,32.02,31.48,30.94,30.44,29.99,29.73,29.57,29.41,29.26,29.06,28.86,28.69,28.54,28.37,28.17,27.98,27.82,27.65,27.49,27.30,27.08,26.92,26.75,26.55,26.36,26.20,26.03,25.83,25.63,25.45,25.24,25.08,24.88,24.67,24.51,24.34,24.14,23.96,23.82,23.69,23.60,23.49,23.36,23.27,23.12,23.00,22.89,22.73,22.58,22.44,22.29,22.14,22.05,21.92,21.80,21.70,21.54,21.40,21.29,21.18,21.02,20.87,20.71,20.56,20.41,20.27,20.14,20.00,19.90,19.90,19.85,19.81,19.78,19.72,19.70,19.66,19.62,19.59,19.53,19.51,19.47,19.42,19.40,19.34,19.31,19.30,19.29,19.21,19.14,19.07,19.02,19.00,18.95,18.91,18.88,18.82,18.80,18.76,18.72,18.69,18.63,18.61,18.57,18.52,18.50,18.44,18.41,18.38,18.32,18.30,18.25,18.22,18.19,18.13,18.11,18.10,18.08,18.02,18.00,17.96,17.93,17.92,17.90,17.85,17.78,17.70,17.63,17.61,17.56,17.53,17.52,17.50,17.45,17.43,17.41,17.33,17.33,17.33,17.33,17.33,17.30,17.26,17.22,17.19,17.13,17.13,17.11,17.08,17.03,17.01,16.96,16.93,16.92,16.90,16.90,16.87,16.82,16.80,16.75,16.73,16.72,16.70,16.64,16.63,16.63,16.62,16.60,16.55,16.53,16.53,16.55,16.63,16.67,16.71,16.79,16.86,16.92,16.99,17.07,17.17,17.25,17.36,17.48,17.56,17.69,17.83,17.94,18.05,18.20,18.31,18.41,18.52,18.65,18.78,18.89,19.00,19.14,19.30,19.40,19.53,19.71,19.99,20.41,21.18,22.24,23.48,24.71,25.88,27.08,28.19,28.36,28.67,28.98,29.05,28.57,28.06,27.45,26.89,26.53,26.74,26.97,27.16,27.30,27.35,27.53,27.88,28.29
56.50,55.57,53.91,52.26,50.65,49.06,47.34,45.66,44.08,42.67,41.55,41.16,40.75,40.30,39.81,39.40,39.07,38.70,38.26,37.80,37.17,36.50,35.80,35.11,34.41,33.80,33.25,32.74,32.15,31.58,31.04,30.55,30.12,29.85,29.66,29.50,29.34,29.16,28.96,28.78,28.63,28.47,28.29,28.10,27.91,27.76,27.60,27.43,27.23,27.04,26.88,26.73,26.55,26.36,26.20,26.02,25.82,25.63,25.44,25.24,25.08,24.88,24.67,24.51,24.36,24.16,23.95,23.80,23.64,23.52,23.38,23.21,23.14,23.02,22.90,22.78,22.63,22.48,22.34,22.20,22.05,21.95,21.83,21.71,21.59,21.44,21.31,21.20,21.08,20.92,20.80,20.65,20.50,20.34,20.19,20.03,19.94,19.89,19.86,19.82,19.80,19.77,19.70,19.70,19.64,19.60,19.59,19.51,19.50,19.45,19.40,19.40,19.35,19.32,19.29,19.25,19.18,19.10,19.04,18.99,18.96,18.92,18.88,18.84,18.80,18.77,18.73,18.69,18.65,18.61,18.57,18.53,18.49,18.46,18.41,18.38,18.34,18.30,18.27,18.22,18.18,18.15,18.10,18.07,18.06,18.05,18.00,17.97,17.93,17.90,17.89,17.87,17.79,17.72,17.65,17.60,17.57,17.53,17.49,17.46,17.46,17.42,17.38,17.35,17.30,17.30,17.30,17.30,17.30,17.27,17.23,17.19,17.15,17.11,17.07,17.06,17.05,17.00,16.97,16.93,16.89,16.86,16.86,16.86,16.84,16.79,16.76,16.72,16.70,16.69,16.66,16.61,16.60,16.59,16.56,16.56,16.52,16.50,16.49,16.46,16.51,16.52,16.56,16.63,16.71,16.79,16.86,16.95,17.05,17.13,17.26,17.39,17.47,17.59,17.74,17.86,17.94,18.07,18.15,18.25,18.37,18.52,18.65,18.76,18.88,19.04,19.16,19.27,19.40,19.55,19.68,19.78,20.17,20.81,21.62,22.68,23.88,25.15,26.31,26.83,27.38,27.91,28.27,28.20,27.80,27.44,27.23,27.24,27.50,27.74,27.93,28.08,28.22,28.49,28.96,29.56
57.04,54.82,53.11,51.40,49.63,47.74,45.73,44.06,42.43,41.01,40.10,39.86,39.63,39.36,39.05,38.74,38.43,38.08,37.68,37.22,36.68,36.05,35.35,34.66,33.96,33.38,32.84,32.30,31.76,31.16,30.63,30.19,29.80,29.72,29.59,29.44,29.27,29.04,28.87,28.72,28.57,28.41,28.19,28.00,27.85,27.69,27.54,27.33,27.13,26.97,26.82,26.67,26.51,26.36,26.20,25.97,25.79,25.61,25.39,25.23,25.08,24.88,24.67,24.51,24.36,24.16,23.95,23.80,23.64,23.49,23.30,23.09,23.01,22.93,22.81,22.66,22.50,22.35,22.25,22.14,21.99,21.83,21.74,21.62,21.47,21.31,21.23,21.10,20.95,20.80,20.72,20.58,20.43,20.28,20.12,19.97,19.90,19.88,19.80,19.80,19.80,19.77,19.70,19.70,19.64,19.60,19.58,19.51,19.50,19.45,19.40,19.40,19.40,19.34,19.27,19.19,19.11,19.04,19.00,18.98,18.90,18.90,18.85,18.80,18.79,18.72,18.70,18.66,18.60,18.60,18.53,18.50,18.48,18.40,18.40,18.34,18.30,18.29,18.21,18.20,18.16,18.10,18.10,18.03,18.00,18.00,17.99,17.92,17.90,17.90,17.88,17.81,17.73,17.65,17.60,17.60,17.52,17.50,17.47,17.40,17.40,17.40,17.36,17.30,17.30,17.30,17.30,17.30,17.29,17.22,17.20,17.16,17.10,17.10,17.03,17.00,17.00,17.00,16.92,16.90,16.87,16.80,16.80,16.80,16.80,16.78,16.71,16.70,16.70,16.67,16.60,16.60,16.60,16.56,16.50,16.50,16.50,16.50,16.48,16.40,16.40,16.40,16.43,16.50,16.58,16.66,16.74,16.83,16.98,17.07,17.19,17.32,17.40,17.48,17.61,17.73,17.81,17.89,17.96,18.08,18.24,18.39,18.47,18.60,18.76,18.90,18.98,19.12,19.27,19.41,19.49,19.64,19.74,19.82,19.92,20.68,22.01,23.34,24.41,25.42,26.16,26.73,27.19,27.66,27.25,27.21,27.49,27.94,28.25,28.50,28.70,28.87,29.12,29.51,30.14,31.05
57.45,55.12,52.97,50.85,48.79,46.78,44.78,42.84,41.21,40.04,39.52,39.33,39.12,38.85,38.53,38.12,37.79,37.45,37.04,36.58,36.09,35.54,34.91,34.21,33.52,32.94,32.42,31.92,31.38,30.77,30.27,29.91,29.67,29.59,29.46,29.31,29.15,28.97,28.81,28.66,28.49,28.29,28.10,27.94,27.78,27.63,27.42,27.23,27.07,26.91,26.76,26.60,26.45,26.29,26.14,25.96,25.76,25.56,25.39,25.23,25.04,24.84,24.67,24.51,24.36,24.16,23.95,23.80,23.64,23.49,23.30,23.08,22.95,22.83,22.68,22.54,22.44,22.29,22.15,22.03,21.92,21.77,21.63,21.52,21.40,21.25,21.12,21.01,20.89,20.73,20.60,20.46,20.32,20.21,20.06,19.95,19.90,19.88,19.80,19.80,19.77,19.72,19.70,19.65,19.61,19.58,19.53,19.50,19.45,19.42,19.40,19.40,19.40,19.34,19.27,19.19,19.11,19.04,18.97,18.93,18.90,18.85,18.82,18.78,18.73,18.71,18.66,18.62,18.59,18.54,18.51,18.47,18.43,18.40,18.35,18.32,18.28,18.23,18.20,18.16,18.12,18.09,18.04,18.01,18.00,17.98,17.93,17.91,17.90,17.88,17.82,17.74,17.67,17.62,17.59,17.53,17.46,17.43,17.42,17.39,17.34,17.33,17.29,17.23,17.23,17.23,17.23,17.23,17.23,17.21,17.16,17.12,17.09,17.04,17.01,16.97,16.93,16.93,16.91,16.86,16.82,16.80,16.80,16.76,16.73,16.73,16.70,16.65,16.63,16.63,16.60,16.55,16.53,16.52,16.49,16.44,16.43,16.43,16.43,16.40,16.40,16.37,16.35,16.38,16.45,16.53,16.61,16.70,16.86,16.94,17.03,17.13,17.21,17.34,17.45,17.54,17.62,17.75,17.84,17.96,18.11,18.27,18.34,18.47,18.61,18.72,18.84,18.99,19.12,19.23,19.36,19.46,19.55,19.63,19.72,20.08,20.76,21.77,23.03,24.19,24.91,25.45,25.94,26.50,27.05,27.51,27.94,28.39,28.80,29.11,29.46,29.96,30.85,31.79,32.88,34.15
57.87,55.46,53.02,50.65,48.42,46.32,44.29,42.21,40.57,39.52,39.15,38.85,38.59,38.31,37.99,37.55,37.18,36.81,36.41,35.97,35.51,35.01,34.43,33.74,33.09,32.52,32.00,31.51,30.97,30.42,29.99,29.70,29.57,29.47,29.34,29.19,29.06,28.90,28.75,28.59,28.42,28.19,28.03,27.87,27.71,27.53,27.32,27.16,27.00,26.85,26.69,26.54,26.38,26.23,26.07,25.92,25.73,25.54,25.38,25.21,25.00,24.82,24.67,24.51,24.34,24.14,23.95,23.80,23.64,23.47,23.28,23.08,22.92,22.77,22.60,22.44,22.34,22.19,22.05,21.93,21.83,21.67,21.54,21.42,21.31,21.16,21.02,20.91,20.79,20.64,20.51,20.36,20.23,20.12,19.99,19.92,19.89,19.86,19.80,19.78,19.73,19.70,19.69,19.62,19.60,19.56,19.50,19.50,19.45,19.43,19.42,19.40,19.40,19.34,19.26,19.16,19.08,19.01,18.94,18.89,18.87,18.82,18.79,18.75,18.70,18.68,18.63,18.59,18.56,18.51,18.48,18.44,18.39,18.37,18.32,18.28,18.25,18.20,18.17,18.13,18.09,18.06,18.00,18.00,17.99,17.95,17.90,17.88,17.87,17.83,17.76,17.71,17.63,17.59,17.55,17.47,17.42,17.38,17.37,17.36,17.31,17.28,17.24,17.19,17.17,17.17,17.17,17.17,17.17,17.17,17.13,17.09,17.06,17.01,16.98,16.94,16.89,16.87,16.87,16.83,16.79,16.77,16.77,16.73,16.69,16.67,16.67,16.62,16.60,16.59,16.57,16.51,16.48,16.47,16.46,16.41,16.40,16.39,16.37,16.37,16.37,16.33,16.30,16.31,16.36,16.40,16.46,16.57,16.70,16.78,16.86,16.95,17.05,17.18,17.29,17.38,17.47,17.62,17.71,17.83,17.98,18.11,18.21,18.35,18.47,18.56,18.71,18.85,18.96,19.07,19.20,19.28,19.37,19.47,19.55,19.68,19.95,20.63,21.78,22.99,23.70,24.36,25.07,25.85,26.94,27.79,28.41,28.88,29.34,29.97,30.71,31.63,32.93,34.25,35.63,37.10
58.31,55.83,53.30,50.87,48.59,46.44,44.36,42.28,40.64,39.55,39.02,38.43,38.04,37.74,37.42,37.03,36.59,36.17,35.78,35.39,34.93,34.46,33.92,33.23,32.68,32.14,31.60,31.06,30.52,30.10,29.79,29.59,29.51,29.36,29.21,29.08,28.99,28.84,28.68,28.53,28.36,28.13,27.96,27.81,27.63,27.41,27.25,27.09,26.94,26.78,26.63,26.47,26.32,26.17,26.01,25.86,25.70,25.54,25.38,25.15,24.98,24.82,24.67,24.51,24.29,24.11,23.95,23.80,23.64,23.43,23.24,23.08,22.92,22.77,22.57,22.37,22.22,22.06,21.96,21.85,21.70,21.55,21.45,21.33,21.18,21.03,20.94,20.82,20.66,20.51,20.43,20.29,20.14,20.00,19.92,19.90,19.86,19.81,19.80,19.73,19.70,19.70,19.69,19.62,19.60,19.56,19.50,19.50,19.50,19.49,19.47,19.40,19.40,19.34,19.24,19.10,19.02,18.94,18.90,18.88,18.81,18.80,18.75,18.70,18.70,18.62,18.60,18.57,18.51,18.50,18.44,18.40,18.38,18.31,18.30,18.25,18.20,18.19,18.12,18.10,18.06,18.01,18.00,18.00,17.95,17.90,17.90,17.82,17.81,17.77,17.71,17.70,17.63,17.56,17.48,17.41,17.40,17.35,17.31,17.31,17.30,17.24,17.20,17.18,17.11,17.11,17.11,17.11,17.11,17.11,17.10,17.07,17.01,17.00,16.94,16.90,16.88,16.81,16.81,16.80,16.77,16.71,16.71,16.70,16.66,16.61,16.61,16.60,16.60,16.58,16.51,16.50,16.45,16.41,16.41,16.40,16.40,16.36,16.31,16.31,16.31,16.30,16.30,16.30,16.31,16.25,16.30,16.43,16.51,16.59,16.67,16.77,16.92,17.00,17.13,17.25,17.34,17.49,17.58,17.70,17.84,17.92,18.07,18.22,18.34,18.43,18.58,18.68,18.80,18.93,19.01,19.09,19.21,19.34,19.42,19.50,19.65,20.00,20.69,21.85,22.55,23.48,24.65,25.77,26.93,28.06,28.92,29.39,29.85,31.11,32.54,33.96,35.41,36.93,38.41,39.88
59.28,56.85,54.35,51.62,49.08,46.86,44.77,42.65,40.83,39.55,39.01,38.39,37.89,37.43,36.95,36.52,36.03,35.59,35.19,34.76,34.30,33.83,33.34,32.78,32.24,31.73,31.23,30.73,30.24,29.91,29.65,29.46,29.39,29.23,29.08,28.96,28.87,28.72,28.56,28.41,28.25,28.06,27.90,27.75,27.57,27.34,27.18,27.03,26.87,26.72,26.56,26.41,26.26,26.10,25.95,25.79,25.64,25.48,25.33,25.14,24.94,24.77,24.61,24.46,24.27,24.08,23.89,23.74,23.58,23.41,23.21,23.02,22.87,22.71,22.54,22.35,22.15,22.04,21.92,21.78,21.63,21.48,21.35,21.23,21.11,20.96,20.83,20.72,20.59,20.44,20.32,20.21,20.08,19.94,19.91,19.90,19.86,19.80,19.80,19.73,19.70,19.68,19.64,19.61,19.57,19.53,19.50,19.50,19.50,19.50,19.48,19.40,19.36,19.29,19.20,19.09,19.01,18.94,18.88,18.83,18.80,18.76,18.72,18.68,18.64,18.61,18.57,18.53,18.49,18.45,18.41,18.37,18.33,18.30,18.26,18.22,18.18,18.14,18.11,18.06,18.03,17.99,17.95,17.94,17.92,17.88,17.84,17.81,17.77,17.73,17.69,17.65,17.57,17.50,17.42,17.34,17.34,17.32,17.28,17.24,17.24,17.18,17.14,17.14,17.10,17.10,17.10,17.10,17.10,17.05,17.04,17.03,16.99,16.95,16.91,16.87,16.83,16.80,16.80,16.77,16.73,16.70,16.65,16.64,16.63,16.60,16.60,16.56,16.54,16.53,16.50,16.45,16.42,16.40,16.39,16.35,16.34,16.32,16.30,16.30,16.26,16.24,16.24,16.24,16.24,16.22,16.23,16.29,16.33,16.44,16.53,16.62,16.73,16.85,16.97,17.08,17.20,17.31,17.43,17.55,17.66,17.78,17.94,18.06,18.18,18.30,18.41,18.53,18.64,18.75,18.88,18.96,19.05,19.17,19.29,19.41,19.56,19.80,20.27,21.29,22.31,23.45,24.66,25.82,26.98,28.14,29.24,30.24,31.37,32.86,34.44,36.00,37.60,39.23,40.87,42.46
60.51,57.93,55.36,52.40,49.64,47.32,45.22,43.08,41.12,39.64,39.05,38.42,37.84,37.27,36.72,36.29,35.79,35.37,34.99,34.53,34.06,33.59,33.11,32.64,32.05,31.51,31.00,30.52,30.04,29.79,29.58,29.39,29.28,29.13,28.97,28.84,28.74,28.59,28.43,28.29,28.15,27.99,27.84,27.67,27.49,27.27,27.12,26.96,26.81,26.66,26.50,26.35,26.19,26.04,25.88,25.73,25.57,25.42,25.26,25.11,24.91,24.71,24.55,24.39,24.24,24.05,23.84,23.67,23.52,23.37,23.18,22.98,22.80,22.65,22.49,22.32,22.11,22.01,21.88,21.72,21.57,21.41,21.26,21.14,21.05,20.89,20.74,20.63,20.53,20.38,20.22,20.11,20.01,19.90,19.90,19.89,19.85,19.80,19.78,19.72,19.70,19.67,19.60,19.60,19.55,19.51,19.50,19.50,19.50,19.50,19.48,19.40,19.32,19.24,19.17,19.09,19.01,18.92,18.85,18.80,18.78,18.72,18.69,18.66,18.60,18.58,18.53,18.49,18.47,18.41,18.39,18.34,18.30,18.28,18.22,18.19,18.15,18.10,18.08,18.03,17.99,17.96,17.90,17.90,17.89,17.86,17.80,17.78,17.73,17.69,17.67,17.59,17.51,17.43,17.36,17.30,17.28,17.28,17.25,17.20,17.18,17.13,17.09,17.08,17.08,17.08,17.08,17.08,17.08,17.01,16.99,16.98,16.97,16.91,16.89,16.84,16.80,16.78,16.78,16.74,16.69,16.67,16.61,16.59,16.58,16.58,16.58,16.52,16.49,16.48,16.48,16.42,16.39,16.38,16.37,16.31,16.29,16.28,16.28,16.28,16.22,16.20,16.19,16.18,16.18,16.18,16.18,16.18,16.18,16.29,16.40,16.48,16.56,16.70,16.81,16.92,17.05,17.14,17.28,17.39,17.50,17.65,17.79,17.90,18.01,18.15,18.24,18.38,18.50,18.59,18.72,18.82,18.92,19.03,19.18,19.34,19.50,19.70,20.01,20.87,22.12,23.39,24.61,25.80,26.98,28.22,29.62,31.25,32.94,34.60,36.25,37.94,39.74,41.55,43.35,45.03
62.11,59.01,56.14,53.10,50.28,47.82,45.67,43.57,41.54,39.92,39.18,38.49,37.86,37.33,36.92,36.59,36.19,35.86,35.56,35.10,34.64,34.13,33.62,33.15,32.41,31.68,31.05,30.52,29.99,29.77,29.61,29.43,29.22,29.06,28.91,28.76,28.61,28.46,28.31,28.18,28.08,27.93,27.77,27.58,27.38,27.21,27.06,26.90,26.75,26.59,26.44,26.28,26.13,25.97,25.82,25.66,25.51,25.36,25.20,25.05,24.88,24.69,24.48,24.33,24.17,24.01,23.83,23.61,23.46,23.30,23.14,22.97,22.75,22.58,22.43,22.27,22.11,21.96,21.81,21.66,21.50,21.35,21.19,21.08,20.98,20.83,20.68,20.57,20.47,20.31,20.16,20.01,19.92,19.90,19.90,19.84,19.81,19.78,19.72,19.70,19.70,19.67,19.60,19.60,19.59,19.55,19.50,19.50,19.50,19.50,19.48,19.40,19.32,19.24,19.17,19.09,19.01,18.88,18.81,18.78,18.72,18.70,18.66,18.61,18.60,18.53,18.51,18.47,18.41,18.40,18.34,18.31,18.28,18.21,18.20,18.15,18.11,18.09,18.03,18.01,17.96,17.91,17.90,17.90,17.86,17.81,17.80,17.73,17.71,17.67,17.60,17.52,17.45,17.37,17.31,17.30,17.23,17.21,17.21,17.19,17.13,17.11,17.07,17.01,17.01,17.01,17.01,17.01,17.01,17.00,16.95,16.91,16.91,16.90,16.84,16.81,16.78,16.72,16.71,16.71,16.67,16.61,16.60,16.55,16.51,16.51,16.51,16.50,16.46,16.41,16.41,16.40,16.35,16.31,16.31,16.30,16.24,16.21,16.21,16.21,16.20,16.20,16.17,16.11,16.11,16.11,16.11,16.11,16.11,16.14,16.23,16.36,16.43,16.52,16.65,16.77,16.87,17.01,17.11,17.23,17.37,17.53,17.62,17.74,17.86,17.96,18.10,18.25,18.37,18.45,18.54,18.68,18.82,18.97,19.12,19.27,19.48,19.67,19.91,20.58,21.80,23.07,24.32,25.61,26.83,28.32,30.21,32.48,34.37,36.15,37.90,39.72,41.82,43.97,45.94,47.64
63.03,59.94,56.89,53.81,50.90,48.29,46.17,44.11,42.08,40.36,39.36,38.66,38.02,37.57,37.36,37.09,36.76,36.49,36.25,35.87,35.37,34.87,34.37,33.86,33.08,32.31,31.59,30.94,30.28,29.90,29.66,29.49,29.25,29.10,28.92,28.74,28.59,28.43,28.25,28.09,27.97,27.81,27.66,27.48,27.30,27.15,26.99,26.84,26.68,26.53,26.37,26.22,26.06,25.91,25.76,25.60,25.45,25.29,25.14,24.98,24.83,24.65,24.46,24.27,24.11,23.96,23.79,23.59,23.40,23.24,23.08,22.92,22.73,22.54,22.37,22.21,22.06,21.90,21.75,21.59,21.44,21.28,21.13,21.01,20.92,20.77,20.61,20.48,20.37,20.25,20.09,19.97,19.90,19.89,19.86,19.82,19.80,19.78,19.70,19.70,19.67,19.64,19.60,19.60,19.60,19.58,19.55,19.55,19.55,19.53,19.48,19.40,19.28,19.20,19.12,19.04,18.96,18.85,18.78,18.74,18.70,18.66,18.63,18.59,18.55,18.51,18.47,18.43,18.39,18.36,18.32,18.28,18.24,18.20,18.16,18.12,18.08,18.05,18.01,17.97,17.93,17.90,17.90,17.86,17.83,17.79,17.75,17.71,17.67,17.61,17.54,17.46,17.42,17.35,17.29,17.25,17.21,17.17,17.15,17.14,17.06,17.05,17.03,17.00,17.00,17.00,17.00,17.00,17.00,16.96,16.92,16.88,16.85,16.85,16.82,16.78,16.74,16.70,16.66,16.65,16.64,16.60,16.56,16.52,16.50,16.49,16.45,16.45,16.43,16.40,16.40,16.36,16.32,16.28,16.25,16.25,16.22,16.20,16.19,16.15,16.15,16.15,16.14,16.10,16.10,16.10,16.08,16.05,16.05,16.05,16.10,16.18,16.26,16.37,16.49,16.60,16.73,16.88,16.97,17.09,17.23,17.35,17.47,17.58,17.70,17.82,17.97,18.10,18.19,18.28,18.39,18.58,18.75,18.90,19.06,19.25,19.44,19.62,19.82,20.29,21.48,22.75,24.05,25.56,27.06,28.77,30.86,33.38,35.58,37.50,39.37,41.33,43.57,45.98,48.20,50.08
63.55,60.65,57.55,54.49,51.51,48.76,46.67,44.66,42.66,40.85,39.55,38.86,38.25,37.91,37.89,37.66,37.37,37.15,36.97,36.68,36.16,35.68,35.18,34.61,33.84,33.06,32.29,31.51,30.69,30.07,29.72,29.55,29.32,29.16,28.95,28.75,28.60,28.44,28.23,28.03,27.88,27.71,27.56,27.40,27.24,27.08,26.93,26.77,26.62,26.46,26.31,26.15,26.00,25.85,25.69,25.54,25.38,25.23,25.07,24.91,24.76,24.61,24.44,24.22,24.05,23.89,23.74,23.58,23.35,23.17,23.02,22.86,22.71,22.50,22.31,22.15,21.99,21.84,21.68,21.53,21.39,21.23,21.08,20.96,20.86,20.70,20.55,20.39,20.26,20.17,20.03,19.94,19.90,19.89,19.81,19.80,19.79,19.77,19.70,19.70,19.65,19.60,19.60,19.60,19.60,19.60,19.60,19.60,19.59,19.54,19.46,19.39,19.24,19.14,19.07,18.99,18.91,18.84,18.76,18.70,18.69,18.62,18.59,18.56,18.50,18.49,18.44,18.40,18.37,18.31,18.29,18.25,18.20,18.19,18.12,18.09,18.06,18.00,17.99,17.93,17.89,17.89,17.89,17.82,17.79,17.76,17.70,17.69,17.63,17.55,17.48,17.41,17.39,17.34,17.26,17.19,17.19,17.13,17.09,17.08,17.01,16.99,16.99,16.99,16.99,16.99,16.99,16.99,16.98,16.92,16.89,16.86,16.80,16.79,16.79,16.75,16.70,16.69,16.62,16.59,16.59,16.58,16.51,16.49,16.49,16.47,16.40,16.39,16.39,16.39,16.38,16.32,16.29,16.26,16.20,16.20,16.19,16.19,16.17,16.10,16.10,16.09,16.09,16.09,16.09,16.09,16.05,16.00,16.00,16.00,15.99,16.01,16.08,16.22,16.33,16.44,16.60,16.74,16.84,16.96,17.09,17.17,17.32,17.42,17.53,17.69,17.83,17.93,18.02,18.12,18.29,18.50,18.68,18.84,19.01,19.23,19.40,19.56,19.74,20.03,21.21,22.53,23.94,25.65,27.43,29.34,31.56,34.17,36.66,38.76,40.78,42.88,45.19,47.75,50.16,52.26
63.36,60.66,57.91,55.08,52.15,49.27,47.18,45.22,43.23,41.34,39.75,39.10,38.64,38.44,38.47,38.24,37.99,37.79,37.63,37.44,36.98,36.51,35.98,35.31,34.54,33.77,33.00,32.18,31.11,30.24,29.79,29.61,29.38,29.23,29.02,28.82,28.66,28.51,28.29,28.10,27.93,27.72,27.56,27.37,27.17,27.02,26.86,26.71,26.55,26.40,26.25,26.09,25.94,25.78,25.63,25.47,25.32,25.16,25.00,24.79,24.67,24.55,24.39,24.22,24.01,23.83,23.67,23.52,23.28,23.11,22.96,22.80,22.65,22.48,22.28,22.08,21.93,21.77,21.62,21.49,21.39,21.23,21.08,20.93,20.79,20.64,20.48,20.33,20.18,20.04,19.95,19.91,19.90,19.89,19.81,19.80,19.77,19.72,19.70,19.70,19.65,19.60,19.60,19.60,19.60,19.60,19.60,19.60,19.55,19.48,19.40,19.32,19.23,19.14,19.07,18.99,18.91,18.84,18.76,18.69,18.63,18.61,18.56,18.52,18.50,18.44,18.41,18.37,18.32,18.30,18.25,18.21,18.18,18.12,18.11,18.06,18.02,17.99,17.93,17.91,17.87,17.82,17.82,17.81,17.76,17.72,17.70,17.64,17.56,17.49,17.42,17.40,17.35,17.28,17.20,17.12,17.12,17.07,17.02,17.02,17.00,16.95,16.92,16.92,16.92,16.92,16.92,16.92,16.92,16.90,16.85,16.81,16.79,16.73,16.72,16.71,16.68,16.62,16.61,16.56,16.52,16.52,16.50,16.45,16.42,16.42,16.40,16.34,16.32,16.32,16.32,16.30,16.26,16.21,16.20,16.20,16.15,16.12,16.12,16.10,16.10,16.06,16.02,16.02,16.02,16.02,16.01,16.00,16.00,16.00,15.96,15.93,15.95,16.05,16.17,16.32,16.46,16.56,16.69,16.80,16.91,17.04,17.14,17.26,17.41,17.56,17.65,17.78,17.92,18.07,18.28,18.46,18.62,18.79,19.01,19.18,19.34,19.52,19.73,19.92,21.17,22.72,24.40,26.16,27.94,29.98,32.32,34.95,37.54,39.89,42.15,44.40,46.66,49.04,51.35,53.60
62.56,60.15,57.68,55.05,52.32,49.67,47.65,45.68,43.70,41.80,40.07,39.40,39.05,38.94,38.97,38.80,38.63,38.47,38.31,38.16,37.78,37.32,36.75,36.06,35.28,34.44,33.56,32.62,31.50,30.43,29.86,29.64,29.44,29.26,29.06,28.88,28.72,28.54,28.34,28.15,27.96,27.76,27.57,27.38,27.18,26.99,26.84,26.66,26.49,26.34,26.18,26.03,25.87,25.72,25.56,25.44,25.30,25.14,24.98,24.71,24.57,24.44,24.29,24.13,23.94,23.76,23.61,23.45,23.25,23.06,22.89,22.74,22.58,22.43,22.23,22.03,21.90,21.75,21.60,21.46,21.35,21.19,21.04,20.88,20.73,20.57,20.42,20.27,20.12,20.00,19.92,19.90,19.89,19.85,19.81,19.80,19.76,19.70,19.70,19.70,19.67,19.64,19.64,19.61,19.60,19.60,19.60,19.60,19.53,19.45,19.38,19.30,19.22,19.14,19.05,18.95,18.87,18.79,18.72,18.65,18.60,18.57,18.53,18.49,18.46,18.41,18.38,18.34,18.29,18.26,18.22,18.18,18.15,18.10,18.07,18.03,17.99,17.95,17.91,17.87,17.83,17.80,17.80,17.77,17.73,17.69,17.65,17.58,17.50,17.44,17.39,17.36,17.29,17.21,17.14,17.06,17.06,17.03,16.99,16.96,16.96,16.92,16.88,16.86,16.86,16.86,16.86,16.86,16.86,16.86,16.82,16.79,16.75,16.71,16.70,16.68,16.65,16.60,16.57,16.53,16.49,16.46,16.46,16.42,16.38,16.36,16.36,16.32,16.30,16.29,16.26,16.26,16.22,16.19,16.16,16.16,16.12,16.08,16.06,16.06,16.06,16.03,16.00,16.00,15.97,15.96,15.96,15.96,15.96,15.96,15.93,15.90,15.90,15.95,16.05,16.17,16.29,16.40,16.55,16.66,16.76,16.92,16.99,17.12,17.28,17.43,17.50,17.67,17.84,18.00,18.20,18.39,18.56,18.72,18.92,19.11,19.27,19.45,19.65,19.83,20.84,22.49,24.47,26.35,28.19,30.36,32.83,35.52,38.21,40.66,43.00,45.28,47.52,49.86,52.20,54.57
61.39,59.33,57.11,54.66,52.23,49.99,48.06,46.08,44.14,42.27,40.51,39.80,39.52,39.46,39.45,39.37,39.29,39.17,39.02,38.86,38.57,38.12,37.52,36.81,36.03,35.08,34.04,32.96,31.87,30.65,29.94,29.66,29.50,29.28,29.10,28.94,28.78,28.55,28.38,28.18,27.97,27.81,27.59,27.41,27.22,27.00,26.84,26.63,26.43,26.28,26.12,25.97,25.81,25.66,25.50,25.42,25.29,25.13,24.96,24.65,24.47,24.31,24.16,24.00,23.85,23.70,23.54,23.39,23.23,23.02,22.83,22.67,22.52,22.36,22.17,21.98,21.90,21.75,21.59,21.44,21.28,21.13,20.97,20.82,20.67,20.51,20.36,20.21,20.07,19.99,19.92,19.90,19.87,19.80,19.80,19.80,19.76,19.70,19.70,19.70,19.70,19.70,19.69,19.62,19.60,19.60,19.60,19.60,19.53,19.45,19.37,19.29,19.22,19.14,19.03,18.89,18.81,18.74,18.66,18.60,18.60,18.53,18.50,18.47,18.40,18.40,18.34,18.30,18.28,18.21,18.20,18.15,18.10,18.09,18.02,18.00,17.96,17.90,17.90,17.83,17.80,17.80,17.80,17.73,17.70,17.67,17.59,17.52,17.44,17.40,17.38,17.30,17.23,17.15,17.08,17.00,17.00,17.00,16.97,16.90,16.90,16.90,16.86,16.80,16.80,16.80,16.80,16.80,16.80,16.80,16.80,16.76,16.70,16.70,16.70,16.65,16.60,16.60,16.52,16.50,16.47,16.40,16.40,16.40,16.36,16.30,16.30,16.30,16.30,16.27,16.20,16.20,16.20,16.16,16.10,16.10,16.10,16.05,16.00,16.00,16.00,16.00,16.00,15.99,15.91,15.90,15.90,15.90,15.90,15.90,15.90,15.90,15.90,15.90,15.95,16.03,16.11,16.27,16.42,16.53,16.63,16.79,16.87,17.00,17.15,17.30,17.38,17.58,17.77,17.93,18.08,18.30,18.49,18.65,18.80,19.03,19.21,19.36,19.53,19.76,20.37,21.98,24.25,26.28,28.24,30.54,33.14,35.92,38.71,41.19,43.50,45.74,47.99,50.37,52.81,55.25
60.07,58.45,56.63,54.42,52.22,50.18,48.19,46.51,44.86,43.23,41.72,40.96,40.50,40.29,40.28,40.15,40.02,39.87,39.72,39.57,39.37,38.92,38.25,37.45,36.51,35.53,34.47,33.32,32.14,30.91,30.11,29.71,29.50,29.32,29.16,28.99,28.78,28.60,28.40,28.21,28.02,27.82,27.64,27.44,27.24,27.06,26.85,26.67,26.48,26.28,26.12,25.97,25.81,25.66,25.50,25.37,25.23,25.05,24.84,24.53,24.34,24.19,24.03,23.88,23.72,23.57,23.41,23.26,23.10,22.93,22.76,22.61,22.45,22.30,22.13,21.97,21.84,21.68,21.53,21.37,21.22,21.06,20.91,20.78,20.67,20.51,20.36,20.21,20.06,19.93,19.91,19.90,19.89,19.86,19.81,19.80,19.76,19.70,19.70,19.70,19.70,19.70,19.70,19.67,19.67,19.67,19.66,19.61,19.53,19.42,19.31,19.23,19.15,19.08,18.99,18.89,18.81,18.74,18.66,18.59,18.53,18.51,18.47,18.42,18.40,18.34,18.31,18.27,18.23,18.20,18.15,18.12,18.08,18.03,18.01,17.96,17.92,17.89,17.84,17.81,17.80,17.79,17.73,17.71,17.67,17.60,17.53,17.51,17.44,17.38,17.32,17.24,17.16,17.12,17.08,17.00,16.95,16.93,16.92,16.89,16.84,16.83,16.82,16.80,16.80,16.80,16.80,16.80,16.80,16.80,16.76,16.72,16.69,16.64,16.63,16.62,16.58,16.53,16.51,16.46,16.42,16.39,16.34,16.33,16.32,16.29,16.24,16.23,16.23,16.22,16.20,16.14,16.13,16.12,16.10,16.10,16.05,16.02,16.00,16.00,15.95,15.93,15.93,15.93,15.90,15.90,15.90,15.89,15.84,15.83,15.83,15.83,15.83,15.83,15.85,15.90,15.99,16.14,16.30,16.41,16.50,16.66,16.79,16.90,17.02,17.18,17.31,17.47,17.67,17.86,18.02,18.20,18.39,18.58,18.74,18.92,19.12,19.30,19.46,19.64,19.99,21.20,23.18,25.51,27.76,30.16,32.79,35.68,38.56,41.02,43.31,45.57,47.92,50.31,52.72,55.09
58.34,56.99,55.49,53.81,52.06,50.33,48.67,47.29,45.84,44.39,43.10,42.24,41.61,41.28,41.26,41.06,40.81,40.61,40.46,40.30,40.08,39.65,38.98,38.05,36.99,35.92,34.79,33.60,32.37,31.13,30.25,29.74,29.54,29.36,29.19,29.02,28.82,28.64,28.43,28.24,28.05,27.82,27.66,27.46,27.25,27.09,26.86,26.69,26.50,26.28,26.12,25.97,25.80,25.63,25.47,25.32,25.16,24.97,24.71,24.40,24.21,24.06,23.90,23.75,23.59,23.44,23.29,23.13,23.00,22.85,22.70,22.55,22.39,22.26,22.11,21.96,21.81,21.65,21.50,21.35,21.22,21.07,20.91,20.78,20.67,20.51,20.38,20.25,20.12,20.00,19.97,19.93,19.90,19.89,19.81,19.80,19.76,19.70,19.70,19.70,19.70,19.70,19.70,19.70,19.70,19.69,19.65,19.58,19.50,19.39,19.28,19.20,19.12,19.04,18.97,18.89,18.81,18.71,18.63,18.55,18.50,18.48,18.43,18.39,18.36,18.31,18.28,18.24,18.20,18.17,18.12,18.09,18.05,18.00,17.97,17.93,17.89,17.86,17.81,17.78,17.77,17.76,17.70,17.68,17.62,17.55,17.50,17.47,17.41,17.33,17.25,17.18,17.12,17.09,17.04,16.97,16.92,16.88,16.87,16.86,16.81,16.78,16.77,16.77,16.77,16.77,16.77,16.77,16.77,16.77,16.73,16.69,16.66,16.61,16.58,16.57,16.55,16.50,16.48,16.43,16.39,16.36,16.31,16.28,16.27,16.26,16.20,16.20,16.18,16.17,16.17,16.11,16.08,16.07,16.07,16.07,16.02,15.99,15.97,15.97,15.92,15.90,15.89,15.87,15.87,15.87,15.87,15.86,15.80,15.80,15.80,15.80,15.80,15.77,15.77,15.80,15.89,16.02,16.17,16.28,16.38,16.53,16.69,16.79,16.90,17.05,17.20,17.38,17.57,17.77,17.95,18.11,18.30,18.49,18.67,18.83,19.02,19.21,19.39,19.55,19.74,20.52,22.07,24.54,26.94,29.42,32.10,35.03,37.94,40.50,42.88,45.19,47.59,50.03,52.40,54.64
56.20,54.95,53.70,52.83,51.78,50.44,49.47,48.40,47.08,45.72,44.63,43.63,42.85,42.43,42.40,42.10,41.68,41.38,41.22,41.07,40.71,40.32,39.70,38.62,37.47,36.26,35.03,33.79,32.56,31.32,30.35,29.76,29.60,29.37,29.19,29.04,28.87,28.65,28.47,28.28,28.05,27.82,27.66,27.46,27.25,27.09,26.86,26.69,26.50,26.28,26.12,25.97,25.77,25.56,25.41,25.25,25.10,24.89,24.58,24.27,24.08,23.93,23.78,23.62,23.47,23.31,23.16,23.00,22.92,22.79,22.64,22.48,22.33,22.24,22.11,21.96,21.81,21.65,21.50,21.37,21.28,21.13,20.97,20.82,20.67,20.51,20.43,20.35,20.27,20.19,20.11,19.98,19.90,19.89,19.81,19.80,19.76,19.70,19.70,19.70,19.70,19.70,19.70,19.70,19.70,19.66,19.59,19.51,19.43,19.36,19.28,19.20,19.12,19.04,18.97,18.89,18.81,18.67,18.56,18.50,18.50,18.43,18.40,18.37,18.30,18.30,18.24,18.20,18.19,18.11,18.10,18.06,18.00,18.00,17.93,17.90,17.87,17.80,17.80,17.74,17.70,17.70,17.70,17.63,17.55,17.50,17.50,17.42,17.34,17.27,17.19,17.11,17.10,17.06,16.98,16.90,16.90,16.85,16.80,16.80,16.80,16.74,16.70,16.70,16.70,16.70,16.70,16.70,16.70,16.70,16.70,16.67,16.60,16.60,16.53,16.50,16.50,16.50,16.43,16.40,16.37,16.30,16.30,16.24,16.20,16.20,16.20,16.20,16.15,16.10,16.10,16.10,16.04,16.00,16.00,16.00,16.00,15.96,15.90,15.90,15.90,15.90,15.87,15.80,15.80,15.80,15.80,15.80,15.80,15.80,15.80,15.80,15.80,15.72,15.70,15.74,15.82,15.90,16.04,16.15,16.25,16.40,16.56,16.66,16.77,16.92,17.08,17.29,17.48,17.66,17.88,18.05,18.20,18.38,18.61,18.76,18.92,19.11,19.33,19.48,19.64,19.95,20.92,23.39,25.79,28.34,31.08,34.01,36.87,39.65,42.23,44.62,47.01,49.54,51.86,53.91
53.92,52.56,51.56,51.00,50.43,49.72,49.12,48.46,47.68,46.83,45.98,44.97,44.12,43.63,43.54,43.14,42.61,42.24,42.00,41.61,41.18,40.66,39.92,38.83,37.67,36.46,35.22,33.98,32.75,31.51,30.49,29.81,29.60,29.42,29.22,29.04,28.88,28.65,28.48,28.28,28.06,27.88,27.68,27.48,27.29,27.09,26.91,26.71,26.52,26.33,26.13,25.97,25.77,25.56,25.40,25.20,25.03,24.82,24.52,24.25,24.11,24.01,23.89,23.73,23.58,23.43,23.29,23.18,23.05,22.91,22.75,22.60,22.44,22.32,22.17,22.02,21.87,21.71,21.56,21.43,21.35,21.19,21.04,20.91,20.80,20.69,20.61,20.51,20.40,20.32,20.24,20.11,19.98,19.90,19.87,19.82,19.78,19.76,19.76,19.76,19.76,19.74,19.70,19.70,19.70,19.66,19.59,19.51,19.43,19.35,19.28,19.20,19.07,18.98,18.91,18.83,18.75,18.65,18.56,18.49,18.44,18.41,18.37,18.33,18.30,18.25,18.22,18.18,18.13,18.10,18.06,18.02,17.99,17.94,17.91,17.87,17.83,17.79,17.75,17.71,17.70,17.69,17.64,17.57,17.52,17.48,17.43,17.36,17.28,17.20,17.13,17.10,17.06,16.99,16.92,16.84,16.84,16.82,16.78,16.74,16.74,16.71,16.70,16.70,16.70,16.70,16.70,16.70,16.70,16.70,16.66,16.63,16.59,16.55,16.51,16.47,16.44,16.44,16.41,16.37,16.33,16.29,16.25,16.21,16.18,16.14,16.14,16.14,16.12,16.08,16.04,16.04,16.02,16.00,15.99,15.95,15.94,15.92,15.89,15.84,15.84,15.84,15.83,15.80,15.80,15.76,15.74,15.74,15.74,15.74,15.74,15.74,15.74,15.71,15.70,15.71,15.74,15.78,15.91,16.05,16.17,16.28,16.43,16.56,16.70,16.85,17.01,17.19,17.38,17.58,17.76,17.96,18.14,18.30,18.49,18.69,18.85,19.02,19.21,19.41,19.57,19.78,20.44,22.26,24.68,27.25,29.94,32.74,35.55,38.41,41.09,43.59,46.12,48.72,50.93,52.81
51.81,50.63,49.89,49.55,49.30,48.99,48.59,48.20,47.76,47.22,46.57,45.75,45.01,44.50,44.22,43.72,43.16,42.76,42.46,41.92,41.45,40.84,40.02,38.95,37.79,36.59,35.37,34.16,32.94,31.70,30.61,29.84,29.63,29.45,29.25,29.06,28.88,28.67,28.49,28.29,28.09,27.91,27.70,27.52,27.33,27.12,26.94,26.74,26.55,26.37,26.15,25.98,25.77,25.55,25.38,25.17,24.98,24.77,24.51,24.31,24.21,24.12,24.02,23.86,23.72,23.58,23.44,23.34,23.19,23.04,22.88,22.73,22.57,22.40,22.24,22.08,21.93,21.77,21.63,21.51,21.41,21.28,21.14,21.03,20.95,20.86,20.78,20.67,20.55,20.47,20.36,20.18,20.02,19.90,19.90,19.83,19.80,19.80,19.80,19.80,19.80,19.78,19.72,19.72,19.71,19.66,19.59,19.51,19.41,19.33,19.25,19.17,19.04,18.94,18.87,18.79,18.71,18.64,18.56,18.48,18.40,18.38,18.34,18.29,18.27,18.21,18.19,18.15,18.10,18.08,18.02,17.99,17.96,17.90,17.88,17.83,17.79,17.77,17.71,17.68,17.68,17.66,17.60,17.53,17.49,17.45,17.37,17.29,17.23,17.16,17.10,17.08,17.01,16.93,16.86,16.80,16.78,16.78,16.75,16.70,16.68,16.68,16.68,16.68,16.68,16.68,16.68,16.68,16.68,16.68,16.63,16.59,16.57,16.51,16.48,16.44,16.39,16.38,16.38,16.33,16.29,16.27,16.21,16.18,16.15,16.10,16.10,16.08,16.08,16.06,16.00,16.00,15.99,15.98,15.97,15.91,15.88,15.88,15.86,15.80,15.80,15.79,15.78,15.78,15.78,15.73,15.70,15.70,15.70,15.70,15.69,15.68,15.68,15.68,15.68,15.68,15.68,15.68,15.79,15.94,16.08,16.17,16.31,16.46,16.61,16.77,16.94,17.10,17.28,17.49,17.66,17.87,18.06,18.23,18.38,18.60,18.78,18.94,19.11,19.32,19.50,19.66,20.07,21.16,23.57,26.13,28.75,31.41,34.19,37.09,39.86,42.44,45.03,47.64,49.90,51.80
50.00,49.49,49.05,48.82,48.62,48.34,47.89,47.49,47.02,46.48,45.93,45.60,45.29,44.83,44.15,43.55,43.05,42.69,42.39,41.85,41.38,40.77,39.97,38.95,37.79,36.63,35.46,34.29,33.12,31.90,30.72,29.85,29.69,29.47,29.29,29.10,28.88,28.72,28.51,28.32,28.14,27.92,27.75,27.55,27.35,27.18,26.96,26.78,26.59,26.38,26.21,26.00,25.77,25.54,25.32,25.15,24.95,24.75,24.58,24.48,24.40,24.29,24.14,23.99,23.90,23.77,23.62,23.47,23.32,23.16,23.01,22.85,22.70,22.49,22.30,22.15,21.99,21.84,21.73,21.62,21.48,21.39,21.31,21.23,21.14,20.99,20.91,20.82,20.74,20.66,20.45,20.18,19.97,19.90,19.90,19.83,19.80,19.80,19.80,19.80,19.80,19.80,19.79,19.79,19.73,19.66,19.59,19.51,19.37,19.27,19.19,19.11,19.02,18.94,18.87,18.79,18.71,18.64,18.56,18.48,18.40,18.34,18.31,18.28,18.21,18.20,18.15,18.11,18.09,18.02,18.00,17.96,17.91,17.90,17.83,17.81,17.77,17.71,17.70,17.64,17.61,17.61,17.60,17.53,17.46,17.38,17.31,17.23,17.20,17.16,17.09,17.02,16.94,16.87,16.81,16.80,16.73,16.71,16.71,16.69,16.62,16.61,16.61,16.61,16.61,16.61,16.61,16.61,16.61,16.61,16.60,16.57,16.51,16.50,16.44,16.41,16.38,16.31,16.31,16.31,16.27,16.21,16.20,16.14,16.11,16.10,16.10,16.04,16.01,16.01,16.00,16.00,15.95,15.91,15.91,15.90,15.84,15.81,15.81,15.80,15.80,15.75,15.71,15.71,15.71,15.70,15.70,15.70,15.70,15.70,15.66,15.61,15.61,15.61,15.61,15.61,15.61,15.61,15.69,15.81,15.96,16.11,16.20,16.33,16.48,16.64,16.87,17.04,17.19,17.37,17.59,17.76,17.96,18.16,18.32,18.48,18.69,18.88,19.04,19.20,19.41,19.60,19.79,20.09,22.44,24.94,27.48,30.00,32.78,35.69,38.50,41.14,43.63,46.19,48.73,50.95
49.33,48.86,48.44,48.12,47.89,47.66,47.23,46.81,46.29,45.71,45.13,44.74,44.48,44.06,43.31,42.77,42.30,41.97,41.74,41.36,40.94,40.45,39.82,39.00,37.80,36.63,35.47,34.32,33.16,31.97,30.84,29.99,29.76,29.52,29.32,29.13,28.93,28.74,28.55,28.35,28.15,27.92,27.76,27.56,27.35,27.19,26.96,26.79,26.60,26.38,26.22,26.00,25.79,25.59,25.36,25.20,25.02,24.86,24.75,24.63,24.54,24.43,24.28,24.17,24.05,23.91,23.75,23.60,23.45,23.26,23.08,22.93,22.78,22.59,22.40,22.21,22.06,21.94,21.85,21.76,21.65,21.53,21.44,21.37,21.28,21.17,21.09,20.96,20.80,20.64,20.41,20.15,19.97,19.90,19.90,19.83,19.80,19.80,19.80,19.80,19.80,19.80,19.80,19.76,19.69,19.61,19.53,19.46,19.35,19.25,19.18,19.10,19.02,18.94,18.85,18.74,18.66,18.58,18.51,18.43,18.35,18.31,18.27,18.23,18.20,18.16,18.12,18.08,18.04,18.00,17.96,17.93,17.89,17.85,17.81,17.77,17.73,17.70,17.65,17.62,17.60,17.59,17.55,17.47,17.40,17.32,17.25,17.21,17.17,17.11,17.03,16.96,16.88,16.83,16.79,16.75,16.71,16.67,16.65,16.64,16.61,16.57,16.55,16.55,16.55,16.55,16.55,16.55,16.55,16.55,16.55,16.53,16.49,16.45,16.42,16.38,16.34,16.30,16.26,16.25,16.23,16.20,16.16,16.12,16.08,16.05,16.05,16.01,15.97,15.95,15.95,15.95,15.92,15.88,15.85,15.85,15.82,15.80,15.79,15.75,15.75,15.72,15.68,15.65,15.65,15.65,15.65,15.65,15.65,15.65,15.62,15.60,15.60,15.60,15.60,15.60,15.60,15.60,15.60,15.68,15.84,15.99,16.11,16.25,16.41,16.57,16.76,16.95,17.13,17.29,17.48,17.67,17.87,18.05,18.20,18.40,18.59,18.78,18.97,19.13,19.31,19.50,19.69,19.84,21.63,23.92,26.36,28.73,31.23,34.04,36.82,39.45,41.92,44.46,47.01,49.27
48.95,48.40,47.91,47.48,47.17,46.95,46.57,46.10,45.54,44.92,44.30,43.75,43.44,43.03,42.31,41.85,41.40,41.10,40.95,40.74,40.40,40.04,39.61,39.00,37.82,36.65,35.49,34.33,33.16,32.03,30.98,30.17,29.81,29.58,29.36,29.16,28.99,28.78,28.60,28.40,28.18,27.95,27.79,27.59,27.39,27.22,27.00,26.82,26.63,26.42,26.26,26.04,25.86,25.69,25.47,25.31,25.16,25.03,24.93,24.78,24.68,24.56,24.43,24.34,24.18,24.02,23.87,23.71,23.56,23.36,23.16,22.99,22.84,22.67,22.49,22.29,22.15,22.07,21.99,21.90,21.82,21.68,21.59,21.51,21.43,21.33,21.22,21.04,20.81,20.58,20.36,20.13,19.97,19.90,19.90,19.85,19.82,19.82,19.82,19.82,19.81,19.80,19.79,19.72,19.64,19.56,19.49,19.41,19.33,19.25,19.17,19.08,19.01,18.93,18.82,18.69,18.61,18.54,18.46,18.38,18.30,18.29,18.24,18.20,18.18,18.11,18.09,18.05,18.00,17.99,17.93,17.89,17.86,17.80,17.79,17.74,17.69,17.68,17.61,17.60,17.59,17.57,17.49,17.41,17.33,17.26,17.20,17.19,17.12,17.05,16.97,16.89,16.83,16.79,16.76,16.68,16.68,16.64,16.59,16.58,16.58,16.53,16.50,16.50,16.50,16.50,16.50,16.50,16.50,16.50,16.49,16.48,16.47,16.41,16.39,16.35,16.30,16.28,16.22,16.19,16.18,16.18,16.11,16.09,16.05,16.00,15.98,15.98,15.94,15.90,15.90,15.89,15.88,15.85,15.80,15.79,15.78,15.78,15.77,15.70,15.69,15.68,15.66,15.60,15.60,15.60,15.60,15.60,15.58,15.58,15.58,15.58,15.58,15.58,15.58,15.58,15.58,15.58,15.53,15.58,15.72,15.86,16.02,16.17,16.33,16.50,16.65,16.86,17.05,17.22,17.37,17.59,17.77,17.93,18.09,18.31,18.49,18.68,18.89,19.05,19.21,19.41,19.61,19.78,20.88,22.89,25.25,27.48,29.70,32.38,35.06,37.60,40.02,42.49,44.90,47.08
48.67,48.07,47.48,46.96,46.52,46.19,45.86,45.31,44.71,44.09,43.47,42.87,42.45,41.98,41.35,40.89,40.48,40.23,40.14,40.03,39.84,39.60,39.28,38.82,37.83,36.71,35.55,34.39,33.17,32.16,31.20,30.37,29.81,29.63,29.42,29.22,29.06,28.89,28.69,28.49,28.31,28.08,27.92,27.75,27.57,27.35,27.18,26.98,26.78,26.61,26.39,26.21,26.05,25.89,25.72,25.57,25.41,25.27,25.13,24.97,24.83,24.71,24.61,24.47,24.26,24.08,23.93,23.78,23.62,23.46,23.26,23.06,22.90,22.70,22.54,22.44,22.34,22.26,22.15,22.03,21.95,21.86,21.78,21.70,21.60,21.40,21.20,20.98,20.75,20.52,20.35,20.13,19.97,19.90,19.90,19.89,19.88,19.88,19.88,19.88,19.84,19.80,19.79,19.72,19.64,19.56,19.49,19.41,19.33,19.25,19.16,19.02,18.94,18.86,18.78,18.69,18.61,18.54,18.46,18.38,18.30,18.24,18.21,18.18,18.12,18.10,18.05,18.01,17.99,17.93,17.91,17.86,17.82,17.80,17.74,17.71,17.67,17.62,17.60,17.60,17.57,17.50,17.42,17.35,17.27,17.21,17.20,17.13,17.06,16.98,16.91,16.83,16.81,16.76,16.70,16.62,16.62,16.61,16.57,16.52,16.52,16.51,16.50,16.50,16.50,16.50,16.50,16.50,16.50,16.50,16.45,16.42,16.42,16.40,16.35,16.31,16.28,16.22,16.20,16.16,16.12,16.12,16.10,16.05,16.01,15.99,15.92,15.92,15.91,15.90,15.90,15.84,15.82,15.81,15.79,15.73,15.72,15.72,15.72,15.70,15.64,15.62,15.61,15.60,15.60,15.60,15.60,15.59,15.52,15.52,15.52,15.52,15.52,15.52,15.52,15.52,15.52,15.52,15.51,15.55,15.65,15.74,15.89,16.05,16.22,16.43,16.59,16.76,16.95,17.15,17.31,17.48,17.67,17.87,18.03,18.20,18.40,18.60,18.76,18.92,19.12,19.32,19.50,19.71,20.10,21.77,24.01,26.19,28.37,30.84,33.28,35.58,37.80,39.99,42.04,43.94
48.37,47.75,47.13,46.57,46.06,45.58,45.13,44.54,43.92,43.30,42.68,42.06,41.54,41.00,40.41,40.08,39.82,39.64,39.53,39.41,39.26,39.08,38.84,38.51,37.78,36.73,35.57,34.43,33.32,32.37,31.47,30.64,29.99,29.76,29.55,29.37,29.21,29.02,28.83,28.64,28.44,28.21,28.05,27.89,27.72,27.53,27.37,27.16,26.96,26.80,26.56,26.40,26.24,26.10,25.98,25.82,25.67,25.52,25.36,25.17,25.01,24.86,24.71,24.56,24.33,24.15,23.98,23.80,23.64,23.46,23.27,23.08,22.96,22.80,22.69,22.61,22.53,22.42,22.31,22.20,22.12,22.05,21.92,21.77,21.62,21.42,21.19,20.98,20.77,20.54,20.39,20.20,20.05,19.98,19.91,19.90,19.90,19.90,19.90,19.90,19.87,19.83,19.79,19.72,19.64,19.55,19.44,19.36,19.29,19.21,19.12,19.00,18.92,18.84,18.77,18.69,18.61,18.51,18.41,18.34,18.26,18.21,18.18,18.14,18.10,18.06,18.02,17.98,17.95,17.90,17.87,17.83,17.79,17.76,17.71,17.68,17.64,17.60,17.56,17.56,17.51,17.44,17.36,17.32,17.25,17.19,17.15,17.07,17.00,16.92,16.85,16.81,16.77,16.71,16.64,16.60,16.57,16.56,16.54,16.50,16.46,16.46,16.46,16.46,16.46,16.46,16.46,16.46,16.46,16.46,16.42,16.38,16.36,16.36,16.32,16.28,16.24,16.20,16.17,16.13,16.09,16.06,16.06,16.02,15.98,15.95,15.90,15.87,15.86,15.86,15.85,15.81,15.77,15.76,15.75,15.71,15.70,15.68,15.66,15.66,15.61,15.58,15.56,15.56,15.56,15.56,15.56,15.55,15.50,15.50,15.50,15.50,15.50,15.50,15.47,15.46,15.46,15.46,15.46,15.48,15.54,15.65,15.81,15.96,16.13,16.33,16.52,16.68,16.86,17.05,17.24,17.40,17.58,17.77,17.96,18.12,18.30,18.50,18.68,18.83,19.05,19.24,19.42,19.65,19.84,21.16,23.13,25.25,27.32,29.49,31.64,33.77,35.96,38.09,39.82,41.27
48.05,47.42,46.81,46.25,45.67,45.05,44.43,43.82,43.21,42.59,41.96,41.34,40.73,40.11,39.54,39.37,39.27,39.15,39.00,38.85,38.70,38.54,38.35,38.12,37.67,36.72,35.59,34.48,33.56,32.64,31.76,30.95,30.27,29.94,29.72,29.56,29.39,29.16,28.99,28.79,28.57,28.34,28.18,28.03,27.87,27.71,27.56,27.35,27.15,26.99,26.76,26.60,26.44,26.31,26.22,26.07,25.91,25.75,25.58,25.35,25.17,24.98,24.77,24.61,24.39,24.20,24.02,23.80,23.64,23.44,23.25,23.11,23.03,22.96,22.88,22.80,22.72,22.57,22.47,22.39,22.31,22.22,22.02,21.80,21.58,21.42,21.20,21.02,20.84,20.62,20.47,20.32,20.20,20.11,19.96,19.92,19.90,19.90,19.90,19.90,19.90,19.86,19.79,19.71,19.63,19.52,19.39,19.31,19.23,19.15,19.08,19.00,18.92,18.84,18.76,18.68,18.61,18.47,18.36,18.28,18.20,18.19,18.15,18.10,18.09,18.02,18.00,17.96,17.90,17.89,17.83,17.80,17.77,17.70,17.69,17.64,17.60,17.58,17.51,17.50,17.45,17.38,17.30,17.29,17.24,17.16,17.09,17.01,16.94,16.86,16.80,16.79,16.72,16.65,16.59,16.59,16.52,16.50,16.49,16.48,16.41,16.40,16.40,16.40,16.40,16.40,16.40,16.40,16.39,16.39,16.39,16.36,16.30,16.29,16.29,16.25,16.20,16.19,16.12,16.10,16.06,16.00,16.00,16.00,15.96,15.90,15.89,15.83,15.80,15.80,15.79,15.79,15.74,15.70,15.70,15.69,15.69,15.65,15.60,15.59,15.59,15.54,15.50,15.50,15.50,15.50,15.49,15.49,15.49,15.49,15.49,15.49,15.49,15.49,15.44,15.40,15.40,15.40,15.40,15.40,15.44,15.58,15.74,15.89,16.05,16.21,16.44,16.61,16.77,16.94,17.17,17.33,17.48,17.67,17.89,18.05,18.21,18.40,18.62,18.77,18.99,19.18,19.36,19.59,19.81,20.78,22.40,24.46,26.39,28.25,30.12,32.09,34.32,36.48,37.93,38.93
47.71,47.04,46.42,45.86,45.29,44.67,44.05,43.48,42.89,42.25,41.58,40.96,40.34,39.75,39.21,38.89,38.72,38.58,38.43,38.33,38.18,37.99,37.80,37.61,37.32,36.62,35.72,34.75,33.88,33.00,32.11,31.30,30.71,30.29,29.98,29.73,29.52,29.29,29.07,28.88,28.71,28.53,28.37,28.22,28.05,27.84,27.68,27.51,27.35,27.19,27.01,26.85,26.70,26.54,26.35,26.19,26.04,25.84,25.58,25.35,25.13,24.94,24.76,24.55,24.37,24.17,23.97,23.80,23.64,23.51,23.40,23.30,23.23,23.15,23.07,22.98,22.85,22.75,22.66,22.56,22.43,22.24,22.06,21.88,21.70,21.49,21.31,21.15,20.99,20.81,20.71,20.57,20.45,20.37,20.21,20.05,19.94,19.90,19.90,19.90,19.86,19.80,19.72,19.65,19.57,19.48,19.39,19.31,19.23,19.15,19.08,19.00,18.87,18.77,18.70,18.62,18.54,18.45,18.36,18.28,18.20,18.15,18.11,18.08,18.03,18.00,17.96,17.92,17.89,17.83,17.81,17.77,17.72,17.70,17.64,17.61,17.58,17.53,17.50,17.45,17.39,17.32,17.30,17.25,17.18,17.10,17.02,16.95,16.91,16.86,16.79,16.73,16.66,16.58,16.53,16.53,16.51,16.46,16.43,16.43,16.40,16.40,16.40,16.40,16.40,16.40,16.40,16.38,16.33,16.33,16.33,16.32,16.29,16.24,16.23,16.22,16.18,16.13,16.11,16.06,16.02,16.00,16.00,15.95,15.92,15.89,15.83,15.81,15.80,15.78,15.73,15.73,15.71,15.70,15.69,15.64,15.63,15.62,15.58,15.53,15.53,15.51,15.50,15.50,15.50,15.46,15.43,15.43,15.43,15.43,15.43,15.43,15.43,15.43,15.41,15.40,15.40,15.40,15.40,15.40,15.41,15.46,15.61,15.80,15.99,16.15,16.32,16.52,16.71,16.87,17.04,17.20,17.39,17.59,17.76,17.97,18.14,18.33,18.55,18.71,18.93,19.15,19.35,19.52,19.70,20.32,21.59,23.57,25.50,27.24,28.91,30.67,32.85,34.97,36.36,37.31
47.44,46.72,46.05,45.48,44.90,44.29,43.70,43.15,42.58,41.96,41.27,40.65,40.05,39.48,38.95,38.51,38.23,38.04,37.89,37.79,37.64,37.45,37.25,37.07,36.87,36.42,35.81,35.07,34.20,33.34,32.47,31.66,31.12,30.66,30.26,29.93,29.65,29.42,29.21,29.01,28.84,28.68,28.53,28.37,28.19,27.97,27.81,27.66,27.50,27.34,27.16,27.00,26.85,26.67,26.44,26.29,26.11,25.88,25.58,25.35,25.09,24.89,24.72,24.52,24.33,24.16,23.99,23.87,23.74,23.65,23.57,23.50,23.42,23.34,23.26,23.17,23.01,22.91,22.82,22.71,22.55,22.32,22.15,21.98,21.79,21.59,21.46,21.31,21.17,21.04,20.96,20.85,20.73,20.62,20.50,20.28,20.11,19.99,19.94,19.91,19.85,19.77,19.69,19.62,19.54,19.46,19.39,19.31,19.21,19.12,19.04,18.96,18.84,18.74,18.67,18.59,18.51,18.44,18.36,18.27,18.17,18.12,18.08,18.05,18.00,17.97,17.93,17.89,17.86,17.81,17.78,17.73,17.69,17.66,17.61,17.58,17.54,17.50,17.47,17.40,17.34,17.29,17.27,17.19,17.11,17.04,16.96,16.91,16.88,16.83,16.75,16.67,16.60,16.54,16.49,16.46,16.46,16.43,16.39,16.36,16.36,16.36,16.36,16.36,16.36,16.36,16.36,16.35,16.30,16.30,16.30,16.29,16.26,16.21,16.18,16.16,16.15,16.10,16.07,16.03,15.99,15.96,15.96,15.92,15.89,15.85,15.80,15.77,15.76,15.75,15.70,15.67,15.66,15.66,15.66,15.61,15.58,15.56,15.55,15.50,15.50,15.48,15.46,15.46,15.46,15.42,15.40,15.40,15.40,15.40,15.38,15.36,15.36,15.36,15.36,15.36,15.36,15.36,15.36,15.36,15.36,15.36,15.52,15.70,15.90,16.08,16.23,16.43,16.61,16.77,16.95,17.11,17.29,17.49,17.67,17.90,18.08,18.27,18.49,18.64,18.86,19.08,19.27,19.42,19.61,19.99,20.94,22.66,24.51,26.18,27.77,29.40,31.37,33.42,34.78,35.72
47.24,46.46,45.69,45.10,44.52,43.91,43.37,42.83,42.29,41.71,41.01,40.39,39.83,39.29,38.75,38.21,37.79,37.53,37.37,37.22,37.06,36.91,36.73,36.50,36.34,36.13,35.86,35.45,34.52,33.66,32.81,32.05,31.51,31.04,30.58,30.15,29.78,29.54,29.37,29.18,28.97,28.81,28.66,28.50,28.32,28.09,27.94,27.78,27.63,27.46,27.23,27.07,26.91,26.74,26.51,26.35,26.14,25.88,25.58,25.35,25.05,24.82,24.67,24.51,24.29,24.15,24.07,24.00,23.92,23.84,23.76,23.69,23.61,23.53,23.46,23.36,23.20,23.05,22.95,22.84,22.68,22.45,22.28,22.08,21.87,21.71,21.63,21.50,21.37,21.30,21.22,21.14,21.03,20.89,20.81,20.60,20.37,20.16,20.01,19.93,19.85,19.77,19.69,19.62,19.54,19.46,19.39,19.31,19.16,19.05,18.98,18.90,18.82,18.74,18.67,18.59,18.51,18.44,18.36,18.26,18.11,18.10,18.05,18.00,17.99,17.92,17.90,17.86,17.80,17.80,17.73,17.70,17.68,17.60,17.60,17.55,17.50,17.49,17.41,17.34,17.30,17.28,17.20,17.13,17.05,16.97,16.90,16.90,16.84,16.76,16.69,16.61,16.53,16.50,16.48,16.40,16.40,16.40,16.37,16.30,16.30,16.30,16.30,16.30,16.30,16.30,16.30,16.30,16.30,16.30,16.30,16.26,16.20,16.20,16.13,16.10,16.10,16.10,16.02,16.00,15.97,15.90,15.90,15.90,15.86,15.80,15.80,15.73,15.70,15.70,15.70,15.62,15.60,15.60,15.60,15.60,15.53,15.50,15.50,15.50,15.50,15.45,15.40,15.40,15.40,15.40,15.40,15.40,15.40,15.40,15.35,15.30,15.30,15.30,15.30,15.30,15.30,15.30,15.30,15.30,15.30,15.30,15.45,15.61,15.79,16.02,16.17,16.32,16.48,16.65,16.88,17.04,17.20,17.38,17.61,17.84,18.01,18.20,18.42,18.58,18.80,18.99,19.14,19.30,19.53,19.76,20.41,21.76,23.46,25.10,26.68,28.24,29.87,31.84,33.18,34.14
46.84,46.01,45.14,44.63,44.16,43.59,43.00,42.45,41.91,41.35,40.75,40.14,39.61,39.09,38.55,38.01,37.56,37.14,36.81,36.70,36.55,36.36,36.17,35.98,35.78,35.56,35.31,35.02,34.59,33.96,33.17,32.38,31.89,31.43,30.90,30.34,29.85,29.66,29.46,29.25,29.03,28.88,28.68,28.50,28.34,28.16,28.00,27.85,27.69,27.53,27.30,27.13,26.98,26.80,26.57,26.37,26.11,25.84,25.57,25.29,25.03,24.82,24.67,24.51,24.42,24.34,24.27,24.19,24.11,24.03,23.96,23.88,23.80,23.68,23.56,23.44,23.33,23.18,23.04,22.91,22.75,22.57,22.40,22.24,22.07,21.96,21.88,21.73,21.55,21.42,21.25,21.11,20.95,20.75,20.57,20.43,20.27,20.11,20.00,19.93,19.85,19.77,19.69,19.56,19.48,19.40,19.32,19.24,19.14,19.05,18.98,18.90,18.82,18.74,18.65,18.53,18.45,18.37,18.29,18.21,18.11,18.05,18.02,17.98,17.93,17.91,17.86,17.82,17.79,17.74,17.71,17.67,17.63,17.60,17.55,17.52,17.48,17.43,17.35,17.31,17.27,17.22,17.14,17.06,16.99,16.93,16.90,16.85,16.78,16.70,16.62,16.55,16.51,16.47,16.43,16.40,16.35,16.34,16.30,16.24,16.24,16.24,16.24,16.24,16.24,16.24,16.24,16.24,16.24,16.24,16.24,16.22,16.19,16.14,16.11,16.10,16.09,16.04,16.01,15.97,15.93,15.89,15.85,15.84,15.82,15.79,15.74,15.71,15.67,15.64,15.64,15.61,15.60,15.58,15.54,15.54,15.51,15.47,15.44,15.44,15.44,15.42,15.38,15.34,15.34,15.34,15.34,15.34,15.34,15.34,15.32,15.30,15.30,15.30,15.30,15.30,15.30,15.30,15.30,15.30,15.30,15.30,15.36,15.51,15.71,15.89,16.04,16.20,16.38,16.58,16.76,16.96,17.13,17.31,17.54,17.73,17.92,18.12,18.30,18.45,18.63,18.82,19.01,19.17,19.40,19.63,20.03,20.79,22.44,24.03,25.62,27.21,28.78,30.39,31.65,32.68
46.19,45.32,44.46,44.06,43.71,43.21,42.61,42.07,41.52,40.98,40.44,39.89,39.38,38.88,38.36,37.82,37.34,36.84,36.38,36.20,36.02,35.82,35.62,35.45,35.21,35.00,34.78,34.55,34.38,33.96,33.34,32.68,32.22,31.75,31.16,30.50,29.88,29.71,29.50,29.29,29.09,28.94,28.73,28.54,28.38,28.22,28.07,27.91,27.76,27.60,27.38,27.20,27.04,26.86,26.61,26.37,26.09,25.81,25.57,25.29,25.06,24.88,24.73,24.59,24.58,24.53,24.46,24.38,24.30,24.23,24.14,24.04,23.94,23.81,23.67,23.53,23.43,23.28,23.14,23.00,22.84,22.66,22.51,22.34,22.18,22.06,21.96,21.78,21.57,21.41,21.18,21.01,20.82,20.59,20.38,20.24,20.13,20.03,19.98,19.90,19.84,19.76,19.66,19.53,19.44,19.36,19.29,19.21,19.13,19.05,18.97,18.87,18.79,18.72,18.62,18.49,18.41,18.34,18.26,18.18,18.10,18.03,17.99,17.95,17.90,17.88,17.81,17.77,17.76,17.68,17.67,17.63,17.57,17.57,17.52,17.49,17.45,17.39,17.31,17.28,17.23,17.15,17.08,17.02,16.95,16.89,16.87,16.79,16.71,16.65,16.59,16.51,16.48,16.43,16.37,16.37,16.32,16.29,16.25,16.20,16.20,16.20,16.20,16.20,16.20,16.20,16.20,16.20,16.20,16.20,16.20,16.19,16.16,16.11,16.08,16.07,16.06,16.00,15.98,15.93,15.89,15.87,15.81,15.78,15.77,15.76,15.70,15.68,15.64,15.59,15.57,15.57,15.57,15.55,15.50,15.48,15.47,15.44,15.40,15.40,15.38,15.37,15.35,15.30,15.30,15.30,15.29,15.28,15.32,15.31,15.29,15.27,15.27,15.27,15.27,15.27,15.27,15.27,15.27,15.27,15.27,15.27,15.27,15.42,15.61,15.76,15.94,16.10,16.29,16.51,16.66,16.87,17.05,17.24,17.45,17.61,17.80,17.99,18.14,18.32,18.48,18.68,18.89,19.07,19.30,19.52,19.76,20.14,21.53,23.06,24.65,26.25,27.75,29.04,30.18,31.25
45.22,44.31,43.59,43.34,43.14,42.77,42.22,41.68,41.14,40.60,40.06,39.65,39.16,38.65,38.17,37.63,37.15,36.65,36.13,35.70,35.46,35.28,35.09,34.87,34.64,34.46,34.27,34.04,33.81,33.56,33.28,32.94,32.47,32.01,31.34,30.59,29.88,29.65,29.48,29.32,29.16,29.00,28.84,28.64,28.44,28.29,28.13,27.98,27.82,27.67,27.51,27.29,27.10,26.91,26.61,26.37,26.09,25.81,25.58,25.34,25.16,25.00,24.86,24.78,24.77,24.73,24.65,24.57,24.49,24.42,24.31,24.16,24.01,23.92,23.80,23.64,23.50,23.34,23.23,23.12,22.96,22.74,22.57,22.38,22.16,21.94,21.78,21.59,21.38,21.22,20.99,20.81,20.63,20.40,20.24,20.03,19.93,19.92,19.91,19.83,19.80,19.75,19.60,19.52,19.44,19.36,19.29,19.21,19.13,19.05,18.95,18.81,18.73,18.65,18.57,18.49,18.41,18.34,18.26,18.18,18.10,18.03,17.95,17.91,17.90,17.82,17.75,17.71,17.69,17.62,17.61,17.56,17.51,17.51,17.50,17.45,17.41,17.39,17.31,17.24,17.17,17.09,17.01,17.00,16.95,16.87,16.80,16.73,16.65,16.61,16.59,16.51,16.44,16.36,16.31,16.31,16.30,16.25,16.21,16.20,16.20,16.20,16.20,16.20,16.20,16.20,16.20,16.20,16.20,16.20,16.20,16.17,16.11,16.10,16.04,16.01,16.01,16.00,15.93,15.90,15.87,15.81,15.80,15.74,15.71,15.71,15.70,15.63,15.60,15.58,15.51,15.51,15.51,15.51,15.49,15.42,15.41,15.40,15.40,15.40,15.33,15.31,15.31,15.30,15.30,15.30,15.26,15.24,15.38,15.33,15.26,15.21,15.21,15.21,15.21,15.21,15.21,15.21,15.21,15.21,15.21,15.21,15.21,15.32,15.48,15.64,15.86,16.03,16.23,16.44,16.60,16.76,16.96,17.16,17.32,17.48,17.64,17.80,17.96,18.18,18.35,18.55,18.78,19.00,19.23,19.42,19.61,19.90,20.75,22.20,23.82,25.40,26.80,27.81,28.81,29.84
