8.20,8.20,8.28,8.30,8.30,8.31,8.39,8.40,8.40,8.40,8.42,8.48,8.50,8.51,8.53,8.59,8.60,8.60,8.62,8.69,8.70,8.70,8.71,8.72,8.78,8.80,8.80,8.81,8.89,8.90,8.90,8.90,8.92,8.98,9.00,9.00,9.01,9.08,9.10,9.10,9.10,9.12,9.18,9.20,9.20,9.20,9.28,9.30,9.30,9.30,9.32,9.37,9.40,9.40,9.40,9.48,9.50,9.50,9.50,9.52,9.57,9.60,9.60,9.60,9.67,9.70,9.70,9.70,9.70,9.76,9.80,9.80,9.80,9.80,9.84,9.90,9.90,9.90,9.90,9.90,9.91,9.98,10.00,10.04,10.10,10.10,10.17,10.25,10.30,10.30,10.38,10.40,10.43,10.50,10.50,10.57,10.60,10.62,10.70,10.70,10.71,10.74,10.80,10.80,10.81,10.85,10.90,10.92,10.98,11.00,11.01,11.02,11.02,11.02,11.05,11.10,11.10,11.11,11.15,11.20,11.22,11.28,11.30,11.31,11.33,11.39,11.40,11.41,11.43,11.49,11.50,11.51,11.54,11.60,11.62,11.68,11.75,11.80,11.82,11.87,11.91,11.94,12.02,12.08,12.11,12.15,12.22,12.22,12.28,12.35,12.40,12.42,12.49,12.56,12.60,12.62,12.68,12.71,12.75,12.83,12.89,12.91,12.95,13.00,13.02,13.09,13.16,13.21,13.23,13.30,13.37,13.41,13.43,13.49,13.51,13.57,13.64,13.70,13.72,13.76,13.81,13.83,13.91,13.97,14.04,14.12,14.19,14.22,14.22,14.25,14.32,14.32,14.37,14.44,14.53,14.61,14.62,14.62,14.62,14.62,14.62,14.67,14.75,14.84,14.97,15.00,15.04,15.10,15.10,15.17,15.20,15.23,15.30,15.30,15.36,15.40,15.39,15.33,15.32,15.32,15.32,15.30,15.24,15.21,15.18,15.12,15.10,15.05,15.01,14.99,14.93,14.85,14.82,14.80,14.72,14.64,14.62,14.59,14.52,14.52,14.52,14.52,14.50,14.42,14.42,14.42,14.42,14.42,14.42,14.47,14.53,14.59,14.67,14.75,14.83,14.90
8.20,8.20,8.28,8.30,8.30,8.31,8.39,8.40,8.40,8.42,8.48,8.50,8.50,8.53,8.59,8.60,8.60,8.60,8.62,8.69,8.70,8.70,8.72,8.79,8.80,8.80,8.80,8.81,8.89,8.90,8.90,8.92,8.98,9.00,9.00,9.00,9.01,9.08,9.10,9.10,9.11,9.18,9.20,9.20,9.20,9.20,9.28,9.30,9.30,9.31,9.38,9.40,9.40,9.40,9.40,9.48,9.50,9.50,9.51,9.57,9.59,9.60,9.60,9.60,9.67,9.70,9.70,9.70,9.70,9.76,9.80,9.80,9.80,9.80,9.84,9.90,9.90,9.90,9.90,9.90,9.91,9.98,10.00,10.04,10.10,10.10,10.17,10.25,10.30,10.30,10.38,10.40,10.43,10.50,10.50,10.57,10.60,10.62,10.70,10.70,10.74,10.79,10.80,10.80,10.85,10.89,10.91,10.98,11.00,11.00,11.02,11.09,11.09,11.09,11.09,11.10,11.10,11.16,11.19,11.22,11.28,11.30,11.30,11.32,11.39,11.40,11.40,11.43,11.49,11.50,11.50,11.54,11.59,11.60,11.67,11.74,11.79,11.81,11.87,11.89,11.94,12.00,12.08,12.10,12.14,12.21,12.29,12.29,12.34,12.39,12.41,12.48,12.55,12.59,12.62,12.69,12.70,12.75,12.82,12.89,12.90,12.95,12.99,13.02,13.08,13.16,13.19,13.22,13.29,13.37,13.39,13.43,13.49,13.50,13.56,13.63,13.69,13.70,13.77,13.79,13.83,13.89,13.97,13.99,14.04,14.12,14.19,14.26,14.29,14.31,14.39,14.39,14.39,14.47,14.60,14.68,14.69,14.69,14.69,14.69,14.69,14.74,14.82,14.89,14.98,15.00,15.04,15.10,15.10,15.17,15.20,15.23,15.30,15.30,15.36,15.40,15.40,15.39,15.39,15.39,15.37,15.30,15.29,15.24,15.20,15.18,15.11,15.09,15.05,15.00,14.99,14.91,14.89,14.86,14.78,14.71,14.69,14.65,14.59,14.59,14.59,14.59,14.57,14.49,14.49,14.49,14.49,14.49,14.49,14.49,14.51,14.53,14.61,14.68,14.76,14.84
8.21,8.25,8.29,8.30,8.30,8.31,8.39,8.40,8.40,8.42,8.50,8.50,8.50,8.53,8.60,8.60,8.60,8.62,8.66,8.70,8.70,8.70,8.73,8.80,8.80,8.80,8.82,8.86,8.89,8.90,8.90,8.92,9.00,9.00,9.00,9.01,9.05,9.09,9.10,9.10,9.12,9.19,9.20,9.20,9.21,9.25,9.29,9.30,9.30,9.31,9.39,9.40,9.40,9.41,9.45,9.49,9.50,9.50,9.51,9.58,9.60,9.60,9.61,9.65,9.69,9.70,9.70,9.70,9.74,9.78,9.80,9.80,9.80,9.83,9.87,9.90,9.90,9.90,9.90,9.90,9.91,9.98,10.00,10.04,10.10,10.10,10.17,10.25,10.30,10.30,10.38,10.40,10.43,10.50,10.50,10.57,10.62,10.66,10.70,10.74,10.78,10.80,10.80,10.84,10.88,10.90,10.91,10.99,11.00,11.02,11.06,11.10,11.10,11.10,11.12,11.15,11.15,11.18,11.22,11.26,11.30,11.30,11.33,11.36,11.40,11.44,11.45,11.47,11.50,11.50,11.53,11.57,11.61,11.65,11.73,11.78,11.82,11.86,11.94,11.95,11.99,12.06,12.10,12.14,12.20,12.26,12.30,12.34,12.38,12.42,12.46,12.54,12.58,12.62,12.66,12.70,12.74,12.80,12.87,12.90,12.94,13.01,13.05,13.07,13.14,13.19,13.22,13.28,13.35,13.39,13.43,13.47,13.51,13.54,13.62,13.67,13.71,13.75,13.79,13.83,13.88,13.95,13.99,14.03,14.09,14.17,14.24,14.32,14.35,14.36,14.40,14.44,14.45,14.50,14.62,14.73,14.75,14.75,14.75,14.75,14.79,14.83,14.88,14.95,14.99,15.03,15.07,15.11,15.15,15.19,15.22,15.26,15.30,15.34,15.38,15.42,15.45,15.45,15.45,15.43,15.39,15.35,15.35,15.30,15.25,15.24,15.16,15.12,15.08,15.04,15.00,14.96,14.93,14.89,14.85,14.77,14.72,14.68,14.65,14.65,14.65,14.63,14.59,14.55,14.55,14.52,14.51,14.55,14.55,14.55,14.55,14.56,14.60,14.64,14.70,14.78
8.23,8.30,8.30,8.30,8.30,8.32,8.39,8.40,8.41,8.43,8.50,8.50,8.50,8.53,8.60,8.60,8.60,8.64,8.70,8.70,8.70,8.71,8.74,8.80,8.80,8.80,8.84,8.90,8.90,8.90,8.91,8.93,9.00,9.00,9.00,9.03,9.10,9.10,9.10,9.11,9.13,9.19,9.20,9.21,9.24,9.30,9.30,9.30,9.30,9.32,9.39,9.40,9.40,9.42,9.50,9.50,9.50,9.50,9.52,9.59,9.60,9.60,9.62,9.69,9.70,9.70,9.70,9.70,9.78,9.80,9.80,9.80,9.80,9.87,9.90,9.90,9.90,9.90,9.90,9.90,9.91,9.98,10.00,10.04,10.10,10.10,10.17,10.25,10.30,10.30,10.38,10.40,10.43,10.50,10.51,10.57,10.64,10.70,10.70,10.77,10.80,10.80,10.82,10.89,10.91,10.91,10.93,10.99,11.01,11.05,11.10,11.11,11.11,11.11,11.14,11.20,11.20,11.21,11.25,11.30,11.30,11.31,11.36,11.40,11.42,11.48,11.50,11.50,11.51,11.51,11.57,11.61,11.64,11.71,11.78,11.81,11.85,11.92,11.99,12.01,12.05,12.10,12.11,12.19,12.26,12.30,12.32,12.38,12.41,12.45,12.53,12.59,12.61,12.66,12.71,12.71,12.79,12.86,12.90,12.92,13.00,13.07,13.11,13.13,13.20,13.21,13.26,13.34,13.40,13.41,13.46,13.50,13.53,13.60,13.67,13.71,13.74,13.81,13.81,13.87,13.94,14.00,14.01,14.08,14.15,14.22,14.29,14.37,14.41,14.41,14.42,14.49,14.51,14.55,14.64,14.78,14.81,14.81,14.82,14.83,14.89,14.91,14.94,15.01,15.01,15.07,15.11,15.13,15.19,15.21,15.26,15.30,15.32,15.38,15.41,15.44,15.50,15.50,15.50,15.46,15.41,15.41,15.40,15.35,15.31,15.29,15.23,15.15,15.11,15.10,15.02,15.01,14.97,14.91,14.91,14.83,14.76,14.71,14.71,14.71,14.71,14.67,14.61,14.61,14.60,14.55,14.54,14.60,14.60,14.61,14.61,14.61,14.61,14.61,14.65,14.72
8.23,8.30,8.30,8.30,8.33,8.38,8.40,8.40,8.43,8.48,8.50,8.50,8.50,8.53,8.60,8.60,8.60,8.64,8.70,8.70,8.70,8.74,8.78,8.80,8.80,8.80,8.84,8.90,8.90,8.90,8.93,8.98,9.00,9.00,9.00,9.03,9.10,9.10,9.10,9.13,9.18,9.20,9.20,9.24,9.28,9.30,9.30,9.30,9.33,9.38,9.40,9.40,9.40,9.42,9.50,9.50,9.50,9.52,9.58,9.60,9.60,9.60,9.62,9.69,9.70,9.70,9.70,9.70,9.78,9.80,9.80,9.80,9.80,9.87,9.90,9.90,9.90,9.90,9.90,9.90,9.91,9.98,10.00,10.04,10.10,10.10,10.17,10.25,10.30,10.30,10.38,10.40,10.43,10.51,10.57,10.59,10.64,10.70,10.70,10.77,10.80,10.82,10.88,10.90,10.95,10.98,10.98,11.00,11.05,11.09,11.12,11.18,11.18,11.18,11.18,11.20,11.20,11.25,11.29,11.30,11.30,11.36,11.39,11.42,11.48,11.50,11.50,11.53,11.58,11.58,11.59,11.64,11.70,11.78,11.79,11.84,11.91,11.98,12.00,12.05,12.09,12.11,12.17,12.25,12.29,12.32,12.38,12.40,12.45,12.51,12.58,12.60,12.65,12.72,12.78,12.78,12.85,12.89,12.92,12.99,13.06,13.09,13.13,13.18,13.20,13.26,13.33,13.38,13.40,13.46,13.49,13.53,13.59,13.67,13.69,13.73,13.80,13.88,13.88,13.93,13.98,14.01,14.07,14.14,14.19,14.22,14.29,14.37,14.44,14.48,14.48,14.56,14.58,14.61,14.69,14.79,14.85,14.88,14.89,14.95,14.97,14.98,15.01,15.08,15.08,15.09,15.13,15.18,15.20,15.26,15.29,15.32,15.38,15.40,15.44,15.49,15.50,15.50,15.50,15.49,15.48,15.48,15.42,15.39,15.35,15.30,15.28,15.22,15.18,15.16,15.08,15.08,15.03,14.98,14.97,14.90,14.82,14.78,14.78,14.78,14.78,14.73,14.68,14.68,14.62,14.59,14.58,14.60,14.60,14.65,14.68,14.68,14.68,14.68,14.69,14.71
8.23,8.30,8.30,8.30,8.34,8.40,8.40,8.40,8.44,8.50,8.50,8.50,8.52,8.56,8.60,8.60,8.63,8.66,8.70,8.70,8.70,8.75,8.80,8.80,8.80,8.82,8.86,8.90,8.90,8.93,8.97,9.00,9.00,9.00,9.02,9.06,9.10,9.10,9.13,9.16,9.20,9.20,9.20,9.25,9.30,9.30,9.30,9.32,9.36,9.40,9.40,9.40,9.42,9.45,9.50,9.50,9.52,9.56,9.60,9.60,9.60,9.62,9.65,9.70,9.70,9.70,9.71,9.74,9.79,9.80,9.80,9.80,9.80,9.87,9.90,9.90,9.90,9.90,9.90,9.90,9.91,9.98,10.00,10.04,10.10,10.10,10.17,10.25,10.30,10.30,10.38,10.40,10.43,10.51,10.59,10.60,10.64,10.70,10.70,10.77,10.80,10.83,10.90,10.90,10.96,11.00,11.01,11.04,11.08,11.10,11.12,11.20,11.20,11.20,11.21,11.24,11.24,11.28,11.30,11.31,11.34,11.38,11.42,11.46,11.50,11.50,11.52,11.56,11.61,11.64,11.64,11.69,11.75,11.80,11.83,11.90,11.96,12.00,12.04,12.08,12.12,12.16,12.24,12.28,12.32,12.36,12.40,12.43,12.50,12.56,12.61,12.64,12.71,12.77,12.81,12.84,12.89,12.92,12.97,13.05,13.09,13.13,13.17,13.21,13.24,13.31,13.37,13.41,13.45,13.52,13.54,13.58,13.65,13.69,13.73,13.79,13.85,13.90,13.93,13.97,14.01,14.05,14.13,14.18,14.22,14.26,14.34,14.41,14.47,14.51,14.54,14.62,14.64,14.68,14.75,14.83,14.91,14.94,14.95,15.00,15.00,15.02,15.06,15.10,15.10,15.13,15.16,15.21,15.24,15.28,15.32,15.36,15.40,15.40,15.46,15.50,15.50,15.54,15.54,15.54,15.53,15.50,15.46,15.42,15.38,15.34,15.31,15.26,15.23,15.19,15.15,15.11,15.07,15.03,15.00,14.95,14.88,14.84,14.84,14.84,14.81,14.77,14.73,14.70,14.66,14.64,14.64,14.64,14.64,14.68,14.70,14.71,14.74,14.74,14.74,14.74
8.23,8.30,8.30,8.30,8.34,8.40,8.40,8.40,8.44,8.50,8.50,8.50,8.55,8.60,8.60,8.60,8.66,8.70,8.70,8.70,8.70,8.75,8.80,8.80,8.80,8.86,8.90,8.90,8.90,8.97,9.00,9.00,9.00,9.00,9.06,9.10,9.10,9.10,9.16,9.20,9.20,9.20,9.20,9.25,9.30,9.30,9.30,9.36,9.40,9.40,9.40,9.40,9.45,9.50,9.50,9.50,9.55,9.60,9.60,9.60,9.60,9.64,9.70,9.70,9.70,9.70,9.72,9.80,9.80,9.80,9.80,9.80,9.80,9.87,9.90,9.90,9.90,9.90,9.90,9.90,9.91,9.98,10.00,10.04,10.10,10.10,10.17,10.25,10.30,10.30,10.38,10.40,10.43,10.51,10.59,10.60,10.64,10.70,10.70,10.77,10.80,10.83,10.90,10.90,10.96,11.00,11.02,11.09,11.10,11.10,11.13,11.20,11.20,11.21,11.24,11.30,11.30,11.30,11.31,11.32,11.40,11.40,11.45,11.50,11.50,11.50,11.56,11.60,11.62,11.69,11.70,11.75,11.80,11.81,11.88,11.96,12.00,12.01,12.09,12.10,12.15,12.22,12.30,12.30,12.36,12.41,12.41,12.49,12.56,12.60,12.62,12.70,12.77,12.80,12.83,12.90,12.90,12.96,13.04,13.10,13.10,13.17,13.20,13.22,13.30,13.37,13.40,13.43,13.51,13.58,13.60,13.64,13.70,13.70,13.77,13.85,13.90,13.91,13.98,14.00,14.04,14.11,14.19,14.20,14.25,14.32,14.39,14.47,14.50,14.53,14.61,14.68,14.70,14.74,14.82,14.90,14.97,15.01,15.01,15.01,15.01,15.06,15.10,15.11,15.11,15.16,15.20,15.22,15.29,15.30,15.35,15.40,15.40,15.40,15.46,15.50,15.52,15.59,15.60,15.60,15.58,15.50,15.50,15.45,15.40,15.39,15.32,15.30,15.26,15.20,15.20,15.13,15.10,15.08,15.01,15.00,14.95,14.91,14.90,14.90,14.84,14.80,14.78,14.71,14.71,14.71,14.71,14.71,14.71,14.71,14.71,14.72,14.79,14.80,14.80,14.80
8.28,8.30,8.30,8.30,8.34,8.40,8.40,8.40,8.44,8.50,8.50,8.50,8.55,8.60,8.60,8.60,8.66,8.70,8.70,8.70,8.75,8.78,8.80,8.80,8.86,8.89,8.90,8.90,8.90,8.97,9.00,9.00,9.00,9.05,9.09,9.10,9.10,9.10,9.16,9.20,9.20,9.20,9.25,9.28,9.30,9.30,9.30,9.36,9.40,9.40,9.40,9.45,9.48,9.50,9.50,9.50,9.55,9.60,9.60,9.60,9.60,9.64,9.70,9.70,9.70,9.70,9.72,9.80,9.80,9.80,9.80,9.80,9.80,9.87,9.90,9.90,9.90,9.90,9.90,9.90,9.91,9.98,10.00,10.04,10.10,10.10,10.17,10.25,10.30,10.30,10.38,10.40,10.43,10.51,10.59,10.60,10.64,10.70,10.70,10.77,10.84,10.88,10.90,10.96,10.99,11.03,11.07,11.10,11.10,11.13,11.18,11.20,11.25,11.27,11.28,11.30,11.30,11.34,11.37,11.38,11.40,11.45,11.48,11.50,11.50,11.56,11.59,11.63,11.67,11.70,11.75,11.78,11.82,11.87,11.95,11.99,12.02,12.07,12.10,12.14,12.21,12.27,12.30,12.35,12.42,12.47,12.47,12.55,12.59,12.63,12.68,12.76,12.79,12.83,12.88,12.90,12.95,13.02,13.08,13.11,13.16,13.19,13.23,13.29,13.36,13.39,13.43,13.50,13.57,13.59,13.64,13.68,13.71,13.76,13.84,13.88,13.92,13.97,13.99,14.04,14.10,14.17,14.20,14.24,14.31,14.37,14.40,14.47,14.53,14.60,14.67,14.69,14.74,14.80,14.88,14.96,15.04,15.07,15.07,15.07,15.07,15.09,15.12,15.17,15.17,15.19,15.23,15.27,15.30,15.35,15.38,15.40,15.40,15.46,15.49,15.52,15.57,15.60,15.60,15.60,15.58,15.50,15.50,15.45,15.40,15.39,15.32,15.30,15.26,15.20,15.20,15.18,15.14,15.09,15.07,15.01,14.98,14.97,14.96,14.91,14.88,14.84,14.79,14.77,14.77,14.77,14.77,14.77,14.77,14.77,14.77,14.77,14.80,14.80,14.80,14.80
8.30,8.30,8.30,8.32,8.36,8.40,8.40,8.42,8.46,8.50,8.50,8.53,8.57,8.60,8.60,8.60,8.66,8.70,8.70,8.70,8.77,8.80,8.80,8.80,8.88,8.90,8.90,8.90,8.93,8.98,9.00,9.00,9.00,9.08,9.10,9.10,9.10,9.13,9.17,9.20,9.20,9.20,9.27,9.30,9.30,9.30,9.33,9.37,9.40,9.40,9.40,9.47,9.50,9.50,9.50,9.52,9.57,9.60,9.60,9.60,9.62,9.66,9.70,9.70,9.70,9.72,9.75,9.80,9.80,9.80,9.80,9.80,9.80,9.87,9.90,9.90,9.90,9.90,9.90,9.90,9.91,9.98,10.00,10.04,10.11,10.13,10.18,10.25,10.30,10.30,10.38,10.40,10.43,10.51,10.59,10.60,10.64,10.70,10.70,10.77,10.85,10.90,10.91,10.98,11.00,11.04,11.10,11.10,11.12,11.16,11.20,11.20,11.28,11.30,11.31,11.33,11.33,11.38,11.40,11.41,11.43,11.48,11.50,11.51,11.54,11.59,11.62,11.66,11.70,11.73,11.78,11.82,11.86,11.93,11.99,12.02,12.07,12.13,12.13,12.20,12.26,12.31,12.33,12.41,12.47,12.51,12.54,12.59,12.62,12.67,12.74,12.79,12.82,12.86,12.91,12.93,13.01,13.07,13.11,13.14,13.22,13.23,13.27,13.35,13.40,13.42,13.48,13.55,13.60,13.63,13.67,13.71,13.75,13.82,13.88,13.91,13.95,14.00,14.03,14.09,14.15,14.20,14.23,14.30,14.36,14.41,14.43,14.50,14.57,14.63,14.70,14.73,14.79,14.87,14.95,15.02,15.08,15.10,15.11,15.13,15.13,15.13,15.15,15.20,15.23,15.23,15.26,15.31,15.33,15.38,15.42,15.43,15.44,15.49,15.52,15.56,15.60,15.63,15.61,15.60,15.58,15.50,15.50,15.45,15.40,15.40,15.34,15.31,15.27,15.23,15.20,15.20,15.17,15.12,15.10,15.05,15.01,15.00,14.99,14.94,14.91,14.87,14.83,14.83,14.81,14.82,14.83,14.83,14.83,14.83,14.83,14.83,14.83,14.81,14.80,14.80
8.30,8.30,8.30,8.36,8.40,8.40,8.40,8.47,8.50,8.50,8.50,8.57,8.60,8.60,8.60,8.60,8.66,8.70,8.70,8.70,8.77,8.80,8.80,8.80,8.88,8.90,8.90,8.91,8.99,9.00,9.00,9.00,9.00,9.08,9.10,9.10,9.11,9.18,9.20,9.20,9.20,9.20,9.27,9.30,9.30,9.30,9.38,9.40,9.40,9.40,9.40,9.47,9.50,9.50,9.50,9.57,9.60,9.60,9.60,9.60,9.66,9.70,9.70,9.70,9.70,9.75,9.80,9.80,9.80,9.80,9.80,9.80,9.80,9.87,9.90,9.90,9.90,9.90,9.90,9.90,9.91,9.98,10.00,10.04,10.11,10.19,10.20,10.25,10.30,10.30,10.38,10.40,10.43,10.51,10.59,10.60,10.64,10.70,10.70,10.77,10.85,10.90,10.91,10.98,11.00,11.04,11.10,11.10,11.17,11.20,11.20,11.20,11.28,11.30,11.33,11.40,11.40,11.40,11.40,11.42,11.49,11.50,11.50,11.53,11.60,11.60,11.66,11.70,11.71,11.79,11.80,11.84,11.92,12.00,12.00,12.05,12.13,12.20,12.20,12.26,12.30,12.32,12.39,12.47,12.50,12.53,12.60,12.60,12.66,12.73,12.80,12.80,12.87,12.90,12.92,13.00,13.07,13.10,13.13,13.21,13.28,13.30,13.34,13.40,13.40,13.47,13.55,13.60,13.60,13.68,13.70,13.73,13.81,13.89,13.90,13.94,14.00,14.00,14.07,14.15,14.20,14.21,14.28,14.36,14.40,14.42,14.49,14.57,14.60,14.63,14.70,14.78,14.86,14.93,15.01,15.09,15.10,15.10,15.12,15.20,15.20,15.20,15.20,15.21,15.28,15.30,15.30,15.32,15.39,15.40,15.45,15.50,15.50,15.50,15.56,15.60,15.61,15.69,15.63,15.60,15.58,15.50,15.50,15.45,15.40,15.40,15.40,15.34,15.30,15.28,15.21,15.20,15.20,15.17,15.10,15.10,15.04,15.00,15.00,15.00,14.93,14.90,14.90,14.90,14.82,14.85,14.90,14.90,14.90,14.90,14.90,14.90,14.90,14.83,14.80,14.80
8.30,8.30,8.30,8.36,8.40,8.40,8.40,8.47,8.50,8.50,8.50,8.58,8.60,8.60,8.60,8.65,8.69,8.70,8.71,8.76,8.79,8.80,8.80,8.80,8.88,8.90,8.90,8.91,8.99,9.00,9.00,9.01,9.06,9.09,9.10,9.10,9.11,9.18,9.20,9.20,9.21,9.26,9.29,9.30,9.30,9.30,9.38,9.40,9.40,9.41,9.45,9.49,9.50,9.50,9.50,9.58,9.60,9.60,9.60,9.60,9.66,9.70,9.70,9.70,9.70,9.75,9.80,9.80,9.80,9.80,9.80,9.80,9.80,9.87,9.90,9.90,9.90,9.90,9.90,9.92,9.96,9.99,10.04,10.08,10.12,10.19,10.20,10.25,10.30,10.30,10.38,10.40,10.43,10.51,10.59,10.60,10.64,10.70,10.70,10.77,10.85,10.90,10.91,10.98,11.00,11.04,11.10,11.10,11.17,11.20,11.21,11.26,11.29,11.33,11.37,11.40,11.40,11.40,11.43,11.47,11.50,11.54,11.56,11.57,11.60,11.65,11.68,11.72,11.77,11.80,11.84,11.91,11.97,12.00,12.05,12.12,12.17,12.21,12.25,12.29,12.33,12.38,12.46,12.49,12.53,12.57,12.60,12.65,12.72,12.78,12.81,12.86,12.93,12.96,12.98,13.06,13.09,13.13,13.19,13.26,13.29,13.34,13.38,13.41,13.46,13.53,13.58,13.62,13.66,13.69,13.74,13.80,13.87,13.90,13.94,14.01,14.06,14.06,14.14,14.18,14.22,14.27,14.35,14.39,14.42,14.47,14.50,14.57,14.63,14.69,14.76,14.84,14.92,14.97,15.01,15.09,15.14,15.16,15.17,15.20,15.25,15.26,15.26,15.26,15.29,15.34,15.36,15.37,15.40,15.44,15.48,15.52,15.56,15.56,15.58,15.62,15.67,15.70,15.63,15.60,15.59,15.56,15.51,15.48,15.44,15.40,15.40,15.38,15.34,15.29,15.26,15.22,15.20,15.19,15.16,15.11,15.08,15.06,15.05,15.01,14.97,14.96,14.95,14.90,14.87,14.88,14.90,14.90,14.90,14.90,14.90,14.90,14.90,14.87,14.86,14.86
8.30,8.30,8.32,8.37,8.40,8.40,8.42,8.48,8.50,8.50,8.50,8.58,8.60,8.60,8.61,8.69,8.70,8.70,8.72,8.79,8.80,8.80,8.81,8.83,8.89,8.90,8.91,8.93,8.99,9.00,9.00,9.02,9.10,9.10,9.10,9.11,9.13,9.19,9.20,9.21,9.24,9.30,9.30,9.30,9.31,9.33,9.38,9.40,9.40,9.41,9.49,9.50,9.50,9.50,9.50,9.58,9.60,9.60,9.60,9.60,9.66,9.70,9.70,9.70,9.70,9.75,9.80,9.80,9.80,9.80,9.80,9.80,9.80,9.87,9.90,9.90,9.90,9.90,9.90,9.93,10.00,10.00,10.06,10.10,10.12,10.19,10.20,10.25,10.31,10.33,10.38,10.41,10.45,10.51,10.59,10.60,10.64,10.70,10.70,10.77,10.85,10.90,10.91,10.98,11.00,11.04,11.10,11.12,11.18,11.21,11.24,11.30,11.32,11.37,11.40,11.40,11.42,11.42,11.46,11.50,11.52,11.58,11.60,11.61,11.63,11.69,11.71,11.76,11.82,11.82,11.89,11.96,12.01,12.03,12.10,12.17,12.21,12.23,12.29,12.32,12.37,12.44,12.50,12.52,12.56,12.61,12.63,12.71,12.77,12.81,12.84,12.92,12.98,13.01,13.04,13.10,13.12,13.18,13.25,13.30,13.32,13.37,13.41,13.44,13.52,13.58,13.61,13.65,13.72,13.72,13.78,13.85,13.90,13.92,13.99,14.06,14.11,14.12,14.18,14.21,14.26,14.33,14.39,14.42,14.46,14.50,14.52,14.60,14.66,14.73,14.80,14.88,14.96,15.01,15.04,15.11,15.18,15.21,15.22,15.22,15.28,15.30,15.31,15.32,15.32,15.37,15.41,15.42,15.42,15.48,15.51,15.54,15.60,15.62,15.62,15.65,15.70,15.70,15.65,15.61,15.60,15.60,15.54,15.51,15.48,15.42,15.40,15.40,15.37,15.32,15.30,15.25,15.22,15.22,15.20,15.14,15.12,15.12,15.09,15.03,15.02,15.01,14.98,14.93,14.91,14.90,14.90,14.90,14.90,14.90,14.90,14.90,14.90,14.90,14.90,14.90
8.30,8.30,8.37,8.40,8.40,8.41,8.48,8.50,8.50,8.50,8.50,8.58,8.60,8.60,8.61,8.69,8.70,8.70,8.72,8.79,8.80,8.80,8.82,8.89,8.90,8.90,8.93,8.99,9.00,9.00,9.00,9.02,9.10,9.10,9.10,9.13,9.19,9.20,9.20,9.23,9.29,9.30,9.30,9.30,9.32,9.39,9.40,9.40,9.40,9.41,9.49,9.50,9.50,9.50,9.50,9.58,9.60,9.60,9.60,9.60,9.66,9.70,9.70,9.70,9.70,9.75,9.80,9.80,9.80,9.80,9.80,9.80,9.80,9.87,9.90,9.90,9.90,9.90,9.90,9.93,10.00,10.00,10.06,10.10,10.12,10.19,10.20,10.25,10.32,10.39,10.40,10.45,10.49,10.51,10.59,10.60,10.64,10.70,10.70,10.77,10.85,10.90,10.91,10.98,11.00,11.04,11.11,11.18,11.20,11.24,11.29,11.30,11.37,11.40,11.40,11.41,11.48,11.49,11.49,11.52,11.59,11.60,11.60,11.62,11.69,11.70,11.75,11.83,11.89,11.89,11.96,11.99,12.02,12.09,12.17,12.19,12.23,12.29,12.30,12.36,12.43,12.49,12.50,12.56,12.59,12.62,12.69,12.77,12.80,12.83,12.90,12.98,13.00,13.04,13.09,13.10,13.17,13.24,13.29,13.31,13.38,13.40,13.44,13.51,13.58,13.60,13.64,13.72,13.79,13.79,13.85,13.89,13.91,13.98,14.06,14.09,14.12,14.19,14.20,14.25,14.32,14.39,14.40,14.46,14.49,14.52,14.58,14.66,14.69,14.73,14.80,14.88,14.96,15.03,15.10,15.18,15.20,15.24,15.29,15.29,15.30,15.30,15.33,15.39,15.39,15.40,15.44,15.49,15.49,15.50,15.54,15.59,15.60,15.67,15.69,15.69,15.70,15.70,15.69,15.65,15.60,15.60,15.59,15.54,15.50,15.48,15.41,15.40,15.40,15.37,15.31,15.29,15.29,15.27,15.20,15.19,15.19,15.16,15.10,15.09,15.09,15.05,15.00,14.99,14.92,14.90,14.90,14.90,14.90,14.90,14.90,14.90,14.90,14.90,14.90,14.90
8.30,8.30,8.38,8.40,8.40,8.41,8.49,8.50,8.50,8.51,8.55,8.59,8.60,8.62,8.66,8.69,8.70,8.72,8.76,8.80,8.80,8.80,8.83,8.90,8.90,8.90,8.94,9.00,9.00,9.00,9.02,9.06,9.10,9.10,9.10,9.13,9.20,9.20,9.20,9.24,9.30,9.30,9.30,9.33,9.36,9.40,9.40,9.40,9.42,9.46,9.49,9.50,9.50,9.51,9.55,9.59,9.60,9.60,9.60,9.64,9.68,9.70,9.70,9.70,9.70,9.75,9.80,9.80,9.80,9.80,9.80,9.81,9.85,9.88,9.90,9.90,9.90,9.90,9.93,9.97,10.00,10.04,10.08,10.12,10.16,10.20,10.24,10.28,10.32,10.40,10.40,10.46,10.50,10.51,10.59,10.60,10.64,10.71,10.75,10.79,10.85,10.90,10.91,10.98,11.00,11.04,11.11,11.19,11.20,11.25,11.30,11.30,11.38,11.40,11.42,11.46,11.49,11.50,11.52,11.56,11.60,11.60,11.63,11.67,11.70,11.74,11.81,11.87,11.91,11.95,11.99,12.02,12.08,12.15,12.19,12.23,12.27,12.31,12.35,12.42,12.47,12.51,12.55,12.63,12.65,12.68,12.76,12.79,12.83,12.89,12.96,13.00,13.04,13.07,13.11,13.15,13.23,13.28,13.32,13.36,13.39,13.43,13.49,13.56,13.60,13.64,13.70,13.77,13.80,13.84,13.88,13.92,13.97,14.04,14.08,14.12,14.16,14.20,14.24,14.31,14.37,14.40,14.45,14.52,14.55,14.57,14.65,14.69,14.73,14.78,14.86,14.93,15.01,15.07,15.11,15.19,15.24,15.27,15.30,15.30,15.34,15.35,15.37,15.40,15.44,15.45,15.47,15.51,15.55,15.55,15.58,15.61,15.65,15.69,15.70,15.72,15.75,15.75,15.72,15.68,15.64,15.60,15.60,15.58,15.54,15.50,15.46,15.42,15.40,15.39,15.36,15.32,15.30,15.29,15.25,15.21,15.20,15.18,15.15,15.11,15.10,15.08,15.04,15.00,14.96,14.95,14.94,14.90,14.90,14.90,14.90,14.90,14.90,14.90,14.90,14.90
8.30,8.32,8.38,8.40,8.41,8.43,8.49,8.50,8.50,8.52,8.60,8.60,8.60,8.63,8.70,8.70,8.70,8.74,8.80,8.80,8.80,8.81,8.84,8.90,8.90,8.91,8.95,9.00,9.00,9.00,9.04,9.10,9.10,9.10,9.11,9.14,9.20,9.20,9.21,9.25,9.30,9.30,9.30,9.35,9.40,9.40,9.40,9.41,9.45,9.50,9.50,9.50,9.50,9.52,9.60,9.60,9.60,9.60,9.61,9.68,9.70,9.70,9.70,9.70,9.71,9.76,9.80,9.80,9.80,9.80,9.81,9.83,9.89,9.90,9.90,9.90,9.90,9.91,9.96,10.00,10.02,10.09,10.11,10.15,10.20,10.22,10.27,10.31,10.34,10.40,10.41,10.46,10.51,10.53,10.59,10.61,10.65,10.72,10.80,10.80,10.85,10.90,10.91,10.98,11.01,11.05,11.11,11.19,11.20,11.25,11.30,11.30,11.38,11.41,11.44,11.50,11.50,11.51,11.55,11.60,11.60,11.61,11.66,11.70,11.72,11.80,11.87,11.91,11.93,11.99,12.01,12.06,12.14,12.20,12.21,12.27,12.32,12.33,12.40,12.47,12.51,12.54,12.61,12.68,12.71,12.74,12.80,12.81,12.88,12.95,13.00,13.02,13.07,13.11,13.14,13.22,13.28,13.31,13.35,13.42,13.42,13.48,13.55,13.60,13.62,13.69,13.76,13.80,13.82,13.88,13.91,13.95,14.03,14.09,14.11,14.16,14.22,14.22,14.29,14.36,14.41,14.43,14.50,14.57,14.61,14.63,14.70,14.71,14.77,14.84,14.90,14.98,15.06,15.11,15.13,15.21,15.27,15.31,15.32,15.32,15.38,15.41,15.42,15.42,15.49,15.51,15.52,15.53,15.60,15.61,15.62,15.64,15.70,15.71,15.72,15.75,15.80,15.80,15.74,15.71,15.68,15.62,15.60,15.60,15.58,15.52,15.50,15.45,15.42,15.41,15.40,15.34,15.32,15.31,15.30,15.23,15.22,15.21,15.19,15.13,15.12,15.11,15.08,15.02,15.02,15.01,14.98,14.92,14.92,14.91,14.90,14.90,14.90,14.90,14.90,14.90
8.32,8.38,8.40,8.40,8.43,8.48,8.50,8.50,8.50,8.52,8.60,8.60,8.60,8.63,8.70,8.70,8.70,8.74,8.80,8.80,8.80,8.84,8.89,8.90,8.90,8.95,8.99,9.00,9.00,9.00,9.04,9.10,9.10,9.10,9.14,9.19,9.20,9.20,9.25,9.29,9.30,9.30,9.30,9.35,9.40,9.40,9.40,9.45,9.49,9.50,9.50,9.50,9.50,9.52,9.60,9.60,9.60,9.60,9.61,9.68,9.70,9.70,9.70,9.70,9.76,9.79,9.80,9.80,9.80,9.80,9.83,9.88,9.90,9.90,9.90,9.90,9.90,9.96,9.99,10.02,10.08,10.10,10.15,10.19,10.21,10.27,10.29,10.34,10.39,10.40,10.46,10.49,10.53,10.58,10.60,10.65,10.69,10.72,10.80,10.80,10.85,10.90,10.91,10.98,11.05,11.09,11.11,11.19,11.20,11.25,11.30,11.30,11.38,11.44,11.49,11.50,11.50,11.55,11.59,11.60,11.60,11.66,11.69,11.72,11.79,11.86,11.89,11.93,11.98,12.00,12.06,12.13,12.19,12.20,12.26,12.34,12.38,12.39,12.47,12.49,12.53,12.60,12.68,12.69,12.74,12.79,12.80,12.87,12.94,12.99,13.01,13.07,13.09,13.14,13.20,13.28,13.30,13.34,13.41,13.48,13.48,13.54,13.59,13.61,13.68,13.75,13.79,13.82,13.88,13.90,13.95,14.02,14.08,14.10,14.15,14.23,14.28,14.28,14.36,14.39,14.43,14.49,14.57,14.59,14.63,14.68,14.70,14.76,14.83,14.89,14.90,14.98,15.06,15.13,15.19,15.27,15.29,15.34,15.38,15.38,15.40,15.44,15.48,15.48,15.50,15.55,15.58,15.58,15.60,15.66,15.68,15.69,15.70,15.76,15.78,15.79,15.80,15.80,15.79,15.75,15.70,15.68,15.62,15.60,15.59,15.57,15.51,15.49,15.48,15.47,15.41,15.39,15.38,15.36,15.30,15.28,15.28,15.25,15.20,15.18,15.18,15.15,15.10,15.08,15.08,15.04,14.99,14.98,14.98,14.93,14.90,14.90,14.90,14.90,14.90,14.90
8.33,8.40,8.40,8.40,8.44,8.50,8.50,8.50,8.52,8.56,8.60,8.60,8.62,8.66,8.70,8.70,8.73,8.77,8.80,8.80,8.80,8.85,8.90,8.90,8.90,8.96,9.00,9.00,9.00,9.03,9.07,9.10,9.10,9.13,9.17,9.20,9.20,9.20,9.26,9.30,9.30,9.30,9.33,9.37,9.40,9.40,9.40,9.46,9.50,9.50,9.50,9.50,9.52,9.56,9.60,9.60,9.60,9.61,9.65,9.69,9.70,9.70,9.71,9.74,9.78,9.80,9.80,9.80,9.80,9.83,9.86,9.90,9.90,9.90,9.90,9.91,9.94,9.99,10.00,10.03,10.10,10.10,10.16,10.20,10.22,10.29,10.33,10.37,10.41,10.45,10.49,10.53,10.56,10.60,10.64,10.68,10.72,10.76,10.80,10.83,10.87,10.91,10.95,10.99,11.06,11.10,11.11,11.19,11.20,11.25,11.30,11.30,11.38,11.46,11.50,11.50,11.54,11.58,11.62,11.64,11.64,11.69,11.72,11.77,11.85,11.89,11.93,11.97,12.01,12.04,12.11,12.17,12.21,12.25,12.32,12.38,12.41,12.45,12.49,12.53,12.59,12.65,12.70,12.73,12.77,12.81,12.85,12.93,12.98,13.02,13.06,13.14,13.14,13.19,13.26,13.30,13.33,13.40,13.46,13.50,13.54,13.58,13.62,13.66,13.74,13.78,13.82,13.86,13.90,13.94,14.00,14.06,14.11,14.14,14.18,14.24,14.31,14.34,14.39,14.42,14.46,14.51,14.59,14.63,14.67,14.71,14.74,14.78,14.85,14.91,14.95,14.99,15.06,15.14,15.21,15.29,15.30,15.34,15.40,15.40,15.40,15.45,15.50,15.50,15.54,15.58,15.62,15.64,15.64,15.68,15.72,15.74,15.75,15.79,15.80,15.82,15.84,15.80,15.80,15.78,15.74,15.70,15.66,15.62,15.60,15.60,15.55,15.54,15.53,15.49,15.45,15.44,15.42,15.39,15.34,15.34,15.32,15.28,15.24,15.21,15.20,15.18,15.14,15.10,15.10,15.07,15.03,15.00,15.00,14.97,14.93,14.90,14.90,14.90,14.90,14.90
8.33,8.40,8.40,8.40,8.44,8.50,8.50,8.50,8.54,8.60,8.60,8.60,8.65,8.70,8.70,8.70,8.76,8.80,8.80,8.80,8.81,8.85,8.90,8.90,8.91,8.96,9.00,9.00,9.00,9.07,9.10,9.10,9.10,9.18,9.20,9.20,9.20,9.21,9.27,9.30,9.30,9.30,9.37,9.40,9.40,9.40,9.41,9.46,9.50,9.50,9.51,9.51,9.55,9.60,9.60,9.60,9.60,9.64,9.70,9.70,9.70,9.70,9.72,9.79,9.80,9.80,9.80,9.81,9.81,9.86,9.90,9.90,9.90,9.90,9.90,9.93,10.00,10.00,10.00,10.04,10.10,10.11,10.16,10.20,10.22,10.29,10.37,10.40,10.42,10.50,10.50,10.56,10.60,10.62,10.69,10.71,10.75,10.80,10.81,10.88,10.90,10.93,11.00,11.01,11.06,11.10,11.12,11.19,11.21,11.25,11.30,11.31,11.38,11.46,11.50,11.51,11.59,11.60,11.64,11.70,11.70,11.71,11.76,11.83,11.90,11.91,11.97,12.01,12.02,12.10,12.17,12.20,12.23,12.30,12.38,12.40,12.44,12.50,12.51,12.57,12.64,12.70,12.71,12.78,12.80,12.83,12.90,12.98,13.01,13.04,13.11,13.19,13.20,13.25,13.30,13.31,13.38,13.45,13.50,13.51,13.59,13.61,13.65,13.72,13.80,13.80,13.85,13.90,13.91,13.98,14.06,14.10,14.11,14.19,14.21,14.25,14.32,14.40,14.40,14.45,14.50,14.52,14.59,14.66,14.70,14.72,14.79,14.81,14.85,14.93,15.00,15.01,15.07,15.14,15.21,15.29,15.30,15.34,15.39,15.40,15.40,15.45,15.50,15.51,15.59,15.60,15.64,15.70,15.70,15.70,15.75,15.80,15.80,15.81,15.81,15.84,15.89,15.82,15.80,15.80,15.78,15.71,15.70,15.65,15.61,15.61,15.60,15.60,15.56,15.51,15.50,15.50,15.46,15.41,15.40,15.40,15.35,15.31,15.29,15.22,15.21,15.20,15.18,15.11,15.11,15.11,15.08,15.01,15.01,15.01,14.97,14.92,14.91,14.90,14.90,14.90
8.33,8.40,8.40,8.40,8.44,8.50,8.50,8.50,8.54,8.60,8.60,8.60,8.65,8.70,8.70,8.70,8.76,8.80,8.80,8.80,8.85,8.89,8.90,8.90,8.96,8.99,9.00,9.00,9.00,9.07,9.10,9.10,9.10,9.18,9.20,9.20,9.21,9.26,9.29,9.30,9.30,9.30,9.37,9.40,9.40,9.40,9.46,9.49,9.50,9.51,9.56,9.57,9.58,9.60,9.60,9.60,9.64,9.68,9.70,9.70,9.70,9.73,9.78,9.80,9.80,9.80,9.82,9.87,9.87,9.89,9.90,9.90,9.90,9.90,9.93,9.98,10.00,10.00,10.04,10.08,10.10,10.16,10.19,10.23,10.28,10.30,10.37,10.40,10.42,10.50,10.50,10.56,10.62,10.68,10.70,10.75,10.78,10.81,10.87,10.89,10.94,10.98,11.00,11.06,11.09,11.13,11.18,11.20,11.25,11.29,11.32,11.37,11.39,11.46,11.50,11.51,11.59,11.60,11.64,11.70,11.70,11.75,11.82,11.88,11.90,11.96,12.03,12.07,12.09,12.16,12.19,12.23,12.28,12.30,12.38,12.44,12.48,12.51,12.56,12.59,12.64,12.71,12.77,12.79,12.84,12.88,12.90,12.98,13.04,13.08,13.11,13.19,13.20,13.25,13.32,13.37,13.39,13.45,13.50,13.51,13.59,13.65,13.68,13.72,13.80,13.80,13.85,13.92,13.97,13.99,14.06,14.10,14.11,14.19,14.25,14.28,14.32,14.40,14.40,14.45,14.52,14.57,14.60,14.66,14.70,14.72,14.79,14.85,14.89,14.93,15.00,15.06,15.13,15.18,15.21,15.29,15.30,15.31,15.34,15.40,15.40,15.45,15.50,15.51,15.59,15.60,15.64,15.70,15.70,15.70,15.75,15.80,15.80,15.86,15.87,15.88,15.90,15.88,15.82,15.80,15.79,15.77,15.72,15.69,15.67,15.67,15.61,15.60,15.59,15.56,15.50,15.50,15.49,15.45,15.40,15.40,15.38,15.35,15.30,15.28,15.27,15.24,15.19,15.17,15.17,15.17,15.14,15.07,15.07,15.07,15.06,15.03,14.98,14.92,14.90,14.90
8.35,8.40,8.40,8.42,8.46,8.50,8.50,8.52,8.56,8.60,8.60,8.63,8.67,8.70,8.70,8.73,8.78,8.80,8.80,8.80,8.87,8.90,8.90,8.90,8.98,9.00,9.00,9.00,9.03,9.08,9.10,9.11,9.14,9.18,9.20,9.20,9.21,9.28,9.30,9.30,9.31,9.33,9.38,9.40,9.41,9.44,9.49,9.50,9.50,9.51,9.59,9.60,9.60,9.60,9.60,9.63,9.67,9.70,9.70,9.70,9.72,9.76,9.80,9.80,9.83,9.84,9.85,9.90,9.90,9.90,9.90,9.90,9.93,9.94,9.96,10.00,10.00,10.03,10.07,10.11,10.14,10.19,10.22,10.26,10.31,10.33,10.38,10.42,10.45,10.50,10.53,10.57,10.63,10.70,10.70,10.77,10.80,10.82,10.90,10.90,10.95,11.01,11.04,11.09,11.12,11.16,11.21,11.23,11.28,11.32,11.35,11.40,11.43,11.47,11.51,11.54,11.59,11.62,11.66,11.71,11.74,11.78,11.85,11.91,11.94,11.99,12.06,12.10,12.11,12.19,12.23,12.27,12.31,12.34,12.39,12.45,12.51,12.54,12.59,12.62,12.66,12.72,12.80,12.83,12.87,12.91,12.94,12.99,13.06,13.10,13.11,13.19,13.22,13.27,13.32,13.40,13.40,13.45,13.51,13.54,13.59,13.66,13.70,13.72,13.80,13.83,13.87,13.93,14.00,14.00,14.06,14.11,14.14,14.19,14.27,14.30,14.32,14.40,14.43,14.47,14.53,14.60,14.60,14.66,14.71,14.75,14.80,14.87,14.90,14.93,15.00,15.08,15.16,15.20,15.21,15.26,15.29,15.30,15.32,15.40,15.40,15.43,15.47,15.50,15.55,15.59,15.63,15.67,15.70,15.70,15.75,15.80,15.80,15.88,15.90,15.90,15.90,15.90,15.86,15.84,15.83,15.80,15.75,15.74,15.73,15.70,15.65,15.64,15.62,15.59,15.54,15.54,15.52,15.48,15.44,15.44,15.42,15.38,15.34,15.34,15.34,15.29,15.24,15.24,15.24,15.24,15.22,15.17,15.14,15.14,15.14,15.12,15.04,14.97,14.94,14.93
8.40,8.40,8.40,8.46,8.50,8.50,8.50,8.57,8.60,8.60,8.60,8.68,8.70,8.70,8.71,8.79,8.80,8.80,8.80,8.80,8.87,8.90,8.90,8.90,8.98,9.00,9.00,9.01,9.09,9.10,9.10,9.12,9.20,9.20,9.20,9.20,9.21,9.28,9.30,9.30,9.32,9.39,9.40,9.40,9.43,9.50,9.50,9.50,9.50,9.51,9.59,9.60,9.60,9.60,9.60,9.68,9.70,9.70,9.70,9.70,9.76,9.80,9.80,9.80,9.87,9.90,9.90,9.90,9.90,9.90,9.90,9.91,9.99,10.00,10.00,10.00,10.00,10.07,10.10,10.13,10.20,10.20,10.26,10.30,10.32,10.39,10.40,10.45,10.50,10.50,10.58,10.60,10.63,10.70,10.70,10.77,10.80,10.82,10.90,10.90,10.95,11.03,11.10,11.10,11.16,11.20,11.21,11.29,11.30,11.35,11.40,11.40,11.48,11.50,11.53,11.60,11.60,11.66,11.70,11.72,11.80,11.80,11.85,11.93,12.00,12.00,12.06,12.10,12.11,12.19,12.27,12.30,12.32,12.40,12.40,12.46,12.53,12.60,12.60,12.66,12.70,12.72,12.80,12.87,12.90,12.93,13.00,13.00,13.06,13.10,13.11,13.19,13.27,13.30,13.32,13.40,13.40,13.45,13.53,13.60,13.60,13.66,13.70,13.72,13.80,13.87,13.90,13.93,14.00,14.00,14.06,14.14,14.20,14.20,14.27,14.30,14.32,14.40,14.48,14.50,14.53,14.60,14.60,14.66,14.74,14.80,14.80,14.87,14.90,14.93,15.00,15.08,15.16,15.20,15.20,15.20,15.27,15.30,15.32,15.40,15.40,15.40,15.43,15.50,15.50,15.56,15.60,15.62,15.69,15.70,15.75,15.80,15.80,15.88,15.90,15.90,15.90,15.90,15.90,15.90,15.88,15.80,15.80,15.80,15.77,15.70,15.70,15.70,15.66,15.60,15.60,15.60,15.55,15.50,15.50,15.50,15.44,15.40,15.40,15.40,15.40,15.36,15.30,15.30,15.30,15.30,15.30,15.29,15.22,15.20,15.20,15.18,15.11,15.03,15.00,14.98
8.40,8.40,8.40,8.46,8.50,8.50,8.50,8.57,8.60,8.60,8.60,8.68,8.70,8.70,8.71,8.79,8.80,8.80,8.81,8.86,8.89,8.90,8.92,8.97,8.99,9.00,9.00,9.01,9.09,9.10,9.10,9.12,9.20,9.20,9.20,9.22,9.27,9.29,9.30,9.30,9.32,9.39,9.40,9.40,9.43,9.50,9.50,9.50,9.52,9.57,9.60,9.60,9.63,9.66,9.66,9.69,9.70,9.70,9.70,9.75,9.79,9.80,9.81,9.86,9.89,9.90,9.90,9.90,9.90,9.94,9.96,9.97,10.00,10.00,10.03,10.06,10.06,10.09,10.13,10.17,10.20,10.25,10.29,10.32,10.37,10.40,10.44,10.48,10.52,10.56,10.59,10.64,10.68,10.71,10.76,10.79,10.83,10.87,10.90,10.95,10.98,11.03,11.10,11.10,11.16,11.20,11.21,11.29,11.34,11.38,11.42,11.46,11.49,11.54,11.58,11.61,11.66,11.69,11.70,11.72,11.80,11.85,11.88,11.93,12.00,12.00,12.06,12.12,12.17,12.20,12.27,12.30,12.32,12.40,12.45,12.48,12.53,12.60,12.60,12.66,12.73,12.77,12.80,12.87,12.90,12.93,13.00,13.05,13.09,13.12,13.17,13.20,13.27,13.33,13.37,13.40,13.45,13.48,13.53,13.61,13.66,13.69,13.73,13.77,13.80,13.87,13.93,13.97,14.00,14.05,14.09,14.14,14.20,14.20,14.27,14.33,14.37,14.40,14.48,14.50,14.53,14.61,14.66,14.69,14.74,14.80,14.80,14.87,14.90,14.93,15.00,15.08,15.12,15.16,15.20,15.20,15.27,15.30,15.31,15.34,15.38,15.40,15.43,15.50,15.50,15.56,15.60,15.62,15.69,15.70,15.75,15.80,15.80,15.88,15.90,15.92,15.96,15.96,15.92,15.90,15.89,15.86,15.86,15.83,15.79,15.76,15.76,15.72,15.69,15.66,15.66,15.62,15.58,15.56,15.56,15.56,15.54,15.51,15.46,15.46,15.46,15.45,15.43,15.43,15.38,15.36,15.36,15.36,15.33,15.33,15.30,15.26,15.23,15.16,15.10,15.06
8.40,8.40,8.42,8.47,8.50,8.50,8.53,8.58,8.60,8.60,8.60,8.68,8.70,8.70,8.71,8.79,8.80,8.80,8.82,8.89,8.90,8.90,8.93,9.00,9.00,9.00,9.01,9.04,9.09,9.10,9.11,9.14,9.20,9.20,9.20,9.23,9.30,9.30,9.30,9.31,9.34,9.40,9.40,9.41,9.45,9.50,9.50,9.50,9.53,9.60,9.60,9.62,9.66,9.70,9.70,9.70,9.70,9.71,9.73,9.79,9.80,9.81,9.84,9.90,9.90,9.90,9.91,9.93,9.93,9.97,10.00,10.00,10.03,10.03,10.06,10.10,10.10,10.12,10.17,10.21,10.23,10.29,10.30,10.34,10.40,10.43,10.48,10.51,10.55,10.60,10.62,10.67,10.71,10.74,10.79,10.82,10.86,10.91,10.93,10.98,11.01,11.05,11.10,11.12,11.17,11.21,11.24,11.29,11.37,11.40,11.42,11.50,11.50,11.56,11.60,11.61,11.69,11.70,11.71,11.74,11.80,11.87,11.90,11.93,12.00,12.02,12.07,12.14,12.20,12.20,12.27,12.31,12.34,12.40,12.48,12.50,12.53,12.60,12.62,12.67,12.74,12.80,12.80,12.87,12.91,12.95,13.00,13.08,13.10,13.14,13.20,13.23,13.28,13.35,13.40,13.40,13.48,13.52,13.55,13.61,13.69,13.70,13.74,13.81,13.83,13.88,13.95,14.00,14.00,14.08,14.12,14.15,14.20,14.23,14.28,14.34,14.41,14.43,14.48,14.52,14.55,14.61,14.69,14.72,14.76,14.80,14.80,14.87,14.90,14.93,15.00,15.08,15.10,15.13,15.18,15.20,15.25,15.28,15.30,15.30,15.38,15.40,15.43,15.50,15.50,15.56,15.60,15.62,15.69,15.70,15.75,15.80,15.80,15.88,15.90,15.93,16.00,16.00,15.95,15.93,15.92,15.90,15.90,15.86,15.83,15.83,15.80,15.76,15.73,15.73,15.73,15.68,15.64,15.63,15.63,15.63,15.63,15.60,15.55,15.53,15.53,15.53,15.53,15.53,15.47,15.44,15.43,15.43,15.43,15.43,15.40,15.35,15.33,15.26,15.18,15.13
8.40,8.40,8.47,8.50,8.50,8.51,8.58,8.60,8.60,8.60,8.60,8.68,8.70,8.70,8.71,8.79,8.80,8.80,8.82,8.89,8.90,8.90,8.93,9.00,9.00,9.00,9.03,9.09,9.10,9.10,9.14,9.19,9.20,9.20,9.20,9.23,9.30,9.30,9.30,9.34,9.39,9.40,9.40,9.44,9.49,9.50,9.50,9.50,9.53,9.60,9.60,9.66,9.70,9.70,9.70,9.70,9.70,9.73,9.79,9.80,9.80,9.84,9.89,9.90,9.90,9.90,9.92,9.99,9.99,10.00,10.00,10.01,10.08,10.09,10.10,10.10,10.10,10.17,10.20,10.23,10.29,10.30,10.30,10.34,10.41,10.49,10.50,10.54,10.59,10.60,10.67,10.70,10.73,10.79,10.80,10.86,10.90,10.92,10.99,11.00,11.05,11.09,11.11,11.18,11.20,11.23,11.29,11.30,11.37,11.40,11.42,11.50,11.50,11.56,11.60,11.61,11.69,11.70,11.74,11.79,11.80,11.87,11.90,11.93,12.00,12.08,12.10,12.14,12.20,12.20,12.27,12.34,12.39,12.40,12.48,12.50,12.53,12.61,12.68,12.70,12.74,12.80,12.80,12.87,12.95,12.99,13.00,13.08,13.10,13.14,13.21,13.28,13.30,13.35,13.40,13.40,13.48,13.55,13.59,13.61,13.69,13.70,13.74,13.82,13.89,13.90,13.95,14.00,14.00,14.08,14.15,14.20,14.21,14.28,14.30,14.34,14.42,14.49,14.50,14.55,14.59,14.61,14.69,14.76,14.80,14.80,14.80,14.87,14.90,14.93,15.00,15.08,15.10,15.10,15.12,15.19,15.21,15.25,15.30,15.30,15.38,15.40,15.43,15.50,15.50,15.56,15.60,15.62,15.69,15.70,15.75,15.80,15.80,15.88,15.90,15.93,16.00,16.00,15.99,15.99,15.97,15.90,15.90,15.90,15.89,15.89,15.81,15.80,15.79,15.79,15.79,15.79,15.74,15.69,15.69,15.69,15.69,15.69,15.67,15.60,15.59,15.59,15.59,15.59,15.59,15.54,15.49,15.49,15.49,15.49,15.49,15.47,15.40,15.32,15.24,15.19
8.40,8.40,8.48,8.50,8.50,8.51,8.59,8.60,8.60,8.61,8.66,8.69,8.70,8.72,8.76,8.79,8.80,8.82,8.86,8.90,8.90,8.93,8.97,9.00,9.00,9.00,9.04,9.10,9.10,9.10,9.14,9.20,9.20,9.20,9.23,9.27,9.30,9.30,9.30,9.34,9.40,9.40,9.40,9.45,9.50,9.50,9.50,9.53,9.57,9.60,9.60,9.67,9.70,9.70,9.70,9.74,9.76,9.77,9.80,9.80,9.80,9.84,9.90,9.90,9.90,9.93,9.97,10.00,10.00,10.00,10.02,10.06,10.09,10.10,10.12,10.16,10.16,10.19,10.23,10.27,10.30,10.30,10.33,10.37,10.42,10.49,10.50,10.55,10.60,10.60,10.68,10.73,10.77,10.81,10.85,10.88,10.92,10.96,11.00,11.04,11.08,11.12,11.16,11.19,11.23,11.27,11.31,11.35,11.39,11.43,11.47,11.50,11.54,11.58,11.62,11.66,11.69,11.74,11.77,11.81,11.85,11.89,11.93,11.97,12.01,12.08,12.10,12.14,12.21,12.25,12.29,12.35,12.40,12.40,12.48,12.53,12.57,12.61,12.69,12.70,12.74,12.81,12.85,12.89,12.95,13.00,13.00,13.08,13.13,13.17,13.21,13.29,13.30,13.35,13.41,13.46,13.49,13.55,13.60,13.61,13.69,13.74,13.77,13.82,13.90,13.90,13.95,14.02,14.06,14.09,14.16,14.20,14.21,14.29,14.34,14.38,14.42,14.50,14.50,14.55,14.62,14.66,14.69,14.76,14.80,14.81,14.85,14.89,14.90,14.93,15.00,15.04,15.08,15.10,15.11,15.19,15.20,15.24,15.30,15.30,15.38,15.40,15.43,15.50,15.50,15.56,15.60,15.62,15.69,15.70,15.75,15.80,15.80,15.88,15.90,15.93,16.00,16.00,16.04,16.06,16.05,16.01,15.97,15.96,15.96,15.95,15.92,15.91,15.89,15.86,15.86,15.86,15.84,15.81,15.81,15.77,15.76,15.76,15.75,15.72,15.71,15.69,15.66,15.66,15.66,15.63,15.61,15.61,15.57,15.56,15.56,15.55,15.52,15.44,15.36,15.31
8.42,8.42,8.48,8.50,8.50,8.51,8.59,8.60,8.60,8.62,8.70,8.70,8.70,8.73,8.80,8.80,8.80,8.84,8.90,8.90,8.90,8.95,9.00,9.00,9.00,9.01,9.05,9.10,9.10,9.11,9.16,9.20,9.20,9.20,9.25,9.30,9.30,9.30,9.31,9.35,9.40,9.40,9.41,9.46,9.50,9.50,9.52,9.57,9.60,9.60,9.62,9.67,9.70,9.70,9.72,9.78,9.80,9.80,9.80,9.82,9.82,9.85,9.90,9.90,9.91,9.96,10.00,10.00,10.02,10.02,10.05,10.10,10.10,10.11,10.15,10.20,10.20,10.22,10.26,10.31,10.32,10.32,10.37,10.41,10.43,10.49,10.51,10.56,10.60,10.62,10.68,10.76,10.80,10.81,10.89,10.90,10.94,11.00,11.02,11.08,11.11,11.14,11.20,11.22,11.27,11.31,11.33,11.39,11.41,11.46,11.50,11.52,11.58,11.60,11.63,11.70,11.70,11.76,11.80,11.82,11.90,11.90,11.95,12.01,12.02,12.09,12.11,12.15,12.21,12.29,12.31,12.36,12.40,12.42,12.48,12.55,12.60,12.61,12.69,12.71,12.75,12.82,12.90,12.90,12.95,13.01,13.02,13.09,13.16,13.20,13.21,13.29,13.31,13.36,13.42,13.50,13.50,13.55,13.61,13.63,13.69,13.76,13.80,13.82,13.90,13.91,13.96,14.03,14.10,14.10,14.16,14.21,14.23,14.29,14.37,14.40,14.42,14.50,14.52,14.56,14.63,14.70,14.70,14.76,14.80,14.81,14.88,14.89,14.90,14.93,15.00,15.00,15.06,15.10,15.11,15.19,15.20,15.24,15.30,15.30,15.38,15.40,15.43,15.50,15.50,15.56,15.60,15.62,15.69,15.70,15.75,15.80,15.80,15.88,15.90,15.93,16.00,16.02,16.07,16.10,16.10,16.12,16.06,16.03,16.02,16.02,16.02,16.02,15.99,15.94,15.92,15.92,15.92,15.92,15.92,15.86,15.83,15.82,15.82,15.82,15.82,15.79,15.74,15.74,15.73,15.72,15.72,15.71,15.65,15.64,15.63,15.62,15.62,15.56,15.49,15.44
8.48,8.48,8.50,8.50,8.50,8.51,8.59,8.60,8.60,8.62,8.70,8.70,8.70,8.73,8.80,8.80,8.80,8.84,8.90,8.90,8.90,8.95,9.00,9.00,9.00,9.05,9.09,9.10,9.10,9.16,9.19,9.20,9.20,9.20,9.25,9.30,9.30,9.30,9.35,9.39,9.40,9.40,9.46,9.49,9.50,9.50,9.57,9.59,9.60,9.61,9.67,9.69,9.70,9.72,9.78,9.80,9.80,9.80,9.81,9.87,9.88,9.89,9.90,9.90,9.96,9.99,10.00,10.00,10.07,10.08,10.09,10.10,10.10,10.16,10.19,10.20,10.20,10.26,10.29,10.32,10.38,10.38,10.39,10.43,10.49,10.50,10.56,10.59,10.62,10.68,10.70,10.76,10.80,10.81,10.89,10.90,10.94,11.02,11.08,11.10,11.14,11.19,11.20,11.27,11.29,11.33,11.39,11.40,11.46,11.49,11.52,11.58,11.60,11.60,11.63,11.70,11.70,11.76,11.80,11.82,11.90,11.90,11.95,12.02,12.08,12.10,12.15,12.19,12.21,12.29,12.36,12.39,12.42,12.48,12.50,12.55,12.60,12.61,12.69,12.75,12.79,12.82,12.90,12.90,12.95,13.02,13.08,13.10,13.16,13.20,13.21,13.29,13.36,13.39,13.42,13.50,13.50,13.55,13.63,13.69,13.70,13.76,13.80,13.82,13.90,13.96,13.99,14.03,14.10,14.10,14.16,14.23,14.29,14.30,14.37,14.40,14.42,14.50,14.56,14.59,14.63,14.70,14.70,14.76,14.80,14.80,14.82,14.88,14.90,14.93,15.00,15.00,15.06,15.10,15.11,15.19,15.20,15.24,15.30,15.30,15.38,15.40,15.43,15.50,15.50,15.56,15.60,15.62,15.69,15.70,15.75,15.80,15.80,15.88,15.90,15.93,16.01,16.08,16.09,16.10,16.12,16.18,16.17,16.12,16.08,16.08,16.08,16.08,16.08,16.05,15.99,15.98,15.98,15.98,15.98,15.97,15.92,15.88,15.88,15.88,15.88,15.88,15.87,15.87,15.81,15.78,15.78,15.78,15.77,15.77,15.74,15.68,15.68,15.67,15.62,15.55
8.55,8.55,8.55,8.55,8.55,8.55,8.59,8.60,8.62,8.66,8.70,8.70,8.73,8.76,8.80,8.80,8.83,8.87,8.90,8.90,8.93,8.97,9.00,9.00,9.00,9.06,9.10,9.10,9.10,9.17,9.20,9.20,9.20,9.24,9.28,9.30,9.30,9.34,9.38,9.40,9.40,9.40,9.47,9.50,9.50,9.50,9.58,9.60,9.62,9.65,9.69,9.70,9.72,9.76,9.80,9.80,9.80,9.81,9.85,9.89,9.90,9.90,9.91,9.94,9.98,10.00,10.01,10.05,10.09,10.10,10.12,10.15,10.15,10.18,10.22,10.25,10.25,10.29,10.32,10.36,10.40,10.40,10.43,10.47,10.51,10.54,10.58,10.62,10.66,10.70,10.74,10.78,10.82,10.85,10.89,10.93,10.97,11.02,11.10,11.10,11.15,11.20,11.21,11.28,11.33,11.37,11.41,11.44,11.48,11.50,11.52,11.60,11.60,11.63,11.67,11.70,11.74,11.78,11.82,11.86,11.90,11.94,11.97,12.03,12.10,12.10,12.16,12.22,12.26,12.30,12.37,12.40,12.42,12.50,12.54,12.58,12.62,12.65,12.69,12.76,12.82,12.86,12.90,12.94,12.97,13.03,13.10,13.14,13.18,13.22,13.26,13.30,13.37,13.42,13.46,13.50,13.54,13.58,13.63,13.70,13.70,13.76,13.82,13.86,13.90,13.97,14.00,14.03,14.10,14.14,14.18,14.24,14.30,14.30,14.37,14.42,14.46,14.50,14.58,14.60,14.63,14.70,14.70,14.76,14.80,14.80,14.80,14.87,14.90,14.91,14.95,14.99,15.06,15.10,15.11,15.19,15.20,15.22,15.26,15.30,15.38,15.40,15.43,15.50,15.50,15.56,15.60,15.62,15.69,15.70,15.75,15.81,15.85,15.89,15.93,15.97,16.01,16.09,16.10,16.12,16.16,16.20,16.20,16.17,16.16,16.19,16.16,16.15,16.15,16.14,16.10,16.10,16.07,16.05,16.05,16.05,16.02,16.00,15.99,15.95,15.95,15.95,15.95,15.95,15.91,15.87,15.85,15.85,15.85,15.85,15.83,15.79,15.75,15.75,15.70,15.62
8.61,8.61,8.61,8.61,8.61,8.61,8.61,8.60,8.64,8.70,8.70,8.70,8.75,8.80,8.80,8.80,8.86,8.90,8.90,8.90,8.97,9.00,9.00,9.00,9.01,9.06,9.10,9.10,9.11,9.17,9.20,9.20,9.20,9.28,9.30,9.30,9.31,9.38,9.40,9.40,9.40,9.41,9.47,9.50,9.50,9.51,9.58,9.60,9.63,9.70,9.70,9.70,9.74,9.80,9.80,9.80,9.81,9.84,9.90,9.90,9.90,9.92,9.99,10.12,10.19,10.12,10.03,10.10,10.10,10.11,10.14,10.20,10.20,10.21,10.25,10.30,10.30,10.31,10.36,10.40,10.40,10.41,10.47,10.50,10.53,10.59,10.61,10.65,10.70,10.71,10.78,10.81,10.84,10.90,10.91,10.97,11.01,11.03,11.10,11.11,11.16,11.20,11.22,11.29,11.36,11.40,11.41,11.49,11.50,11.51,11.53,11.60,11.61,11.66,11.70,11.71,11.79,11.80,11.84,11.90,11.90,11.97,12.00,12.03,12.10,12.11,12.16,12.24,12.30,12.31,12.37,12.41,12.43,12.50,12.58,12.60,12.63,12.70,12.71,12.77,12.84,12.90,12.90,12.97,13.01,13.04,13.10,13.18,13.20,13.24,13.30,13.31,13.37,13.45,13.50,13.50,13.58,13.61,13.64,13.70,13.71,13.77,13.84,13.90,13.91,13.98,14.01,14.04,14.10,14.18,14.21,14.24,14.30,14.31,14.37,14.44,14.50,14.51,14.58,14.60,14.63,14.70,14.70,14.76,14.80,14.80,14.81,14.88,14.90,14.90,14.90,14.98,15.05,15.09,15.11,15.18,15.20,15.21,15.23,15.30,15.38,15.40,15.43,15.50,15.50,15.56,15.60,15.62,15.69,15.71,15.75,15.83,15.90,15.91,15.96,16.00,16.02,16.09,16.11,16.15,16.20,16.20,16.21,16.21,16.24,16.29,16.23,16.21,16.21,16.21,16.21,16.21,16.17,16.12,16.12,16.11,16.11,16.11,16.10,16.03,16.02,16.02,16.01,16.01,16.01,15.97,15.92,15.92,15.91,15.91,15.91,15.90,15.83,15.82,15.78,15.70
8.68,8.68,8.68,8.68,8.68,8.68,8.68,8.62,8.64,8.70,8.70,8.70,8.75,8.80,8.80,8.80,8.86,8.90,8.90,8.90,8.97,9.00,9.00,9.00,9.06,9.09,9.10,9.11,9.17,9.19,9.20,9.20,9.20,9.28,9.30,9.30,9.31,9.38,9.40,9.40,9.41,9.47,9.49,9.50,9.52,9.58,9.60,9.60,9.63,9.70,9.70,9.70,9.74,9.80,9.80,9.80,9.84,9.88,9.90,9.90,9.90,10.05,10.37,10.80,11.21,10.75,10.08,10.10,10.10,10.14,10.18,10.20,10.20,10.25,10.29,10.30,10.30,10.36,10.39,10.40,10.40,10.46,10.49,10.53,10.58,10.60,10.65,10.69,10.72,10.78,10.79,10.84,10.88,10.91,10.97,10.99,11.03,11.08,11.10,11.16,11.19,11.22,11.28,11.30,11.36,11.40,11.41,11.49,11.50,11.54,11.58,11.60,11.66,11.69,11.70,11.71,11.79,11.80,11.84,11.90,11.90,11.97,12.00,12.03,12.10,12.16,12.19,12.24,12.31,12.37,12.39,12.43,12.48,12.50,12.58,12.60,12.63,12.71,12.77,12.79,12.84,12.90,12.90,12.97,13.04,13.08,13.10,13.18,13.20,13.24,13.31,13.37,13.39,13.45,13.50,13.50,13.58,13.64,13.68,13.71,13.77,13.79,13.84,13.91,13.97,13.99,14.04,14.08,14.10,14.18,14.24,14.28,14.31,14.37,14.39,14.44,14.52,14.58,14.59,14.60,14.63,14.70,14.70,14.76,14.80,14.81,14.87,14.89,14.90,14.90,14.90,14.98,15.01,15.05,15.10,15.12,15.18,15.23,15.28,15.30,15.38,15.40,15.43,15.50,15.50,15.56,15.60,15.62,15.69,15.75,15.79,15.83,15.90,15.96,15.99,16.03,16.08,16.10,16.15,16.19,16.20,16.20,16.26,16.28,16.28,16.30,16.28,16.28,16.28,16.28,16.28,16.28,16.26,16.25,16.25,16.19,16.18,16.18,16.17,16.15,16.15,16.12,16.08,16.08,16.08,16.06,16.05,16.05,15.99,15.98,15.98,15.97,15.95,15.95,15.90,15.83
8.74,8.74,8.74,8.74,8.74,8.74,8.74,8.70,8.69,8.70,8.70,8.73,8.77,8.80,8.80,8.83,8.88,8.90,8.91,8.94,8.98,9.00,9.00,9.00,9.08,9.10,9.10,9.11,9.19,9.20,9.20,9.21,9.24,9.29,9.30,9.31,9.34,9.39,9.40,9.40,9.42,9.49,9.50,9.52,9.56,9.60,9.60,9.62,9.66,9.70,9.70,9.73,9.77,9.80,9.80,9.83,9.87,9.90,9.91,9.97,10.13,10.35,10.62,10.91,11.21,10.82,10.25,10.22,10.16,10.17,10.21,10.24,10.24,10.28,10.32,10.34,10.34,10.38,10.42,10.44,10.44,10.49,10.52,10.56,10.60,10.60,10.67,10.72,10.75,10.80,10.83,10.87,10.91,10.95,10.99,11.03,11.07,11.11,11.14,11.18,11.22,11.26,11.30,11.33,11.38,11.41,11.45,11.50,11.53,11.57,11.60,11.60,11.68,11.70,11.71,11.75,11.79,11.83,11.86,11.91,11.94,11.98,12.02,12.06,12.11,12.18,12.22,12.26,12.31,12.39,12.40,12.45,12.51,12.54,12.59,12.62,12.66,12.71,12.79,12.80,12.84,12.91,12.94,12.98,13.05,13.10,13.10,13.18,13.22,13.26,13.31,13.39,13.40,13.45,13.51,13.54,13.59,13.65,13.70,13.71,13.79,13.83,13.86,13.92,14.00,14.00,14.05,14.11,14.14,14.19,14.26,14.30,14.31,14.39,14.43,14.47,14.52,14.60,14.60,14.60,14.63,14.70,14.70,14.76,14.80,14.82,14.89,14.90,14.90,14.90,14.90,14.98,15.00,15.04,15.11,15.14,15.18,15.24,15.30,15.30,15.38,15.40,15.43,15.50,15.53,15.58,15.62,15.66,15.73,15.78,15.82,15.86,15.90,15.98,16.02,16.06,16.10,16.14,16.18,16.20,16.21,16.24,16.29,16.30,16.30,16.30,16.33,16.34,16.34,16.34,16.34,16.34,16.34,16.34,16.34,16.29,16.26,16.24,16.24,16.24,16.24,16.21,16.17,16.14,16.14,16.14,16.14,16.14,16.09,16.06,16.04,16.04,16.04,16.04,15.99,15.92
8.80,8.80,8.80,8.80,8.80,8.80,8.80,8.80,8.76,8.71,8.70,8.78,8.80,8.80,8.81,8.89,8.90,8.90,8.92,8.99,9.00,9.00,9.00,9.01,9.08,9.10,9.10,9.12,9.19,9.20,9.20,9.22,9.30,9.30,9.30,9.33,9.40,9.40,9.40,9.40,9.42,9.49,9.50,9.55,9.60,9.60,9.60,9.66,9.70,9.70,9.70,9.77,9.80,9.80,9.80,9.88,9.90,9.90,9.92,10.07,10.45,10.71,10.76,10.68,10.61,10.54,10.46,10.39,10.24,10.20,10.24,10.30,10.30,10.30,10.35,10.40,10.40,10.40,10.45,10.50,10.50,10.50,10.56,10.60,10.60,10.60,10.67,10.75,10.80,10.80,10.88,10.90,10.93,11.00,11.00,11.07,11.10,11.12,11.20,11.20,11.25,11.30,11.31,11.38,11.40,11.44,11.50,11.50,11.57,11.60,11.60,11.60,11.68,11.70,11.74,11.80,11.80,11.86,11.90,11.92,12.00,12.00,12.05,12.10,12.11,12.18,12.26,12.30,12.31,12.39,12.40,12.45,12.52,12.60,12.60,12.65,12.70,12.71,12.79,12.80,12.84,12.92,13.00,13.00,13.05,13.10,13.11,13.18,13.26,13.30,13.31,13.39,13.40,13.45,13.52,13.60,13.60,13.65,13.70,13.71,13.79,13.86,13.90,13.92,14.00,14.00,14.05,14.13,14.20,14.20,14.26,14.30,14.32,14.39,14.47,14.50,14.52,14.60,14.60,14.60,14.63,14.70,14.70,14.76,14.80,14.82,14.89,14.90,14.90,14.90,14.91,14.98,15.00,15.04,15.11,15.19,15.20,15.24,15.30,15.30,15.38,15.40,15.43,15.51,15.59,15.60,15.64,15.72,15.79,15.80,15.85,15.90,15.91,15.98,16.06,16.10,16.12,16.19,16.20,16.20,16.22,16.30,16.30,16.30,16.30,16.31,16.39,16.40,16.40,16.40,16.40,16.40,16.40,16.40,16.40,16.40,16.35,16.31,16.31,16.30,16.30,16.30,16.28,16.21,16.21,16.21,16.20,16.20,16.20,16.14,16.11,16.11,16.10,16.10,16.06,15.98
8.87,8.87,8.87,8.87,8.87,8.87,8.87,8.87,8.85,8.82,8.77,8.79,8.80,8.80,8.81,8.89,8.90,8.90,8.92,8.99,9.00,9.00,9.02,9.07,9.09,9.10,9.12,9.17,9.20,9.20,9.20,9.22,9.30,9.30,9.30,9.33,9.40,9.40,9.40,9.43,9.47,9.50,9.50,9.55,9.60,9.60,9.60,9.66,9.70,9.71,9.76,9.79,9.80,9.81,9.87,9.89,9.90,9.92,9.97,10.02,10.15,10.26,10.32,10.30,10.27,10.25,10.24,10.26,10.21,10.24,10.28,10.30,10.30,10.34,10.38,10.40,10.40,10.45,10.48,10.50,10.50,10.56,10.59,10.60,10.61,10.66,10.69,10.75,10.80,10.80,10.88,10.90,10.93,11.00,11.00,11.07,11.13,11.17,11.20,11.25,11.28,11.32,11.37,11.39,11.40,11.44,11.50,11.50,11.57,11.60,11.62,11.67,11.69,11.74,11.78,11.80,11.80,11.86,11.90,11.92,12.00,12.00,12.05,12.12,12.17,12.19,12.26,12.30,12.31,12.39,12.45,12.48,12.52,12.60,12.60,12.65,12.70,12.71,12.79,12.84,12.88,12.92,13.00,13.00,13.05,13.12,13.17,13.19,13.26,13.30,13.31,13.39,13.45,13.48,13.52,13.60,13.60,13.65,13.72,13.77,13.80,13.86,13.90,13.92,14.00,14.05,14.08,14.13,14.20,14.20,14.26,14.32,14.37,14.40,14.47,14.50,14.52,14.60,14.60,14.60,14.63,14.71,14.76,14.79,14.80,14.81,14.83,14.88,14.90,14.92,14.97,14.99,15.04,15.08,15.11,15.19,15.20,15.24,15.31,15.37,15.39,15.44,15.50,15.57,15.60,15.64,15.68,15.72,15.79,15.85,15.88,15.92,15.97,16.05,16.09,16.12,16.17,16.20,16.25,16.27,16.27,16.30,16.30,16.30,16.32,16.37,16.40,16.40,16.40,16.41,16.46,16.47,16.47,16.47,16.47,16.47,16.45,16.44,16.43,16.38,16.37,16.37,16.36,16.34,16.34,16.30,16.27,16.27,16.27,16.25,16.24,16.22,16.17,16.17,16.15,16.11
8.93,8.93,8.93,8.93,8.93,8.93,8.93,8.93,8.93,8.92,8.86,8.84,8.83,8.83,8.84,8.89,8.90,8.90,8.92,8.99,9.00,9.00,9.03,9.10,9.10,9.10,9.14,9.20,9.20,9.20,9.21,9.25,9.30,9.30,9.32,9.35,9.40,9.40,9.42,9.46,9.50,9.50,9.52,9.56,9.60,9.60,9.63,9.67,9.70,9.71,9.79,9.80,9.81,9.85,9.90,9.90,9.92,9.95,10.00,10.00,10.00,10.04,10.10,10.10,10.12,10.13,10.15,10.20,10.23,10.27,10.30,10.30,10.33,10.38,10.40,10.41,10.43,10.48,10.52,10.53,10.54,10.59,10.62,10.63,10.64,10.69,10.72,10.76,10.81,10.83,10.89,10.92,10.95,11.00,11.03,11.08,11.14,11.20,11.20,11.27,11.30,11.33,11.40,11.40,11.42,11.46,11.50,11.53,11.58,11.60,11.62,11.70,11.70,11.76,11.80,11.80,11.83,11.88,11.91,11.94,12.00,12.02,12.07,12.13,12.20,12.20,12.26,12.31,12.34,12.39,12.47,12.51,12.55,12.60,12.62,12.67,12.71,12.74,12.79,12.86,12.91,12.94,13.00,13.02,13.07,13.13,13.20,13.23,13.27,13.31,13.34,13.39,13.47,13.50,13.52,13.60,13.62,13.67,13.73,13.80,13.80,13.86,13.91,13.94,14.00,14.07,14.10,14.13,14.20,14.23,14.27,14.34,14.40,14.40,14.47,14.50,14.52,14.60,14.60,14.62,14.66,14.74,14.79,14.80,14.80,14.81,14.83,14.88,14.90,14.93,15.00,15.00,15.06,15.10,15.11,15.19,15.22,15.26,15.32,15.40,15.42,15.47,15.53,15.60,15.63,15.67,15.71,15.75,15.83,15.88,15.92,15.95,16.00,16.08,16.12,16.16,16.20,16.23,16.28,16.30,16.30,16.30,16.32,16.33,16.35,16.40,16.40,16.42,16.43,16.44,16.50,16.50,16.50,16.51,16.53,16.53,16.53,16.53,16.52,16.47,16.44,16.43,16.43,16.43,16.43,16.40,16.36,16.36,16.34,16.33,16.33,16.32,16.27,16.26,16.25,16.21
9.00,9.00,9.00,9.00,9.00,9.00,9.00,9.00,9.00,8.99,8.99,8.92,8.90,8.90,8.90,8.90,8.90,8.90,8.92,8.99,9.00,9.00,9.03,9.10,9.10,9.10,9.14,9.20,9.20,9.20,9.24,9.30,9.30,9.30,9.35,9.40,9.40,9.40,9.46,9.50,9.50,9.50,9.57,9.60,9.60,9.60,9.68,9.70,9.70,9.71,9.79,9.80,9.84,9.90,9.90,9.90,9.95,10.00,10.00,10.00,10.00,10.04,10.10,10.10,10.17,10.20,10.20,10.20,10.28,10.30,10.30,10.31,10.38,10.40,10.40,10.42,10.49,10.50,10.55,10.60,10.60,10.60,10.66,10.70,10.70,10.70,10.77,10.80,10.82,10.90,10.90,10.95,11.00,11.01,11.08,11.10,11.14,11.20,11.20,11.27,11.30,11.33,11.40,11.40,11.46,11.50,11.51,11.59,11.60,11.60,11.62,11.70,11.70,11.76,11.80,11.81,11.88,11.90,11.94,12.00,12.00,12.07,12.10,12.13,12.20,12.20,12.26,12.34,12.40,12.40,12.47,12.54,12.60,12.60,12.67,12.70,12.73,12.80,12.80,12.86,12.94,13.00,13.00,13.07,13.10,13.13,13.20,13.28,13.30,13.33,13.40,13.40,13.47,13.50,13.52,13.60,13.67,13.70,13.73,13.80,13.80,13.86,13.94,14.00,14.00,14.07,14.10,14.13,14.20,14.28,14.30,14.34,14.40,14.40,14.47,14.50,14.52,14.60,14.60,14.65,14.73,14.80,14.80,14.80,14.80,14.82,14.89,14.90,14.90,14.93,15.00,15.00,15.06,15.10,15.11,15.19,15.26,15.30,15.32,15.40,15.47,15.50,15.53,15.61,15.68,15.70,15.74,15.81,15.89,15.90,15.95,16.00,16.00,16.08,16.16,16.20,16.21,16.29,16.30,16.30,16.30,16.30,16.37,16.40,16.40,16.40,16.40,16.46,16.50,16.50,16.50,16.50,16.50,16.52,16.60,16.60,16.60,16.60,16.60,16.59,16.53,16.50,16.50,16.50,16.50,16.49,16.49,16.48,16.41,16.40,16.40,16.39,16.39,16.39,16.35,16.27
9.06,9.06,9.06,9.06,9.06,9.06,9.06,9.06,9.06,9.05,9.00,8.97,8.96,8.96,8.96,8.96,8.96,8.96,8.97,9.00,9.00,9.03,9.07,9.10,9.10,9.13,9.17,9.20,9.20,9.24,9.28,9.30,9.30,9.30,9.35,9.40,9.40,9.40,9.46,9.50,9.51,9.56,9.59,9.60,9.62,9.66,9.69,9.70,9.72,9.76,9.80,9.80,9.84,9.90,9.90,9.94,9.98,10.00,10.00,10.00,10.04,10.08,10.11,10.16,10.19,10.20,10.21,10.26,10.29,10.30,10.32,10.36,10.40,10.40,10.43,10.47,10.50,10.54,10.58,10.60,10.60,10.65,10.68,10.70,10.71,10.76,10.79,10.83,10.87,10.90,10.95,10.98,11.02,11.06,11.10,11.14,11.18,11.21,11.26,11.29,11.33,11.37,11.40,11.45,11.48,11.50,11.51,11.59,11.60,11.63,11.67,11.70,11.75,11.78,11.82,11.86,11.89,11.90,11.94,12.00,12.00,12.07,12.10,12.13,12.20,12.25,12.28,12.34,12.41,12.45,12.49,12.55,12.60,12.60,12.68,12.73,12.77,12.81,12.85,12.89,12.94,13.00,13.00,13.07,13.13,13.17,13.20,13.28,13.30,13.34,13.41,13.45,13.49,13.53,13.57,13.60,13.68,13.73,13.77,13.81,13.85,13.89,13.94,14.01,14.06,14.09,14.13,14.17,14.20,14.28,14.30,14.34,14.40,14.40,14.47,14.50,14.52,14.60,14.65,14.68,14.73,14.80,14.80,14.80,14.80,14.82,14.89,14.90,14.90,14.93,15.00,15.05,15.08,15.12,15.17,15.25,15.29,15.33,15.38,15.46,15.49,15.53,15.59,15.66,15.69,15.74,15.78,15.82,15.89,15.94,15.98,16.02,16.06,16.09,16.16,16.22,16.26,16.30,16.30,16.33,16.36,16.36,16.39,16.40,16.40,16.40,16.45,16.48,16.50,16.50,16.50,16.54,16.56,16.57,16.60,16.60,16.63,16.66,16.66,16.66,16.63,16.62,16.61,16.56,16.56,16.56,16.56,16.56,16.53,16.48,16.46,16.46,16.46,16.46,16.44,16.39
9.10,9.10,9.10,9.10,9.10,9.10,9.10,9.10,9.10,9.08,9.02,9.02,9.02,9.02,9.02,9.00,9.00,9.00,9.00,9.00,9.02,9.06,9.10,9.10,9.10,9.16,9.20,9.20,9.20,9.27,9.30,9.30,9.30,9.32,9.36,9.40,9.40,9.42,9.47,9.50,9.52,9.59,9.60,9.60,9.63,9.70,9.70,9.71,9.75,9.80,9.80,9.82,9.86,9.90,9.90,9.98,10.00,10.00,10.00,10.02,10.07,10.10,10.12,10.19,10.20,10.21,10.24,10.30,10.30,10.31,10.35,10.40,10.40,10.42,10.46,10.50,10.52,10.58,10.60,10.61,10.63,10.69,10.71,10.72,10.74,10.79,10.82,10.86,10.91,10.92,10.98,11.01,11.05,11.10,11.12,11.17,11.21,11.24,11.30,11.30,11.35,11.40,11.41,11.48,11.50,11.51,11.53,11.59,11.62,11.66,11.70,11.70,11.78,11.80,11.83,11.90,11.90,11.92,11.96,12.00,12.02,12.08,12.11,12.14,12.21,12.28,12.30,12.34,12.41,12.49,12.50,12.55,12.61,12.62,12.68,12.75,12.80,12.81,12.89,12.92,12.96,13.00,13.02,13.08,13.15,13.20,13.20,13.28,13.31,13.35,13.41,13.49,13.50,13.55,13.61,13.62,13.68,13.75,13.80,13.81,13.89,13.91,13.95,14.02,14.10,14.10,14.15,14.21,14.23,14.29,14.30,14.34,14.40,14.40,14.47,14.51,14.54,14.60,14.68,14.70,14.73,14.80,14.80,14.80,14.81,14.84,14.90,14.90,14.91,14.95,15.03,15.09,15.11,15.16,15.23,15.29,15.32,15.36,15.42,15.50,15.52,15.56,15.63,15.70,15.72,15.77,15.81,15.84,15.90,15.97,16.01,16.04,16.10,16.12,16.17,16.23,16.30,16.32,16.32,16.36,16.40,16.40,16.40,16.41,16.42,16.43,16.49,16.50,16.51,16.52,16.52,16.58,16.60,16.60,16.60,16.62,16.67,16.70,16.70,16.70,16.72,16.72,16.71,16.65,16.65,16.63,16.62,16.62,16.62,16.58,16.55,16.54,16.53,16.52,16.52,16.50
9.10,9.10,9.10,9.10,9.10,9.10,9.10,9.10,9.10,9.10,9.09,9.09,9.09,9.09,9.08,9.01,9.00,9.00,9.00,9.00,9.06,9.09,9.10,9.10,9.10,9.16,9.20,9.20,9.20,9.27,9.30,9.30,9.30,9.37,9.39,9.40,9.41,9.47,9.50,9.50,9.52,9.59,9.60,9.60,9.63,9.70,9.70,9.75,9.79,9.80,9.80,9.86,9.89,9.90,9.90,9.98,10.00,10.00,10.01,10.07,10.10,10.10,10.12,10.19,10.20,10.24,10.29,10.30,10.30,10.35,10.39,10.40,10.40,10.46,10.49,10.52,10.59,10.60,10.60,10.63,10.69,10.70,10.75,10.79,10.79,10.80,10.86,10.89,10.92,10.99,11.00,11.05,11.09,11.11,11.18,11.20,11.24,11.29,11.30,11.30,11.35,11.40,11.41,11.48,11.50,11.53,11.59,11.60,11.66,11.69,11.70,11.70,11.78,11.80,11.83,11.90,11.90,11.96,11.99,12.02,12.08,12.10,12.14,12.19,12.21,12.28,12.30,12.34,12.41,12.49,12.50,12.55,12.62,12.69,12.70,12.75,12.80,12.81,12.89,12.96,12.99,13.02,13.08,13.10,13.15,13.20,13.20,13.28,13.35,13.39,13.41,13.49,13.50,13.55,13.62,13.69,13.70,13.75,13.80,13.81,13.89,13.96,13.99,14.02,14.10,14.10,14.15,14.22,14.29,14.30,14.30,14.34,14.40,14.40,14.47,14.54,14.59,14.60,14.68,14.70,14.73,14.80,14.80,14.80,14.84,14.89,14.90,14.90,14.94,15.01,15.09,15.10,15.15,15.22,15.29,15.30,15.36,15.39,15.42,15.50,15.57,15.59,15.63,15.71,15.77,15.80,15.83,15.89,15.90,15.97,16.04,16.09,16.10,16.17,16.19,16.23,16.31,16.38,16.39,16.39,16.40,16.40,16.40,16.45,16.49,16.49,16.50,16.50,16.53,16.59,16.59,16.60,16.60,16.60,16.60,16.67,16.69,16.70,16.70,16.70,16.76,16.79,16.78,16.78,16.77,16.73,16.69,16.69,16.69,16.68,16.67,16.66,16.59,16.59,16.59,16.56
9.15,9.15,9.15,9.15,9.13,9.10,9.10,9.10,9.10,9.10,9.10,9.10,9.10,9.10,9.10,9.06,9.05,9.05,9.05,9.05,9.09,9.10,9.10,9.10,9.14,9.18,9.20,9.21,9.25,9.28,9.30,9.30,9.30,9.38,9.40,9.42,9.45,9.49,9.50,9.52,9.56,9.60,9.60,9.62,9.66,9.70,9.70,9.76,9.80,9.81,9.85,9.88,9.90,9.91,9.95,9.99,10.00,10.02,10.05,10.09,10.10,10.12,10.16,10.20,10.20,10.25,10.30,10.30,10.30,10.36,10.40,10.40,10.40,10.47,10.50,10.52,10.60,10.60,10.63,10.67,10.70,10.74,10.78,10.80,10.81,10.85,10.89,10.90,10.92,11.00,11.00,11.06,11.12,11.16,11.19,11.20,11.24,11.30,11.30,11.34,11.38,11.41,11.45,11.49,11.50,11.54,11.60,11.60,11.67,11.70,11.71,11.75,11.79,11.83,11.87,11.90,11.90,11.96,12.00,12.02,12.10,12.10,12.15,12.20,12.21,12.28,12.33,12.37,12.41,12.49,12.54,12.57,12.62,12.70,12.74,12.78,12.82,12.86,12.89,12.96,13.00,13.02,13.10,13.14,13.18,13.21,13.25,13.29,13.36,13.40,13.41,13.49,13.54,13.57,13.62,13.70,13.70,13.75,13.82,13.86,13.89,13.96,14.00,14.02,14.10,14.14,14.18,14.23,14.30,14.30,14.33,14.37,14.41,14.45,14.52,14.57,14.61,14.65,14.69,14.70,14.73,14.80,14.80,14.80,14.82,14.86,14.90,14.90,14.95,15.03,15.10,15.14,15.18,15.24,15.31,15.35,15.38,15.42,15.47,15.55,15.59,15.63,15.67,15.71,15.79,15.83,15.87,15.91,15.95,15.99,16.05,16.11,16.15,16.19,16.23,16.27,16.31,16.39,16.40,16.40,16.41,16.45,16.45,16.48,16.50,16.50,16.50,16.53,16.57,16.60,16.60,16.60,16.62,16.65,16.65,16.69,16.70,16.72,16.75,16.75,16.78,16.80,16.80,16.80,16.84,16.83,16.79,16.75,16.75,16.75,16.75,16.74,16.71,16.70,16.68,16.64
9.20,9.20,9.20,9.20,9.17,9.12,9.12,9.12,9.11,9.10,9.10,9.10,9.10,9.10,9.10,9.10,9.10,9.10,9.10,9.10,9.11,9.12,9.12,9.12,9.18,9.20,9.20,9.21,9.29,9.30,9.30,9.30,9.32,9.38,9.40,9.43,9.50,9.50,9.50,9.54,9.60,9.60,9.61,9.66,9.70,9.70,9.71,9.76,9.80,9.81,9.89,9.90,9.90,9.92,10.00,10.00,10.00,10.03,10.10,10.10,10.10,10.14,10.20,10.20,10.20,10.25,10.30,10.30,10.30,10.36,10.40,10.40,10.41,10.47,10.51,10.53,10.60,10.61,10.66,10.70,10.72,10.80,10.82,10.82,10.83,10.89,10.91,10.92,10.94,11.00,11.01,11.06,11.13,11.20,11.20,11.21,11.25,11.30,11.31,11.38,11.40,11.43,11.50,11.50,11.51,11.55,11.60,11.61,11.67,11.71,11.74,11.80,11.80,11.86,11.90,11.90,11.91,11.97,12.01,12.03,12.10,12.11,12.16,12.20,12.22,12.29,12.36,12.41,12.43,12.49,12.57,12.60,12.62,12.70,12.78,12.80,12.83,12.90,12.91,12.97,13.01,13.03,13.10,13.17,13.20,13.23,13.30,13.30,13.36,13.41,13.43,13.49,13.57,13.60,13.62,13.70,13.71,13.76,13.83,13.90,13.90,13.96,14.01,14.03,14.10,14.17,14.20,14.23,14.30,14.30,14.36,14.41,14.43,14.49,14.58,14.62,14.63,14.70,14.70,14.70,14.73,14.80,14.80,14.80,14.81,14.83,14.90,14.90,14.95,15.03,15.12,15.18,15.21,15.25,15.33,15.39,15.41,15.45,15.52,15.60,15.61,15.66,15.70,15.72,15.80,15.87,15.91,15.93,15.99,16.01,16.06,16.14,16.20,16.21,16.26,16.31,16.33,16.39,16.41,16.42,16.43,16.50,16.50,16.50,16.50,16.52,16.52,16.57,16.60,16.60,16.61,16.62,16.66,16.70,16.70,16.70,16.71,16.74,16.80,16.80,16.80,16.81,16.82,16.82,16.88,16.90,16.88,16.82,16.83,16.82,16.82,16.82,16.82,16.82,16.78,16.73
9.20,9.20,9.20,9.20,9.19,9.18,9.18,9.18,9.14,9.10,9.10,9.10,9.10,9.10,9.10,9.10,9.10,9.10,9.10,9.10,9.16,9.18,9.18,9.18,9.20,9.20,9.20,9.21,9.29,9.30,9.30,9.32,9.38,9.39,9.40,9.43,9.50,9.50,9.50,9.54,9.60,9.60,9.66,9.69,9.70,9.70,9.76,9.79,9.80,9.81,9.89,9.90,9.90,9.92,10.00,10.00,10.00,10.03,10.10,10.10,10.10,10.14,10.20,10.20,10.20,10.25,10.30,10.30,10.30,10.36,10.40,10.41,10.47,10.49,10.53,10.58,10.60,10.66,10.69,10.72,10.79,10.86,10.88,10.88,10.88,10.90,10.96,10.98,10.98,11.00,11.06,11.09,11.13,11.20,11.20,11.25,11.29,11.32,11.38,11.39,11.40,11.43,11.50,11.50,11.55,11.59,11.61,11.67,11.69,11.74,11.78,11.80,11.80,11.86,11.90,11.91,11.97,11.99,12.03,12.08,12.10,12.16,12.19,12.22,12.28,12.30,12.36,12.43,12.48,12.50,12.57,12.60,12.62,12.70,12.78,12.80,12.83,12.91,12.97,12.99,13.03,13.08,13.10,13.17,13.20,13.23,13.30,13.30,13.36,13.43,13.48,13.50,13.57,13.60,13.62,13.70,13.76,13.79,13.83,13.90,13.90,13.96,14.03,14.08,14.10,14.17,14.20,14.23,14.30,14.30,14.36,14.43,14.48,14.50,14.62,14.68,14.68,14.70,14.70,14.70,14.73,14.80,14.80,14.80,14.83,14.88,14.90,14.90,14.95,15.05,15.18,15.20,15.25,15.31,15.38,15.40,15.45,15.49,15.52,15.60,15.66,15.69,15.72,15.79,15.86,15.89,15.93,15.98,16.00,16.06,16.13,16.18,16.20,16.26,16.29,16.33,16.38,16.40,16.45,16.48,16.48,16.50,16.50,16.50,16.52,16.58,16.58,16.59,16.60,16.61,16.67,16.68,16.69,16.70,16.70,16.70,16.75,16.79,16.80,16.80,16.80,16.83,16.88,16.88,16.89,16.90,16.89,16.88,16.95,16.91,16.88,16.88,16.88,16.88,16.87,16.84
9.24,9.24,9.21,9.20,9.20,9.20,9.20,9.20,9.17,9.14,9.14,9.14,9.14,9.13,9.10,9.10,9.13,9.14,9.14,9.14,9.18,9.20,9.20,9.20,9.23,9.24,9.24,9.25,9.29,9.30,9.30,9.32,9.40,9.40,9.42,9.46,9.50,9.50,9.53,9.57,9.60,9.60,9.67,9.70,9.70,9.70,9.78,9.80,9.80,9.81,9.89,9.90,9.92,9.95,10.00,10.00,10.02,10.06,10.10,10.10,10.13,10.17,10.20,10.20,10.20,10.25,10.30,10.30,10.33,10.38,10.41,10.45,10.49,10.50,10.54,10.61,10.64,10.72,10.77,10.80,10.85,10.89,10.93,10.94,10.94,10.94,10.98,11.00,11.01,11.04,11.09,11.12,11.16,11.20,11.20,11.27,11.30,11.32,11.40,11.40,11.42,11.46,11.50,11.54,11.58,11.60,11.61,11.69,11.70,11.75,11.80,11.80,11.83,11.87,11.91,11.95,11.99,12.03,12.07,12.10,12.10,12.17,12.20,12.23,12.30,12.34,12.38,12.44,12.50,12.50,12.57,12.62,12.66,12.70,12.78,12.82,12.86,12.91,12.99,13.00,13.04,13.11,13.14,13.18,13.22,13.26,13.30,13.34,13.38,13.44,13.51,13.54,13.58,13.62,13.66,13.70,13.78,13.82,13.86,13.90,13.94,13.98,14.04,14.10,14.10,14.17,14.20,14.23,14.30,14.34,14.40,14.48,14.55,14.62,14.68,14.70,14.70,14.70,14.70,14.70,14.73,14.80,14.80,14.80,14.84,14.90,14.90,14.90,14.95,15.05,15.20,15.23,15.28,15.34,15.41,15.44,15.48,15.52,15.56,15.64,15.69,15.72,15.76,15.81,15.89,15.93,15.97,16.01,16.04,16.08,16.15,16.21,16.24,16.29,16.32,16.36,16.41,16.44,16.48,16.50,16.50,16.50,16.53,16.54,16.56,16.60,16.60,16.60,16.62,16.65,16.70,16.70,16.70,16.71,16.74,16.74,16.78,16.80,16.80,16.84,16.84,16.87,16.90,16.90,16.90,16.92,16.94,16.95,16.99,16.97,16.96,16.98,16.95,16.94,16.94,16.93
9.31,9.30,9.22,9.20,9.20,9.20,9.20,9.20,9.20,9.20,9.20,9.20,9.20,9.17,9.11,9.11,9.17,9.20,9.20,9.20,9.21,9.21,9.21,9.21,9.28,9.30,9.30,9.30,9.30,9.30,9.31,9.33,9.40,9.40,9.45,9.50,9.50,9.50,9.56,9.60,9.60,9.60,9.67,9.70,9.70,9.70,9.78,9.80,9.80,9.82,9.89,9.90,9.94,10.00,10.00,10.00,10.05,10.10,10.10,10.10,10.16,10.20,10.20,10.20,10.21,10.25,10.30,10.31,10.38,10.40,10.43,10.50,10.51,10.51,10.55,10.63,10.70,10.78,10.86,10.91,10.91,10.91,10.96,11.00,11.01,11.01,11.01,11.01,11.03,11.10,11.11,11.16,11.20,11.20,11.21,11.27,11.30,11.33,11.40,11.41,11.45,11.50,11.51,11.58,11.60,11.60,11.62,11.69,11.70,11.75,11.80,11.80,11.88,11.90,11.93,12.00,12.00,12.06,12.10,12.10,12.11,12.18,12.20,12.23,12.31,12.38,12.40,12.44,12.50,12.51,12.57,12.65,12.70,12.71,12.78,12.85,12.90,12.91,12.99,13.00,13.05,13.12,13.20,13.21,13.25,13.30,13.31,13.38,13.40,13.44,13.51,13.59,13.60,13.65,13.70,13.71,13.78,13.85,13.90,13.91,13.99,14.00,14.04,14.10,14.10,14.17,14.20,14.23,14.31,14.39,14.47,14.55,14.64,14.78,14.73,14.70,14.70,14.69,14.70,14.70,14.73,14.80,14.80,14.80,14.84,14.90,14.90,14.90,14.95,15.05,15.20,15.28,15.30,15.34,15.42,15.49,15.50,15.55,15.62,15.70,15.71,15.76,15.80,15.81,15.89,15.96,16.00,16.02,16.09,16.11,16.15,16.23,16.30,16.31,16.36,16.40,16.42,16.49,16.50,16.50,16.51,16.51,16.58,16.60,16.60,16.60,16.61,16.61,16.64,16.70,16.70,16.71,16.71,16.73,16.80,16.80,16.80,16.80,16.82,16.89,16.90,16.90,16.90,16.91,16.91,16.96,17.00,17.00,17.00,17.00,17.04,17.09,17.01,17.01,17.01,17.01
9.35,9.30,9.28,9.23,9.20,9.20,9.20,9.20,9.20,9.20,9.20,9.20,9.20,9.19,9.17,9.17,9.19,9.20,9.20,9.20,9.25,9.27,9.27,9.27,9.29,9.30,9.30,9.30,9.30,9.35,9.37,9.38,9.40,9.40,9.45,9.50,9.50,9.50,9.56,9.60,9.60,9.60,9.67,9.70,9.70,9.70,9.78,9.80,9.82,9.87,9.90,9.90,9.94,10.00,10.00,10.00,10.05,10.10,10.10,10.10,10.16,10.20,10.20,10.20,10.25,10.28,10.32,10.37,10.39,10.40,10.43,10.51,10.56,10.62,10.65,10.69,10.77,10.85,10.92,10.97,10.97,10.97,10.99,11.03,11.07,11.07,11.07,11.07,11.08,11.10,11.16,11.19,11.20,11.21,11.26,11.29,11.33,11.38,11.40,11.45,11.49,11.50,11.51,11.58,11.60,11.63,11.68,11.70,11.75,11.78,11.80,11.80,11.88,11.90,11.93,12.00,12.00,12.06,12.10,12.11,12.17,12.19,12.24,12.28,12.31,12.38,12.40,12.44,12.51,12.57,12.59,12.65,12.72,12.77,12.79,12.85,12.90,12.91,12.99,13.05,13.08,13.12,13.20,13.25,13.29,13.32,13.37,13.39,13.44,13.48,13.51,13.59,13.60,13.65,13.72,13.77,13.79,13.85,13.90,13.91,13.99,14.05,14.08,14.10,14.10,14.17,14.24,14.30,14.38,14.45,14.57,14.68,14.74,14.73,14.71,14.70,14.68,14.63,14.68,14.70,14.73,14.80,14.80,14.80,14.84,14.90,14.90,14.90,14.95,15.05,15.20,15.28,15.34,15.41,15.47,15.50,15.55,15.58,15.62,15.70,15.75,15.79,15.82,15.87,15.90,15.96,16.03,16.08,16.10,16.15,16.19,16.23,16.30,16.36,16.39,16.42,16.47,16.50,16.50,16.53,16.57,16.57,16.59,16.60,16.60,16.61,16.66,16.67,16.68,16.70,16.70,16.75,16.77,16.78,16.80,16.80,16.80,16.82,16.87,16.90,16.90,16.90,16.91,16.97,16.97,16.99,17.00,17.00,17.00,17.04,17.08,17.10,17.07,17.07,17.07,17.07
9.41,9.34,9.34,9.28,9.24,9.24,9.24,9.24,9.22,9.20,9.20,9.20,9.20,9.20,9.20,9.20,9.22,9.24,9.24,9.24,9.28,9.30,9.30,9.30,9.30,9.32,9.34,9.34,9.34,9.38,9.40,9.40,9.40,9.40,9.45,9.50,9.50,9.50,9.56,9.60,9.60,9.60,9.67,9.70,9.71,9.74,9.79,9.80,9.83,9.90,9.90,9.92,9.96,10.00,10.00,10.00,10.05,10.10,10.10,10.10,10.16,10.20,10.20,10.20,10.27,10.30,10.32,10.40,10.40,10.42,10.47,10.55,10.62,10.70,10.75,10.78,10.83,10.91,10.99,11.04,11.04,11.04,11.04,11.06,11.11,11.13,11.14,11.14,11.14,11.14,11.21,11.24,11.24,11.24,11.29,11.30,11.34,11.40,11.40,11.47,11.50,11.51,11.54,11.59,11.62,11.66,11.70,11.70,11.77,11.80,11.81,11.84,11.89,11.92,11.96,12.00,12.03,12.08,12.11,12.15,12.20,12.23,12.27,12.30,12.31,12.38,12.42,12.46,12.51,12.59,12.62,12.66,12.72,12.80,12.80,12.85,12.91,12.94,12.99,13.06,13.11,13.15,13.20,13.27,13.30,13.33,13.40,13.40,13.46,13.51,13.54,13.59,13.62,13.66,13.72,13.80,13.80,13.85,13.91,13.94,13.99,14.06,14.10,14.11,14.13,14.21,14.30,14.40,14.47,14.55,14.67,14.76,14.79,14.71,14.70,14.68,14.65,14.60,14.68,14.70,14.73,14.80,14.80,14.80,14.84,14.90,14.90,14.90,14.95,15.05,15.20,15.28,15.36,15.44,15.50,15.53,15.58,15.62,15.65,15.70,15.78,15.82,15.85,15.90,15.93,15.98,16.04,16.11,16.13,16.18,16.22,16.25,16.30,16.38,16.42,16.46,16.50,16.50,16.52,16.56,16.60,16.60,16.60,16.62,16.64,16.64,16.69,16.70,16.70,16.71,16.73,16.78,16.80,16.80,16.80,16.83,16.84,16.86,16.90,16.90,16.92,16.94,16.95,17.00,17.00,17.00,17.01,17.04,17.04,17.07,17.10,17.11,17.13,17.14,17.14,17.14
9.47,9.40,9.40,9.34,9.30,9.30,9.30,9.30,9.25,9.20,9.20,9.20,9.20,9.20,9.20,9.20,9.26,9.30,9.30,9.30,9.30,9.30,9.30,9.30,9.30,9.36,9.40,9.40,9.40,9.40,9.40,9.40,9.40,9.40,9.45,9.50,9.50,9.50,9.56,9.60,9.60,9.60,9.67,9.70,9.73,9.80,9.80,9.80,9.83,9.90,9.90,9.97,10.00,10.00,10.00,10.00,10.05,10.10,10.10,10.10,10.16,10.20,10.20,10.20,10.27,10.30,10.32,10.40,10.40,10.46,10.53,10.61,10.69,10.76,10.84,10.90,10.90,10.97,11.05,11.10,11.10,11.10,11.10,11.10,11.12,11.19,11.20,11.20,11.20,11.20,11.28,11.30,11.30,11.30,11.30,11.30,11.34,11.40,11.40,11.47,11.50,11.53,11.60,11.60,11.66,11.70,11.70,11.70,11.77,11.80,11.82,11.90,11.90,11.95,12.00,12.01,12.09,12.10,12.14,12.20,12.20,12.27,12.30,12.30,12.31,12.38,12.46,12.50,12.51,12.59,12.67,12.70,12.72,12.80,12.80,12.85,12.93,13.00,13.00,13.06,13.14,13.20,13.20,13.27,13.30,13.33,13.40,13.40,13.46,13.54,13.60,13.60,13.67,13.70,13.72,13.80,13.80,13.85,13.93,14.00,14.00,14.06,14.10,14.12,14.19,14.27,14.40,14.52,14.60,14.68,14.76,14.80,14.79,14.71,14.70,14.66,14.60,14.60,14.68,14.70,14.73,14.80,14.80,14.80,14.84,14.90,14.90,14.90,14.95,15.05,15.20,15.28,15.36,15.44,15.51,15.59,15.60,15.64,15.70,15.70,15.78,15.85,15.90,15.91,15.98,16.00,16.04,16.12,16.19,16.20,16.25,16.30,16.30,16.38,16.46,16.50,16.50,16.50,16.57,16.60,16.60,16.60,16.60,16.65,16.70,16.70,16.70,16.70,16.70,16.72,16.79,16.80,16.80,16.80,16.80,16.88,16.90,16.90,16.90,16.90,16.97,17.00,17.00,17.00,17.00,17.00,17.03,17.10,17.10,17.10,17.10,17.12,17.19,17.20,17.20,17.20
9.54,9.46,9.46,9.40,9.34,9.30,9.30,9.30,9.28,9.26,9.26,9.26,9.26,9.26,9.26,9.26,9.29,9.30,9.30,9.30,9.30,9.33,9.36,9.36,9.36,9.38,9.40,9.40,9.40,9.40,9.40,9.41,9.46,9.46,9.48,9.50,9.50,9.50,9.56,9.60,9.61,9.66,9.69,9.70,9.73,9.80,9.80,9.84,9.88,9.90,9.90,9.97,10.00,10.00,10.00,10.00,10.05,10.10,10.10,10.10,10.16,10.20,10.21,10.26,10.29,10.33,10.39,10.46,10.51,10.55,10.60,10.67,10.75,10.83,10.91,10.98,11.02,11.05,11.08,11.12,11.16,11.16,11.16,11.16,11.17,11.20,11.24,11.26,11.26,11.26,11.29,11.34,11.36,11.36,11.36,11.36,11.38,11.41,11.46,11.49,11.50,11.53,11.60,11.60,11.66,11.70,11.71,11.76,11.79,11.83,11.87,11.90,11.90,11.96,12.00,12.01,12.09,12.10,12.14,12.20,12.20,12.27,12.30,12.32,12.36,12.39,12.46,12.50,12.51,12.59,12.67,12.70,12.72,12.80,12.85,12.88,12.93,13.01,13.05,13.09,13.14,13.20,13.20,13.27,13.33,13.37,13.40,13.45,13.48,13.54,13.60,13.60,13.67,13.70,13.72,13.80,13.85,13.88,13.93,14.00,14.00,14.06,14.13,14.19,14.32,14.40,14.53,14.65,14.73,14.76,14.78,14.78,14.73,14.70,14.70,14.66,14.60,14.60,14.68,14.70,14.71,14.74,14.79,14.80,14.81,14.84,14.84,14.88,14.98,15.10,15.20,15.28,15.39,15.48,15.51,15.59,15.64,15.68,15.71,15.76,15.79,15.85,15.92,15.97,15.99,16.04,16.08,16.12,16.19,16.24,16.28,16.32,16.36,16.39,16.46,16.52,16.56,16.56,16.59,16.60,16.61,16.66,16.66,16.68,16.70,16.70,16.70,16.74,16.76,16.77,16.80,16.80,16.83,16.86,16.86,16.89,16.90,16.90,16.91,16.96,16.99,17.00,17.00,17.00,17.05,17.06,17.07,17.10,17.10,17.14,17.16,17.17,17.20,17.24,17.26,17.26
9.58,9.53,9.51,9.46,9.39,9.33,9.33,9.31,9.30,9.30,9.30,9.30,9.30,9.30,9.30,9.30,9.30,9.31,9.33,9.33,9.33,9.36,9.40,9.40,9.40,9.40,9.40,9.40,9.40,9.40,9.41,9.44,9.50,9.50,9.50,9.51,9.53,9.53,9.57,9.60,9.61,9.67,9.69,9.70,9.73,9.80,9.80,9.86,9.90,9.90,9.90,9.97,10.00,10.00,10.00,10.00,10.05,10.10,10.10,10.12,10.17,10.21,10.24,10.32,10.33,10.37,10.45,10.53,10.61,10.64,10.69,10.76,10.82,10.89,10.97,11.05,11.12,11.13,11.13,11.15,11.20,11.22,11.23,11.23,11.23,11.23,11.30,11.33,11.33,11.33,11.33,11.38,11.43,11.43,11.43,11.43,11.43,11.44,11.50,11.50,11.51,11.55,11.60,11.62,11.67,11.71,11.74,11.79,11.80,11.85,11.90,11.90,11.92,11.97,12.01,12.03,12.09,12.12,12.16,12.21,12.23,12.28,12.31,12.35,12.40,12.42,12.47,12.51,12.54,12.59,12.67,12.71,12.74,12.80,12.88,12.91,12.95,13.01,13.09,13.10,13.14,13.20,13.23,13.28,13.35,13.41,13.43,13.49,13.52,13.55,13.60,13.62,13.68,13.71,13.74,13.80,13.88,13.90,13.93,14.00,14.05,14.12,14.19,14.29,14.44,14.53,14.65,14.77,14.83,14.80,14.80,14.76,14.70,14.70,14.70,14.66,14.60,14.60,14.68,14.70,14.70,14.71,14.79,14.80,14.80,14.80,14.80,14.89,15.03,15.15,15.23,15.31,15.43,15.51,15.54,15.62,15.68,15.71,15.74,15.80,15.82,15.88,15.95,16.00,16.02,16.07,16.11,16.14,16.22,16.28,16.31,16.35,16.40,16.42,16.48,16.55,16.60,16.60,16.60,16.61,16.64,16.70,16.70,16.70,16.71,16.73,16.73,16.77,16.80,16.80,16.80,16.82,16.86,16.90,16.90,16.90,16.92,16.93,16.94,16.99,17.00,17.01,17.03,17.03,17.08,17.11,17.13,17.13,17.15,17.20,17.23,17.23,17.25,17.31,17.33,17.33
9.60,9.59,9.52,9.49,9.46,9.39,9.39,9.33,9.30,9.30,9.30,9.30,9.30,9.30,9.30,9.30,9.30,9.34,9.39,9.39,9.39,9.40,9.40,9.40,9.40,9.40,9.40,9.40,9.40,9.40,9.44,9.49,9.50,9.50,9.50,9.53,9.59,9.59,9.60,9.60,9.60,9.61,9.67,9.70,9.73,9.80,9.80,9.86,9.90,9.90,9.90,9.97,10.00,10.00,10.00,10.00,10.05,10.10,10.11,10.18,10.20,10.24,10.31,10.38,10.39,10.44,10.52,10.59,10.67,10.74,10.82,10.88,10.89,10.96,11.03,11.11,11.19,11.19,11.19,11.19,11.21,11.28,11.29,11.29,11.29,11.29,11.36,11.39,11.39,11.39,11.39,11.45,11.49,11.49,11.49,11.49,11.49,11.49,11.50,11.50,11.55,11.59,11.61,11.68,11.70,11.73,11.79,11.80,11.80,11.85,11.90,11.90,11.97,12.00,12.03,12.09,12.10,12.16,12.19,12.22,12.29,12.30,12.35,12.39,12.40,12.47,12.50,12.53,12.59,12.60,12.67,12.74,12.79,12.80,12.88,12.95,12.99,13.01,13.09,13.10,13.14,13.22,13.29,13.30,13.35,13.42,13.49,13.50,13.55,13.59,13.61,13.68,13.70,13.74,13.79,13.80,13.88,13.90,13.93,14.02,14.16,14.25,14.32,14.42,14.57,14.65,14.78,14.88,14.89,14.82,14.80,14.76,14.70,14.70,14.70,14.66,14.60,14.60,14.68,14.70,14.70,14.71,14.79,14.80,14.80,14.80,14.80,14.94,15.09,15.22,15.29,15.37,15.45,15.53,15.60,15.68,15.70,15.74,15.79,15.80,15.87,15.94,15.99,16.01,16.08,16.10,16.14,16.21,16.28,16.30,16.34,16.39,16.40,16.47,16.55,16.59,16.60,16.60,16.60,16.64,16.69,16.70,16.70,16.70,16.73,16.79,16.79,16.80,16.80,16.80,16.80,16.86,16.90,16.90,16.90,16.90,16.95,16.99,16.99,17.00,17.00,17.04,17.09,17.09,17.10,17.15,17.19,17.20,17.27,17.29,17.29,17.31,17.38,17.39,17.39,17.41
9.64,9.60,9.56,9.52,9.48,9.45,9.45,9.39,9.35,9.34,9.30,9.30,9.30,9.32,9.35,9.35,9.35,9.37,9.40,9.40,9.40,9.40,9.40,9.40,9.40,9.40,9.40,9.40,9.40,9.44,9.47,9.50,9.50,9.50,9.53,9.57,9.60,9.60,9.60,9.60,9.61,9.65,9.69,9.70,9.73,9.80,9.80,9.86,9.90,9.90,9.90,9.97,10.00,10.00,10.00,10.04,10.08,10.12,10.16,10.19,10.23,10.29,10.37,10.45,10.49,10.53,10.58,10.66,10.73,10.81,10.89,10.96,11.00,11.04,11.10,11.16,11.20,11.24,11.25,11.25,11.26,11.29,11.30,11.32,11.35,11.35,11.39,11.43,11.45,11.45,11.45,11.48,11.52,11.55,11.55,11.55,11.55,11.55,11.55,11.55,11.58,11.62,11.66,11.69,11.70,11.74,11.80,11.80,11.84,11.88,11.91,11.96,11.99,12.00,12.03,12.10,12.10,12.16,12.20,12.22,12.30,12.30,12.35,12.40,12.41,12.48,12.50,12.54,12.61,12.65,12.69,12.75,12.80,12.80,12.88,12.95,13.00,13.01,13.09,13.14,13.17,13.22,13.30,13.34,13.38,13.43,13.50,13.50,13.56,13.60,13.61,13.69,13.70,13.75,13.80,13.80,13.88,13.90,13.93,14.01,14.08,14.29,14.45,14.55,14.70,14.78,14.85,14.89,14.84,14.81,14.80,14.76,14.70,14.70,14.66,14.62,14.60,14.60,14.68,14.70,14.72,14.76,14.79,14.83,14.85,14.86,14.91,15.01,15.13,15.23,15.30,15.38,15.46,15.54,15.61,15.69,15.74,15.77,15.81,15.85,15.89,15.95,16.02,16.06,16.09,16.13,16.17,16.22,16.29,16.34,16.38,16.41,16.46,16.49,16.56,16.60,16.61,16.65,16.65,16.67,16.70,16.70,16.74,16.75,16.77,16.80,16.80,16.80,16.82,16.85,16.85,16.89,16.90,16.91,16.95,16.95,17.01,17.05,17.05,17.05,17.09,17.13,17.15,17.15,17.20,17.23,17.27,17.31,17.35,17.35,17.38,17.42,17.45,17.45,17.48,17.52
9.67,9.60,9.60,9.54,9.50,9.50,9.50,9.43,9.40,9.38,9.32,9.32,9.32,9.34,9.40,9.40,9.40,9.40,9.40,9.40,9.40,9.40,9.40,9.40,9.40,9.40,9.41,9.42,9.42,9.47,9.50,9.50,9.50,9.51,9.56,9.60,9.60,9.60,9.61,9.62,9.63,9.69,9.70,9.71,9.74,9.80,9.80,9.85,9.89,9.90,9.90,9.97,10.00,10.00,10.00,10.08,10.11,10.15,10.22,10.23,10.29,10.36,10.43,10.51,10.59,10.63,10.66,10.72,10.80,10.88,10.95,11.03,11.11,11.13,11.17,11.22,11.22,11.28,11.31,11.32,11.32,11.32,11.32,11.36,11.42,11.42,11.42,11.47,11.52,11.52,11.52,11.52,11.55,11.62,11.62,11.62,11.62,11.62,11.62,11.62,11.62,11.64,11.70,11.70,11.71,11.75,11.80,11.80,11.87,11.90,11.92,12.00,12.00,12.01,12.05,12.10,12.12,12.17,12.21,12.23,12.30,12.31,12.36,12.41,12.42,12.49,12.51,12.55,12.61,12.69,12.70,12.75,12.80,12.82,12.88,12.95,13.01,13.03,13.09,13.16,13.21,13.23,13.30,13.37,13.40,13.43,13.50,13.52,13.57,13.61,13.63,13.69,13.71,13.76,13.80,13.82,13.88,13.91,13.94,14.00,14.02,14.28,14.47,14.57,14.75,14.86,14.90,14.87,14.80,14.80,14.79,14.75,14.70,14.68,14.63,14.60,14.60,14.62,14.68,14.71,14.74,14.80,14.82,14.87,14.91,14.94,15.01,15.09,15.17,15.25,15.32,15.40,15.48,15.55,15.63,15.71,15.77,15.81,15.84,15.90,15.91,15.97,16.04,16.10,16.12,16.17,16.21,16.23,16.30,16.37,16.41,16.44,16.50,16.51,16.57,16.61,16.63,16.69,16.70,16.70,16.70,16.72,16.78,16.80,16.81,16.82,16.82,16.82,16.86,16.92,16.92,16.92,16.93,16.96,17.02,17.03,17.08,17.12,17.12,17.14,17.19,17.22,17.22,17.24,17.30,17.33,17.36,17.42,17.42,17.43,17.47,17.52,17.52,17.53,17.58,17.62
9.67,9.60,9.60,9.54,9.50,9.50,9.50,9.43,9.40,9.40,9.38,9.38,9.38,9.39,9.40,9.40,9.40,9.40,9.40,9.40,9.40,9.40,9.40,9.40,9.40,9.40,9.43,9.48,9.48,9.49,9.50,9.50,9.50,9.56,9.59,9.60,9.60,9.60,9.65,9.68,9.69,9.70,9.70,9.74,9.79,9.80,9.80,9.81,9.85,9.90,9.90,9.97,10.00,10.00,10.00,10.08,10.14,10.21,10.29,10.35,10.38,10.42,10.50,10.58,10.65,10.72,10.77,10.78,10.86,10.94,11.02,11.09,11.17,11.24,11.27,11.28,11.28,11.30,11.34,11.38,11.38,11.38,11.38,11.42,11.48,11.48,11.48,11.53,11.58,11.58,11.58,11.58,11.62,11.68,11.68,11.68,11.68,11.68,11.68,11.68,11.68,11.69,11.70,11.70,11.75,11.79,11.80,11.80,11.87,11.90,11.92,12.00,12.00,12.05,12.09,12.11,12.17,12.19,12.23,12.29,12.30,12.36,12.39,12.42,12.48,12.50,12.55,12.59,12.61,12.69,12.70,12.75,12.82,12.88,12.90,12.95,13.03,13.08,13.10,13.16,13.23,13.29,13.30,13.37,13.40,13.43,13.50,13.57,13.59,13.63,13.68,13.70,13.76,13.79,13.82,13.88,13.90,13.94,13.99,14.01,14.07,14.14,14.21,14.34,14.62,14.83,14.90,14.87,14.80,14.80,14.75,14.71,14.69,14.63,14.61,14.60,14.62,14.68,14.70,14.74,14.79,14.81,14.87,14.89,14.93,15.00,15.08,15.15,15.23,15.31,15.39,15.46,15.54,15.62,15.70,15.77,15.79,15.84,15.89,15.90,15.96,16.04,16.09,16.11,16.17,16.19,16.23,16.29,16.30,16.37,16.44,16.49,16.50,16.57,16.59,16.63,16.68,16.70,16.70,16.70,16.72,16.78,16.80,16.80,16.82,16.88,16.88,16.88,16.92,16.98,16.98,16.98,17.02,17.07,17.08,17.15,17.18,17.18,17.19,17.26,17.28,17.28,17.30,17.36,17.38,17.43,17.47,17.48,17.48,17.53,17.57,17.58,17.58,17.64,17.67,17.70
9.67,9.60,9.60,9.54,9.50,9.49,9.46,9.42,9.40,9.40,9.40,9.40,9.40,9.40,9.40,9.40,9.40,9.40,9.40,9.40,9.40,9.40,9.41,9.45,9.45,9.45,9.47,9.50,9.50,9.50,9.50,9.51,9.55,9.59,9.60,9.60,9.60,9.64,9.68,9.70,9.70,9.70,9.73,9.77,9.80,9.80,9.80,9.83,9.86,9.90,9.90,9.97,10.02,10.06,10.09,10.13,10.20,10.28,10.35,10.43,10.48,10.51,10.56,10.64,10.72,10.79,10.86,10.89,10.94,11.00,11.08,11.16,11.23,11.31,11.35,11.35,11.35,11.35,11.37,11.41,11.45,11.45,11.45,11.48,11.55,11.55,11.55,11.57,11.61,11.65,11.65,11.65,11.66,11.70,11.74,11.75,11.75,11.75,11.75,11.75,11.75,11.75,11.75,11.75,11.78,11.80,11.81,11.84,11.88,11.92,11.96,12.00,12.04,12.08,12.10,12.11,12.19,12.20,12.24,12.30,12.30,12.37,12.40,12.43,12.50,12.50,12.56,12.60,12.61,12.69,12.73,12.77,12.82,12.90,12.94,12.98,13.03,13.10,13.10,13.16,13.24,13.30,13.30,13.37,13.42,13.46,13.50,13.58,13.60,13.64,13.70,13.70,13.77,13.80,13.82,13.90,13.90,13.95,14.00,14.01,14.09,14.10,14.14,14.24,14.40,14.60,14.74,14.82,14.84,14.81,14.77,14.73,14.69,14.65,14.62,14.60,14.62,14.70,14.70,14.75,14.80,14.81,14.89,14.90,14.94,15.02,15.09,15.17,15.25,15.33,15.40,15.48,15.56,15.64,15.71,15.79,15.83,15.87,15.91,15.95,15.99,16.05,16.11,16.15,16.19,16.23,16.27,16.31,16.34,16.42,16.47,16.51,16.55,16.59,16.63,16.67,16.71,16.74,16.75,16.75,16.77,16.84,16.85,16.87,16.91,16.95,16.95,16.98,17.01,17.05,17.05,17.08,17.12,17.16,17.19,17.24,17.25,17.26,17.30,17.34,17.35,17.37,17.40,17.45,17.48,17.52,17.55,17.55,17.59,17.63,17.65,17.65,17.69,17.73,17.77,17.81
9.67,9.60,9.60,9.54,9.50,9.49,9.42,9.40,9.40,9.40,9.40,9.40,9.40,9.40,9.40,9.40,9.40,9.40,9.40,9.41,9.41,9.41,9.43,9.50,9.50,9.50,9.50,9.50,9.50,9.50,9.50,9.53,9.60,9.60,9.60,9.60,9.62,9.69,9.70,9.70,9.70,9.71,9.77,9.80,9.80,9.81,9.81,9.86,9.90,9.90,9.91,9.98,10.05,10.13,10.21,10.22,10.27,10.34,10.42,10.49,10.57,10.61,10.64,10.70,10.78,10.86,10.94,11.01,11.02,11.08,11.15,11.22,11.30,11.37,11.40,11.41,11.41,11.41,11.41,11.44,11.51,11.51,11.51,11.54,11.60,11.61,11.61,11.61,11.63,11.71,11.71,11.71,11.71,11.72,11.79,11.81,11.81,11.81,11.81,11.81,11.81,11.81,11.81,11.81,11.81,11.81,11.82,11.89,11.90,11.95,12.00,12.00,12.08,12.10,12.10,12.12,12.19,12.21,12.25,12.30,12.31,12.38,12.41,12.44,12.50,12.51,12.56,12.60,12.62,12.69,12.77,12.80,12.83,12.90,12.98,13.00,13.03,13.10,13.11,13.17,13.24,13.30,13.31,13.38,13.45,13.50,13.51,13.58,13.61,13.64,13.70,13.71,13.77,13.80,13.82,13.90,13.90,13.95,14.00,14.01,14.09,14.10,14.14,14.20,14.20,14.34,14.52,14.71,14.86,14.81,14.80,14.77,14.71,14.70,14.64,14.61,14.63,14.70,14.71,14.76,14.80,14.82,14.89,14.91,14.95,15.02,15.09,15.17,15.25,15.33,15.40,15.48,15.56,15.64,15.71,15.79,15.87,15.90,15.93,16.00,16.01,16.06,16.14,16.20,16.21,16.27,16.30,16.33,16.39,16.47,16.51,16.53,16.60,16.61,16.66,16.70,16.72,16.80,16.81,16.82,16.84,16.91,16.92,16.97,17.01,17.01,17.02,17.08,17.11,17.11,17.12,17.18,17.22,17.24,17.31,17.31,17.32,17.35,17.41,17.41,17.42,17.46,17.51,17.51,17.59,17.61,17.61,17.63,17.70,17.71,17.71,17.74,17.80,17.81,17.86,17.91
9.67,9.60,9.60,9.54,9.50,9.50,9.48,9.42,9.40,9.40,9.40,9.40,9.40,9.40,9.40,9.40,9.40,9.40,9.41,9.47,9.47,9.47,9.48,9.50,9.50,9.50,9.50,9.50,9.50,9.50,9.53,9.58,9.60,9.60,9.60,9.62,9.68,9.70,9.70,9.70,9.71,9.77,9.79,9.80,9.82,9.87,9.87,9.89,9.90,9.91,9.97,10.04,10.12,10.20,10.27,10.33,10.36,10.40,10.48,10.56,10.64,10.70,10.75,10.77,10.84,10.92,11.00,11.08,11.13,11.21,11.26,11.29,11.36,11.39,11.43,11.47,11.47,11.47,11.47,11.50,11.57,11.57,11.57,11.58,11.61,11.67,11.67,11.67,11.70,11.77,11.77,11.77,11.77,11.78,11.80,11.85,11.87,11.87,11.87,11.87,11.87,11.87,11.87,11.87,11.87,11.87,11.88,11.90,11.90,11.95,12.00,12.00,12.08,12.10,12.12,12.18,12.20,12.25,12.29,12.31,12.37,12.39,12.44,12.48,12.50,12.56,12.59,12.63,12.68,12.70,12.77,12.83,12.88,12.90,12.98,13.00,13.03,13.11,13.16,13.19,13.24,13.31,13.37,13.39,13.45,13.52,13.58,13.60,13.64,13.68,13.71,13.77,13.79,13.80,13.82,13.90,13.90,13.95,14.00,14.01,14.09,14.10,14.14,14.20,14.20,14.29,14.36,14.46,14.61,14.76,14.80,14.79,14.76,14.71,14.68,14.67,14.68,14.70,14.76,14.79,14.82,14.88,14.90,14.95,14.98,15.02,15.09,15.17,15.25,15.33,15.40,15.48,15.56,15.64,15.71,15.79,15.87,15.93,15.98,16.00,16.06,16.13,16.18,16.21,16.26,16.29,16.33,16.38,16.40,16.47,16.54,16.58,16.60,16.66,16.69,16.73,16.79,16.86,16.87,16.91,16.95,16.97,17.03,17.06,17.07,17.08,17.14,17.16,17.17,17.19,17.24,17.27,17.31,17.36,17.37,17.37,17.42,17.46,17.47,17.47,17.52,17.56,17.57,17.57,17.65,17.67,17.70,17.75,17.77,17.77,17.80,17.85,17.87,17.87,17.92,17.97
9.67,9.60,9.60,9.54,9.50,9.50,9.50,9.46,9.44,9.44,9.44,9.44,9.42,9.40,9.40,9.43,9.44,9.44,9.45,9.50,9.50,9.50,9.50,9.50,9.50,9.50,9.50,9.50,9.53,9.54,9.57,9.60,9.60,9.63,9.64,9.66,9.70,9.70,9.70,9.72,9.75,9.80,9.80,9.80,9.83,9.90,9.90,9.90,9.91,9.95,10.03,10.10,10.18,10.26,10.34,10.41,10.46,10.50,10.55,10.62,10.70,10.78,10.84,10.87,10.92,10.99,11.06,11.14,11.22,11.30,11.35,11.38,11.43,11.44,11.46,11.51,11.54,11.54,11.54,11.56,11.60,11.63,11.64,11.64,11.65,11.73,11.74,11.74,11.76,11.84,11.84,11.84,11.84,11.84,11.84,11.90,11.94,11.94,11.94,11.94,11.94,11.94,11.94,11.94,11.94,11.94,11.94,11.94,11.94,11.97,12.01,12.04,12.09,12.10,12.13,12.20,12.20,12.26,12.30,12.32,12.40,12.40,12.45,12.50,12.51,12.58,12.60,12.64,12.70,12.70,12.77,12.85,12.90,12.90,12.98,13.02,13.06,13.11,13.19,13.22,13.26,13.32,13.40,13.43,13.47,13.53,13.60,13.63,13.67,13.70,13.71,13.79,13.80,13.82,13.85,13.90,13.90,13.95,14.00,14.01,14.09,14.10,14.14,14.20,14.20,14.27,14.32,14.37,14.47,14.64,14.71,14.75,14.79,14.71,14.70,14.70,14.70,14.70,14.78,14.80,14.83,14.90,14.90,14.96,15.02,15.06,15.13,15.21,15.29,15.36,15.44,15.49,15.56,15.64,15.71,15.79,15.87,15.94,16.01,16.04,16.09,16.15,16.21,16.24,16.29,16.32,16.36,16.41,16.44,16.51,16.57,16.61,16.64,16.69,16.72,16.77,16.85,16.93,16.94,16.98,17.04,17.04,17.11,17.14,17.15,17.18,17.23,17.24,17.25,17.29,17.33,17.34,17.39,17.44,17.44,17.47,17.51,17.54,17.54,17.57,17.62,17.64,17.65,17.68,17.72,17.76,17.79,17.84,17.84,17.86,17.90,17.94,17.94,17.97,18.01,18.05
9.67,9.60,9.60,9.54,9.50,9.50,9.50,9.50,9.50,9.50,9.50,9.50,9.45,9.40,9.41,9.49,9.50,9.50,9.50,9.50,9.50,9.50,9.50,9.50,9.50,9.50,9.50,9.51,9.59,9.60,9.60,9.60,9.60,9.68,9.70,9.70,9.70,9.70,9.70,9.74,9.80,9.80,9.80,9.80,9.83,9.90,9.90,9.90,9.94,10.01,10.09,10.17,10.25,10.32,10.40,10.48,10.55,10.60,10.61,10.69,10.76,10.84,10.92,11.00,11.00,11.05,11.13,11.20,11.28,11.36,11.44,11.50,11.50,11.50,11.50,11.52,11.60,11.60,11.60,11.60,11.61,11.69,11.70,11.70,11.72,11.79,11.80,11.80,11.83,11.90,11.90,11.90,11.90,11.90,11.90,11.97,12.00,12.00,12.00,12.00,12.00,12.00,12.00,12.00,12.00,12.00,12.00,12.00,12.00,12.00,12.02,12.10,12.10,12.10,12.13,12.20,12.20,12.27,12.30,12.32,12.40,12.40,12.45,12.50,12.51,12.58,12.60,12.64,12.70,12.70,12.77,12.85,12.90,12.90,12.98,13.05,13.10,13.11,13.19,13.26,13.30,13.32,13.40,13.47,13.50,13.53,13.60,13.68,13.70,13.70,13.72,13.79,13.80,13.85,13.90,13.90,13.90,13.96,14.00,14.01,14.09,14.10,14.14,14.20,14.20,14.27,14.35,14.40,14.40,14.48,14.56,14.67,14.78,14.71,14.70,14.70,14.70,14.70,14.78,14.80,14.83,14.90,14.90,14.96,15.04,15.12,15.19,15.27,15.35,15.43,15.50,15.50,15.56,15.64,15.71,15.79,15.87,15.95,16.02,16.10,16.10,16.16,16.23,16.30,16.30,16.36,16.40,16.42,16.49,16.57,16.60,16.63,16.70,16.70,16.76,16.83,16.91,16.99,17.00,17.05,17.10,17.10,17.18,17.20,17.23,17.30,17.30,17.30,17.34,17.40,17.40,17.40,17.45,17.50,17.51,17.58,17.60,17.60,17.62,17.69,17.70,17.70,17.72,17.80,17.80,17.86,17.90,17.90,17.90,17.96,18.00,18.00,18.00,18.07,18.10,18.13
9.62,9.60,9.60,9.54,9.50,9.50,9.50,9.50,9.50,9.50,9.50,9.50,9.48,9.47,9.47,9.50,9.50,9.50,9.50,9.50,9.50,9.50,9.50,9.50,9.50,9.50,9.52,9.57,9.60,9.60,9.60,9.61,9.67,9.69,9.70,9.70,9.70,9.76,9.77,9.78,9.80,9.80,9.80,9.83,9.87,9.90,9.90,9.94,10.00,10.08,10.16,10.23,10.31,10.39,10.46,10.54,10.62,10.69,10.73,10.76,10.83,10.90,10.98,11.06,11.11,11.15,11.19,11.27,11.35,11.42,11.50,11.57,11.57,11.57,11.57,11.57,11.60,11.65,11.67,11.67,11.67,11.75,11.77,11.77,11.78,11.86,11.87,11.87,11.87,11.90,11.95,11.97,11.97,11.97,11.97,11.99,12.03,12.07,12.07,12.07,12.07,12.07,12.07,12.07,12.07,12.07,12.07,12.07,12.02,12.00,12.02,12.10,12.10,12.14,12.18,12.21,12.26,12.29,12.33,12.37,12.40,12.45,12.48,12.52,12.57,12.59,12.64,12.68,12.71,12.76,12.79,12.85,12.92,12.97,12.99,13.05,13.12,13.17,13.20,13.26,13.33,13.37,13.40,13.47,13.53,13.58,13.60,13.68,13.70,13.72,13.77,13.80,13.80,13.85,13.90,13.90,13.95,13.98,14.02,14.07,14.10,14.14,14.18,14.21,14.26,14.29,14.35,14.40,14.40,14.48,14.52,14.58,14.67,14.70,14.70,14.70,14.71,14.77,14.79,14.80,14.83,14.90,14.90,14.96,15.04,15.12,15.19,15.27,15.35,15.43,15.50,15.55,15.62,15.70,15.78,15.86,15.93,16.01,16.07,16.10,16.15,16.22,16.28,16.31,16.36,16.39,16.43,16.47,16.50,16.57,16.63,16.67,16.70,16.75,16.79,16.83,16.91,16.99,17.04,17.11,17.18,17.23,17.26,17.30,17.34,17.37,17.37,17.41,17.45,17.47,17.47,17.51,17.55,17.58,17.63,17.66,17.67,17.69,17.74,17.76,17.77,17.79,17.84,17.87,17.92,17.95,17.97,17.97,18.02,18.05,18.07,18.08,18.13,18.16,18.20,18.24
9.62,9.60,9.60,9.56,9.53,9.53,9.53,9.53,9.52,9.50,9.50,9.50,9.50,9.50,9.50,9.50,9.50,9.50,9.50,9.50,9.50,9.50,9.50,9.50,9.52,9.53,9.55,9.60,9.60,9.60,9.61,9.65,9.70,9.70,9.70,9.71,9.74,9.79,9.80,9.80,9.80,9.80,9.82,9.86,9.90,9.90,9.92,9.99,10.06,10.15,10.25,10.33,10.40,10.47,10.53,10.61,10.68,10.76,10.83,10.86,10.90,10.97,11.05,11.12,11.20,11.24,11.29,11.36,11.42,11.49,11.55,11.60,11.63,11.63,11.63,11.63,11.63,11.70,11.73,11.73,11.74,11.81,11.83,11.83,11.84,11.89,11.92,11.93,11.93,11.93,12.01,12.03,12.03,12.03,12.03,12.03,12.06,12.11,12.13,12.13,12.13,12.13,12.13,12.13,12.13,12.13,12.13,12.10,12.05,12.03,12.05,12.10,12.12,12.17,12.21,12.24,12.29,12.32,12.36,12.41,12.43,12.48,12.52,12.55,12.60,12.62,12.67,12.71,12.74,12.79,12.82,12.86,12.92,13.00,13.02,13.07,13.13,13.20,13.23,13.27,13.34,13.41,13.43,13.48,13.55,13.61,13.63,13.69,13.70,13.74,13.80,13.80,13.82,13.86,13.91,13.93,13.98,14.00,14.03,14.10,14.10,14.16,14.20,14.22,14.30,14.30,14.35,14.40,14.40,14.48,14.50,14.54,14.61,14.66,14.69,14.70,14.72,14.80,14.80,14.82,14.85,14.90,14.93,14.99,15.06,15.12,15.19,15.27,15.35,15.43,15.50,15.58,15.66,15.74,15.81,15.89,15.97,16.04,16.11,16.13,16.18,16.25,16.31,16.34,16.39,16.42,16.46,16.51,16.53,16.60,16.66,16.71,16.73,16.79,16.82,16.87,16.94,17.02,17.08,17.14,17.22,17.30,17.32,17.38,17.43,17.43,17.46,17.50,17.53,17.54,17.56,17.61,17.64,17.68,17.73,17.73,17.75,17.78,17.83,17.83,17.85,17.89,17.94,17.96,18.01,18.03,18.04,18.07,18.12,18.13,18.14,18.17,18.23,18.25,18.29,18.34
9.67,9.60,9.60,9.60,9.59,9.59,9.59,9.59,9.55,9.50,9.50,9.50,9.50,9.50,9.50,9.50,9.50,9.50,9.50,9.50,9.50,9.50,9.50,9.50,9.58,9.59,9.60,9.60,9.60,9.60,9.64,9.70,9.70,9.70,9.70,9.73,9.79,9.80,9.80,9.80,9.80,9.80,9.87,9.90,9.90,9.90,9.98,10.05,10.13,10.22,10.37,10.45,10.53,10.59,10.59,10.67,10.75,10.82,10.90,10.97,10.99,11.03,11.11,11.19,11.26,11.34,11.41,11.49,11.49,11.55,11.60,11.61,11.68,11.69,11.69,11.69,11.69,11.77,11.79,11.79,11.80,11.88,11.89,11.89,11.90,11.90,11.97,11.99,11.99,12.00,12.07,12.09,12.09,12.09,12.09,12.09,12.10,12.12,12.19,12.19,12.19,12.19,12.19,12.19,12.19,12.19,12.18,12.11,12.10,12.09,12.10,12.10,12.17,12.20,12.23,12.29,12.30,12.36,12.40,12.42,12.49,12.50,12.55,12.60,12.60,12.68,12.70,12.73,12.79,12.80,12.86,12.90,12.92,13.00,13.07,13.10,13.13,13.21,13.28,13.30,13.34,13.42,13.49,13.50,13.55,13.63,13.69,13.70,13.70,13.74,13.80,13.80,13.86,13.90,13.92,13.99,14.00,14.00,14.03,14.10,14.10,14.16,14.20,14.22,14.30,14.30,14.35,14.40,14.40,14.48,14.50,14.54,14.60,14.61,14.67,14.70,14.72,14.80,14.80,14.85,14.90,14.91,14.98,15.06,15.10,15.12,15.19,15.27,15.35,15.43,15.50,15.58,15.66,15.74,15.81,15.89,15.97,16.04,16.12,16.19,16.20,16.25,16.33,16.39,16.40,16.46,16.50,16.52,16.59,16.67,16.70,16.72,16.79,16.80,16.85,16.93,17.01,17.08,17.10,17.14,17.22,17.30,17.37,17.45,17.49,17.50,17.57,17.59,17.59,17.61,17.68,17.69,17.74,17.79,17.79,17.79,17.85,17.89,17.89,17.89,17.96,17.99,18.01,18.09,18.09,18.09,18.12,18.19,18.19,18.19,18.23,18.29,18.29,18.36,18.39,18.42
9.67,9.60,9.60,9.60,9.60,9.60,9.60,9.60,9.58,9.56,9.56,9.56,9.53,9.50,9.50,9.50,9.50,9.50,9.50,9.50,9.54,9.56,9.56,9.56,9.59,9.60,9.60,9.61,9.65,9.66,9.68,9.70,9.70,9.74,9.76,9.77,9.80,9.80,9.84,9.86,9.86,9.86,9.89,9.90,9.91,9.96,10.04,10.12,10.19,10.28,10.44,10.52,10.60,10.67,10.72,10.75,10.81,10.89,10.97,11.04,11.09,11.13,11.17,11.25,11.33,11.41,11.48,11.56,11.60,11.64,11.66,11.66,11.70,11.74,11.76,11.76,11.76,11.79,11.83,11.86,11.86,11.89,11.94,11.96,11.96,11.96,12.03,12.06,12.06,12.06,12.14,12.16,12.16,12.16,12.16,12.16,12.16,12.18,12.25,12.26,12.26,12.26,12.26,12.26,12.22,12.20,12.19,12.16,12.16,12.16,12.16,12.16,12.19,12.23,12.27,12.31,12.35,12.39,12.42,12.47,12.50,12.54,12.58,12.62,12.66,12.69,12.73,12.77,12.81,12.85,12.89,12.93,12.97,13.00,13.08,13.13,13.17,13.21,13.29,13.34,13.38,13.42,13.50,13.54,13.58,13.63,13.70,13.70,13.73,13.77,13.81,13.85,13.89,13.90,13.92,14.00,14.00,14.03,14.07,14.11,14.15,14.18,14.20,14.22,14.30,14.30,14.35,14.40,14.40,14.48,14.50,14.54,14.60,14.60,14.67,14.70,14.72,14.80,14.80,14.85,14.90,14.91,14.99,15.06,15.12,15.18,15.25,15.33,15.41,15.48,15.56,15.64,15.72,15.77,15.81,15.89,15.97,16.04,16.12,16.20,16.24,16.31,16.37,16.40,16.45,16.48,16.52,16.57,16.60,16.67,16.73,16.77,16.80,16.85,16.88,16.93,17.01,17.09,17.14,17.20,17.28,17.36,17.43,17.48,17.52,17.57,17.64,17.66,17.68,17.72,17.76,17.80,17.84,17.86,17.86,17.90,17.94,17.96,17.96,18.01,18.04,18.08,18.12,18.16,18.16,18.19,18.23,18.26,18.26,18.29,18.33,18.37,18.41,18.45,18.46,18.48
9.68,9.62,9.60,9.60,9.60,9.60,9.60,9.60,9.60,9.60,9.60,9.60,9.56,9.52,9.52,9.52,9.52,9.52,9.52,9.52,9.58,9.60,9.60,9.60,9.60,9.60,9.61,9.63,9.69,9.70,9.70,9.70,9.72,9.78,9.80,9.80,9.80,9.82,9.87,9.90,9.90,9.90,9.90,9.91,9.95,10.02,10.10,10.18,10.26,10.35,10.50,10.59,10.67,10.74,10.82,10.84,10.88,10.95,11.03,11.11,11.18,11.23,11.26,11.32,11.39,11.47,11.55,11.62,11.70,11.72,11.72,11.72,11.72,11.77,11.81,11.82,11.82,11.82,11.87,11.92,11.92,11.92,11.98,12.02,12.02,12.02,12.09,12.12,12.12,12.12,12.18,12.21,12.22,12.22,12.22,12.22,12.22,12.24,12.30,12.32,12.32,12.32,12.30,12.30,12.25,12.22,12.22,12.22,12.22,12.22,12.22,12.22,12.22,12.28,12.32,12.33,12.41,12.42,12.46,12.52,12.52,12.60,12.62,12.65,12.72,12.72,12.78,12.82,12.83,12.89,12.90,12.95,13.01,13.02,13.08,13.15,13.21,13.23,13.29,13.36,13.41,13.44,13.50,13.57,13.61,13.64,13.70,13.72,13.77,13.80,13.81,13.89,13.90,13.91,13.94,14.00,14.00,14.05,14.10,14.11,14.19,14.20,14.21,14.24,14.30,14.32,14.36,14.41,14.43,14.49,14.51,14.55,14.60,14.62,14.67,14.71,14.74,14.80,14.82,14.86,14.91,14.93,14.99,15.06,15.14,15.22,15.29,15.37,15.45,15.53,15.60,15.68,15.76,15.81,15.83,15.91,15.99,16.07,16.14,16.22,16.28,16.35,16.41,16.43,16.49,16.51,16.55,16.60,16.62,16.68,16.75,16.81,16.82,16.88,16.91,16.96,17.03,17.11,17.19,17.26,17.32,17.40,17.48,17.51,17.55,17.63,17.71,17.72,17.76,17.83,17.84,17.90,17.92,17.93,17.95,18.01,18.02,18.03,18.05,18.11,18.14,18.18,18.22,18.22,18.24,18.28,18.32,18.32,18.34,18.39,18.43,18.46,18.52,18.52,18.53,18.57
9.70,9.68,9.62,9.60,9.60,9.60,9.60,9.60,9.60,9.60,9.60,9.60,9.59,9.59,9.59,9.59,9.59,9.59,9.59,9.59,9.60,9.60,9.60,9.60,9.60,9.60,9.63,9.69,9.70,9.70,9.70,9.72,9.78,9.80,9.80,9.80,9.81,9.87,9.89,9.90,9.90,9.90,9.90,9.94,10.01,10.09,10.17,10.24,10.32,10.41,10.56,10.65,10.73,10.81,10.88,10.95,10.98,11.02,11.09,11.17,11.25,11.32,11.37,11.39,11.46,11.53,11.61,11.69,11.77,11.79,11.79,11.79,11.79,11.80,11.84,11.89,11.89,11.89,11.94,11.99,11.99,11.99,12.05,12.09,12.09,12.09,12.16,12.19,12.19,12.19,12.20,12.25,12.29,12.29,12.29,12.29,12.29,12.29,12.30,12.36,12.39,12.36,12.30,12.30,12.29,12.29,12.29,12.29,12.29,12.29,12.29,12.29,12.29,12.34,12.39,12.40,12.47,12.49,12.53,12.59,12.59,12.66,12.69,12.71,12.79,12.79,12.85,12.89,12.89,12.90,12.90,12.95,13.02,13.09,13.10,13.15,13.23,13.29,13.30,13.36,13.44,13.49,13.50,13.57,13.64,13.69,13.70,13.77,13.79,13.80,13.81,13.89,13.90,13.94,13.99,14.00,14.00,14.05,14.10,14.11,14.19,14.20,14.23,14.29,14.30,14.36,14.39,14.42,14.49,14.50,14.55,14.59,14.61,14.68,14.70,14.74,14.79,14.80,14.87,14.89,14.93,14.99,15.00,15.06,15.14,15.22,15.29,15.37,15.45,15.53,15.60,15.68,15.76,15.83,15.90,15.98,16.05,16.13,16.21,16.28,16.30,16.35,16.43,16.49,16.50,16.55,16.59,16.61,16.68,16.70,16.75,16.82,16.89,16.90,16.95,17.02,17.10,17.18,17.25,17.29,17.32,17.40,17.48,17.55,17.62,17.69,17.77,17.79,17.83,17.90,17.97,17.98,17.99,18.01,18.07,18.08,18.09,18.12,18.17,18.18,18.24,18.28,18.29,18.29,18.35,18.38,18.39,18.39,18.46,18.48,18.52,18.57,18.59,18.59,18.63,18.70
9.70,9.70,9.66,9.65,9.65,9.65,9.65,9.65,9.65,9.64,9.60,9.60,9.60,9.60,9.60,9.60,9.60,9.60,9.60,9.60,9.60,9.60,9.60,9.60,9.60,9.63,9.67,9.70,9.70,9.70,9.72,9.76,9.80,9.80,9.83,9.85,9.85,9.89,9.90,9.92,9.96,10.00,10.04,10.07,10.13,10.20,10.24,10.31,10.38,10.47,10.63,10.72,10.79,10.87,10.95,11.03,11.08,11.11,11.16,11.23,11.31,11.39,11.46,11.50,11.54,11.60,11.67,11.75,11.79,11.83,11.85,11.85,11.85,11.85,11.89,11.95,11.95,11.95,12.00,12.05,12.05,12.05,12.08,12.12,12.15,12.15,12.18,12.22,12.25,12.25,12.25,12.31,12.35,12.35,12.35,12.35,12.35,12.35,12.35,12.39,12.40,12.39,12.35,12.35,12.35,12.35,12.35,12.35,12.35,12.35,12.35,12.35,12.35,12.38,12.42,12.45,12.49,12.53,12.57,12.61,12.65,12.69,12.73,12.76,12.80,12.84,12.88,12.90,12.91,12.95,12.95,12.97,13.02,13.10,13.14,13.18,13.23,13.30,13.34,13.38,13.44,13.51,13.55,13.59,13.65,13.70,13.70,13.78,13.80,13.82,13.86,13.90,13.90,13.95,14.00,14.00,14.04,14.08,14.12,14.15,14.19,14.20,14.24,14.30,14.30,14.37,14.40,14.43,14.50,14.50,14.56,14.60,14.61,14.69,14.70,14.74,14.80,14.80,14.88,14.90,14.93,15.00,15.04,15.11,15.19,15.26,15.30,15.37,15.45,15.53,15.60,15.68,15.76,15.84,15.91,15.99,16.07,16.14,16.22,16.30,16.34,16.40,16.47,16.50,16.54,16.58,16.62,16.66,16.70,16.74,16.80,16.86,16.90,16.94,17.01,17.07,17.11,17.19,17.27,17.32,17.37,17.45,17.53,17.58,17.63,17.71,17.78,17.83,17.89,17.97,18.04,18.05,18.07,18.11,18.15,18.15,18.18,18.22,18.26,18.29,18.33,18.35,18.36,18.40,18.44,18.45,18.46,18.50,18.54,18.58,18.62,18.65,18.65,18.68,18.72,18.77
