e,e,e,e,e,e,e,e,e,e,e,e,e,e,e,e,e,e,e,e,e,e,e,e,e,e,e,e,e,e,e,e,e,e,e,e,e,e,e,e,e,e,e,e,e,e,e,e,e,e,e,e,e,e,e,e,e,e,e,e,e,e,e,e,e,e,e,e,e,e,e,e,e,e,e,e,e,e,e,e,e,e,e,e,e,e,e,e,e,e,e,e,e,e,e,e,e,e,e,e,e,e,e,e,e,e,e,e,e,e,e,e,0.00,0.06,0.09,0.12,0.17,0.20,0.20,0.25,0.30,0.30,0.38,0.40,0.43,0.51,0.59,0.66,0.74,0.82,0.89,0.97,1.05,1.13,1.20,1.28,1.36,1.44,1.51,1.59,1.67,1.71,1.71,1.63,1.63,1.63,1.63,1.63,1.63,1.61,1.57,1.53,1.53,1.53,1.53,1.51,1.42,1.27,1.17,1.10,1.02,0.94,0.86,0.77,0.66,0.53,0.46,0.38,0.30,0.22,0.15,e,e,e,e,e,e,e,e,e,e,e,e,e,e,e,e,e,e,e,e,e,e,e,e,e,e,e,e,e,e,e,e,e,e,e,e,e,e,e,0.03,0.07,0.11,0.14,0.19,0.22,0.23,0.25,0.32,0.33,0.36,0.41,0.43,0.49,0.52,0.53,0.53,0.53,0.53,0.53,0.54,0.60,0.60,0.60,0.61,0.63,0.63,0.63,0.63,0.63,0.63,0.63,0.63,0.65,0.70,0.70,0.70,0.71,0.73,0.73,0.73,0.76,0.80,0.80,0.82,0.87
e,e,e,e,e,e,e,e,e,e,e,e,e,e,e,e,e,e,e,e,e,e,e,e,e,e,e,e,e,e,e,e,e,e,e,e,e,e,e,e,e,e,e,e,e,e,e,e,e,e,e,e,e,e,e,e,e,e,e,e,e,e,e,e,e,e,e,e,e,e,e,e,e,e,e,e,e,e,e,e,e,e,e,e,e,e,e,e,e,e,e,e,e,e,e,e,e,e,e,e,e,e,e,e,e,e,e,e,e,e,e,e,0.00,0.00,0.06,0.10,0.12,0.19,0.20,0.25,0.30,0.30,0.38,0.40,0.43,0.51,0.59,0.66,0.74,0.82,0.89,0.97,1.05,1.13,1.20,1.28,1.36,1.44,1.51,1.59,1.67,1.74,1.77,1.70,1.70,1.70,1.70,1.70,1.70,1.64,1.60,1.60,1.60,1.60,1.60,1.57,1.49,1.33,1.24,1.16,1.08,1.01,0.93,0.81,0.68,0.60,0.52,0.44,0.36,0.29,0.21,e,e,e,e,e,e,e,e,e,e,e,e,e,e,e,e,e,e,e,e,e,e,e,e,e,e,e,e,e,e,e,e,e,e,e,e,e,e,e,0.10,0.10,0.13,0.20,0.20,0.26,0.30,0.31,0.39,0.40,0.40,0.42,0.50,0.50,0.55,0.60,0.60,0.60,0.60,0.60,0.60,0.60,0.60,0.60,0.63,0.70,0.70,0.70,0.70,0.70,0.70,0.70,0.70,0.70,0.70,0.70,0.70,0.73,0.80,0.80,0.80,0.80,0.80,0.80,0.87,0.90
e,e,e,e,e,e,e,e,e,e,e,e,e,e,e,e,e,e,e,e,e,e,e,e,e,e,e,e,e,e,e,e,e,e,e,e,e,e,e,e,e,e,e,e,e,e,e,e,e,e,e,e,e,e,e,e,e,e,e,e,e,e,e,e,e,e,e,e,e,e,e,e,e,e,e,e,e,e,e,e,e,e,e,e,e,e,e,e,e,e,e,e,e,e,e,e,e,e,e,e,e,e,e,e,e,e,e,e,e,e,e,e,e,e,0.02,0.06,0.11,0.14,0.18,0.22,0.25,0.30,0.38,0.43,0.49,0.57,0.65,0.72,0.78,0.82,0.89,0.97,1.05,1.13,1.20,1.28,1.36,1.41,1.45,1.53,1.61,1.71,1.79,1.76,1.76,1.76,1.76,1.76,1.76,1.70,1.66,1.66,1.66,1.66,1.66,1.62,1.50,1.39,1.30,1.22,1.15,1.07,0.99,0.87,0.74,0.66,0.58,0.51,0.43,0.35,0.22,0.11,e,e,e,e,e,e,e,e,e,e,e,e,e,e,e,e,e,e,e,e,e,e,e,e,e,e,e,e,e,e,e,e,e,e,e,0.03,0.07,0.10,0.14,0.16,0.19,0.26,0.26,0.28,0.32,0.37,0.40,0.44,0.46,0.48,0.56,0.56,0.58,0.62,0.66,0.66,0.66,0.66,0.66,0.66,0.66,0.66,0.67,0.70,0.70,0.70,0.72,0.76,0.76,0.76,0.76,0.76,0.76,0.76,0.76,0.77,0.80,0.80,0.80,0.82,0.86,0.86,0.89,0.90
e,e,e,e,e,e,e,e,e,e,e,e,e,e,e,e,e,e,e,e,e,e,e,e,e,e,e,e,e,e,e,e,e,e,e,e,e,e,e,e,e,e,e,e,e,e,e,e,e,e,e,e,e,e,e,e,e,e,e,e,e,e,e,e,e,e,e,e,e,e,e,e,e,e,e,e,e,e,e,e,e,e,e,e,e,e,e,e,e,e,e,e,e,e,e,e,e,e,e,e,e,e,e,e,e,e,e,e,e,e,e,e,e,e,0.00,0.03,0.08,0.10,0.15,0.19,0.22,0.30,0.38,0.45,0.53,0.61,0.69,0.76,0.81,0.84,0.90,0.97,1.05,1.13,1.20,1.26,1.34,1.39,1.41,1.49,1.57,1.68,1.79,1.82,1.82,1.82,1.82,1.82,1.80,1.75,1.72,1.72,1.72,1.72,1.71,1.65,1.52,1.44,1.37,1.29,1.21,1.13,1.04,0.92,0.80,0.72,0.65,0.57,0.49,0.39,0.25,0.16,0.08,e,e,e,e,e,e,e,e,e,e,e,e,e,e,e,e,e,e,e,e,e,e,e,e,e,e,e,e,e,e,e,e,e,0.02,0.06,0.10,0.12,0.18,0.21,0.25,0.30,0.32,0.32,0.36,0.42,0.42,0.48,0.51,0.54,0.60,0.62,0.62,0.65,0.70,0.70,0.70,0.71,0.72,0.72,0.72,0.72,0.72,0.72,0.72,0.72,0.75,0.80,0.80,0.80,0.81,0.82,0.82,0.82,0.82,0.82,0.82,0.82,0.82,0.86,0.90,0.90,0.90,0.91
e,e,e,e,e,e,e,e,e,e,e,e,e,e,e,e,e,e,e,e,e,e,e,e,e,e,e,e,e,e,e,e,e,e,e,e,e,e,e,e,e,e,e,e,e,e,e,e,e,e,e,e,e,e,e,e,e,e,e,e,e,e,e,e,e,e,e,e,e,e,e,e,e,e,e,e,e,e,e,e,e,e,e,e,e,e,e,e,e,e,e,e,e,e,e,e,e,e,e,e,e,e,e,e,e,e,e,e,e,e,e,e,e,e,0.00,0.00,0.02,0.09,0.11,0.15,0.22,0.30,0.38,0.45,0.53,0.61,0.69,0.76,0.84,0.89,0.90,0.97,1.05,1.13,1.20,1.21,1.27,1.34,1.41,1.49,1.57,1.65,1.75,1.89,1.89,1.89,1.89,1.88,1.81,1.79,1.79,1.79,1.79,1.79,1.74,1.67,1.58,1.51,1.43,1.35,1.27,1.20,1.06,0.95,0.87,0.79,0.71,0.63,0.53,0.39,0.30,0.22,0.15,e,e,e,e,e,e,e,e,e,e,e,e,e,e,e,e,e,e,e,e,e,e,e,e,e,e,e,e,e,e,e,e,e,0.09,0.09,0.12,0.18,0.20,0.25,0.29,0.31,0.37,0.39,0.42,0.49,0.49,0.50,0.54,0.59,0.60,0.67,0.69,0.69,0.70,0.70,0.70,0.74,0.79,0.79,0.79,0.79,0.79,0.79,0.79,0.79,0.79,0.80,0.80,0.80,0.84,0.89,0.89,0.89,0.89,0.89,0.89,0.89,0.89,0.89,0.90,0.90,0.90,0.94
e,e,e,e,e,e,e,e,e,e,e,e,e,e,e,e,e,e,e,e,e,e,e,e,e,e,e,e,e,e,e,e,e,e,e,e,e,e,e,e,e,e,e,e,e,e,e,e,e,e,e,e,e,e,e,e,e,e,e,e,e,e,e,e,e,e,e,e,e,e,e,e,e,e,e,e,e,e,e,e,e,e,e,e,e,e,e,e,e,e,e,e,e,e,e,e,e,e,e,e,e,e,e,e,e,e,e,e,e,e,e,e,e,e,e,0.00,0.01,0.09,0.10,0.15,0.22,0.30,0.38,0.45,0.53,0.60,0.64,0.71,0.79,0.86,0.90,0.94,1.00,1.08,1.15,1.19,1.23,1.29,1.37,1.49,1.57,1.64,1.73,1.85,1.93,1.95,1.93,1.90,1.86,1.85,1.85,1.85,1.85,1.85,1.80,1.72,1.65,1.57,1.49,1.42,1.33,1.22,1.10,1.01,0.93,0.85,0.77,0.70,0.59,0.44,0.37,0.29,0.21,0.13,0.06,e,e,e,e,e,e,e,e,e,e,e,e,e,e,e,e,e,e,e,e,e,e,e,e,e,e,e,e,0.02,0.06,0.09,0.13,0.15,0.17,0.25,0.25,0.30,0.35,0.35,0.39,0.43,0.47,0.51,0.55,0.55,0.60,0.65,0.65,0.69,0.73,0.75,0.75,0.75,0.75,0.77,0.80,0.80,0.80,0.83,0.85,0.85,0.85,0.85,0.85,0.85,0.85,0.85,0.87,0.90,0.90,0.90,0.93,0.95,0.95,0.95,0.95,0.95,0.95,0.95,0.95,0.98
e,e,e,e,e,e,e,e,e,e,e,e,e,e,e,e,e,e,e,e,e,e,e,e,e,e,e,e,e,e,e,e,e,e,e,e,e,e,e,e,e,e,e,e,e,e,e,e,e,e,e,e,e,e,e,e,e,e,e,e,e,e,e,e,e,e,e,e,e,e,e,e,e,e,e,e,e,e,e,e,e,e,e,e,e,e,e,e,e,e,e,e,e,e,e,e,e,e,e,e,e,e,e,e,e,e,e,e,e,e,e,e,e,e,e,e,0.01,0.09,0.10,0.15,0.22,0.30,0.38,0.45,0.52,0.59,0.60,0.66,0.73,0.80,0.88,0.90,0.95,1.02,1.09,1.17,1.19,1.24,1.32,1.47,1.56,1.64,1.72,1.80,1.94,1.99,1.97,1.91,1.91,1.91,1.91,1.91,1.91,1.90,1.86,1.79,1.71,1.63,1.56,1.48,1.39,1.24,1.15,1.07,0.99,0.92,0.84,0.75,0.64,0.51,0.43,0.35,0.28,0.20,0.12,e,e,e,e,e,e,e,e,e,e,e,e,e,e,e,e,e,e,e,e,e,e,e,e,e,e,e,0.01,0.04,0.10,0.11,0.17,0.21,0.23,0.30,0.31,0.36,0.40,0.41,0.41,0.48,0.51,0.53,0.59,0.61,0.65,0.70,0.71,0.71,0.77,0.81,0.81,0.81,0.81,0.81,0.81,0.81,0.81,0.86,0.90,0.90,0.90,0.91,0.91,0.91,0.91,0.91,0.91,0.91,0.91,0.91,0.96,1.00,1.00,1.00,1.01,1.01,1.01,1.01,1.01,1.01
e,e,e,e,e,e,e,e,e,e,e,e,e,e,e,e,e,e,e,e,e,e,e,e,e,e,e,e,e,e,e,e,e,e,e,e,e,e,e,e,e,e,e,e,e,e,e,e,e,e,e,e,e,e,e,e,e,e,e,e,e,e,e,e,e,e,e,e,e,e,e,e,e,e,e,e,e,e,e,e,e,e,e,e,e,e,e,e,e,e,e,e,e,e,e,e,e,e,e,e,e,e,e,e,e,e,e,e,e,e,e,e,e,e,e,e,0.01,0.09,0.10,0.15,0.22,0.30,0.38,0.41,0.45,0.53,0.59,0.66,0.71,0.74,0.82,0.88,0.95,1.01,1.03,1.10,1.17,1.24,1.32,1.41,1.54,1.64,1.72,1.80,1.89,1.96,1.99,1.98,1.98,1.98,1.98,1.98,1.98,1.92,1.89,1.85,1.77,1.70,1.62,1.54,1.45,1.30,1.21,1.13,1.06,0.98,0.90,0.78,0.66,0.57,0.49,0.42,0.34,0.26,0.18,e,e,e,e,e,e,e,e,e,e,e,e,e,e,e,e,e,e,e,e,e,e,e,e,e,e,e,0.04,0.09,0.11,0.17,0.19,0.23,0.28,0.30,0.36,0.39,0.42,0.48,0.48,0.54,0.58,0.58,0.60,0.65,0.69,0.72,0.78,0.78,0.83,0.88,0.88,0.88,0.88,0.88,0.88,0.88,0.88,0.89,0.90,0.90,0.90,0.95,0.98,0.98,0.98,0.98,0.98,0.98,0.98,0.98,0.99,1.00,1.00,1.00,1.05,1.08,1.08,1.08,1.08,1.08
e,e,e,e,e,e,e,e,e,e,e,e,e,e,e,e,e,e,e,e,e,e,e,e,e,e,e,e,e,e,e,e,e,e,e,e,e,e,e,e,e,e,e,e,e,e,e,e,e,e,e,e,e,e,e,e,e,e,e,e,e,e,e,e,e,e,e,e,e,e,e,e,e,e,e,e,e,e,e,e,e,e,e,e,e,e,e,e,e,e,e,e,e,e,e,e,e,e,e,e,e,e,e,e,e,e,e,e,e,e,e,e,e,e,e,e,e,e,0.09,0.15,0.21,0.26,0.33,0.38,0.43,0.51,0.55,0.62,0.67,0.72,0.79,0.84,0.91,0.97,1.00,1.08,1.13,1.21,1.31,1.39,1.51,1.62,1.72,1.80,1.88,1.95,2.01,2.04,2.04,2.04,2.04,2.03,2.00,1.96,1.94,1.92,1.84,1.76,1.68,1.59,1.48,1.36,1.28,1.20,1.12,1.04,0.97,0.84,0.71,0.63,0.56,0.48,0.40,0.32,0.21,0.09,e,e,e,e,e,e,e,e,e,e,e,e,e,e,e,e,e,e,e,e,e,e,e,e,0.04,0.04,0.10,0.14,0.15,0.23,0.24,0.29,0.34,0.34,0.39,0.42,0.46,0.50,0.54,0.58,0.62,0.64,0.64,0.71,0.74,0.76,0.80,0.83,0.87,0.90,0.90,0.94,0.94,0.94,0.94,0.94,0.94,0.94,0.94,0.94,0.94,0.98,1.00,1.01,1.04,1.04,1.04,1.04,1.04,1.04,1.04,1.04,1.04,1.04,1.08,1.10,1.11,1.14,1.14,1.14
e,e,e,e,e,e,e,e,e,e,e,e,e,e,e,e,e,e,e,e,e,e,e,e,e,e,e,e,e,e,e,e,e,e,e,e,e,e,e,e,e,e,e,e,e,e,e,e,e,e,e,e,e,e,e,e,e,e,e,e,e,e,e,e,e,e,e,e,e,e,e,e,e,e,e,e,e,e,e,e,e,e,e,e,e,e,e,e,e,e,e,e,e,e,e,e,e,e,e,e,e,e,e,e,e,e,e,e,e,e,e,e,e,e,e,e,e,e,0.06,0.14,0.20,0.20,0.28,0.35,0.43,0.49,0.50,0.56,0.64,0.71,0.79,0.80,0.85,0.93,1.00,1.08,1.10,1.17,1.31,1.39,1.47,1.59,1.72,1.80,1.88,1.95,2.03,2.11,2.11,2.11,2.10,2.08,2.01,2.01,2.01,1.98,1.90,1.83,1.75,1.64,1.49,1.42,1.34,1.26,1.18,1.11,1.03,0.90,0.78,0.70,0.62,0.54,0.46,0.37,0.22,0.13,0.06,e,e,e,e,e,e,e,e,e,e,e,e,e,e,e,e,e,e,e,e,e,0.00,0.03,0.10,0.10,0.16,0.20,0.22,0.29,0.30,0.35,0.40,0.41,0.41,0.46,0.51,0.51,0.59,0.61,0.64,0.70,0.71,0.77,0.80,0.81,0.81,0.88,0.91,0.91,0.92,0.99,1.00,1.00,1.00,1.01,1.01,1.01,1.01,1.01,1.01,1.01,1.01,1.02,1.09,1.10,1.10,1.10,1.11,1.11,1.11,1.11,1.11,1.11,1.11,1.11,1.12,1.20,1.20,1.20
e,e,e,e,e,e,e,e,e,e,e,e,e,e,e,e,e,e,e,e,e,e,e,e,e,e,e,e,e,e,e,e,e,e,e,e,e,e,e,e,e,e,e,e,e,e,e,e,e,e,e,e,e,e,e,e,e,e,e,e,e,e,e,e,e,e,e,e,e,e,e,e,e,e,e,e,e,e,e,e,e,e,e,e,e,e,e,e,e,e,e,e,e,e,e,e,e,e,e,e,e,e,e,e,e,e,e,e,e,e,e,e,e,e,e,e,e,e,0.02,0.08,0.15,0.20,0.28,0.32,0.36,0.44,0.49,0.56,0.61,0.65,0.73,0.78,0.85,0.91,0.93,1.01,1.07,1.17,1.31,1.39,1.47,1.56,1.67,1.80,1.88,1.95,2.05,2.17,2.17,2.17,2.14,2.09,2.07,2.07,2.07,2.04,1.97,1.89,1.81,1.70,1.56,1.48,1.40,1.33,1.25,1.17,1.04,0.93,0.84,0.76,0.68,0.61,0.50,0.38,0.28,0.20,0.12,e,e,e,e,e,e,e,e,e,e,e,e,e,e,e,e,e,e,e,e,e,0.03,0.08,0.10,0.16,0.19,0.22,0.27,0.30,0.35,0.38,0.41,0.47,0.47,0.52,0.57,0.58,0.65,0.67,0.68,0.71,0.76,0.79,0.83,0.87,0.87,0.95,0.97,0.97,0.97,1.00,1.00,1.00,1.01,1.07,1.07,1.07,1.07,1.07,1.07,1.07,1.07,1.07,1.10,1.10,1.10,1.12,1.17,1.17,1.17,1.17,1.17,1.17,1.17,1.17,1.18,1.20,1.20,1.20
e,e,e,e,e,e,e,e,e,e,e,e,e,e,e,e,e,e,e,e,e,e,e,e,e,e,e,e,e,e,e,e,e,e,e,e,e,e,e,e,e,e,e,e,e,e,e,e,e,e,e,e,e,e,e,e,e,e,e,e,e,e,e,e,e,e,e,e,e,e,e,e,e,e,e,e,e,e,e,e,e,e,e,e,e,e,e,e,e,e,e,e,e,e,e,e,e,e,e,e,e,e,e,e,e,e,e,e,e,e,e,e,e,e,e,e,e,e,e,0.05,0.11,0.17,0.24,0.28,0.33,0.41,0.46,0.53,0.58,0.62,0.69,0.75,0.82,0.88,0.90,0.98,1.06,1.16,1.28,1.39,1.47,1.54,1.64,1.77,1.87,1.95,2.05,2.17,2.22,2.23,2.19,2.13,2.13,2.13,2.13,2.11,2.03,1.95,1.86,1.74,1.62,1.54,1.47,1.39,1.31,1.20,1.07,0.98,0.90,0.83,0.75,0.67,0.55,0.42,0.34,0.26,0.19,0.11,e,e,e,e,e,e,e,e,e,e,e,e,e,e,e,e,e,e,e,0.02,0.07,0.11,0.14,0.19,0.22,0.26,0.30,0.33,0.38,0.41,0.45,0.50,0.53,0.57,0.61,0.64,0.69,0.72,0.73,0.75,0.83,0.83,0.86,0.91,0.93,0.99,1.02,1.03,1.03,1.03,1.03,1.03,1.05,1.10,1.10,1.10,1.11,1.13,1.13,1.13,1.13,1.13,1.13,1.13,1.13,1.15,1.20,1.20,1.20,1.21,1.23,1.23,1.23,1.23,1.23,1.23,1.23,1.23
e,e,e,e,e,e,e,e,e,e,e,e,e,e,e,e,e,e,e,e,e,e,e,e,e,e,e,e,e,e,e,e,e,e,e,e,e,e,e,e,e,e,e,e,e,e,e,e,e,e,e,e,e,e,e,e,e,e,e,e,e,e,e,e,e,e,e,e,e,e,e,e,e,e,e,e,e,e,e,e,e,e,e,e,e,e,e,e,e,e,e,e,e,e,e,e,e,e,e,e,e,e,e,e,e,e,e,e,e,e,e,e,e,e,e,e,e,e,e,0.05,0.10,0.10,0.18,0.26,0.33,0.40,0.40,0.47,0.54,0.62,0.69,0.70,0.75,0.83,0.90,0.98,1.06,1.14,1.23,1.38,1.47,1.54,1.62,1.70,1.85,1.95,2.03,2.12,2.27,2.30,2.26,2.20,2.20,2.20,2.20,2.17,2.09,2.02,1.88,1.76,1.69,1.61,1.53,1.45,1.36,1.20,1.12,1.04,0.97,0.89,0.81,0.74,0.62,0.48,0.40,0.33,0.25,0.17,e,e,e,e,e,e,e,e,e,e,e,e,e,e,e,e,e,e,e,0.07,0.10,0.12,0.20,0.20,0.26,0.30,0.31,0.39,0.40,0.44,0.50,0.50,0.57,0.60,0.63,0.70,0.70,0.76,0.80,0.81,0.89,0.90,0.90,0.92,1.00,1.00,1.05,1.10,1.10,1.10,1.10,1.10,1.10,1.10,1.10,1.10,1.13,1.20,1.20,1.20,1.20,1.20,1.20,1.20,1.20,1.20,1.20,1.20,1.20,1.23,1.30,1.30,1.30,1.30,1.30,1.30,1.30,1.30
e,e,e,e,e,e,e,e,e,e,e,e,e,e,e,e,e,e,e,e,e,e,e,e,e,e,e,e,e,e,e,e,e,e,e,e,e,e,e,e,e,e,e,e,e,e,e,e,e,e,e,e,e,e,e,e,e,e,e,e,e,e,e,e,e,e,e,e,e,e,e,e,e,e,e,e,e,e,e,e,e,e,e,e,e,e,e,e,e,e,e,e,e,e,e,e,e,e,e,e,e,e,e,e,e,e,e,e,e,e,e,e,e,e,e,e,e,e,e,e,0.05,0.10,0.18,0.22,0.27,0.34,0.39,0.46,0.52,0.56,0.63,0.68,0.75,0.81,0.84,0.92,1.03,1.14,1.22,1.33,1.45,1.54,1.62,1.70,1.81,1.93,2.03,2.11,2.22,2.28,2.28,2.26,2.26,2.26,2.26,2.24,2.16,2.03,1.92,1.83,1.75,1.67,1.59,1.52,1.42,1.26,1.19,1.11,1.03,0.95,0.88,0.76,0.65,0.54,0.47,0.39,0.31,0.24,e,e,e,e,e,e,e,e,e,e,e,e,e,e,e,e,e,0.06,0.06,0.13,0.16,0.19,0.26,0.26,0.32,0.36,0.37,0.45,0.46,0.50,0.56,0.56,0.64,0.66,0.67,0.70,0.75,0.78,0.82,0.87,0.90,0.94,0.96,0.99,1.06,1.06,1.08,1.12,1.16,1.16,1.16,1.16,1.16,1.16,1.16,1.16,1.17,1.20,1.20,1.20,1.22,1.26,1.26,1.26,1.26,1.26,1.26,1.26,1.26,1.27,1.30,1.30,1.30,1.33,1.36,1.36,1.36,1.36
e,e,e,e,e,e,e,e,e,e,e,e,e,e,e,e,e,e,e,e,e,e,e,e,e,e,e,e,e,e,e,e,e,e,e,e,e,e,e,e,e,e,e,e,e,e,e,e,e,e,e,e,e,e,e,e,e,e,e,e,e,e,e,e,e,e,e,e,e,e,e,e,e,e,e,e,e,e,e,e,e,e,e,e,e,e,e,e,e,e,e,e,e,e,e,e,e,e,e,e,e,e,e,e,e,e,e,e,e,e,e,e,e,e,e,e,e,e,e,e,0.02,0.07,0.15,0.19,0.23,0.31,0.36,0.44,0.49,0.52,0.59,0.65,0.72,0.78,0.80,0.88,1.02,1.14,1.21,1.29,1.42,1.53,1.62,1.70,1.78,1.91,2.03,2.11,2.19,2.26,2.31,2.33,2.33,2.33,2.33,2.30,2.22,2.06,1.97,1.89,1.81,1.74,1.66,1.57,1.46,1.33,1.25,1.17,1.09,1.02,0.94,0.80,0.69,0.61,0.53,0.45,0.38,0.29,0.20,0.06,e,e,e,e,e,e,e,e,e,e,e,e,e,0.02,0.05,0.10,0.12,0.18,0.21,0.24,0.30,0.32,0.37,0.41,0.43,0.49,0.52,0.56,0.61,0.62,0.68,0.71,0.73,0.73,0.81,0.83,0.86,0.93,0.93,0.98,1.01,1.04,1.10,1.12,1.13,1.15,1.20,1.20,1.20,1.21,1.23,1.23,1.23,1.23,1.23,1.23,1.23,1.23,1.25,1.30,1.30,1.30,1.31,1.33,1.33,1.33,1.33,1.33,1.33,1.33,1.33,1.36,1.40,1.40,1.40,1.41
e,e,e,e,e,e,e,e,e,e,e,e,e,e,e,e,e,e,e,e,e,e,e,e,e,e,e,e,e,e,e,e,e,e,e,e,e,e,e,e,e,e,e,e,e,e,e,e,e,e,e,e,e,e,e,e,e,e,e,e,e,e,e,e,e,e,e,e,e,e,e,e,e,e,e,e,e,e,e,e,e,e,e,e,e,e,e,e,e,e,e,e,e,e,e,e,e,e,e,e,e,e,e,e,e,e,e,e,e,e,e,e,e,e,e,e,e,e,e,e,0.00,0.01,0.09,0.16,0.23,0.30,0.31,0.37,0.45,0.52,0.59,0.61,0.66,0.73,0.80,0.88,1.02,1.14,1.21,1.29,1.37,1.50,1.62,1.70,1.78,1.91,2.03,2.11,2.19,2.26,2.34,2.39,2.39,2.39,2.39,2.36,2.28,2.13,2.03,1.95,1.88,1.80,1.72,1.61,1.48,1.39,1.31,1.24,1.16,1.08,1.00,0.86,0.75,0.67,0.60,0.52,0.44,0.34,0.20,0.11,e,e,e,e,e,e,e,e,e,e,e,e,e,0.05,0.09,0.11,0.18,0.20,0.24,0.29,0.30,0.37,0.40,0.43,0.49,0.50,0.56,0.59,0.62,0.69,0.70,0.75,0.79,0.80,0.87,0.89,0.93,0.99,0.99,1.00,1.04,1.09,1.10,1.17,1.19,1.19,1.20,1.20,1.20,1.24,1.29,1.29,1.29,1.29,1.29,1.29,1.29,1.29,1.29,1.30,1.30,1.30,1.34,1.39,1.39,1.39,1.39,1.39,1.39,1.39,1.39,1.39,1.40,1.40,1.40,1.45
0.00,0.00,e,e,e,e,e,e,e,e,e,e,e,e,e,e,e,e,e,e,e,e,e,e,e,e,e,e,e,e,e,e,e,e,e,e,e,e,e,e,e,e,e,e,e,e,e,e,e,e,e,e,e,e,e,e,e,e,e,e,e,e,e,e,e,e,e,e,e,e,e,e,e,e,e,e,e,e,e,e,e,e,e,e,e,e,e,e,e,e,e,e,e,e,e,e,e,e,e,e,e,e,e,e,e,e,e,e,e,e,e,e,e,e,e,e,e,e,e,e,e,e,0.04,0.10,0.18,0.25,0.29,0.33,0.39,0.46,0.54,0.59,0.62,0.69,0.80,0.88,0.99,1.10,1.21,1.29,1.37,1.47,1.58,1.70,1.78,1.88,1.99,2.11,2.19,2.26,2.34,2.41,2.45,2.45,2.43,2.37,2.30,2.18,2.09,2.02,1.94,1.86,1.79,1.66,1.53,1.45,1.38,1.30,1.22,1.14,1.02,0.91,0.81,0.74,0.66,0.58,0.48,0.36,0.25,0.17,0.10,e,e,e,e,e,e,e,e,e,e,0.00,0.04,0.08,0.12,0.16,0.20,0.24,0.28,0.31,0.35,0.39,0.43,0.47,0.51,0.55,0.58,0.62,0.66,0.70,0.74,0.78,0.82,0.86,0.89,0.93,0.97,1.01,1.05,1.05,1.10,1.15,1.15,1.19,1.23,1.25,1.25,1.25,1.25,1.27,1.30,1.30,1.30,1.33,1.35,1.35,1.35,1.35,1.35,1.35,1.35,1.35,1.37,1.40,1.40,1.40,1.43,1.45,1.45,1.45,1.45,1.45,1.45,1.45,1.45,1.48
0.00,0.00,0.00,0.00,e,e,e,e,e,e,e,e,e,e,e,e,e,e,e,e,e,e,e,e,e,e,e,e,e,e,e,e,e,e,e,e,e,e,e,e,e,e,e,e,e,e,e,e,e,e,e,e,e,e,e,e,e,e,e,e,e,e,e,e,e,e,e,e,e,e,e,e,e,e,e,e,e,e,e,e,e,e,e,e,e,e,e,e,e,e,e,e,e,e,e,e,e,e,e,e,e,e,e,e,e,e,e,e,e,e,e,e,e,e,e,e,e,e,e,e,e,e,e,0.05,0.13,0.19,0.27,0.29,0.34,0.41,0.48,0.56,0.59,0.65,0.80,0.88,0.96,1.07,1.20,1.29,1.37,1.44,1.54,1.68,1.77,1.85,1.96,2.09,2.18,2.26,2.34,2.42,2.49,2.50,2.46,2.39,2.31,2.24,2.16,2.08,2.00,1.93,1.84,1.72,1.60,1.52,1.44,1.36,1.28,1.19,1.04,0.95,0.88,0.80,0.72,0.65,0.52,0.39,0.31,0.24,0.16,0.08,e,e,e,e,e,e,e,e,0.02,0.02,0.10,0.12,0.16,0.22,0.22,0.29,0.32,0.34,0.42,0.42,0.47,0.52,0.53,0.61,0.62,0.66,0.72,0.72,0.79,0.82,0.85,0.92,0.92,0.97,1.01,1.03,1.09,1.11,1.16,1.20,1.22,1.22,1.26,1.31,1.32,1.32,1.32,1.32,1.32,1.32,1.32,1.36,1.40,1.40,1.40,1.41,1.42,1.42,1.42,1.42,1.42,1.42,1.42,1.42,1.46,1.50,1.50,1.50,1.51,1.52,1.52,1.52,1.52,1.52
0.00,0.00,0.00,0.00,e,e,e,e,e,e,e,e,e,e,e,e,e,e,e,e,e,e,e,e,e,e,e,e,e,e,e,e,e,e,e,e,e,e,e,e,e,e,e,e,e,e,e,e,e,e,e,e,e,e,e,e,e,e,e,e,e,e,e,e,e,e,e,e,e,e,e,e,e,e,e,e,e,e,e,e,e,e,e,e,e,e,e,e,e,e,e,e,e,e,e,e,e,e,e,e,e,e,e,e,e,e,e,e,e,e,e,e,e,e,e,e,e,e,e,e,e,e,e,0.05,0.11,0.13,0.21,0.27,0.34,0.40,0.42,0.49,0.56,0.65,0.80,0.88,0.96,1.04,1.14,1.28,1.37,1.44,1.53,1.62,1.76,1.85,1.94,2.03,2.17,2.26,2.34,2.42,2.49,2.50,2.49,2.45,2.38,2.30,2.22,2.15,2.07,1.99,1.86,1.75,1.66,1.58,1.50,1.43,1.33,1.19,1.10,1.02,0.94,0.86,0.79,0.71,0.58,0.45,0.38,0.30,0.22,0.15,e,e,e,e,e,e,e,e,0.08,0.09,0.16,0.18,0.22,0.28,0.28,0.35,0.38,0.41,0.48,0.48,0.54,0.58,0.59,0.67,0.68,0.72,0.78,0.78,0.86,0.88,0.91,0.98,0.98,0.99,1.03,1.08,1.10,1.16,1.19,1.22,1.28,1.28,1.29,1.33,1.38,1.38,1.38,1.38,1.38,1.38,1.38,1.39,1.40,1.40,1.40,1.45,1.48,1.48,1.48,1.48,1.48,1.48,1.48,1.48,1.49,1.50,1.50,1.50,1.55,1.58,1.58,1.58,1.58,1.58
0.00,0.00,0.00,0.04,e,e,e,e,e,e,e,e,e,e,e,e,e,e,e,e,e,e,e,e,e,e,e,e,e,e,e,e,e,e,e,e,e,e,e,e,e,e,e,e,e,e,e,e,e,e,e,e,e,e,e,e,e,e,e,e,e,e,e,e,e,e,e,e,e,e,e,e,e,e,e,e,e,e,e,e,e,e,e,e,e,e,e,e,e,e,e,e,e,e,e,e,e,e,e,e,e,e,e,e,e,e,e,e,e,e,e,e,e,e,e,e,e,e,e,e,e,e,e,e,0.07,0.11,0.19,0.24,0.30,0.36,0.40,0.47,0.55,0.64,0.76,0.87,0.96,1.04,1.12,1.24,1.35,1.44,1.52,1.60,1.75,1.85,1.93,2.01,2.13,2.25,2.34,2.42,2.49,2.53,2.54,2.52,2.44,2.36,2.29,2.21,2.13,2.01,1.90,1.80,1.72,1.65,1.57,1.49,1.38,1.24,1.16,1.08,1.00,0.93,0.85,0.74,0.62,0.51,0.40,0.32,0.27,0.21,0.14,0.09,0.06,0.04,0.04,0.04,0.04,0.07,0.11,0.15,0.19,0.23,0.27,0.31,0.34,0.38,0.42,0.46,0.50,0.54,0.58,0.62,0.65,0.69,0.73,0.77,0.81,0.84,0.89,0.92,0.96,1.00,1.04,1.04,1.08,1.14,1.14,1.21,1.24,1.26,1.30,1.33,1.34,1.36,1.40,1.44,1.44,1.44,1.44,1.44,1.44,1.44,1.44,1.44,1.44,1.48,1.50,1.51,1.54,1.54,1.54,1.54,1.54,1.54,1.54,1.54,1.54,1.54,1.58,1.60,1.61,1.64,1.64,1.64
0.01,0.01,0.01,0.09,0.04,e,e,e,e,e,e,e,e,e,e,e,e,e,e,e,e,e,e,e,e,e,e,e,e,e,e,e,e,e,e,e,e,e,e,e,e,e,e,e,e,e,e,e,e,e,e,e,e,e,e,e,e,e,e,e,e,e,e,e,e,e,e,e,e,e,e,e,e,e,e,e,e,e,e,e,e,e,e,e,e,e,e,e,e,e,e,e,e,e,e,e,e,e,e,e,e,e,e,e,e,e,e,e,e,e,e,e,e,e,e,e,e,e,e,e,e,e,e,e,0.03,0.10,0.18,0.20,0.24,0.32,0.39,0.46,0.55,0.63,0.71,0.86,0.96,1.04,1.11,1.19,1.33,1.44,1.52,1.60,1.75,1.85,1.93,2.01,2.09,2.22,2.34,2.42,2.49,2.57,2.60,2.58,2.50,2.43,2.35,2.27,2.18,2.03,1.94,1.86,1.79,1.71,1.63,1.55,1.44,1.30,1.22,1.14,1.06,0.98,0.90,0.76,0.65,0.55,0.41,0.34,0.32,0.28,0.22,0.22,0.15,0.12,0.11,0.11,0.11,0.11,0.14,0.21,0.21,0.26,0.30,0.32,0.39,0.41,0.45,0.50,0.51,0.58,0.60,0.64,0.70,0.71,0.77,0.80,0.83,0.90,0.91,0.96,1.00,1.01,1.09,1.10,1.14,1.20,1.21,1.27,1.30,1.31,1.31,1.38,1.40,1.41,1.42,1.49,1.50,1.50,1.50,1.51,1.51,1.51,1.51,1.51,1.51,1.51,1.51,1.52,1.59,1.60,1.60,1.60,1.61,1.61,1.61,1.61,1.61,1.61,1.61,1.61,1.63,1.70,1.70,1.70
0.07,0.07,0.07,0.10,0.08,e,e,e,e,e,e,e,e,e,e,e,e,e,e,e,e,e,e,e,e,e,e,e,e,e,e,e,e,e,e,e,e,e,e,e,e,e,e,e,e,e,e,e,e,e,e,e,e,e,e,e,e,e,e,e,e,e,e,e,e,e,e,e,e,e,e,e,e,e,e,e,e,e,e,e,e,e,e,e,e,e,e,e,e,e,e,e,e,e,e,e,e,e,e,e,e,e,e,e,e,e,e,e,e,e,e,e,e,e,e,e,e,e,e,e,e,e,e,e,0.01,0.04,0.11,0.17,0.24,0.30,0.33,0.40,0.51,0.63,0.71,0.80,0.93,1.04,1.11,1.19,1.29,1.40,1.52,1.60,1.70,1.82,1.93,2.01,2.09,2.18,2.30,2.42,2.49,2.57,2.64,2.65,2.57,2.49,2.41,2.34,2.25,2.09,2.00,1.93,1.85,1.77,1.64,1.55,1.46,1.36,1.23,1.14,1.06,0.97,0.84,0.74,0.65,0.59,0.54,0.46,0.44,0.41,0.34,0.34,0.28,0.24,0.23,0.17,0.17,0.21,0.25,0.27,0.27,0.29,0.33,0.38,0.40,0.45,0.49,0.52,0.57,0.59,0.64,0.68,0.71,0.76,0.79,0.83,0.88,0.90,0.95,0.99,1.02,1.07,1.10,1.14,1.18,1.21,1.27,1.29,1.33,1.37,1.37,1.39,1.44,1.47,1.47,1.50,1.50,1.50,1.51,1.57,1.57,1.57,1.57,1.57,1.57,1.57,1.57,1.58,1.60,1.60,1.60,1.62,1.67,1.67,1.67,1.67,1.67,1.67,1.67,1.67,1.68,1.70,1.70,1.70
0.12,0.10,0.10,0.10,0.10,0.07,e,e,e,e,e,e,e,e,e,e,e,e,e,e,e,e,e,e,e,e,e,e,e,e,e,e,e,e,e,e,e,e,e,e,e,e,e,e,e,e,e,e,e,e,e,e,e,e,e,e,e,e,e,e,e,e,e,e,e,e,e,e,e,e,e,e,e,e,e,e,e,e,e,e,e,e,e,e,e,e,e,e,e,e,e,e,e,e,e,e,e,e,e,e,e,e,e,e,e,e,e,e,e,e,e,e,e,e,e,e,e,e,e,e,e,e,e,e,e,0.01,0.09,0.14,0.20,0.27,0.30,0.37,0.50,0.63,0.70,0.78,0.90,1.01,1.11,1.19,1.27,1.39,1.52,1.60,1.68,1.79,1.91,2.01,2.09,2.16,2.27,2.39,2.49,2.57,2.65,2.68,2.63,2.56,2.46,2.36,2.28,2.15,2.04,1.96,1.88,1.80,1.65,1.55,1.47,1.38,1.23,1.14,1.05,0.94,0.84,0.76,0.70,0.67,0.67,0.59,0.57,0.54,0.47,0.47,0.40,0.37,0.35,0.27,0.27,0.31,0.34,0.34,0.34,0.34,0.37,0.44,0.44,0.51,0.54,0.56,0.64,0.64,0.69,0.74,0.75,0.82,0.84,0.88,0.94,0.94,1.01,1.04,1.06,1.14,1.14,1.20,1.24,1.25,1.30,1.32,1.37,1.41,1.44,1.44,1.49,1.54,1.54,1.54,1.54,1.54,1.55,1.60,1.60,1.60,1.61,1.64,1.64,1.64,1.64,1.64,1.64,1.64,1.64,1.65,1.70,1.70,1.70,1.71,1.74,1.74,1.74,1.74,1.74,1.74,1.74,1.74
0.15,0.10,0.10,0.10,0.10,0.10,e,e,e,e,e,e,e,e,e,e,e,e,e,e,e,e,e,e,e,e,e,e,e,e,e,e,e,e,e,e,e,e,e,e,e,e,e,e,e,e,e,e,e,e,e,e,e,e,e,e,e,e,e,e,e,e,e,e,e,e,e,e,e,e,e,e,e,e,e,e,e,e,e,e,e,e,e,e,e,e,e,e,e,e,e,e,e,e,e,e,e,e,e,e,e,e,e,e,e,e,e,e,e,e,e,e,e,e,e,e,e,e,e,e,e,e,e,e,e,0.01,0.09,0.10,0.14,0.22,0.29,0.37,0.50,0.63,0.70,0.78,0.86,0.97,1.11,1.19,1.27,1.39,1.52,1.60,1.68,1.75,1.86,2.01,2.09,2.16,2.24,2.33,2.49,2.57,2.65,2.70,2.70,2.62,2.48,2.36,2.29,2.21,2.07,1.96,1.88,1.80,1.65,1.55,1.47,1.38,1.23,1.14,1.02,0.90,0.90,0.83,0.80,0.80,0.80,0.72,0.70,0.66,0.60,0.60,0.53,0.50,0.48,0.40,0.40,0.40,0.40,0.40,0.40,0.40,0.44,0.50,0.50,0.57,0.60,0.62,0.70,0.70,0.76,0.80,0.81,0.89,0.90,0.94,1.00,1.00,1.07,1.10,1.13,1.20,1.20,1.26,1.30,1.30,1.30,1.37,1.40,1.42,1.50,1.50,1.56,1.60,1.60,1.60,1.60,1.60,1.60,1.60,1.60,1.60,1.63,1.70,1.70,1.70,1.70,1.70,1.70,1.70,1.70,1.70,1.70,1.70,1.70,1.73,1.80,1.80,1.80,1.80,1.80,1.80,1.80,1.80
0.21,0.16,0.16,0.16,0.12,0.10,0.09,0.07,e,e,e,e,e,e,e,e,e,e,e,e,e,e,e,e,e,e,e,e,e,e,e,e,e,e,e,e,e,e,e,e,e,e,e,e,e,e,e,e,e,e,e,e,e,e,e,e,e,e,e,e,e,e,e,e,e,e,e,e,e,e,e,e,e,e,e,e,e,e,e,e,e,e,e,e,e,e,e,e,e,e,e,e,e,e,e,e,e,e,e,e,e,e,e,e,e,e,e,e,e,e,e,e,e,e,e,e,e,e,e,e,e,e,e,e,e,e,e,0.08,0.14,0.22,0.29,0.37,0.47,0.58,0.70,0.78,0.86,0.95,1.06,1.18,1.27,1.36,1.47,1.60,1.68,1.75,1.84,1.95,2.08,2.20,2.33,2.46,2.62,2.70,2.74,2.75,2.69,2.57,2.46,2.36,2.28,2.15,2.05,1.96,1.87,1.74,1.63,1.55,1.45,1.33,1.22,1.18,1.11,1.03,1.03,0.96,0.93,0.93,0.92,0.85,0.83,0.79,0.73,0.73,0.66,0.63,0.61,0.53,0.53,0.49,0.46,0.46,0.46,0.46,0.48,0.51,0.56,0.59,0.63,0.67,0.70,0.75,0.78,0.82,0.87,0.90,0.94,0.98,1.01,1.06,1.09,1.13,1.17,1.20,1.25,1.29,1.32,1.36,1.36,1.43,1.46,1.47,1.50,1.55,1.58,1.62,1.66,1.66,1.66,1.66,1.66,1.66,1.66,1.66,1.67,1.70,1.70,1.70,1.72,1.76,1.76,1.76,1.76,1.76,1.76,1.76,1.76,1.78,1.80,1.80,1.80,1.83,1.86,1.86,1.86,1.86
0.26,0.23,0.23,0.20,0.16,0.13,0.12,0.10,e,e,e,e,e,e,e,e,e,e,e,e,e,e,e,e,e,e,e,e,e,e,e,e,e,e,e,e,e,e,e,e,e,e,e,e,e,e,e,e,e,e,e,e,e,e,e,e,e,e,e,e,e,e,e,e,e,e,e,e,e,e,e,e,e,e,e,e,e,e,e,e,e,e,e,e,e,e,e,e,e,e,e,e,e,e,e,e,e,e,e,e,e,e,e,e,e,e,e,e,e,e,e,e,e,e,e,e,e,e,e,e,e,e,e,e,e,e,e,e,0.11,0.19,0.27,0.36,0.45,0.55,0.68,0.78,0.86,0.94,1.03,1.18,1.29,1.37,1.47,1.63,1.72,1.82,1.92,2.02,2.16,2.31,2.46,2.62,2.77,2.81,2.81,2.77,2.69,2.54,2.44,2.36,2.28,2.12,2.03,1.96,1.86,1.70,1.62,1.55,1.46,1.35,1.27,1.25,1.21,1.15,1.15,1.08,1.05,1.05,1.05,0.97,0.95,0.92,0.85,0.85,0.79,0.75,0.73,0.66,0.65,0.62,0.57,0.55,0.55,0.54,0.54,0.57,0.62,0.63,0.66,0.71,0.73,0.79,0.82,0.85,0.90,0.92,0.99,1.03,1.05,1.12,1.13,1.18,1.23,1.23,1.29,1.32,1.35,1.40,1.43,1.48,1.51,1.53,1.53,1.61,1.63,1.65,1.70,1.70,1.70,1.71,1.73,1.73,1.73,1.73,1.73,1.73,1.73,1.73,1.75,1.80,1.80,1.80,1.81,1.83,1.83,1.83,1.83,1.83,1.83,1.83,1.83,1.86,1.90,1.90,1.90,1.91
0.30,0.29,0.28,0.21,0.19,0.19,0.18,0.11,e,e,e,e,e,e,e,e,e,e,e,e,e,e,e,e,e,e,e,e,e,e,e,e,e,e,e,e,e,e,e,e,e,e,e,e,e,e,e,e,e,e,e,e,e,e,e,e,e,e,e,e,e,e,e,e,e,e,e,e,e,e,e,e,e,e,e,e,e,e,e,e,e,e,e,e,e,e,e,e,e,e,e,e,e,e,e,e,e,e,e,e,e,e,e,e,e,e,e,e,e,e,e,e,e,e,e,e,e,e,e,e,e,e,e,e,e,e,e,e,0.05,0.13,0.20,0.35,0.45,0.53,0.62,0.76,0.86,0.94,1.03,1.18,1.33,1.44,1.53,1.69,1.84,1.98,2.13,2.27,2.36,2.50,2.65,2.81,2.96,2.91,2.85,2.77,2.69,2.54,2.44,2.36,2.28,2.12,2.03,1.96,1.86,1.70,1.62,1.55,1.49,1.47,1.40,1.38,1.34,1.28,1.28,1.21,1.18,1.18,1.18,1.10,1.08,1.05,0.98,0.98,0.92,0.88,0.86,0.78,0.78,0.78,0.75,0.68,0.68,0.63,0.63,0.68,0.69,0.69,0.70,0.72,0.79,0.80,0.85,0.89,0.91,0.98,1.06,1.09,1.11,1.19,1.19,1.24,1.29,1.29,1.30,1.36,1.39,1.41,1.48,1.50,1.54,1.59,1.59,1.67,1.69,1.69,1.70,1.70,1.70,1.74,1.79,1.79,1.79,1.79,1.79,1.79,1.79,1.79,1.79,1.80,1.80,1.80,1.84,1.89,1.89,1.89,1.89,1.89,1.89,1.89,1.89,1.89,1.90,1.90,1.90,1.95
0.35,0.34,0.30,0.26,0.25,0.23,0.19,0.16,0.08,e,e,e,e,e,e,e,e,e,e,e,e,e,e,e,e,e,e,e,e,e,e,e,e,e,e,e,e,e,e,e,e,e,e,e,e,e,e,e,e,e,e,e,e,e,e,e,e,e,e,e,e,e,e,e,e,e,e,e,e,e,e,e,e,e,e,e,e,e,e,e,e,e,e,e,e,e,e,e,e,e,e,e,e,e,e,e,e,e,e,e,e,e,e,e,e,e,e,e,e,e,e,e,e,e,e,e,e,e,e,e,e,e,e,e,e,e,e,e,0.04,0.12,0.19,0.34,0.48,0.60,0.72,0.87,0.97,1.06,1.19,1.34,1.50,1.63,1.75,1.86,2.02,2.17,2.33,2.47,2.55,2.69,2.84,2.97,3.00,2.93,2.85,2.76,2.64,2.53,2.44,2.35,2.23,2.12,2.03,1.96,1.87,1.76,1.72,1.66,1.61,1.60,1.52,1.51,1.47,1.41,1.41,1.38,1.34,1.31,1.31,1.23,1.21,1.17,1.11,1.11,1.04,1.01,0.99,0.91,0.91,0.91,0.88,0.81,0.81,0.75,0.73,0.75,0.75,0.75,0.75,0.78,0.85,0.85,0.91,0.95,0.97,1.04,1.08,1.12,1.16,1.20,1.24,1.28,1.32,1.35,1.35,1.42,1.45,1.47,1.55,1.55,1.58,1.61,1.66,1.69,1.73,1.75,1.75,1.75,1.75,1.77,1.80,1.80,1.80,1.83,1.85,1.85,1.85,1.85,1.85,1.85,1.85,1.85,1.88,1.90,1.90,1.90,1.93,1.95,1.95,1.95,1.95,1.95,1.95,1.95,1.95,1.98
0.41,0.38,0.32,0.32,0.31,0.27,0.22,0.20,0.13,0.06,e,e,e,e,e,e,e,e,e,e,e,e,e,e,e,e,e,e,e,e,e,e,e,e,e,e,e,e,e,e,e,e,e,e,e,e,e,e,e,e,e,e,e,e,e,e,e,e,e,e,e,e,e,e,e,e,e,e,e,e,e,e,e,e,e,e,e,e,e,e,e,e,e,e,e,e,e,e,e,e,e,e,e,e,e,e,e,e,e,e,e,e,e,e,e,e,e,e,e,e,e,e,e,e,e,e,e,e,e,e,e,e,e,e,e,e,e,e,0.09,0.18,0.27,0.41,0.55,0.71,0.86,1.02,1.13,1.24,1.38,1.54,1.69,1.85,1.98,2.05,2.21,2.36,2.52,2.67,2.76,2.89,3.02,3.10,3.01,2.93,2.85,2.75,2.60,2.52,2.44,2.33,2.19,2.13,2.05,1.98,1.92,1.84,1.84,1.78,1.74,1.73,1.65,1.64,1.60,1.54,1.54,1.54,1.49,1.44,1.43,1.36,1.34,1.30,1.24,1.24,1.17,1.14,1.12,1.04,1.04,1.04,1.01,0.94,0.94,0.88,0.84,0.83,0.82,0.82,0.82,0.84,0.90,0.91,0.96,1.01,1.03,1.09,1.11,1.15,1.20,1.22,1.28,1.31,1.34,1.40,1.42,1.47,1.51,1.53,1.59,1.61,1.62,1.64,1.72,1.72,1.76,1.81,1.82,1.82,1.82,1.82,1.82,1.82,1.82,1.86,1.90,1.90,1.90,1.91,1.92,1.92,1.92,1.92,1.92,1.92,1.92,1.92,1.96,2.00,2.00,2.00,2.01,2.02,2.02,2.02,2.02,2.02
0.44,0.39,0.38,0.38,0.33,0.29,0.27,0.21,0.13,0.09,e,e,e,e,e,e,e,e,e,e,e,e,e,e,e,e,e,e,e,e,e,e,e,e,e,e,e,e,e,e,e,e,e,e,e,e,e,e,e,e,e,e,e,e,e,e,e,e,e,e,e,e,e,e,e,e,e,e,e,e,e,e,e,e,e,e,e,e,e,e,e,e,e,e,e,e,e,e,e,e,e,e,e,e,e,e,e,e,e,e,e,e,e,e,e,e,e,e,e,e,e,e,e,e,e,e,e,e,e,e,e,e,e,e,e,e,e,e,0.24,0.38,0.52,0.61,0.75,0.90,1.06,1.21,1.35,1.47,1.57,1.73,1.88,2.04,2.17,2.25,2.40,2.55,2.71,2.86,3.00,3.10,3.16,3.15,3.01,2.93,2.85,2.75,2.60,2.52,2.44,2.33,2.20,2.18,2.12,2.07,2.04,1.97,1.96,1.91,1.86,1.86,1.78,1.76,1.73,1.66,1.66,1.66,1.62,1.56,1.56,1.48,1.46,1.43,1.36,1.36,1.30,1.26,1.24,1.17,1.16,1.16,1.14,1.06,1.06,1.00,0.96,0.95,0.89,0.88,0.88,0.89,0.90,0.97,0.99,1.03,1.08,1.10,1.15,1.19,1.22,1.28,1.30,1.34,1.39,1.41,1.47,1.49,1.53,1.59,1.60,1.66,1.68,1.71,1.78,1.78,1.79,1.83,1.88,1.88,1.88,1.88,1.88,1.88,1.88,1.89,1.90,1.90,1.90,1.95,1.98,1.98,1.98,1.98,1.98,1.98,1.98,1.98,1.99,2.00,2.00,2.00,2.05,2.08,2.08,2.08,2.08,2.08
0.47,0.43,0.40,0.40,0.34,0.30,0.28,0.21,0.16,0.12,0.09,e,e,e,e,e,e,e,e,e,e,e,e,e,e,e,e,e,e,e,e,e,e,e,e,e,e,e,e,e,e,e,e,e,e,e,e,e,e,e,e,e,e,e,e,e,e,e,e,e,e,e,e,e,e,e,e,e,e,e,e,e,e,e,e,e,e,e,e,e,e,e,e,e,e,e,e,e,e,e,e,e,e,e,e,e,e,e,e,e,e,e,e,e,e,e,e,e,e,e,e,e,e,e,e,e,e,e,e,e,e,e,e,e,e,e,e,0.27,0.42,0.57,0.73,0.84,0.96,1.09,1.25,1.40,1.56,1.67,1.76,1.92,2.07,2.23,2.37,2.48,2.60,2.75,2.90,3.06,3.21,3.24,3.21,3.13,3.01,2.93,2.83,2.71,2.60,2.52,2.44,2.36,2.29,2.29,2.23,2.19,2.17,2.09,2.09,2.04,1.99,1.98,1.91,1.89,1.85,1.79,1.79,1.79,1.74,1.69,1.69,1.61,1.59,1.56,1.49,1.49,1.43,1.39,1.37,1.29,1.29,1.29,1.26,1.19,1.19,1.13,1.09,1.08,1.00,0.99,0.97,0.96,0.99,1.04,1.05,1.08,1.15,1.15,1.21,1.25,1.27,1.34,1.35,1.40,1.45,1.45,1.53,1.55,1.58,1.65,1.65,1.68,1.72,1.76,1.80,1.84,1.85,1.86,1.90,1.94,1.95,1.95,1.95,1.95,1.95,1.95,1.95,1.95,1.95,1.98,2.00,2.01,2.04,2.05,2.05,2.05,2.05,2.05,2.05,2.05,2.05,2.05,2.08,2.10,2.11,2.14,2.15,2.15
0.50,0.47,0.41,0.40,0.34,0.30,0.28,0.21,0.20,0.15,0.10,e,e,e,e,e,e,e,e,e,e,e,e,e,e,e,e,e,e,e,e,e,e,e,e,e,e,e,e,e,e,e,e,e,e,e,e,e,e,e,e,e,e,e,e,e,e,e,e,e,e,e,e,e,e,e,e,e,e,e,e,e,e,e,e,e,e,e,e,e,e,e,e,e,e,e,e,e,e,e,e,e,e,e,e,e,e,e,e,e,e,e,e,e,e,e,e,e,e,e,e,e,e,e,e,e,e,e,e,e,e,e,e,e,0.09,0.23,0.31,0.45,0.60,0.76,0.91,1.06,1.17,1.28,1.44,1.59,1.75,1.87,1.96,2.11,2.27,2.42,2.57,2.73,2.81,2.94,3.09,3.24,3.38,3.34,3.22,3.08,3.01,2.93,2.81,2.68,2.61,2.54,2.46,2.42,2.42,2.42,2.35,2.32,2.30,2.22,2.22,2.17,2.12,2.11,2.04,2.02,1.98,1.92,1.92,1.92,1.87,1.82,1.82,1.74,1.72,1.69,1.62,1.62,1.55,1.52,1.50,1.42,1.42,1.42,1.39,1.32,1.32,1.26,1.22,1.20,1.13,1.12,1.07,1.04,1.11,1.11,1.11,1.14,1.20,1.21,1.27,1.30,1.33,1.40,1.41,1.46,1.50,1.52,1.59,1.61,1.64,1.70,1.71,1.71,1.76,1.81,1.81,1.88,1.91,1.91,1.92,1.99,2.00,2.00,2.00,2.01,2.01,2.01,2.01,2.01,2.01,2.01,2.01,2.02,2.09,2.10,2.10,2.10,2.11,2.11,2.11,2.11,2.11,2.11,2.11,2.11,2.13,2.20,2.20,2.20
0.53,0.49,0.47,0.41,0.34,0.30,0.28,0.21,0.20,0.15,0.10,e,e,e,e,e,e,e,e,e,e,e,e,e,e,e,e,e,e,e,e,e,e,e,e,e,e,e,e,e,e,e,e,e,e,e,e,e,e,e,e,e,e,e,e,e,e,e,e,e,e,e,e,e,e,e,e,e,e,e,e,e,e,e,e,e,e,e,e,e,e,e,e,e,e,e,e,e,e,e,e,e,e,e,e,e,e,e,e,e,e,e,e,e,e,e,e,e,e,e,e,e,e,e,e,e,e,e,e,e,e,e,e,e,0.26,0.36,0.50,0.60,0.73,0.88,1.04,1.19,1.33,1.48,1.63,1.78,1.94,2.08,2.21,2.31,2.46,2.61,2.77,2.92,3.00,3.13,3.28,3.42,3.40,3.34,3.22,3.08,3.01,2.93,2.84,2.75,2.67,2.65,2.59,2.55,2.55,2.55,2.48,2.45,2.43,2.35,2.35,2.29,2.25,2.24,2.16,2.15,2.11,2.05,2.05,2.05,2.00,1.95,1.95,1.87,1.85,1.81,1.75,1.75,1.68,1.65,1.63,1.55,1.55,1.55,1.52,1.45,1.45,1.39,1.35,1.33,1.25,1.25,1.20,1.15,1.17,1.17,1.17,1.18,1.21,1.27,1.29,1.33,1.38,1.40,1.46,1.49,1.52,1.58,1.60,1.65,1.68,1.71,1.77,1.77,1.82,1.87,1.87,1.89,1.94,1.97,1.98,2.00,2.00,2.00,2.01,2.07,2.07,2.07,2.07,2.07,2.07,2.07,2.07,2.08,2.10,2.10,2.10,2.12,2.17,2.17,2.17,2.17,2.17,2.17,2.17,2.17,2.18,2.20,2.20,2.20
0.55,0.50,0.49,0.42,0.36,0.32,0.29,0.24,0.21,0.17,0.13,0.10,0.05,e,e,e,e,e,e,e,e,e,e,e,e,e,e,e,e,e,e,e,e,e,e,e,e,e,e,e,e,e,e,e,e,e,e,e,e,e,e,e,e,e,e,e,e,e,e,e,e,e,e,e,e,e,e,e,e,e,e,e,e,e,e,e,e,e,e,e,e,e,e,e,e,e,e,e,e,e,e,e,e,e,e,e,e,e,e,e,e,e,e,e,e,e,e,e,e,e,e,e,e,e,e,e,e,e,e,e,e,e,e,0.26,0.39,0.53,0.65,0.76,0.89,1.05,1.20,1.36,1.51,1.67,1.82,1.98,2.13,2.28,2.43,2.50,2.65,2.80,2.96,3.11,3.22,3.34,3.44,3.49,3.41,3.31,3.20,3.09,3.04,2.97,2.91,2.85,2.78,2.78,2.72,2.68,2.68,2.68,2.61,2.58,2.55,2.48,2.48,2.42,2.38,2.37,2.29,2.28,2.24,2.18,2.18,2.18,2.13,2.08,2.07,2.00,1.98,1.94,1.88,1.88,1.81,1.78,1.75,1.68,1.68,1.68,1.65,1.58,1.58,1.51,1.48,1.46,1.38,1.38,1.33,1.28,1.27,1.25,1.24,1.24,1.24,1.29,1.32,1.36,1.41,1.44,1.48,1.52,1.56,1.60,1.63,1.68,1.71,1.75,1.80,1.83,1.87,1.91,1.94,1.94,1.99,2.04,2.04,2.04,2.04,2.04,2.05,2.10,2.10,2.10,2.11,2.14,2.14,2.14,2.14,2.14,2.14,2.14,2.14,2.15,2.20,2.20,2.20,2.21,2.24,2.24,2.24,2.24,2.24,2.24,2.24,2.24
0.55,0.50,0.49,0.42,0.40,0.36,0.30,0.30,0.23,0.20,0.17,0.10,0.10,0.04,e,e,e,e,e,e,e,e,e,e,e,e,e,e,e,e,e,e,e,e,e,e,e,e,e,e,e,e,e,e,e,e,e,e,e,e,e,e,e,e,e,e,e,e,e,e,e,e,e,e,e,e,e,e,e,e,e,e,e,e,e,e,e,e,e,e,e,e,e,e,e,e,e,e,e,e,e,e,e,e,e,e,e,e,e,e,e,e,e,e,e,e,e,e,e,e,e,e,e,e,e,e,e,e,e,e,e,e,e,0.26,0.49,0.71,0.79,0.93,1.08,1.24,1.39,1.55,1.70,1.86,2.01,2.17,2.32,2.48,2.62,2.70,2.84,2.99,3.15,3.30,3.46,3.56,3.57,3.49,3.41,3.28,3.16,3.10,3.10,3.03,3.00,2.98,2.90,2.90,2.85,2.80,2.80,2.80,2.74,2.70,2.68,2.60,2.60,2.55,2.50,2.50,2.42,2.40,2.36,2.30,2.30,2.30,2.25,2.20,2.20,2.12,2.10,2.07,2.00,2.00,1.94,1.90,1.88,1.81,1.80,1.80,1.77,1.70,1.70,1.64,1.60,1.59,1.51,1.50,1.46,1.40,1.40,1.32,1.30,1.30,1.30,1.30,1.37,1.40,1.42,1.50,1.50,1.55,1.60,1.61,1.69,1.70,1.74,1.80,1.80,1.87,1.90,1.93,2.00,2.00,2.06,2.10,2.10,2.10,2.10,2.10,2.10,2.10,2.10,2.10,2.13,2.20,2.20,2.20,2.20,2.20,2.20,2.20,2.20,2.20,2.20,2.20,2.20,2.23,2.30,2.30,2.30,2.30,2.30,2.30,2.30,2.30
0.55,0.50,0.49,0.42,0.40,0.36,0.30,0.30,0.23,0.20,0.17,0.10,0.10,0.04,e,e,e,e,e,e,e,e,e,e,e,e,e,e,e,e,e,e,e,e,e,e,e,e,e,e,e,e,e,e,e,e,e,e,e,e,e,e,e,e,e,e,e,e,e,e,e,e,e,e,e,e,e,e,e,e,e,e,e,e,e,e,e,e,e,e,e,e,e,e,e,e,e,e,e,e,e,e,e,e,e,e,e,e,e,e,e,e,e,e,e,e,e,e,e,e,e,e,e,e,e,e,e,e,e,e,e,e,e,0.20,0.45,0.72,0.90,1.06,1.24,1.43,1.59,1.74,1.90,2.05,2.20,2.36,2.51,2.67,2.82,2.95,3.05,3.19,3.34,3.49,3.65,3.64,3.57,3.49,3.41,3.36,3.29,3.23,3.23,3.16,3.13,3.10,3.03,3.03,2.97,2.93,2.93,2.93,2.86,2.83,2.81,2.73,2.73,2.68,2.63,2.62,2.55,2.53,2.49,2.43,2.43,2.43,2.38,2.33,2.33,2.25,2.23,2.20,2.13,2.13,2.06,2.03,2.01,1.93,1.93,1.93,1.90,1.83,1.83,1.77,1.73,1.71,1.64,1.63,1.58,1.53,1.53,1.50,1.46,1.43,1.43,1.43,1.45,1.47,1.49,1.56,1.57,1.62,1.67,1.67,1.75,1.77,1.80,1.87,1.87,1.94,1.97,1.97,2.00,2.05,2.08,2.12,2.17,2.17,2.17,2.17,2.17,2.17,2.17,2.17,2.18,2.20,2.20,2.20,2.22,2.27,2.27,2.27,2.27,2.27,2.27,2.27,2.27,2.28,2.30,2.30,2.30,2.33,2.37,2.37,2.37,2.37
0.56,0.52,0.49,0.44,0.41,0.37,0.32,0.30,0.25,0.22,0.18,0.13,0.11,0.06,0.02,e,e,e,e,e,e,e,e,e,e,e,e,e,e,e,e,e,e,e,e,e,e,e,e,e,e,e,e,e,e,e,e,e,e,e,e,e,e,e,e,e,e,e,e,e,e,e,e,e,e,e,e,e,e,e,e,e,e,e,e,e,e,e,e,e,e,e,e,e,e,e,e,e,e,e,e,e,e,e,e,e,e,e,e,e,e,e,e,e,e,e,e,e,e,e,e,e,e,e,e,e,e,e,e,e,e,e,e,e,0.39,0.67,0.90,1.09,1.28,1.48,1.66,1.84,2.01,2.18,2.34,2.52,2.69,2.86,3.01,3.14,3.25,3.38,3.53,3.69,3.75,3.69,3.61,3.55,3.47,3.46,3.42,3.36,3.36,3.29,3.26,3.23,3.16,3.16,3.10,3.06,3.06,3.06,2.99,2.96,2.94,2.86,2.86,2.81,2.76,2.75,2.67,2.66,2.62,2.56,2.56,2.56,2.51,2.46,2.46,2.38,2.36,2.32,2.26,2.26,2.19,2.16,2.14,2.09,2.07,2.06,2.03,1.96,1.96,1.90,1.86,1.84,1.77,1.76,1.71,1.66,1.66,1.66,1.60,1.56,1.56,1.53,1.53,1.53,1.54,1.60,1.62,1.67,1.71,1.73,1.79,1.82,1.86,1.90,1.93,1.98,2.01,2.03,2.03,2.11,2.13,2.15,2.20,2.20,2.20,2.21,2.23,2.23,2.23,2.23,2.23,2.23,2.23,2.23,2.26,2.30,2.30,2.30,2.31,2.33,2.33,2.33,2.33,2.33,2.33,2.33,2.33,2.36,2.40,2.40,2.40,2.41
0.60,0.57,0.50,0.49,0.44,0.40,0.38,0.31,0.30,0.25,0.20,0.19,0.12,0.10,0.06,e,e,e,e,e,e,e,e,e,e,e,e,e,e,e,e,e,e,e,e,e,e,e,e,e,e,e,e,e,e,e,e,e,e,e,e,e,e,e,e,e,e,e,e,e,e,e,e,e,e,e,e,e,e,e,e,e,e,e,e,e,e,e,e,e,e,e,e,e,e,e,e,e,e,e,e,e,e,e,e,e,e,e,e,e,e,e,e,e,e,e,e,e,e,e,e,e,e,e,e,e,e,e,e,e,e,e,e,e,0.30,0.54,0.77,1.00,1.19,1.37,1.59,1.82,2.04,2.25,2.40,2.63,2.86,3.05,3.19,3.28,3.42,3.57,3.72,3.88,3.75,3.70,3.69,3.68,3.60,3.59,3.55,3.49,3.49,3.41,3.39,3.36,3.29,3.29,3.23,3.19,3.19,3.19,3.12,3.09,3.06,2.99,2.99,2.93,2.89,2.88,2.80,2.79,2.75,2.69,2.69,2.69,2.64,2.59,2.58,2.51,2.49,2.45,2.39,2.39,2.32,2.29,2.28,2.28,2.21,2.19,2.16,2.09,2.09,2.02,1.99,1.97,1.89,1.89,1.84,1.79,1.79,1.79,1.73,1.69,1.68,1.60,1.59,1.59,1.59,1.60,1.67,1.70,1.73,1.79,1.80,1.86,1.90,1.91,1.99,2.00,2.04,2.09,2.09,2.17,2.19,2.20,2.20,2.20,2.20,2.24,2.29,2.29,2.29,2.29,2.29,2.29,2.29,2.29,2.30,2.30,2.30,2.30,2.34,2.39,2.39,2.39,2.39,2.39,2.39,2.39,2.39,2.40,2.40,2.40,2.40,2.45
0.60,0.57,0.50,0.50,0.44,0.40,0.38,0.31,0.30,0.25,0.20,0.20,0.12,0.10,0.07,e,e,e,e,e,e,e,e,e,e,e,e,e,e,e,e,e,e,e,e,e,e,e,e,e,e,e,e,e,e,e,e,e,e,e,e,e,e,e,e,e,e,e,e,e,e,e,e,e,e,e,e,e,e,e,e,e,e,e,e,e,e,e,e,e,e,e,e,e,e,e,e,e,e,e,e,e,e,e,e,e,e,e,e,e,e,e,e,e,e,e,e,e,e,e,e,e,e,e,e,e,e,e,e,e,e,e,e,e,0.20,0.47,0.70,0.90,1.09,1.30,1.53,1.72,1.93,2.15,2.35,2.54,2.76,2.98,3.16,3.28,3.47,3.67,3.85,3.96,3.85,3.81,3.81,3.81,3.73,3.71,3.67,3.61,3.61,3.54,3.51,3.49,3.41,3.41,3.36,3.31,3.31,3.31,3.25,3.21,3.19,3.12,3.11,3.06,3.01,3.01,2.93,2.91,2.90,2.86,2.82,2.81,2.77,2.71,2.71,2.63,2.61,2.58,2.51,2.51,2.45,2.41,2.41,2.41,2.34,2.31,2.28,2.21,2.21,2.15,2.11,2.10,2.02,2.01,1.97,1.91,1.91,1.91,1.86,1.81,1.80,1.73,1.71,1.69,1.66,1.66,1.69,1.73,1.77,1.80,1.85,1.88,1.92,1.96,2.00,2.04,2.08,2.11,2.16,2.19,2.23,2.26,2.26,2.26,2.26,2.28,2.30,2.30,2.30,2.33,2.36,2.36,2.36,2.36,2.36,2.36,2.36,2.36,2.38,2.40,2.40,2.40,2.43,2.46,2.46,2.46,2.46,2.46,2.46,2.46,2.46,2.48
0.61,0.58,0.52,0.50,0.45,0.41,0.39,0.33,0.31,0.26,0.22,0.20,0.14,0.11,0.07,0.02,0.00,e,e,e,e,e,e,e,e,e,e,e,e,e,e,e,e,e,e,e,e,e,e,e,e,e,e,e,e,e,e,e,e,e,e,e,e,e,e,e,e,e,e,e,e,e,e,e,e,e,e,e,e,e,e,e,e,e,e,e,e,e,e,e,e,e,e,e,e,e,e,e,e,e,e,e,e,e,e,e,e,e,e,e,e,e,e,e,e,e,e,e,e,e,e,e,e,e,e,e,e,e,e,e,e,e,e,e,e,0.38,0.62,0.80,0.99,1.21,1.44,1.62,1.83,2.06,2.29,2.46,2.68,2.91,3.13,3.30,3.52,3.75,3.92,3.98,3.92,3.90,3.90,3.89,3.83,3.82,3.79,3.74,3.72,3.66,3.64,3.62,3.54,3.54,3.50,3.45,3.44,3.44,3.37,3.34,3.32,3.24,3.24,3.19,3.14,3.13,3.06,3.04,3.04,3.02,2.95,2.94,2.89,2.84,2.84,2.76,2.74,2.71,2.64,2.64,2.58,2.54,2.54,2.54,2.47,2.44,2.41,2.34,2.34,2.28,2.24,2.23,2.15,2.14,2.09,2.04,2.04,2.04,1.98,1.94,1.93,1.85,1.84,1.80,1.74,1.74,1.74,1.78,1.82,1.83,1.90,1.92,1.96,2.02,2.02,2.09,2.12,2.15,2.22,2.22,2.27,2.31,2.32,2.32,2.32,2.32,2.32,2.32,2.32,2.36,2.40,2.40,2.40,2.41,2.42,2.42,2.42,2.42,2.42,2.42,2.42,2.42,2.46,2.50,2.50,2.50,2.51,2.52,2.52,2.52,2.52,2.52
0.64,0.60,0.58,0.51,0.49,0.45,0.40,0.39,0.32,0.29,0.26,0.20,0.19,0.14,0.09,0.07,0.01,e,e,e,e,e,e,e,e,e,e,e,e,e,e,e,e,e,e,e,e,e,e,e,e,e,e,e,e,e,e,e,e,e,e,e,e,e,e,e,e,e,e,e,e,e,e,e,e,e,e,e,e,e,e,e,e,e,e,e,e,e,e,e,e,e,e,e,e,e,e,e,e,e,e,e,e,e,e,e,e,e,e,e,e,e,e,e,e,e,e,e,e,e,e,e,e,e,e,e,e,e,e,e,e,e,e,e,e,0.26,0.49,0.71,0.90,1.08,1.32,1.54,1.76,2.00,2.23,2.45,2.68,2.91,3.14,3.36,3.59,3.78,3.90,3.92,3.90,3.90,3.90,3.90,3.89,3.88,3.88,3.85,3.79,3.77,3.77,3.74,3.67,3.67,3.66,3.62,3.57,3.57,3.50,3.47,3.45,3.37,3.37,3.32,3.27,3.26,3.18,3.17,3.17,3.15,3.08,3.07,3.02,2.97,2.97,2.89,2.87,2.83,2.77,2.77,2.70,2.67,2.67,2.67,2.59,2.57,2.54,2.47,2.47,2.41,2.37,2.35,2.28,2.27,2.22,2.17,2.17,2.17,2.11,2.07,2.06,1.98,1.97,1.93,1.87,1.87,1.87,1.88,1.88,1.89,1.97,1.98,2.02,2.08,2.08,2.15,2.18,2.21,2.28,2.28,2.29,2.33,2.38,2.38,2.38,2.38,2.38,2.38,2.38,2.39,2.40,2.40,2.40,2.45,2.48,2.48,2.48,2.48,2.48,2.48,2.48,2.48,2.49,2.50,2.50,2.50,2.55,2.58,2.58,2.58,2.58,2.58
0.65,0.60,0.59,0.52,0.50,0.46,0.40,0.40,0.33,0.30,0.29,0.25,0.21,0.17,0.13,0.09,0.05,0.02,e,e,e,e,e,e,e,e,e,e,e,e,e,e,e,e,e,e,e,e,e,e,e,e,e,e,e,e,e,e,e,e,e,e,e,e,e,e,e,e,e,e,e,e,e,e,e,e,e,e,e,e,e,e,e,e,e,e,e,e,e,e,e,e,e,e,e,e,e,e,e,e,e,e,e,e,e,e,e,e,e,e,e,e,e,e,e,e,e,e,e,e,e,e,e,e,e,e,e,e,e,e,e,e,e,e,e,0.18,0.41,0.64,0.85,1.05,1.28,1.52,1.75,1.98,2.21,2.44,2.68,2.91,3.14,3.41,3.65,3.82,3.90,3.90,3.90,3.90,3.90,3.90,3.90,3.90,3.90,3.88,3.81,3.80,3.80,3.79,3.75,3.75,3.75,3.71,3.65,3.65,3.61,3.60,3.58,3.50,3.50,3.44,3.40,3.39,3.31,3.30,3.30,3.28,3.20,3.20,3.15,3.10,3.09,3.02,3.00,2.96,2.90,2.90,2.83,2.80,2.80,2.80,2.72,2.70,2.67,2.60,2.60,2.54,2.50,2.48,2.40,2.40,2.35,2.30,2.30,2.30,2.24,2.20,2.19,2.11,2.10,2.05,2.00,2.00,1.96,1.95,1.95,1.95,1.99,2.03,2.07,2.11,2.14,2.18,2.22,2.26,2.30,2.34,2.35,2.37,2.41,2.44,2.45,2.45,2.45,2.45,2.45,2.45,2.45,2.45,2.45,2.48,2.50,2.51,2.54,2.55,2.55,2.55,2.55,2.55,2.55,2.55,2.55,2.55,2.58,2.60,2.61,2.65,2.65,2.65
0.65,0.61,0.59,0.53,0.50,0.47,0.41,0.40,0.34,0.31,0.30,0.30,0.22,0.20,0.17,0.10,0.10,0.03,0.00,e,e,e,e,e,e,e,e,e,e,e,e,e,e,e,e,e,e,e,e,e,e,e,e,e,e,e,e,e,e,e,e,e,e,e,e,e,e,e,e,e,e,e,e,e,e,e,e,e,e,e,e,e,e,e,e,e,e,e,e,e,e,e,e,e,e,e,e,e,e,e,e,e,e,e,e,e,e,e,e,e,e,e,e,e,e,e,e,e,e,e,e,e,e,e,e,e,e,e,e,e,e,e,e,e,e,0.14,0.37,0.60,0.83,1.07,1.30,1.53,1.76,1.99,2.22,2.46,2.69,2.92,3.16,3.46,3.70,3.84,3.90,3.90,3.90,3.90,3.90,3.90,3.90,3.90,3.90,3.87,3.80,3.80,3.80,3.80,3.80,3.80,3.80,3.76,3.70,3.70,3.70,3.70,3.68,3.61,3.61,3.57,3.52,3.51,3.44,3.42,3.42,3.41,3.33,3.32,3.28,3.22,3.22,3.14,3.12,3.09,3.02,3.02,2.96,2.92,2.92,2.92,2.85,2.82,2.79,2.72,2.72,2.66,2.62,2.61,2.53,2.52,2.48,2.42,2.42,2.42,2.37,2.32,2.31,2.24,2.22,2.18,2.12,2.12,2.05,2.02,2.02,2.01,2.01,2.07,2.10,2.13,2.19,2.21,2.25,2.30,2.31,2.38,2.41,2.41,2.42,2.49,2.50,2.50,2.50,2.51,2.51,2.51,2.51,2.51,2.51,2.51,2.51,2.53,2.59,2.60,2.60,2.60,2.61,2.61,2.61,2.61,2.61,2.61,2.61,2.61,2.63,2.70,2.70,2.70
0.69,0.65,0.60,0.58,0.53,0.49,0.46,0.40,0.38,0.34,0.30,0.30,0.22,0.20,0.17,0.10,0.10,0.03,0.00,e,e,e,e,e,e,e,e,e,e,e,e,e,e,e,e,e,e,e,e,e,e,e,e,e,e,e,e,e,e,e,e,e,e,e,e,e,e,e,e,e,e,e,e,e,e,e,e,e,e,e,e,e,e,e,e,e,e,e,e,e,e,e,e,e,e,e,e,e,e,e,e,e,e,e,e,e,e,e,e,e,e,e,e,e,e,e,e,e,e,e,e,e,e,e,e,e,e,e,e,e,e,e,e,e,e,0.20,0.43,0.67,0.90,1.13,1.36,1.59,1.82,2.06,2.29,2.52,2.75,2.98,3.22,3.47,3.70,3.84,3.90,3.90,3.90,3.90,3.90,3.90,3.90,3.90,3.87,3.82,3.80,3.80,3.80,3.80,3.80,3.80,3.80,3.76,3.70,3.70,3.70,3.70,3.69,3.68,3.68,3.66,3.63,3.57,3.56,3.55,3.55,3.54,3.46,3.45,3.40,3.35,3.35,3.27,3.25,3.22,3.15,3.15,3.09,3.05,3.05,3.05,2.98,2.95,2.92,2.85,2.85,2.79,2.75,2.74,2.66,2.65,2.60,2.55,2.55,2.55,2.50,2.45,2.44,2.36,2.35,2.31,2.25,2.25,2.18,2.15,2.13,2.08,2.08,2.09,2.13,2.18,2.20,2.25,2.29,2.32,2.38,2.39,2.44,2.48,2.48,2.50,2.50,2.50,2.51,2.57,2.58,2.58,2.58,2.58,2.58,2.58,2.58,2.58,2.60,2.60,2.60,2.62,2.68,2.68,2.68,2.68,2.68,2.68,2.68,2.68,2.68,2.70,2.70,2.70
0.72,0.68,0.64,0.61,0.56,0.52,0.49,0.44,0.41,0.37,0.33,0.30,0.25,0.22,0.18,0.14,0.10,0.06,0.02,e,e,e,e,e,e,e,e,e,e,e,e,e,e,e,e,e,e,e,e,e,e,e,e,e,e,e,e,e,e,e,e,e,e,e,e,e,e,e,e,e,e,e,e,e,e,e,e,e,e,e,e,e,e,e,e,e,e,e,e,e,e,e,e,e,e,e,e,e,e,e,e,e,e,e,e,e,e,e,e,e,e,e,e,e,e,e,e,e,e,e,e,e,e,e,e,e,e,e,e,e,e,e,e,0.02,0.09,0.23,0.46,0.69,0.92,1.15,1.38,1.62,1.87,2.12,2.35,2.58,2.82,3.05,3.28,3.51,3.74,3.87,3.90,3.90,3.90,3.90,3.90,3.90,3.90,3.90,3.86,3.80,3.80,3.80,3.80,3.80,3.80,3.80,3.80,3.76,3.70,3.70,3.70,3.70,3.70,3.70,3.70,3.68,3.64,3.60,3.60,3.60,3.60,3.59,3.54,3.54,3.49,3.44,3.44,3.39,3.38,3.35,3.28,3.28,3.21,3.18,3.18,3.18,3.10,3.08,3.05,2.98,2.98,2.92,2.88,2.86,2.79,2.78,2.73,2.68,2.68,2.68,2.62,2.58,2.57,2.49,2.48,2.44,2.38,2.38,2.30,2.28,2.26,2.22,2.19,2.18,2.20,2.24,2.24,2.31,2.34,2.36,2.44,2.44,2.50,2.54,2.54,2.54,2.54,2.54,2.55,2.60,2.60,2.60,2.61,2.64,2.64,2.64,2.64,2.64,2.64,2.64,2.64,2.65,2.70,2.70,2.70,2.71,2.74,2.74,2.74,2.74,2.74,2.74,2.74,2.74
0.75,0.70,0.69,0.62,0.60,0.56,0.50,0.50,0.43,0.40,0.38,0.30,0.30,0.24,0.20,0.19,0.11,0.10,0.06,0.00,0.00,e,e,e,e,e,e,e,e,e,e,e,e,e,e,e,e,e,e,e,e,e,e,e,e,e,e,e,e,e,e,e,e,e,e,e,e,e,e,e,e,e,e,e,e,e,e,e,e,e,e,e,e,e,e,e,e,e,e,e,e,e,e,e,e,e,e,e,e,e,e,e,e,e,e,e,e,e,e,e,e,e,e,e,e,e,e,e,e,e,e,e,e,e,e,e,e,e,e,e,0.00,0.00,0.00,0.06,0.14,0.23,0.46,0.69,0.92,1.16,1.39,1.62,1.90,2.18,2.41,2.64,2.88,3.11,3.34,3.57,3.80,3.90,3.90,3.90,3.90,3.90,3.90,3.90,3.90,3.90,3.86,3.80,3.80,3.80,3.80,3.80,3.80,3.80,3.80,3.76,3.70,3.70,3.70,3.70,3.70,3.70,3.70,3.65,3.60,3.60,3.60,3.60,3.60,3.60,3.60,3.60,3.55,3.50,3.50,3.50,3.50,3.47,3.40,3.40,3.34,3.30,3.30,3.30,3.23,3.21,3.18,3.11,3.11,3.05,3.01,2.99,2.91,2.91,2.86,2.81,2.81,2.81,2.75,2.71,2.70,2.62,2.61,2.56,2.51,2.51,2.43,2.41,2.41,2.40,2.32,2.31,2.31,2.30,2.30,2.37,2.40,2.43,2.50,2.50,2.56,2.60,2.60,2.60,2.60,2.60,2.60,2.60,2.60,2.60,2.63,2.70,2.70,2.70,2.70,2.70,2.70,2.70,2.70,2.70,2.70,2.70,2.70,2.74,2.80,2.80,2.80,2.80,2.80,2.80,2.80,2.80
0.75,0.70,0.70,0.67,0.63,0.59,0.56,0.50,0.48,0.44,0.39,0.37,0.31,0.24,0.20,0.19,0.11,0.10,0.06,0.00,0.00,e,e,e,e,e,e,e,e,e,e,e,e,e,e,e,e,e,e,e,e,e,e,e,e,e,e,e,e,e,e,e,e,e,e,e,e,e,e,e,e,e,e,e,e,e,e,e,e,e,e,e,e,e,e,e,e,e,e,e,e,e,e,e,e,e,e,e,e,e,e,e,e,e,e,e,e,e,e,e,e,e,e,e,e,e,e,e,e,e,e,e,e,e,e,e,e,e,e,e,0.02,0.07,0.07,0.12,0.20,0.29,0.53,0.76,0.99,1.22,1.45,1.68,1.93,2.18,2.41,2.64,2.88,3.11,3.34,3.57,3.76,3.83,3.85,3.90,3.90,3.90,3.90,3.90,3.90,3.86,3.82,3.80,3.80,3.80,3.80,3.80,3.80,3.80,3.76,3.72,3.70,3.70,3.70,3.70,3.70,3.70,3.70,3.65,3.60,3.60,3.60,3.60,3.60,3.60,3.60,3.60,3.55,3.50,3.50,3.50,3.50,3.49,3.47,3.47,3.40,3.37,3.37,3.37,3.34,3.33,3.31,3.23,3.23,3.17,3.13,3.12,3.04,3.03,3.02,2.99,2.93,2.93,2.88,2.83,2.82,2.75,2.73,2.69,2.63,2.63,2.56,2.53,2.53,2.53,2.45,2.43,2.41,2.37,2.37,2.39,2.43,2.48,2.50,2.55,2.59,2.62,2.67,2.67,2.67,2.67,2.67,2.67,2.67,2.67,2.68,2.70,2.70,2.70,2.73,2.77,2.77,2.77,2.77,2.77,2.77,2.77,2.77,2.78,2.80,2.80,2.80,2.83,2.87,2.87,2.87,2.87
0.76,0.72,0.70,0.70,0.64,0.59,0.56,0.50,0.48,0.44,0.39,0.37,0.31,0.24,0.20,0.19,0.11,0.08,0.04,0.00,0.00,0.00,e,e,e,e,e,e,e,e,e,e,e,e,e,e,e,e,e,e,e,e,e,e,e,e,e,e,e,e,e,e,e,e,e,e,e,e,e,e,e,e,e,e,e,e,e,e,e,e,e,e,e,e,e,e,e,e,e,e,e,e,e,e,e,e,e,e,e,e,e,e,e,e,e,e,e,e,e,e,e,e,e,e,e,e,e,e,e,e,e,e,e,e,0.00,0.00,e,e,e,0.03,0.05,0.13,0.13,0.19,0.25,0.33,0.58,0.82,1.05,1.28,1.52,1.75,1.98,2.21,2.44,2.67,2.91,3.14,3.37,3.60,3.75,3.80,3.82,3.87,3.89,3.90,3.90,3.90,3.90,3.84,3.80,3.80,3.80,3.80,3.80,3.80,3.80,3.80,3.74,3.70,3.70,3.70,3.70,3.70,3.70,3.70,3.68,3.63,3.60,3.60,3.60,3.60,3.60,3.60,3.60,3.58,3.54,3.50,3.50,3.50,3.50,3.50,3.50,3.50,3.43,3.40,3.40,3.40,3.40,3.40,3.38,3.33,3.33,3.27,3.23,3.22,3.17,3.16,3.16,3.14,3.06,3.06,3.01,2.96,2.95,2.87,2.86,2.82,2.76,2.76,2.69,2.66,2.66,2.66,2.58,2.56,2.52,2.46,2.46,2.44,2.46,2.51,2.53,2.59,2.62,2.65,2.70,2.70,2.70,2.71,2.73,2.73,2.73,2.73,2.73,2.73,2.73,2.73,2.76,2.80,2.80,2.80,2.81,2.83,2.83,2.83,2.83,2.83,2.83,2.83,2.83,2.86,2.90,2.90,2.90,2.92
0.80,0.77,0.70,0.70,0.64,0.56,0.50,0.50,0.43,0.40,0.38,0.30,0.30,0.24,0.20,0.19,0.11,0.04,0.00,0.00,0.00,0.00,e,e,e,e,e,e,e,e,e,e,e,e,e,e,e,e,e,e,e,e,e,e,e,e,e,e,e,e,e,e,e,e,e,e,e,e,e,e,e,e,e,e,e,e,e,e,e,e,e,e,e,e,e,e,e,e,e,e,e,e,e,e,e,e,e,e,e,e,e,e,e,e,e,e,e,e,e,e,e,e,e,e,e,e,e,e,e,e,e,e,e,e,0.00,0.00,e,e,e,0.10,0.12,0.19,0.20,0.25,0.30,0.33,0.64,0.88,1.12,1.35,1.58,1.81,2.04,2.28,2.51,2.74,2.97,3.20,3.43,3.67,3.77,3.80,3.80,3.80,3.88,3.90,3.90,3.90,3.90,3.84,3.80,3.80,3.80,3.80,3.80,3.80,3.80,3.80,3.74,3.70,3.70,3.70,3.70,3.70,3.70,3.70,3.63,3.60,3.60,3.60,3.60,3.60,3.60,3.60,3.60,3.53,3.50,3.50,3.50,3.50,3.50,3.50,3.50,3.50,3.43,3.40,3.40,3.40,3.40,3.40,3.40,3.40,3.40,3.33,3.30,3.29,3.29,3.29,3.29,3.27,3.19,3.19,3.13,3.09,3.08,3.00,2.99,2.95,2.89,2.89,2.82,2.79,2.79,2.78,2.71,2.69,2.65,2.59,2.59,2.52,2.50,2.52,2.60,2.60,2.65,2.70,2.70,2.70,2.70,2.74,2.80,2.80,2.80,2.80,2.80,2.80,2.80,2.80,2.80,2.80,2.80,2.80,2.84,2.90,2.90,2.90,2.90,2.90,2.90,2.90,2.90,2.90,2.90,2.90,2.90,2.95
0.77,0.73,0.70,0.65,0.62,0.56,0.50,0.50,0.43,0.40,0.37,0.30,0.25,0.22,0.18,0.14,0.10,0.03,0.00,0.00,0.00,0.00,0.00,e,e,e,e,e,e,e,e,e,e,e,e,e,e,e,e,e,e,e,e,e,e,e,e,e,e,e,e,e,e,e,e,e,e,e,e,e,e,e,e,e,e,e,e,e,e,e,e,e,e,e,e,e,e,e,e,e,e,e,e,e,e,e,e,e,e,e,e,e,e,e,e,e,e,e,e,e,e,e,e,e,e,e,e,e,e,e,e,e,0.06,0.06,0.06,0.06,0.06,0.06,0.13,0.16,0.18,0.26,0.26,0.28,0.32,0.39,0.65,0.89,1.12,1.35,1.58,1.82,2.05,2.28,2.51,2.79,3.03,3.27,3.50,3.73,3.79,3.80,3.80,3.80,3.83,3.87,3.90,3.90,3.85,3.82,3.80,3.80,3.80,3.80,3.80,3.80,3.80,3.75,3.72,3.70,3.70,3.70,3.70,3.70,3.70,3.70,3.62,3.60,3.60,3.60,3.60,3.60,3.60,3.60,3.60,3.53,3.50,3.50,3.50,3.50,3.50,3.50,3.49,3.45,3.41,3.40,3.40,3.40,3.40,3.40,3.40,3.40,3.35,3.32,3.30,3.30,3.30,3.30,3.30,3.29,3.26,3.21,3.18,3.16,3.15,3.12,3.12,3.07,3.02,3.02,2.94,2.92,2.92,2.91,2.83,2.82,2.78,2.72,2.72,2.65,2.62,2.63,2.66,2.66,2.72,2.76,2.76,2.76,2.76,2.78,2.80,2.80,2.80,2.83,2.86,2.86,2.86,2.86,2.86,2.86,2.86,2.86,2.88,2.90,2.90,2.90,2.93,2.96,2.96,2.96,2.96,2.96,2.96,2.96,2.96,2.98
0.75,0.70,0.69,0.62,0.59,0.55,0.50,0.48,0.42,0.39,0.36,0.30,0.22,0.20,0.17,0.10,0.08,0.03,0.00,0.00,0.00,0.00,0.00,e,e,e,e,e,e,e,e,e,e,e,e,e,e,e,e,e,e,e,e,e,e,e,e,e,e,e,e,e,e,e,e,e,e,e,e,e,e,e,e,e,e,e,e,e,e,e,e,e,e,e,e,e,e,e,e,e,e,e,e,e,e,e,e,e,e,e,e,e,e,e,e,e,e,e,e,e,e,e,e,e,e,e,e,e,e,e,0.10,0.11,0.12,0.12,0.12,0.12,0.12,0.12,0.18,0.21,0.24,0.30,0.32,0.32,0.35,0.45,0.68,0.91,1.14,1.38,1.61,1.84,2.07,2.30,2.54,2.83,3.08,3.31,3.54,3.75,3.79,3.80,3.80,3.80,3.80,3.84,3.88,3.89,3.81,3.80,3.80,3.80,3.80,3.80,3.80,3.80,3.80,3.72,3.70,3.70,3.70,3.70,3.70,3.70,3.70,3.68,3.62,3.60,3.60,3.60,3.60,3.60,3.60,3.60,3.58,3.52,3.50,3.50,3.50,3.50,3.50,3.50,3.49,3.41,3.40,3.40,3.40,3.40,3.40,3.40,3.40,3.39,3.32,3.30,3.30,3.30,3.30,3.30,3.30,3.29,3.28,3.22,3.20,3.20,3.20,3.20,3.20,3.17,3.12,3.10,3.04,3.02,3.02,3.02,2.96,2.95,2.91,2.85,2.85,2.78,2.75,2.74,2.72,2.72,2.77,2.81,2.82,2.82,2.82,2.82,2.82,2.82,2.82,2.86,2.90,2.90,2.90,2.91,2.92,2.92,2.92,2.92,2.92,2.92,2.92,2.92,2.97,3.00,3.00,3.00,3.00,3.00,3.00,3.00,3.00,3.00
0.75,0.70,0.69,0.62,0.55,0.51,0.49,0.42,0.40,0.36,0.31,0.30,0.22,0.20,0.17,0.09,0.02,0.00,0.00,0.00,0.00,0.00,0.00,e,e,e,e,e,e,e,e,e,e,e,e,e,e,e,e,e,e,e,e,e,e,e,e,e,e,e,e,e,e,e,e,e,e,e,e,e,e,e,e,e,e,e,e,e,e,e,e,e,e,e,e,e,e,e,e,e,e,e,e,e,e,e,e,e,e,e,e,e,e,e,e,e,e,e,e,e,e,e,e,e,e,e,e,e,e,e,0.10,0.12,0.19,0.19,0.19,0.19,0.19,0.19,0.20,0.24,0.29,0.30,0.37,0.39,0.42,0.51,0.74,0.98,1.21,1.44,1.67,1.90,2.13,2.37,2.60,2.84,3.08,3.31,3.53,3.69,3.77,3.80,3.80,3.80,3.80,3.81,3.84,3.89,3.81,3.80,3.80,3.80,3.80,3.80,3.80,3.80,3.80,3.72,3.70,3.70,3.70,3.70,3.70,3.70,3.68,3.61,3.60,3.60,3.60,3.60,3.60,3.60,3.60,3.59,3.52,3.50,3.50,3.50,3.50,3.50,3.50,3.50,3.49,3.41,3.40,3.40,3.40,3.40,3.40,3.40,3.40,3.39,3.32,3.30,3.30,3.30,3.30,3.30,3.30,3.28,3.21,3.20,3.20,3.20,3.20,3.20,3.20,3.19,3.17,3.10,3.09,3.09,3.09,3.09,3.08,3.07,3.04,2.97,2.97,2.90,2.87,2.85,2.79,2.79,2.79,2.83,2.89,2.89,2.89,2.89,2.89,2.89,2.89,2.89,2.90,2.90,2.90,2.95,2.99,2.99,2.99,2.99,2.99,2.99,2.99,2.99,2.99,3.00,3.00,3.00,3.00,3.00,3.00,3.00,3.00,3.00
0.72,0.68,0.65,0.61,0.54,0.50,0.48,0.41,0.40,0.35,0.29,0.25,0.21,0.17,0.13,0.09,0.01,0.00,0.00,0.00,0.00,0.00,0.00,0.00,e,e,e,e,e,e,e,e,e,e,e,e,e,e,e,e,e,e,e,e,e,e,e,e,e,e,e,e,e,e,e,e,e,e,e,e,e,e,e,e,e,e,e,e,e,e,e,e,e,e,e,e,e,e,e,e,e,e,e,e,e,e,e,e,e,e,e,e,e,e,e,e,e,e,e,e,e,e,e,e,e,e,e,0.11,0.15,0.15,0.15,0.16,0.20,0.24,0.25,0.25,0.25,0.25,0.25,0.30,0.35,0.35,0.43,0.45,0.48,0.57,0.76,0.99,1.24,1.50,1.74,1.97,2.20,2.43,2.66,2.89,3.13,3.36,3.57,3.69,3.73,3.77,3.80,3.80,3.80,3.80,3.82,3.85,3.81,3.80,3.80,3.80,3.80,3.80,3.80,3.79,3.75,3.71,3.70,3.70,3.70,3.70,3.70,3.70,3.68,3.60,3.60,3.60,3.60,3.60,3.60,3.60,3.60,3.58,3.51,3.50,3.50,3.50,3.50,3.50,3.50,3.48,3.44,3.41,3.40,3.40,3.40,3.40,3.40,3.40,3.38,3.35,3.31,3.30,3.30,3.30,3.30,3.30,3.30,3.27,3.20,3.20,3.20,3.20,3.20,3.20,3.20,3.20,3.18,3.10,3.10,3.10,3.10,3.10,3.10,3.10,3.08,3.04,3.00,2.97,2.95,2.94,2.90,2.90,2.87,2.87,2.91,2.94,2.95,2.95,2.95,2.95,2.95,2.95,2.95,2.95,2.95,2.98,3.00,3.00,3.00,3.00,3.00,3.00,3.00,3.00,3.00,3.02,3.05,3.05,3.05,3.05,3.05,3.05,3.05,3.05
0.70,0.67,0.60,0.59,0.53,0.49,0.47,0.41,0.39,0.34,0.27,0.20,0.20,0.14,0.10,0.08,0.01,0.00,0.00,0.00,0.00,0.00,0.00,0.00,0.00,0.00,e,e,e,e,e,e,e,e,e,e,e,e,e,e,e,e,e,e,e,e,e,e,e,e,e,e,e,e,e,e,e,e,e,e,e,e,e,e,e,e,e,e,e,e,e,e,e,e,e,e,e,e,e,e,e,e,e,e,e,e,e,e,e,e,e,e,e,e,e,e,e,e,e,e,e,e,e,e,e,0.08,0.16,0.21,0.21,0.21,0.21,0.21,0.22,0.30,0.31,0.31,0.31,0.31,0.31,0.36,0.41,0.41,0.48,0.51,0.54,0.62,0.78,1.00,1.27,1.55,1.78,2.02,2.25,2.48,2.71,2.94,3.18,3.41,3.63,3.69,3.70,3.74,3.79,3.80,3.80,3.80,3.80,3.80,3.80,3.80,3.80,3.80,3.80,3.80,3.80,3.77,3.70,3.70,3.70,3.70,3.70,3.70,3.70,3.69,3.67,3.60,3.60,3.60,3.60,3.60,3.60,3.60,3.59,3.57,3.51,3.50,3.50,3.50,3.50,3.50,3.50,3.47,3.40,3.40,3.40,3.40,3.40,3.40,3.40,3.40,3.37,3.30,3.30,3.30,3.30,3.30,3.30,3.30,3.30,3.27,3.20,3.20,3.20,3.20,3.20,3.20,3.20,3.19,3.17,3.10,3.10,3.10,3.10,3.10,3.10,3.10,3.09,3.07,3.01,3.00,3.00,3.00,3.00,3.00,2.95,2.91,2.92,2.99,3.00,3.00,3.00,3.00,3.00,3.00,3.00,3.00,3.00,3.00,3.01,3.01,3.01,3.01,3.01,3.01,3.01,3.01,3.01,3.04,3.10,3.10,3.10,3.10,3.10,3.10,3.10,3.10
0.70,0.67,0.59,0.53,0.51,0.47,0.42,0.40,0.34,0.31,0.27,0.20,0.20,0.14,0.07,0.02,0.00,0.00,0.00,0.00,0.00,0.00,0.00,0.00,0.00,0.00,e,e,e,e,e,e,e,e,e,e,e,e,e,e,e,e,e,e,e,e,e,e,e,e,e,e,e,e,e,e,e,e,e,e,e,e,e,e,e,e,e,e,e,e,e,e,e,e,e,e,e,e,e,e,e,e,e,e,e,e,e,e,e,e,e,e,e,e,e,e,e,e,e,e,e,e,e,e,e,0.17,0.22,0.28,0.28,0.28,0.28,0.28,0.28,0.36,0.38,0.38,0.38,0.38,0.38,0.42,0.48,0.48,0.49,0.54,0.58,0.62,0.84,1.07,1.31,1.55,1.78,2.02,2.25,2.48,2.71,2.94,3.18,3.43,3.68,3.70,3.70,3.71,3.74,3.80,3.80,3.80,3.80,3.80,3.80,3.80,3.80,3.80,3.80,3.80,3.80,3.77,3.70,3.70,3.70,3.70,3.70,3.70,3.70,3.67,3.62,3.60,3.60,3.60,3.60,3.60,3.60,3.60,3.57,3.52,3.50,3.50,3.50,3.50,3.50,3.50,3.50,3.47,3.40,3.40,3.40,3.40,3.40,3.40,3.40,3.40,3.37,3.30,3.30,3.30,3.30,3.30,3.30,3.30,3.30,3.27,3.20,3.20,3.20,3.20,3.20,3.20,3.20,3.17,3.12,3.10,3.10,3.10,3.10,3.10,3.10,3.10,3.07,3.02,3.00,3.00,3.00,3.00,3.00,3.00,2.99,2.98,2.98,3.00,3.00,3.00,3.00,3.00,3.00,3.00,3.00,3.00,3.00,3.00,3.03,3.08,3.08,3.08,3.08,3.08,3.08,3.08,3.08,3.09,3.10,3.10,3.10,3.10,3.10,3.10,3.10,3.10
0.68,0.64,0.59,0.52,0.50,0.46,0.40,0.40,0.33,0.28,0.24,0.20,0.17,0.12,0.07,0.00,0.00,0.00,0.00,0.00,0.00,0.00,0.00,0.00,0.00,0.00,0.00,e,e,e,e,e,e,e,e,e,e,e,e,e,e,e,e,e,e,e,e,e,e,e,e,e,e,e,e,e,e,e,e,e,e,e,e,e,e,e,e,e,e,e,e,e,e,e,e,e,e,e,e,e,e,e,e,e,e,e,e,e,e,e,e,e,e,e,e,e,e,e,e,e,e,e,0.06,0.11,0.19,0.20,0.24,0.31,0.34,0.34,0.34,0.34,0.34,0.39,0.42,0.44,0.44,0.44,0.44,0.47,0.51,0.54,0.54,0.60,0.64,0.67,0.90,1.13,1.36,1.59,1.83,2.06,2.29,2.52,2.75,2.99,3.22,3.47,3.70,3.70,3.70,3.70,3.71,3.76,3.79,3.80,3.80,3.80,3.80,3.80,3.80,3.80,3.80,3.80,3.78,3.74,3.70,3.70,3.70,3.70,3.70,3.70,3.70,3.66,3.60,3.60,3.60,3.60,3.60,3.60,3.60,3.60,3.56,3.50,3.50,3.50,3.50,3.50,3.50,3.50,3.50,3.47,3.40,3.40,3.40,3.40,3.40,3.40,3.40,3.38,3.34,3.30,3.30,3.30,3.30,3.30,3.30,3.30,3.28,3.24,3.20,3.20,3.20,3.20,3.20,3.20,3.20,3.16,3.10,3.10,3.10,3.10,3.10,3.10,3.10,3.10,3.06,3.00,3.00,3.00,3.00,3.00,3.00,3.00,3.00,3.00,3.00,3.00,3.00,3.02,3.04,3.04,3.04,3.04,3.04,3.04,3.04,3.04,3.06,3.10,3.10,3.10,3.10,3.10,3.10,3.10,3.10,3.10,3.10,3.10,3.13,3.14,3.14,3.14,3.14,3.14
0.65,0.60,0.59,0.51,0.50,0.46,0.40,0.39,0.33,0.25,0.20,0.20,0.12,0.10,0.06,0.00,0.00,0.00,0.00,0.00,0.00,0.00,0.00,0.00,0.00,0.00,0.00,e,e,e,e,e,e,e,e,e,e,e,e,e,e,e,e,e,e,e,e,e,e,e,e,e,e,e,e,e,e,e,e,e,e,e,e,e,e,e,e,e,e,e,e,e,e,e,e,e,e,e,e,e,e,e,e,e,e,e,e,e,e,e,e,e,e,e,e,e,e,e,e,0.00,0.07,0.10,0.10,0.11,0.19,0.20,0.25,0.32,0.40,0.40,0.41,0.41,0.41,0.41,0.46,0.51,0.51,0.51,0.51,0.51,0.53,0.61,0.61,0.66,0.71,0.73,0.96,1.19,1.42,1.65,1.89,2.12,2.35,2.59,2.82,3.05,3.28,3.51,3.69,3.70,3.70,3.70,3.70,3.70,3.77,3.79,3.80,3.80,3.80,3.80,3.80,3.80,3.80,3.80,3.75,3.70,3.70,3.70,3.70,3.70,3.70,3.70,3.70,3.66,3.60,3.60,3.60,3.60,3.60,3.60,3.60,3.60,3.56,3.50,3.50,3.50,3.50,3.50,3.50,3.50,3.50,3.46,3.40,3.40,3.40,3.40,3.40,3.40,3.40,3.35,3.30,3.30,3.30,3.30,3.30,3.30,3.30,3.30,3.25,3.20,3.20,3.20,3.20,3.20,3.20,3.20,3.20,3.15,3.10,3.10,3.10,3.10,3.10,3.10,3.10,3.10,3.06,3.00,3.00,3.00,3.00,3.00,3.00,3.00,3.00,3.00,3.00,3.01,3.01,3.05,3.10,3.10,3.10,3.10,3.10,3.10,3.10,3.10,3.10,3.10,3.11,3.11,3.11,3.11,3.11,3.11,3.11,3.11,3.11,3.11,3.17,3.20,3.20,3.20,3.20,3.20
0.65,0.58,0.53,0.50,0.46,0.42,0.39,0.33,0.31,0.25,0.20,0.20,0.12,0.06,0.02,0.00,0.00,0.00,0.00,0.00,0.00,0.00,0.00,0.00,0.00,0.00,0.00,e,e,e,e,e,e,e,e,e,e,e,e,e,e,e,e,e,e,e,e,e,e,e,e,e,e,e,e,e,e,e,e,e,e,e,e,e,e,e,e,e,e,e,e,e,e,e,e,e,e,e,e,e,e,e,e,e,e,e,e,e,e,e,e,e,e,e,e,e,e,e,e,0.00,0.02,0.07,0.12,0.17,0.20,0.24,0.31,0.38,0.40,0.45,0.47,0.47,0.47,0.47,0.53,0.57,0.57,0.57,0.57,0.57,0.59,0.67,0.67,0.72,0.77,0.79,0.97,1.19,1.42,1.67,1.95,2.19,2.42,2.65,2.88,3.11,3.34,3.53,3.64,3.69,3.70,3.70,3.70,3.70,3.72,3.73,3.75,3.80,3.80,3.80,3.80,3.80,3.80,3.80,3.75,3.70,3.70,3.70,3.70,3.70,3.70,3.70,3.70,3.66,3.60,3.60,3.60,3.60,3.60,3.60,3.60,3.56,3.52,3.50,3.50,3.50,3.50,3.50,3.50,3.50,3.46,3.42,3.40,3.40,3.40,3.40,3.40,3.40,3.40,3.35,3.30,3.30,3.30,3.30,3.30,3.30,3.30,3.30,3.25,3.20,3.20,3.20,3.20,3.20,3.20,3.20,3.15,3.12,3.10,3.10,3.10,3.10,3.10,3.10,3.10,3.06,3.02,3.00,3.00,3.00,3.00,3.00,3.00,3.00,3.00,3.00,3.01,3.06,3.07,3.08,3.10,3.10,3.10,3.10,3.10,3.10,3.10,3.10,3.10,3.11,3.16,3.17,3.17,3.17,3.17,3.17,3.17,3.17,3.17,3.17,3.19,3.20,3.20,3.20,3.20,3.20
0.63,0.57,0.50,0.50,0.44,0.40,0.38,0.31,0.28,0.23,0.19,0.16,0.11,0.04,0.00,0.00,0.00,0.00,0.00,0.00,0.00,0.00,0.00,0.00,0.00,0.00,0.00,0.00,e,e,e,e,e,e,e,e,e,e,e,e,e,e,e,e,e,e,e,e,e,e,e,e,e,e,e,e,e,e,e,e,e,e,e,e,e,e,e,e,e,e,e,e,e,e,e,e,e,e,e,e,e,e,e,e,e,e,e,e,e,e,e,e,e,e,e,e,e,e,0.00,0.00,0.03,0.07,0.13,0.20,0.23,0.30,0.36,0.41,0.43,0.51,0.53,0.53,0.53,0.53,0.57,0.61,0.63,0.63,0.63,0.63,0.66,0.73,0.73,0.77,0.81,0.85,1.01,1.22,1.45,1.70,1.98,2.22,2.45,2.68,2.91,3.14,3.38,3.54,3.61,3.66,3.69,3.70,3.70,3.70,3.70,3.70,3.72,3.77,3.80,3.80,3.80,3.80,3.80,3.78,3.73,3.70,3.70,3.70,3.70,3.70,3.70,3.70,3.68,3.64,3.60,3.60,3.60,3.60,3.60,3.60,3.60,3.54,3.50,3.50,3.50,3.50,3.50,3.50,3.50,3.50,3.44,3.40,3.40,3.40,3.40,3.40,3.40,3.40,3.37,3.33,3.30,3.30,3.30,3.30,3.30,3.30,3.30,3.28,3.23,3.20,3.20,3.20,3.20,3.20,3.20,3.20,3.13,3.10,3.10,3.10,3.10,3.10,3.10,3.10,3.10,3.04,3.00,3.00,3.00,3.00,3.00,3.00,3.00,3.00,3.00,3.01,3.04,3.09,3.10,3.10,3.11,3.13,3.13,3.13,3.13,3.13,3.13,3.13,3.13,3.14,3.19,3.20,3.20,3.20,3.20,3.20,3.20,3.20,3.20,3.20,3.20,3.21,3.23,3.23,3.23,3.23
0.60,0.57,0.50,0.50,0.44,0.40,0.38,0.31,0.23,0.20,0.18,0.10,0.10,0.04,0.00,0.00,0.00,0.00,0.00,0.00,0.00,0.00,0.00,0.00,0.00,0.00,0.00,0.00,e,e,e,e,e,e,e,e,e,e,e,e,e,e,e,e,e,e,e,e,e,e,e,e,e,e,e,e,e,e,e,e,e,e,e,e,e,e,e,e,e,e,e,e,e,e,e,e,e,e,e,e,e,e,e,e,e,e,e,e,e,e,e,e,e,e,e,e,e,e,0.00,0.00,0.08,0.10,0.13,0.21,0.28,0.36,0.40,0.42,0.49,0.57,0.60,0.60,0.60,0.60,0.60,0.64,0.70,0.70,0.70,0.70,0.72,0.80,0.80,0.80,0.83,0.91,1.07,1.29,1.52,1.75,1.98,2.22,2.45,2.68,2.91,3.14,3.38,3.54,3.60,3.60,3.67,3.70,3.70,3.70,3.70,3.70,3.70,3.71,3.79,3.80,3.80,3.80,3.80,3.73,3.70,3.70,3.70,3.70,3.70,3.70,3.70,3.70,3.63,3.60,3.60,3.60,3.60,3.60,3.60,3.60,3.60,3.54,3.50,3.50,3.50,3.50,3.50,3.50,3.50,3.50,3.44,3.40,3.40,3.40,3.40,3.40,3.40,3.40,3.33,3.30,3.30,3.30,3.30,3.30,3.30,3.30,3.30,3.23,3.20,3.20,3.20,3.20,3.20,3.20,3.20,3.20,3.13,3.10,3.10,3.10,3.10,3.10,3.10,3.10,3.10,3.04,3.00,3.00,3.00,3.00,3.00,3.00,3.00,3.00,3.00,3.03,3.10,3.10,3.10,3.10,3.12,3.19,3.20,3.20,3.20,3.20,3.20,3.20,3.20,3.20,3.20,3.20,3.20,3.20,3.20,3.20,3.20,3.20,3.20,3.20,3.20,3.24,3.30,3.30,3.30,3.30
0.57,0.53,0.50,0.45,0.41,0.38,0.33,0.30,0.23,0.20,0.17,0.10,0.05,0.02,0.00,0.00,0.00,0.00,0.00,0.00,0.00,0.00,0.00,0.00,0.00,0.00,0.00,0.00,0.00,0.00,e,e,e,e,e,e,e,e,e,e,e,e,e,e,e,e,e,e,e,e,e,e,e,e,e,e,e,e,e,e,e,e,e,e,e,e,e,e,e,e,e,e,e,e,e,e,e,e,e,e,e,e,e,e,e,e,e,e,e,e,e,e,e,e,e,e,e,e,0.01,0.06,0.09,0.13,0.19,0.26,0.29,0.36,0.43,0.48,0.56,0.59,0.63,0.66,0.66,0.66,0.66,0.68,0.71,0.76,0.76,0.76,0.77,0.80,0.85,0.86,0.89,0.98,1.13,1.35,1.58,1.81,2.05,2.28,2.51,2.74,2.97,3.20,3.44,3.57,3.60,3.60,3.63,3.64,3.65,3.70,3.70,3.70,3.70,3.70,3.73,3.78,3.80,3.80,3.80,3.73,3.70,3.70,3.70,3.70,3.70,3.70,3.70,3.70,3.63,3.60,3.60,3.60,3.60,3.60,3.60,3.60,3.55,3.51,3.50,3.50,3.50,3.50,3.50,3.50,3.50,3.45,3.42,3.40,3.40,3.40,3.40,3.40,3.40,3.40,3.32,3.30,3.30,3.30,3.30,3.30,3.30,3.30,3.30,3.23,3.20,3.20,3.20,3.20,3.20,3.20,3.19,3.15,3.11,3.10,3.10,3.10,3.10,3.10,3.10,3.10,3.05,3.02,3.00,3.00,3.00,3.00,3.00,3.00,3.00,3.00,3.03,3.07,3.10,3.10,3.14,3.16,3.17,3.20,3.20,3.20,3.20,3.20,3.20,3.20,3.20,3.20,3.20,3.20,3.23,3.26,3.26,3.26,3.26,3.26,3.26,3.26,3.26,3.28,3.30,3.30,3.30,3.30
0.55,0.50,0.49,0.42,0.40,0.36,0.30,0.28,0.22,0.19,0.16,0.10,0.02,0.00,0.00,0.00,0.00,0.00,0.00,0.00,0.00,0.00,0.00,0.00,0.00,0.00,0.00,0.00,0.00,0.00,0.00,e,e,e,e,e,e,e,e,e,e,e,e,e,e,e,e,e,e,e,e,e,e,e,e,e,e,e,e,e,e,e,e,e,e,e,e,e,e,e,e,e,e,e,e,e,e,e,e,e,e,e,e,e,e,e,e,e,e,e,e,e,e,e,e,e,e,e,0.04,0.10,0.12,0.18,0.25,0.30,0.32,0.39,0.46,0.52,0.60,0.62,0.67,0.72,0.72,0.72,0.72,0.72,0.74,0.82,0.82,0.82,0.82,0.82,0.90,0.92,0.96,1.04,1.18,1.39,1.62,1.85,2.08,2.32,2.56,2.80,3.04,3.27,3.49,3.60,3.60,3.60,3.60,3.60,3.62,3.67,3.69,3.70,3.70,3.70,3.70,3.75,3.79,3.80,3.78,3.72,3.70,3.70,3.70,3.70,3.70,3.70,3.70,3.68,3.62,3.60,3.60,3.60,3.60,3.60,3.60,3.59,3.52,3.50,3.50,3.50,3.50,3.50,3.50,3.50,3.50,3.42,3.40,3.40,3.40,3.40,3.40,3.40,3.39,3.38,3.32,3.30,3.30,3.30,3.30,3.30,3.30,3.30,3.28,3.22,3.20,3.20,3.20,3.20,3.20,3.20,3.19,3.11,3.10,3.10,3.10,3.10,3.10,3.10,3.10,3.09,3.02,3.00,3.00,3.00,3.00,3.00,3.00,3.01,3.02,3.02,3.07,3.10,3.10,3.12,3.17,3.20,3.20,3.20,3.20,3.21,3.22,3.22,3.22,3.22,3.22,3.22,3.22,3.22,3.26,3.30,3.30,3.30,3.30,3.30,3.30,3.30,3.30,3.30,3.30,3.30,3.32,3.32
0.55,0.50,0.49,0.42,0.40,0.36,0.29,0.22,0.20,0.16,0.11,0.10,0.02,0.00,0.00,0.00,0.00,0.00,0.00,0.00,0.00,0.00,0.00,0.00,0.00,0.00,0.00,0.00,0.00,0.00,0.00,e,e,e,e,e,e,e,e,e,e,e,e,e,e,e,e,e,e,e,e,e,e,e,e,e,e,e,e,e,e,e,e,e,e,e,e,e,e,e,e,e,e,e,e,e,e,e,e,e,e,e,e,e,e,e,e,e,e,e,e,e,e,e,e,e,e,e,0.09,0.10,0.17,0.24,0.29,0.31,0.38,0.45,0.49,0.52,0.60,0.66,0.74,0.79,0.79,0.79,0.79,0.79,0.80,0.88,0.89,0.89,0.89,0.89,0.97,0.99,1.02,1.10,1.18,1.39,1.62,1.85,2.08,2.32,2.59,2.87,3.10,3.33,3.51,3.60,3.60,3.60,3.60,3.60,3.60,3.61,3.68,3.70,3.70,3.70,3.70,3.71,3.75,3.78,3.72,3.70,3.70,3.70,3.70,3.70,3.70,3.70,3.69,3.62,3.60,3.60,3.60,3.60,3.60,3.60,3.60,3.59,3.52,3.50,3.50,3.50,3.50,3.50,3.50,3.50,3.50,3.42,3.40,3.40,3.40,3.40,3.40,3.40,3.38,3.31,3.30,3.30,3.30,3.30,3.30,3.30,3.30,3.29,3.22,3.20,3.20,3.20,3.20,3.20,3.20,3.20,3.19,3.11,3.10,3.10,3.10,3.10,3.10,3.10,3.10,3.09,3.02,3.00,3.00,3.00,3.00,3.00,3.00,3.02,3.09,3.09,3.10,3.10,3.11,3.18,3.20,3.20,3.20,3.20,3.20,3.25,3.29,3.29,3.29,3.29,3.29,3.29,3.29,3.29,3.29,3.30,3.30,3.30,3.30,3.30,3.30,3.30,3.30,3.30,3.30,3.30,3.37,3.39
0.55,0.48,0.44,0.41,0.37,0.33,0.28,0.21,0.20,0.15,0.09,0.05,0.01,0.00,0.00,0.00,0.00,0.00,0.00,0.00,0.00,0.00,0.00,0.00,0.00,0.00,0.00,0.00,0.00,0.00,0.00,e,e,e,e,e,e,e,e,e,e,e,e,e,e,e,e,e,e,e,e,e,e,e,e,e,e,e,e,e,e,e,e,e,e,e,e,e,e,e,e,e,e,e,e,e,e,e,e,e,e,e,e,e,0.05,0.04,0.00,0.00,e,e,e,e,e,e,e,e,0.05,0.10,0.15,0.15,0.19,0.25,0.32,0.36,0.44,0.48,0.52,0.57,0.65,0.69,0.75,0.81,0.85,0.85,0.85,0.85,0.86,0.90,0.94,0.95,0.95,0.95,0.99,1.03,1.07,1.11,1.23,1.44,1.67,1.91,2.14,2.37,2.62,2.88,3.11,3.34,3.49,3.55,3.55,3.59,3.60,3.60,3.60,3.60,3.64,3.68,3.70,3.70,3.70,3.70,3.72,3.74,3.70,3.70,3.70,3.70,3.70,3.70,3.70,3.70,3.69,3.61,3.60,3.60,3.60,3.60,3.60,3.60,3.58,3.54,3.51,3.50,3.50,3.50,3.50,3.50,3.50,3.49,3.45,3.41,3.40,3.40,3.40,3.40,3.40,3.40,3.38,3.30,3.30,3.30,3.30,3.30,3.30,3.30,3.30,3.28,3.21,3.20,3.20,3.20,3.20,3.20,3.20,3.18,3.14,3.11,3.10,3.10,3.10,3.10,3.10,3.10,3.08,3.04,3.01,3.00,3.00,3.00,3.00,3.00,3.02,3.06,3.10,3.10,3.10,3.12,3.16,3.19,3.20,3.20,3.21,3.25,3.25,3.28,3.30,3.30,3.30,3.30,3.30,3.30,3.30,3.30,3.30,3.31,3.35,3.35,3.35,3.35,3.35,3.35,3.35,3.35,3.35,3.35,3.39,3.40
0.54,0.47,0.40,0.40,0.34,0.29,0.27,0.21,0.19,0.14,0.07,0.00,0.00,0.00,0.00,0.00,0.00,0.00,0.00,0.00,0.00,0.00,0.00,0.00,0.00,0.00,0.00,0.00,0.00,0.02,0.00,0.00,e,e,e,e,e,e,e,e,e,e,e,e,e,e,e,e,e,e,e,e,e,e,e,e,e,e,e,e,e,e,e,e,e,e,e,e,e,e,e,e,e,e,e,e,e,e,e,e,e,0.03,0.10,0.11,0.10,0.08,0.00,0.00,e,e,e,e,e,0.02,0.03,0.09,0.11,0.15,0.20,0.22,0.22,0.27,0.34,0.41,0.49,0.51,0.56,0.63,0.70,0.71,0.77,0.84,0.92,0.92,0.92,0.92,0.92,0.92,0.98,1.02,1.02,1.02,1.02,1.07,1.12,1.13,1.29,1.51,1.74,1.97,2.20,2.43,2.66,2.90,3.13,3.36,3.47,3.50,3.51,3.58,3.59,3.60,3.60,3.60,3.60,3.64,3.69,3.70,3.70,3.70,3.70,3.70,3.70,3.70,3.70,3.70,3.70,3.70,3.70,3.69,3.67,3.61,3.60,3.60,3.60,3.60,3.60,3.60,3.57,3.50,3.50,3.50,3.50,3.50,3.50,3.50,3.50,3.47,3.40,3.40,3.40,3.40,3.40,3.40,3.40,3.39,3.37,3.30,3.30,3.30,3.30,3.30,3.30,3.30,3.29,3.27,3.21,3.20,3.20,3.20,3.20,3.20,3.20,3.17,3.10,3.10,3.10,3.10,3.10,3.10,3.10,3.10,3.07,3.00,3.00,3.00,3.00,3.00,3.00,3.01,3.06,3.10,3.10,3.10,3.11,3.14,3.20,3.20,3.20,3.21,3.23,3.30,3.30,3.30,3.30,3.32,3.32,3.32,3.32,3.32,3.32,3.32,3.32,3.34,3.40,3.40,3.40,3.40,3.40,3.40,3.40,3.40,3.40,3.40,3.40,3.41
0.51,0.47,0.40,0.40,0.34,0.27,0.22,0.20,0.14,0.11,0.07,0.00,0.00,0.00,0.00,0.00,0.00,0.00,0.00,0.00,0.00,0.00,0.00,0.00,0.00,0.00,0.00,0.00,0.01,0.07,0.02,0.00,e,e,e,e,e,e,e,e,e,e,e,e,e,e,e,e,e,e,e,e,e,e,e,e,e,e,e,e,e,e,e,e,e,e,e,e,e,e,e,e,e,e,e,e,e,e,e,e,e,0.09,0.17,0.13,0.10,0.08,0.00,0.00,e,e,e,e,e,0.08,0.08,0.10,0.15,0.19,0.22,0.28,0.28,0.33,0.39,0.41,0.49,0.55,0.62,0.68,0.70,0.76,0.83,0.91,0.98,0.98,0.98,0.98,0.98,0.98,1.05,1.08,1.08,1.08,1.08,1.13,1.18,1.20,1.35,1.57,1.80,2.03,2.27,2.50,2.73,2.96,3.19,3.42,3.49,3.50,3.50,3.52,3.57,3.60,3.60,3.60,3.60,3.61,3.64,3.70,3.70,3.70,3.70,3.70,3.70,3.70,3.70,3.70,3.70,3.70,3.70,3.67,3.62,3.60,3.60,3.60,3.60,3.60,3.60,3.60,3.57,3.50,3.50,3.50,3.50,3.50,3.50,3.50,3.50,3.47,3.40,3.40,3.40,3.40,3.40,3.40,3.40,3.37,3.32,3.30,3.30,3.30,3.30,3.30,3.30,3.30,3.27,3.22,3.20,3.20,3.20,3.20,3.20,3.20,3.20,3.17,3.10,3.10,3.10,3.10,3.10,3.10,3.10,3.10,3.07,3.00,3.00,3.00,3.00,3.00,3.00,3.06,3.09,3.10,3.10,3.10,3.15,3.19,3.20,3.20,3.20,3.23,3.28,3.30,3.30,3.30,3.32,3.38,3.38,3.38,3.38,3.38,3.38,3.38,3.38,3.38,3.40,3.40,3.40,3.40,3.40,3.40,3.40,3.40,3.40,3.40,3.40,3.44
0.48,0.44,0.40,0.36,0.32,0.26,0.20,0.20,0.13,0.08,0.04,0.00,0.00,0.00,0.00,0.00,0.00,0.00,0.00,0.00,0.00,0.00,0.00,0.00,0.00,0.00,0.00,0.00,0.02,0.09,0.06,0.02,0.00,e,e,e,e,e,e,0.12,0.14,e,e,e,e,e,e,e,e,e,e,e,e,e,e,e,e,e,e,e,e,e,e,e,e,e,e,e,e,e,e,e,e,e,e,e,e,e,e,0.07,0.11,0.15,0.19,0.14,0.10,0.08,0.00,0.00,e,e,0.00,0.04,0.08,0.12,0.14,0.14,0.21,0.24,0.27,0.34,0.34,0.40,0.44,0.45,0.53,0.58,0.64,0.71,0.74,0.82,0.87,0.93,1.00,1.04,1.04,1.04,1.04,1.04,1.08,1.12,1.14,1.14,1.14,1.20,1.24,1.26,1.38,1.59,1.82,2.05,2.28,2.52,2.75,2.98,3.21,3.44,3.50,3.50,3.50,3.50,3.54,3.58,3.60,3.60,3.60,3.60,3.62,3.66,3.66,3.68,3.70,3.70,3.70,3.70,3.70,3.70,3.70,3.70,3.70,3.66,3.60,3.60,3.60,3.60,3.60,3.60,3.60,3.58,3.54,3.50,3.50,3.50,3.50,3.50,3.50,3.50,3.48,3.44,3.40,3.40,3.40,3.40,3.40,3.40,3.40,3.36,3.30,3.30,3.30,3.30,3.30,3.30,3.30,3.30,3.26,3.20,3.20,3.20,3.20,3.20,3.20,3.20,3.20,3.17,3.10,3.10,3.10,3.10,3.10,3.10,3.10,3.08,3.04,3.00,3.00,3.00,3.02,3.04,3.04,3.08,3.10,3.10,3.10,3.13,3.18,3.20,3.20,3.20,3.23,3.27,3.30,3.30,3.33,3.34,3.36,3.40,3.40,3.40,3.40,3.40,3.40,3.40,3.40,3.40,3.40,3.40,3.42,3.44,3.44,3.44,3.44,3.44,3.44,3.44,3.44,3.47
0.45,0.40,0.39,0.32,0.30,0.26,0.20,0.19,0.13,0.05,0.00,0.00,0.00,0.00,0.00,0.00,0.00,0.00,0.00,0.00,0.00,0.00,0.00,0.00,0.00,0.00,0.00,0.00,0.02,0.09,0.10,0.06,0.01,0.00,0.00,0.00,0.04,0.12,0.20,0.21,0.22,0.18,0.02,e,e,e,e,e,e,e,e,e,e,e,e,e,e,e,e,e,e,e,e,e,e,e,e,e,e,e,e,e,e,e,e,e,e,0.02,0.09,0.17,0.21,0.20,0.20,0.14,0.11,0.09,0.01,0.01,0.01,0.02,0.02,0.09,0.11,0.14,0.21,0.21,0.28,0.31,0.33,0.41,0.41,0.46,0.50,0.52,0.59,0.61,0.65,0.72,0.80,0.87,0.90,0.94,1.01,1.08,1.10,1.11,1.11,1.11,1.11,1.15,1.21,1.21,1.21,1.26,1.30,1.32,1.39,1.60,1.83,2.06,2.29,2.52,2.76,2.99,3.22,3.44,3.50,3.50,3.50,3.50,3.50,3.54,3.59,3.60,3.60,3.60,3.60,3.60,3.60,3.66,3.70,3.70,3.70,3.70,3.70,3.70,3.70,3.70,3.70,3.66,3.60,3.60,3.60,3.60,3.60,3.60,3.60,3.55,3.50,3.50,3.50,3.50,3.50,3.50,3.50,3.50,3.45,3.40,3.40,3.40,3.40,3.40,3.40,3.40,3.40,3.36,3.30,3.30,3.30,3.30,3.30,3.30,3.30,3.30,3.26,3.20,3.20,3.20,3.20,3.20,3.20,3.20,3.20,3.16,3.10,3.10,3.10,3.10,3.10,3.10,3.10,3.05,3.00,3.00,3.00,3.00,3.04,3.10,3.10,3.10,3.10,3.10,3.11,3.18,3.20,3.20,3.20,3.21,3.27,3.30,3.30,3.31,3.38,3.40,3.40,3.40,3.40,3.40,3.41,3.41,3.41,3.41,3.41,3.41,3.41,3.41,3.46,3.50,3.50,3.50,3.50,3.50,3.50,3.50,3.50,3.50
0.45,0.40,0.39,0.32,0.26,0.22,0.19,0.13,0.11,0.05,0.00,0.00,0.00,0.00,0.00,0.00,0.00,0.00,0.00,0.00,0.00,0.00,0.00,0.00,0.00,0.00,0.00,0.00,0.02,0.09,0.10,0.09,0.05,0.00,0.00,0.04,0.11,0.18,0.26,0.32,0.34,0.30,0.15,e,e,e,e,e,e,e,e,e,e,e,e,e,e,e,e,e,e,e,e,e,e,e,e,e,e,e,e,e,e,e,e,e,e,0.14,0.22,0.26,0.25,0.20,0.20,0.18,0.17,0.15,0.08,0.07,0.11,0.14,0.14,0.17,0.17,0.21,0.27,0.27,0.34,0.37,0.39,0.47,0.47,0.49,0.52,0.57,0.60,0.65,0.71,0.78,0.80,0.87,0.94,1.00,1.07,1.09,1.14,1.17,1.17,1.17,1.17,1.22,1.27,1.27,1.27,1.29,1.32,1.38,1.46,1.66,1.89,2.12,2.36,2.59,2.82,3.05,3.28,3.40,3.47,3.50,3.50,3.50,3.50,3.51,3.54,3.60,3.60,3.60,3.60,3.60,3.60,3.62,3.66,3.70,3.70,3.70,3.70,3.70,3.70,3.70,3.66,3.62,3.60,3.60,3.60,3.60,3.60,3.60,3.60,3.55,3.50,3.50,3.50,3.50,3.50,3.50,3.50,3.50,3.45,3.40,3.40,3.40,3.40,3.40,3.40,3.40,3.40,3.36,3.30,3.30,3.30,3.30,3.30,3.30,3.30,3.26,3.22,3.20,3.20,3.20,3.20,3.20,3.20,3.20,3.16,3.12,3.10,3.10,3.10,3.10,3.10,3.10,3.10,3.05,3.00,3.00,3.00,3.04,3.08,3.10,3.10,3.10,3.10,3.12,3.17,3.19,3.20,3.20,3.21,3.26,3.29,3.30,3.31,3.37,3.39,3.40,3.40,3.40,3.40,3.44,3.47,3.47,3.47,3.47,3.47,3.47,3.47,3.47,3.49,3.50,3.50,3.50,3.50,3.50,3.50,3.50,3.50,3.50
0.43,0.39,0.36,0.31,0.24,0.20,0.18,0.11,0.07,0.03,0.00,0.00,0.00,0.00,0.00,0.00,0.00,0.00,0.00,0.00,0.00,0.00,0.00,0.00,0.00,0.00,0.00,0.00,0.02,0.13,0.11,0.10,0.08,0.04,0.06,0.13,0.20,0.28,0.36,0.41,0.42,0.37,0.24,0.09,e,e,e,e,e,e,e,e,e,e,e,e,e,e,e,e,e,e,e,e,e,e,e,e,e,e,e,e,e,e,e,0.10,0.16,0.24,0.31,0.32,0.28,0.24,0.24,0.24,0.24,0.22,0.17,0.17,0.20,0.24,0.24,0.24,0.24,0.26,0.30,0.33,0.38,0.42,0.45,0.50,0.53,0.54,0.57,0.64,0.64,0.70,0.76,0.81,0.83,0.91,0.99,1.05,1.10,1.13,1.19,1.24,1.24,1.24,1.24,1.26,1.31,1.34,1.34,1.34,1.37,1.44,1.49,1.69,1.94,2.19,2.42,2.65,2.88,3.12,3.34,3.39,3.44,3.48,3.50,3.50,3.50,3.50,3.51,3.56,3.56,3.58,3.60,3.60,3.60,3.60,3.63,3.67,3.70,3.70,3.70,3.70,3.70,3.70,3.64,3.60,3.60,3.60,3.60,3.60,3.60,3.60,3.60,3.55,3.50,3.50,3.50,3.50,3.50,3.50,3.50,3.47,3.43,3.40,3.40,3.40,3.40,3.40,3.40,3.40,3.38,3.34,3.30,3.30,3.30,3.30,3.30,3.30,3.30,3.24,3.20,3.20,3.20,3.20,3.20,3.20,3.20,3.20,3.14,3.10,3.10,3.10,3.10,3.10,3.10,3.10,3.07,3.03,3.00,3.00,3.03,3.07,3.10,3.10,3.10,3.12,3.14,3.15,3.20,3.20,3.20,3.21,3.24,3.29,3.30,3.32,3.35,3.40,3.40,3.40,3.41,3.44,3.44,3.45,3.48,3.50,3.50,3.50,3.50,3.50,3.50,3.50,3.50,3.51,3.54,3.54,3.54,3.54,3.54,3.54,3.54,3.54
0.40,0.37,0.30,0.30,0.24,0.20,0.18,0.11,0.03,0.00,0.00,0.00,0.00,0.00,0.00,0.00,0.00,0.00,0.00,0.00,0.00,0.00,0.00,0.00,0.00,0.00,0.00,0.00,0.03,0.19,0.13,0.10,0.10,0.10,0.18,0.26,0.33,0.41,0.49,0.50,0.46,0.38,0.30,0.15,e,e,e,e,e,e,e,e,e,e,e,e,e,e,e,e,e,e,e,e,e,e,e,e,e,e,e,e,e,e,e,0.20,0.22,0.30,0.38,0.34,0.30,0.30,0.30,0.30,0.30,0.30,0.30,0.30,0.30,0.30,0.30,0.30,0.30,0.30,0.31,0.39,0.40,0.45,0.50,0.50,0.58,0.60,0.63,0.70,0.70,0.76,0.80,0.82,0.89,0.97,1.05,1.10,1.10,1.18,1.26,1.30,1.30,1.30,1.30,1.30,1.32,1.40,1.40,1.40,1.43,1.50,1.50,1.69,1.96,2.25,2.48,2.72,2.95,3.18,3.40,3.40,3.40,3.44,3.50,3.50,3.50,3.50,3.50,3.50,3.50,3.55,3.60,3.60,3.60,3.60,3.60,3.62,3.69,3.70,3.70,3.70,3.70,3.70,3.64,3.60,3.60,3.60,3.60,3.60,3.60,3.60,3.60,3.55,3.50,3.50,3.50,3.50,3.50,3.50,3.50,3.43,3.40,3.40,3.40,3.40,3.40,3.40,3.40,3.40,3.33,3.30,3.30,3.30,3.30,3.30,3.30,3.30,3.30,3.24,3.20,3.20,3.20,3.20,3.20,3.20,3.20,3.20,3.14,3.10,3.10,3.10,3.10,3.10,3.10,3.10,3.03,3.00,3.00,3.01,3.08,3.10,3.10,3.10,3.10,3.17,3.20,3.20,3.20,3.20,3.20,3.23,3.30,3.30,3.30,3.34,3.40,3.40,3.40,3.40,3.43,3.50,3.50,3.44,3.44,3.50,3.50,3.50,3.50,3.50,3.50,3.50,3.50,3.53,3.60,3.60,3.60,3.60,3.60,3.60,3.60,3.60
0.40,0.37,0.30,0.25,0.21,0.18,0.13,0.10,0.03,0.00,0.00,0.00,0.00,0.00,0.00,0.00,0.00,0.00,0.00,0.00,0.00,0.00,0.00,0.00,0.00,0.00,0.00,0.00,0.03,0.19,0.17,0.13,0.12,0.17,0.24,0.32,0.40,0.47,0.55,0.48,0.39,0.33,0.30,0.20,e,e,e,e,e,e,e,e,e,e,e,e,e,e,e,e,e,e,e,e,e,e,e,e,e,e,e,e,0.08,0.16,0.19,0.23,0.27,0.30,0.38,0.38,0.36,0.36,0.36,0.36,0.36,0.36,0.36,0.36,0.40,0.43,0.43,0.43,0.43,0.43,0.43,0.46,0.46,0.51,0.56,0.56,0.64,0.66,0.70,0.76,0.76,0.83,0.86,0.88,0.96,0.99,1.05,1.12,1.17,1.24,1.28,1.32,1.36,1.36,1.36,1.36,1.39,1.46,1.46,1.46,1.49,1.56,1.56,1.75,2.00,2.25,2.48,2.72,2.95,3.18,3.40,3.40,3.40,3.41,3.44,3.49,3.50,3.50,3.50,3.50,3.50,3.52,3.56,3.60,3.60,3.60,3.60,3.61,3.63,3.68,3.70,3.70,3.70,3.65,3.62,3.60,3.60,3.60,3.60,3.60,3.60,3.60,3.55,3.52,3.50,3.50,3.50,3.50,3.50,3.50,3.50,3.43,3.40,3.40,3.40,3.40,3.40,3.40,3.40,3.40,3.33,3.30,3.30,3.30,3.30,3.30,3.30,3.30,3.25,3.21,3.20,3.20,3.20,3.20,3.20,3.20,3.20,3.15,3.12,3.10,3.10,3.10,3.10,3.10,3.10,3.10,3.03,3.00,3.02,3.07,3.09,3.10,3.10,3.11,3.16,3.19,3.20,3.20,3.20,3.20,3.24,3.28,3.30,3.30,3.34,3.38,3.40,3.40,3.40,3.43,3.47,3.50,3.50,3.48,3.50,3.56,3.56,3.56,3.56,3.56,3.56,3.56,3.56,3.58,3.60,3.60,3.60,3.60,3.60,3.60,3.60,3.60
0.39,0.35,0.29,0.22,0.20,0.16,0.10,0.07,0.02,0.00,0.00,0.00,0.00,0.00,0.00,0.00,0.00,0.00,0.00,0.00,0.00,0.00,0.00,0.00,0.00,0.00,0.00,0.00,0.03,0.19,0.20,0.17,0.15,0.23,0.31,0.38,0.46,0.53,0.54,0.47,0.40,0.35,0.35,0.30,0.23,e,e,e,e,e,e,e,e,e,e,e,e,e,e,e,e,e,e,e,e,e,e,e,e,e,0.04,0.08,0.11,0.17,0.19,0.23,0.28,0.30,0.38,0.40,0.41,0.43,0.45,0.45,0.45,0.45,0.45,0.45,0.49,0.53,0.53,0.53,0.53,0.53,0.53,0.53,0.53,0.57,0.63,0.63,0.70,0.73,0.75,0.80,0.82,0.87,0.91,0.94,1.00,1.02,1.08,1.15,1.20,1.28,1.32,1.36,1.43,1.43,1.43,1.43,1.44,1.50,1.52,1.53,1.55,1.60,1.62,1.82,2.05,2.28,2.51,2.74,2.98,3.20,3.40,3.40,3.40,3.40,3.41,3.47,3.49,3.50,3.50,3.50,3.50,3.50,3.52,3.58,3.60,3.60,3.60,3.60,3.60,3.65,3.67,3.68,3.70,3.62,3.60,3.60,3.60,3.60,3.60,3.60,3.60,3.60,3.52,3.50,3.50,3.50,3.50,3.50,3.50,3.50,3.47,3.42,3.40,3.40,3.40,3.40,3.40,3.40,3.40,3.38,3.32,3.30,3.30,3.30,3.30,3.30,3.30,3.29,3.22,3.20,3.20,3.20,3.20,3.20,3.20,3.20,3.20,3.12,3.10,3.10,3.10,3.10,3.10,3.10,3.09,3.07,3.04,3.03,3.05,3.10,3.10,3.10,3.11,3.14,3.19,3.20,3.20,3.21,3.23,3.23,3.27,3.30,3.30,3.32,3.37,3.40,3.40,3.40,3.42,3.46,3.50,3.50,3.50,3.52,3.55,3.60,3.60,3.60,3.60,3.60,3.60,3.60,3.60,3.60,3.60,3.60,3.62,3.63,3.63,3.63,3.63,3.63
0.35,0.31,0.29,0.22,0.20,0.16,0.09,0.02,0.00,0.00,0.00,0.00,0.00,0.00,0.00,0.00,0.00,0.00,0.00,0.00,0.00,0.00,0.00,0.00,0.00,0.00,0.00,0.00,0.03,0.19,0.20,0.20,0.22,0.29,0.37,0.45,0.52,0.57,0.44,0.47,0.49,0.48,0.48,0.47,0.28,e,e,e,e,e,e,e,e,e,e,e,e,e,e,e,e,e,e,e,e,e,e,e,e,e,0.01,0.04,0.10,0.11,0.17,0.20,0.23,0.30,0.38,0.40,0.43,0.50,0.57,0.58,0.58,0.58,0.58,0.58,0.59,0.59,0.59,0.59,0.59,0.59,0.59,0.59,0.59,0.64,0.69,0.69,0.77,0.79,0.79,0.81,0.88,0.90,0.94,0.99,1.00,1.07,1.14,1.19,1.20,1.28,1.35,1.43,1.49,1.49,1.49,1.49,1.49,1.50,1.57,1.59,1.59,1.61,1.68,1.88,2.11,2.34,2.58,2.81,3.04,3.25,3.40,3.40,3.40,3.40,3.40,3.41,3.47,3.50,3.50,3.50,3.50,3.50,3.50,3.52,3.59,3.60,3.60,3.60,3.60,3.61,3.61,3.63,3.70,3.62,3.60,3.60,3.60,3.60,3.60,3.60,3.60,3.60,3.52,3.50,3.50,3.50,3.50,3.50,3.50,3.48,3.41,3.40,3.40,3.40,3.40,3.40,3.40,3.40,3.39,3.32,3.30,3.30,3.30,3.30,3.30,3.30,3.30,3.29,3.22,3.20,3.20,3.20,3.20,3.20,3.20,3.20,3.20,3.12,3.10,3.10,3.10,3.10,3.10,3.10,3.08,3.01,3.07,3.09,3.09,3.10,3.10,3.10,3.13,3.19,3.20,3.20,3.20,3.22,3.29,3.29,3.30,3.30,3.31,3.38,3.40,3.40,3.40,3.40,3.47,3.50,3.50,3.50,3.50,3.55,3.59,3.60,3.60,3.60,3.60,3.60,3.60,3.60,3.60,3.60,3.60,3.60,3.66,3.69,3.69,3.69,3.69,3.69
0.35,0.28,0.24,0.21,0.17,0.13,0.08,0.01,0.00,0.00,0.00,0.00,0.00,0.00,0.00,0.00,0.00,0.00,0.00,0.00,0.00,0.00,0.00,0.00,0.00,0.00,0.00,0.00,0.03,0.19,0.24,0.28,0.33,0.41,0.49,0.53,0.53,0.47,0.36,0.34,0.36,0.39,0.39,e,e,e,e,e,e,e,e,e,e,e,e,e,e,e,e,e,e,e,e,e,e,e,e,e,e,e,e,0.02,0.05,0.10,0.17,0.20,0.22,0.30,0.34,0.38,0.43,0.51,0.59,0.60,0.62,0.65,0.65,0.65,0.68,0.71,0.71,0.71,0.71,0.71,0.71,0.71,0.71,0.73,0.75,0.75,0.79,0.83,0.85,0.86,0.94,0.95,1.00,1.05,1.05,1.13,1.18,1.21,1.26,1.34,1.38,1.44,1.51,1.55,1.55,1.55,1.55,1.55,1.59,1.63,1.65,1.66,1.74,1.91,2.12,2.35,2.58,2.86,3.10,3.28,3.35,3.39,3.40,3.40,3.40,3.40,3.43,3.45,3.46,3.50,3.50,3.50,3.50,3.50,3.54,3.58,3.60,3.60,3.60,3.60,3.60,3.61,3.64,3.61,3.60,3.60,3.60,3.60,3.60,3.60,3.59,3.55,3.51,3.50,3.50,3.50,3.50,3.50,3.50,3.48,3.41,3.40,3.40,3.40,3.40,3.40,3.40,3.40,3.39,3.31,3.30,3.30,3.30,3.30,3.30,3.30,3.28,3.24,3.21,3.20,3.20,3.20,3.20,3.20,3.20,3.19,3.14,3.11,3.10,3.10,3.10,3.10,3.10,3.10,3.09,3.06,3.09,3.10,3.10,3.10,3.10,3.13,3.17,3.20,3.20,3.20,3.23,3.27,3.30,3.30,3.30,3.32,3.36,3.39,3.40,3.40,3.41,3.45,3.49,3.50,3.52,3.55,3.55,3.58,3.60,3.61,3.65,3.65,3.65,3.65,3.65,3.65,3.65,3.65,3.65,3.65,3.68,3.70,3.70,3.70,3.70,3.70
0.34,0.27,0.20,0.20,0.14,0.09,0.07,0.01,0.00,0.00,0.00,0.00,0.00,0.00,0.00,0.00,0.00,0.00,0.00,0.00,0.00,0.00,0.00,0.00,0.00,0.00,0.00,0.00,0.03,0.20,0.29,0.37,0.44,0.52,0.58,0.59,0.51,0.37,0.29,0.22,0.21,e,e,e,e,e,e,e,e,e,e,e,e,e,e,e,e,e,e,e,e,e,e,e,e,e,e,e,e,e,e,e,0.01,0.07,0.15,0.19,0.22,0.28,0.30,0.36,0.43,0.51,0.57,0.59,0.64,0.70,0.72,0.73,0.78,0.82,0.82,0.82,0.82,0.82,0.82,0.82,0.82,0.82,0.82,0.84,0.84,0.88,0.92,0.93,1.01,1.02,1.06,1.12,1.12,1.18,1.21,1.25,1.32,1.39,1.41,1.45,1.53,1.59,1.61,1.62,1.62,1.62,1.62,1.67,1.72,1.73,1.80,1.94,2.14,2.37,2.60,2.89,3.15,3.30,3.30,3.37,3.39,3.40,3.40,3.40,3.40,3.40,3.42,3.48,3.50,3.50,3.50,3.50,3.50,3.55,3.58,3.58,3.60,3.60,3.60,3.60,3.60,3.60,3.60,3.60,3.60,3.60,3.60,3.60,3.58,3.50,3.50,3.50,3.50,3.50,3.50,3.50,3.49,3.47,3.41,3.40,3.40,3.40,3.40,3.40,3.40,3.39,3.37,3.31,3.30,3.30,3.30,3.30,3.30,3.30,3.27,3.20,3.20,3.20,3.20,3.20,3.20,3.20,3.20,3.17,3.10,3.10,3.10,3.10,3.10,3.10,3.10,3.10,3.10,3.10,3.10,3.10,3.11,3.12,3.12,3.17,3.20,3.20,3.20,3.21,3.26,3.30,3.30,3.30,3.31,3.35,3.40,3.40,3.40,3.41,3.43,3.50,3.50,3.51,3.54,3.60,3.60,3.60,3.61,3.63,3.69,3.70,3.70,3.70,3.70,3.70,3.70,3.70,3.70,3.70,3.70,3.71,3.72,3.72,3.72,3.72
0.31,0.27,0.20,0.20,0.14,0.07,0.01,0.00,0.00,0.00,0.00,0.00,0.00,0.00,0.00,0.00,0.00,0.00,0.00,0.00,0.00,0.00,0.00,0.00,0.00,0.00,0.00,0.00,0.04,0.26,0.35,0.43,0.51,0.58,0.60,0.55,0.45,0.31,0.23,0.15,0.09,e,e,e,e,e,e,e,e,e,e,e,e,e,e,e,e,e,e,e,e,e,e,e,e,e,e,e,e,e,e,e,0.00,0.02,0.09,0.16,0.20,0.22,0.28,0.36,0.43,0.50,0.52,0.57,0.64,0.72,0.78,0.84,0.87,0.88,0.88,0.88,0.88,0.88,0.88,0.88,0.88,0.88,0.90,0.96,0.96,0.97,0.98,0.99,1.07,1.08,1.12,1.18,1.18,1.20,1.24,1.31,1.38,1.40,1.45,1.52,1.58,1.60,1.66,1.68,1.68,1.68,1.68,1.74,1.78,1.79,1.87,2.01,2.20,2.44,2.67,2.91,3.15,3.30,3.30,3.31,3.37,3.40,3.40,3.40,3.40,3.40,3.40,3.42,3.48,3.50,3.50,3.50,3.50,3.51,3.52,3.53,3.60,3.60,3.60,3.60,3.60,3.60,3.60,3.60,3.60,3.60,3.60,3.60,3.58,3.50,3.50,3.50,3.50,3.50,3.50,3.50,3.47,3.41,3.40,3.40,3.40,3.40,3.40,3.40,3.40,3.37,3.32,3.30,3.30,3.30,3.30,3.30,3.30,3.30,3.27,3.20,3.20,3.20,3.20,3.20,3.20,3.20,3.20,3.17,3.10,3.10,3.10,3.10,3.10,3.10,3.10,3.10,3.10,3.10,3.10,3.10,3.12,3.18,3.18,3.19,3.20,3.20,3.20,3.26,3.29,3.30,3.30,3.30,3.35,3.39,3.40,3.40,3.40,3.43,3.49,3.50,3.50,3.54,3.59,3.60,3.60,3.60,3.63,3.68,3.70,3.70,3.70,3.70,3.70,3.70,3.70,3.70,3.70,3.70,3.70,3.73,3.78,3.78,3.78,3.78
0.28,0.24,0.20,0.16,0.12,0.06,0.00,0.00,0.00,0.00,0.00,0.00,0.00,0.00,0.00,0.00,0.00,0.00,0.00,0.00,0.00,0.00,0.00,0.00,0.00,0.00,0.00,0.00,0.06,0.36,0.46,0.54,0.59,0.60,0.56,0.47,0.36,0.24,0.17,0.09,0.03,e,e,e,e,e,e,e,e,e,e,e,e,e,e,e,e,e,e,e,e,e,e,e,e,e,e,e,e,e,e,e,e,e,0.07,0.12,0.16,0.20,0.28,0.36,0.42,0.46,0.49,0.56,0.64,0.72,0.80,0.84,0.88,0.91,0.95,0.98,0.99,0.99,0.99,0.99,0.99,0.99,1.00,1.05,1.05,1.05,1.05,1.05,1.09,1.13,1.17,1.21,1.24,1.25,1.30,1.36,1.40,1.44,1.51,1.57,1.61,1.64,1.71,1.75,1.75,1.75,1.75,1.78,1.81,1.85,1.89,2.06,2.27,2.50,2.73,2.96,3.17,3.30,3.30,3.30,3.33,3.35,3.36,3.40,3.40,3.40,3.40,3.40,3.44,3.48,3.50,3.50,3.50,3.50,3.50,3.51,3.55,3.59,3.60,3.60,3.60,3.60,3.60,3.60,3.60,3.60,3.60,3.58,3.54,3.50,3.50,3.50,3.50,3.50,3.50,3.50,3.46,3.40,3.40,3.40,3.40,3.40,3.40,3.40,3.40,3.37,3.30,3.30,3.30,3.30,3.30,3.30,3.30,3.28,3.24,3.20,3.20,3.20,3.20,3.20,3.20,3.20,3.18,3.14,3.10,3.10,3.10,3.10,3.10,3.10,3.10,3.10,3.10,3.10,3.10,3.12,3.16,3.20,3.20,3.20,3.20,3.21,3.24,3.28,3.30,3.30,3.30,3.34,3.38,3.40,3.40,3.40,3.43,3.47,3.50,3.50,3.53,3.57,3.60,3.60,3.60,3.63,3.67,3.70,3.70,3.70,3.72,3.75,3.75,3.75,3.75,3.75,3.75,3.75,3.75,3.77,3.80,3.80,3.80,3.80
0.25,0.20,0.19,0.12,0.09,0.05,0.00,0.00,0.00,0.00,0.00,0.00,0.00,0.00,0.00,0.00,0.00,0.00,0.00,0.00,0.00,0.00,0.00,0.00,0.00,0.00,0.00,0.00,0.08,0.47,0.58,0.65,0.67,0.59,0.50,0.37,0.26,0.18,0.11,0.03,0.00,e,e,e,e,e,e,e,e,e,e,e,e,e,e,e,e,e,e,e,e,e,e,e,e,e,e,e,e,e,e,e,e,e,0.07,0.10,0.12,0.20,0.28,0.35,0.39,0.41,0.49,0.56,0.64,0.72,0.79,0.80,0.85,0.93,1.00,1.07,1.10,1.10,1.11,1.11,1.11,1.11,1.11,1.12,1.12,1.12,1.12,1.12,1.12,1.18,1.21,1.23,1.31,1.31,1.36,1.41,1.41,1.49,1.56,1.60,1.62,1.70,1.77,1.80,1.81,1.81,1.81,1.81,1.84,1.91,1.91,2.09,2.32,2.55,2.78,3.02,3.20,3.30,3.30,3.30,3.30,3.30,3.31,3.38,3.40,3.40,3.40,3.40,3.40,3.45,3.49,3.50,3.50,3.50,3.50,3.50,3.50,3.56,3.59,3.60,3.60,3.60,3.60,3.60,3.60,3.60,3.60,3.56,3.50,3.50,3.50,3.50,3.50,3.50,3.50,3.49,3.45,3.40,3.40,3.40,3.40,3.40,3.40,3.40,3.39,3.36,3.30,3.30,3.30,3.30,3.30,3.30,3.30,3.25,3.20,3.20,3.20,3.20,3.20,3.20,3.20,3.20,3.15,3.10,3.10,3.10,3.10,3.10,3.10,3.10,3.10,3.10,3.10,3.10,3.11,3.16,3.20,3.20,3.20,3.21,3.21,3.22,3.29,3.30,3.30,3.30,3.31,3.38,3.40,3.40,3.40,3.41,3.47,3.50,3.50,3.51,3.58,3.60,3.60,3.60,3.61,3.66,3.70,3.70,3.70,3.71,3.75,3.80,3.80,3.80,3.80,3.80,3.80,3.80,3.80,3.80,3.80,3.80,3.81,3.81
0.25,0.20,0.19,0.12,0.05,0.02,0.00,0.00,0.00,0.00,0.00,0.00,0.00,0.00,0.00,0.00,0.00,0.00,0.00,0.00,0.00,0.00,0.00,0.00,0.00,0.00,0.00,0.00,0.09,0.53,0.64,0.65,0.60,0.52,0.39,0.28,0.19,0.12,0.10,0.03,0.00,e,e,e,e,e,e,e,e,e,e,e,e,e,e,e,e,e,e,e,e,e,e,e,e,e,e,e,e,e,e,e,e,e,0.07,0.10,0.12,0.20,0.28,0.31,0.35,0.41,0.49,0.56,0.64,0.70,0.73,0.78,0.85,0.93,1.00,1.02,1.07,1.13,1.17,1.17,1.17,1.17,1.19,1.25,1.25,1.25,1.25,1.25,1.25,1.26,1.27,1.29,1.37,1.37,1.42,1.47,1.48,1.56,1.59,1.63,1.69,1.76,1.79,1.83,1.87,1.87,1.87,1.87,1.91,1.97,1.97,2.12,2.32,2.55,2.78,3.02,3.20,3.30,3.30,3.30,3.30,3.30,3.30,3.32,3.38,3.40,3.40,3.40,3.40,3.41,3.45,3.50,3.50,3.50,3.50,3.50,3.50,3.52,3.56,3.60,3.60,3.60,3.60,3.60,3.60,3.60,3.60,3.56,3.50,3.50,3.50,3.50,3.50,3.50,3.50,3.45,3.42,3.40,3.40,3.40,3.40,3.40,3.40,3.40,3.36,3.32,3.30,3.30,3.30,3.30,3.30,3.30,3.30,3.25,3.20,3.20,3.20,3.20,3.20,3.20,3.20,3.20,3.15,3.10,3.10,3.10,3.10,3.10,3.10,3.10,3.10,3.10,3.10,3.10,3.16,3.19,3.20,3.20,3.20,3.25,3.27,3.28,3.30,3.30,3.30,3.32,3.37,3.39,3.40,3.40,3.41,3.46,3.49,3.50,3.51,3.57,3.59,3.60,3.60,3.60,3.66,3.69,3.70,3.70,3.70,3.75,3.79,3.80,3.80,3.80,3.80,3.80,3.80,3.80,3.80,3.80,3.80,3.80,3.85,3.87
0.23,0.19,0.16,0.11,0.04,0.00,0.00,0.00,0.00,0.00,0.00,0.00,0.00,0.00,0.00,0.00,0.00,0.00,0.00,0.00,0.00,0.00,0.00,0.00,0.00,0.00,0.00,0.00,0.10,0.59,0.65,0.61,0.53,0.42,0.30,0.23,0.17,0.10,0.10,0.06,0.02,0.00,0.00,e,e,e,e,e,e,e,e,e,e,e,e,e,e,e,e,e,e,e,e,e,e,e,e,e,e,e,e,e,0.01,0.03,0.08,0.12,0.15,0.20,0.28,0.30,0.33,0.41,0.49,0.56,0.63,0.67,0.70,0.77,0.85,0.92,0.96,0.99,1.06,1.14,1.20,1.20,1.23,1.25,1.29,1.34,1.34,1.34,1.34,1.34,1.34,1.34,1.34,1.35,1.40,1.43,1.47,1.51,1.54,1.59,1.62,1.66,1.71,1.79,1.83,1.88,1.94,1.94,1.94,1.94,1.97,2.04,2.04,2.16,2.36,2.59,2.82,3.05,3.20,3.26,3.26,3.29,3.30,3.30,3.30,3.30,3.34,3.38,3.40,3.40,3.40,3.40,3.42,3.46,3.46,3.49,3.50,3.50,3.50,3.50,3.53,3.57,3.60,3.60,3.60,3.60,3.60,3.60,3.57,3.53,3.50,3.50,3.50,3.50,3.50,3.50,3.50,3.44,3.40,3.40,3.40,3.40,3.40,3.40,3.40,3.40,3.34,3.30,3.30,3.30,3.30,3.30,3.30,3.30,3.30,3.25,3.20,3.20,3.20,3.20,3.20,3.20,3.20,3.17,3.13,3.10,3.10,3.10,3.10,3.10,3.10,3.10,3.10,3.10,3.11,3.14,3.18,3.20,3.20,3.20,3.23,3.28,3.30,3.30,3.30,3.33,3.34,3.35,3.40,3.40,3.42,3.44,3.44,3.49,3.50,3.52,3.55,3.60,3.60,3.60,3.61,3.64,3.69,3.70,3.70,3.71,3.73,3.78,3.80,3.81,3.84,3.78,3.80,3.84,3.84,3.84,3.84,3.84,3.84,3.84,3.88,3.90
0.20,0.17,0.10,0.10,0.04,0.00,0.00,0.00,0.00,0.00,0.00,0.00,0.00,0.00,0.00,0.00,0.00,0.00,0.00,0.00,0.00,0.00,0.00,0.00,0.00,0.00,0.00,0.00,0.11,0.65,0.63,0.55,0.45,0.30,0.22,0.20,0.17,0.10,0.10,0.10,0.06,0.00,0.00,e,e,e,e,e,e,e,e,e,e,e,e,e,e,e,e,e,e,e,e,e,e,e,e,e,e,e,e,0.00,0.02,0.09,0.10,0.15,0.20,0.20,0.28,0.30,0.33,0.41,0.49,0.56,0.60,0.62,0.70,0.77,0.85,0.90,0.91,0.98,1.06,1.14,1.20,1.20,1.27,1.35,1.40,1.40,1.40,1.40,1.40,1.40,1.40,1.40,1.40,1.40,1.40,1.47,1.50,1.53,1.60,1.60,1.66,1.70,1.71,1.79,1.87,1.95,2.00,2.00,2.00,2.00,2.03,2.10,2.10,2.23,2.42,2.65,2.89,3.12,3.20,3.20,3.20,3.28,3.30,3.30,3.30,3.30,3.30,3.34,3.40,3.40,3.40,3.40,3.40,3.40,3.40,3.46,3.50,3.50,3.50,3.50,3.50,3.53,3.60,3.60,3.60,3.60,3.60,3.60,3.53,3.50,3.50,3.50,3.50,3.50,3.50,3.50,3.50,3.44,3.40,3.40,3.40,3.40,3.40,3.40,3.40,3.40,3.34,3.30,3.30,3.30,3.30,3.30,3.30,3.30,3.30,3.25,3.20,3.20,3.20,3.20,3.20,3.20,3.20,3.13,3.10,3.10,3.10,3.10,3.10,3.10,3.10,3.10,3.10,3.10,3.12,3.20,3.20,3.20,3.20,3.21,3.28,3.30,3.30,3.30,3.30,3.37,3.40,3.40,3.40,3.40,3.46,3.50,3.50,3.50,3.50,3.54,3.60,3.60,3.60,3.60,3.63,3.70,3.70,3.70,3.70,3.72,3.79,3.80,3.80,3.83,3.90,3.75,3.81,3.90,3.90,3.90,3.90,3.90,3.90,3.90,3.90,3.90
0.20,0.17,0.10,0.04,0.01,0.00,0.00,0.00,0.00,0.00,0.00,0.00,0.00,0.00,0.00,0.00,0.00,0.00,0.00,0.00,0.00,0.00,0.00,0.00,0.00,0.00,0.00,0.00,0.10,0.59,0.56,0.46,0.35,0.30,0.22,0.20,0.19,0.16,0.11,0.10,0.09,0.05,0.00,e,e,e,e,e,e,e,e,e,e,e,e,e,e,e,e,e,e,e,e,e,e,e,e,e,e,e,e,0.07,0.08,0.16,0.17,0.21,0.27,0.27,0.34,0.37,0.40,0.47,0.50,0.56,0.60,0.62,0.70,0.77,0.82,0.85,0.91,0.98,1.06,1.11,1.14,1.19,1.27,1.35,1.40,1.40,1.45,1.50,1.53,1.53,1.53,1.53,1.53,1.53,1.53,1.56,1.57,1.59,1.67,1.67,1.72,1.77,1.78,1.86,1.89,1.95,2.01,2.07,2.07,2.07,2.08,2.11,2.16,2.29,2.49,2.72,2.95,3.13,3.20,3.20,3.20,3.23,3.27,3.30,3.30,3.30,3.30,3.32,3.35,3.40,3.40,3.40,3.40,3.40,3.40,3.42,3.46,3.50,3.50,3.50,3.50,3.51,3.54,3.59,3.60,3.60,3.60,3.60,3.53,3.50,3.50,3.50,3.50,3.50,3.50,3.50,3.50,3.44,3.40,3.40,3.40,3.40,3.40,3.40,3.40,3.35,3.31,3.30,3.30,3.30,3.30,3.30,3.30,3.30,3.25,3.22,3.20,3.20,3.20,3.20,3.20,3.20,3.20,3.13,3.10,3.10,3.10,3.10,3.10,3.10,3.10,3.10,3.14,3.17,3.17,3.20,3.20,3.20,3.22,3.27,3.29,3.30,3.30,3.31,3.36,3.39,3.40,3.40,3.40,3.45,3.48,3.50,3.50,3.50,3.54,3.58,3.60,3.60,3.60,3.63,3.68,3.70,3.70,3.74,3.77,3.77,3.80,3.80,3.83,3.87,3.90,3.85,3.87,3.90,3.90,3.90,3.90,3.90,3.90,3.90,3.90,3.93
0.18,0.15,0.09,0.02,0.00,0.00,0.00,0.00,0.00,0.00,0.00,0.00,0.00,0.00,0.00,0.00,0.00,0.00,0.00,0.00,0.00,0.00,0.00,0.00,0.00,0.00,0.00,0.00,0.09,0.53,0.50,0.39,0.30,0.30,0.24,0.21,0.20,0.19,0.14,0.11,0.10,0.08,0.00,0.00,e,e,e,e,e,e,e,e,e,e,e,e,e,e,e,e,e,e,e,e,e,e,e,e,0.00,0.02,0.07,0.11,0.14,0.19,0.22,0.26,0.31,0.33,0.38,0.42,0.45,0.50,0.53,0.57,0.61,0.64,0.70,0.77,0.80,0.83,0.91,0.98,1.04,1.08,1.11,1.19,1.27,1.33,1.38,1.40,1.48,1.55,1.61,1.63,1.63,1.63,1.63,1.63,1.63,1.63,1.64,1.68,1.73,1.73,1.79,1.83,1.84,1.89,1.92,1.97,2.05,2.10,2.12,2.13,2.13,2.14,2.22,2.34,2.52,2.75,2.98,3.14,3.20,3.20,3.20,3.20,3.24,3.28,3.30,3.30,3.30,3.30,3.32,3.37,3.37,3.39,3.40,3.40,3.40,3.40,3.43,3.48,3.50,3.50,3.50,3.50,3.50,3.56,3.57,3.58,3.60,3.57,3.52,3.50,3.50,3.50,3.50,3.50,3.50,3.50,3.48,3.43,3.40,3.40,3.40,3.40,3.40,3.40,3.40,3.32,3.30,3.30,3.30,3.30,3.30,3.30,3.30,3.30,3.22,3.20,3.20,3.20,3.20,3.20,3.20,3.20,3.17,3.12,3.10,3.10,3.10,3.10,3.10,3.10,3.10,3.13,3.18,3.20,3.20,3.20,3.22,3.23,3.25,3.30,3.30,3.30,3.31,3.34,3.39,3.40,3.40,3.41,3.43,3.49,3.50,3.50,3.50,3.53,3.58,3.60,3.60,3.60,3.62,3.67,3.70,3.70,3.72,3.77,3.80,3.80,3.80,3.82,3.86,3.90,3.90,3.90,3.92,3.93,3.93,3.93,3.93,3.93,3.93,3.93,3.93,3.97
0.15,0.10,0.09,0.02,0.00,0.00,0.00,0.00,0.00,0.00,0.00,0.00,0.00,0.00,0.00,0.00,0.00,0.00,0.00,0.00,0.00,0.00,0.00,0.00,0.00,0.00,0.00,0.00,0.08,0.47,0.44,0.36,0.30,0.30,0.29,0.24,0.20,0.20,0.19,0.13,0.10,0.08,0.00,0.00,e,e,e,e,e,e,e,e,e,e,e,e,e,e,e,e,e,e,e,e,e,e,e,e,0.01,0.08,0.10,0.13,0.19,0.20,0.26,0.30,0.32,0.39,0.40,0.45,0.50,0.51,0.58,0.60,0.64,0.69,0.70,0.77,0.80,0.83,0.91,0.98,1.00,1.04,1.11,1.19,1.27,1.30,1.33,1.40,1.48,1.55,1.63,1.69,1.69,1.69,1.69,1.69,1.69,1.69,1.74,1.79,1.79,1.79,1.85,1.89,1.89,1.90,1.96,2.04,2.09,2.10,2.17,2.19,2.19,2.20,2.28,2.36,2.52,2.75,2.98,3.14,3.20,3.20,3.20,3.20,3.20,3.24,3.30,3.30,3.30,3.30,3.30,3.31,3.31,3.36,3.40,3.40,3.40,3.40,3.40,3.42,3.49,3.50,3.50,3.50,3.50,3.51,3.51,3.54,3.59,3.52,3.50,3.50,3.50,3.50,3.50,3.50,3.50,3.49,3.42,3.40,3.40,3.40,3.40,3.40,3.40,3.40,3.40,3.32,3.30,3.30,3.30,3.30,3.30,3.30,3.30,3.30,3.22,3.20,3.20,3.20,3.20,3.20,3.20,3.19,3.11,3.10,3.10,3.10,3.10,3.10,3.10,3.10,3.11,3.18,3.20,3.20,3.20,3.20,3.27,3.29,3.30,3.30,3.30,3.30,3.34,3.39,3.40,3.40,3.40,3.42,3.49,3.50,3.50,3.50,3.51,3.58,3.60,3.60,3.60,3.60,3.67,3.70,3.70,3.71,3.78,3.80,3.80,3.80,3.80,3.86,3.90,3.90,3.90,3.90,3.95,3.99,3.99,3.99,3.99,3.99,3.99,3.99,3.99,4.00
0.15,0.08,0.04,0.01,0.00,0.00,0.00,0.00,0.00,0.00,0.00,0.00,0.00,0.00,0.00,0.00,0.00,0.00,0.00,0.00,0.00,0.00,0.00,0.00,0.00,0.00,0.00,0.00,0.07,0.41,0.41,0.38,0.34,0.30,0.30,0.28,0.24,0.20,0.20,0.13,0.10,0.09,0.06,0.01,0.00,e,e,e,e,e,e,e,e,e,e,e,e,e,e,e,e,e,e,e,e,e,e,0.06,0.06,0.14,0.16,0.19,0.26,0.26,0.33,0.36,0.38,0.46,0.46,0.51,0.56,0.57,0.64,0.66,0.70,0.76,0.76,0.83,0.86,0.88,0.96,0.99,1.03,1.07,1.11,1.19,1.23,1.27,1.32,1.40,1.48,1.55,1.61,1.65,1.69,1.74,1.78,1.81,1.81,1.81,1.84,1.86,1.86,1.86,1.88,1.92,1.96,1.96,2.02,2.08,2.11,2.16,2.23,2.26,2.26,2.27,2.34,2.42,2.58,2.81,3.04,3.12,3.17,3.20,3.20,3.20,3.20,3.22,3.25,3.29,3.30,3.30,3.30,3.30,3.30,3.32,3.36,3.40,3.40,3.40,3.40,3.41,3.44,3.48,3.50,3.50,3.50,3.50,3.50,3.52,3.54,3.50,3.50,3.50,3.50,3.50,3.50,3.50,3.50,3.49,3.42,3.40,3.40,3.40,3.40,3.40,3.40,3.39,3.34,3.31,3.30,3.30,3.30,3.30,3.30,3.30,3.29,3.24,3.21,3.20,3.20,3.20,3.20,3.20,3.20,3.18,3.11,3.10,3.10,3.10,3.10,3.10,3.10,3.12,3.16,3.20,3.20,3.20,3.21,3.26,3.29,3.30,3.30,3.30,3.30,3.33,3.37,3.40,3.40,3.40,3.43,3.47,3.50,3.50,3.50,3.52,3.56,3.59,3.60,3.60,3.61,3.66,3.69,3.70,3.72,3.76,3.79,3.80,3.80,3.81,3.85,3.89,3.90,3.90,3.90,3.94,3.98,4.00,4.00,4.00,4.00,4.00,4.00,4.00,4.00,4.00
0.14,0.07,0.00,0.00,0.00,0.00,0.00,0.00,0.00,0.00,0.00,0.00,0.00,0.00,0.00,0.00,0.00,0.00,0.00,0.00,0.00,0.00,0.00,0.00,0.00,0.00,0.00,0.00,0.07,0.39,0.41,0.40,0.38,0.32,0.30,0.30,0.27,0.20,0.20,0.15,0.11,0.10,0.10,0.04,0.01,0.00,e,e,e,e,e,e,e,e,e,e,e,e,e,e,e,e,e,e,e,0.02,0.06,0.11,0.13,0.19,0.21,0.25,0.30,0.32,0.38,0.41,0.44,0.50,0.52,0.56,0.61,0.63,0.69,0.71,0.76,0.82,0.82,0.89,0.92,0.95,1.02,1.02,1.08,1.12,1.13,1.21,1.22,1.27,1.34,1.40,1.48,1.54,1.59,1.61,1.69,1.76,1.83,1.88,1.90,1.92,1.93,1.94,1.94,1.94,1.94,1.97,2.02,2.02,2.09,2.12,2.14,2.22,2.28,2.31,2.32,2.33,2.39,2.46,2.63,2.87,3.09,3.10,3.14,3.18,3.20,3.20,3.20,3.20,3.21,3.27,3.28,3.29,3.30,3.30,3.30,3.30,3.32,3.38,3.40,3.40,3.40,3.40,3.40,3.46,3.48,3.48,3.50,3.50,3.50,3.50,3.50,3.50,3.50,3.50,3.50,3.50,3.50,3.50,3.49,3.47,3.41,3.40,3.40,3.40,3.40,3.40,3.40,3.37,3.30,3.30,3.30,3.30,3.30,3.30,3.30,3.30,3.28,3.20,3.20,3.20,3.20,3.20,3.20,3.20,3.19,3.17,3.11,3.10,3.10,3.10,3.10,3.12,3.12,3.15,3.20,3.20,3.20,3.21,3.24,3.30,3.30,3.30,3.31,3.32,3.32,3.37,3.40,3.40,3.40,3.41,3.46,3.50,3.50,3.50,3.51,3.55,3.60,3.60,3.60,3.61,3.64,3.70,3.70,3.71,3.74,3.80,3.80,3.80,3.81,3.83,3.89,3.90,3.90,3.90,3.92,3.98,4.00,4.01,4.02,4.02,4.02,4.02,4.02,4.02,4.02,4.02
0.11,0.07,0.00,0.00,0.00,0.00,0.00,0.00,0.00,0.00,0.00,0.00,0.00,0.00,0.00,0.00,0.00,0.00,0.00,0.00,0.00,0.00,0.00,0.00,0.00,0.00,0.00,0.00,0.08,0.45,0.43,0.40,0.40,0.38,0.32,0.30,0.27,0.20,0.20,0.19,0.15,0.10,0.10,0.09,0.04,0.00,e,e,e,e,e,e,e,e,e,e,e,e,e,e,e,e,e,e,e,0.06,0.09,0.12,0.19,0.20,0.25,0.29,0.31,0.38,0.40,0.44,0.49,0.50,0.57,0.59,0.63,0.69,0.70,0.75,0.83,0.88,0.88,0.96,0.98,1.01,1.08,1.08,1.14,1.18,1.20,1.28,1.28,1.33,1.39,1.40,1.48,1.51,1.54,1.61,1.69,1.76,1.81,1.83,1.90,1.96,2.03,2.07,2.07,2.07,2.07,2.07,2.08,2.08,2.15,2.18,2.21,2.28,2.30,2.35,2.38,2.39,2.40,2.46,2.66,2.92,3.09,3.10,3.11,3.14,3.20,3.20,3.20,3.20,3.20,3.21,3.22,3.25,3.30,3.30,3.30,3.30,3.30,3.32,3.39,3.40,3.40,3.40,3.40,3.41,3.42,3.44,3.50,3.50,3.50,3.50,3.50,3.50,3.50,3.50,3.50,3.50,3.50,3.50,3.47,3.41,3.40,3.40,3.40,3.40,3.40,3.40,3.40,3.37,3.30,3.30,3.30,3.30,3.30,3.30,3.30,3.30,3.28,3.20,3.20,3.20,3.20,3.20,3.20,3.20,3.17,3.11,3.10,3.10,3.10,3.10,3.10,3.17,3.18,3.19,3.20,3.20,3.20,3.24,3.29,3.30,3.30,3.30,3.32,3.38,3.38,3.39,3.40,3.40,3.40,3.46,3.49,3.50,3.50,3.50,3.55,3.59,3.60,3.60,3.60,3.64,3.69,3.70,3.70,3.74,3.79,3.80,3.80,3.80,3.83,3.89,3.90,3.90,3.90,3.92,3.98,4.00,4.00,4.03,4.08,4.08,4.08,4.08,4.08,4.08,4.08,4.08
0.07,0.04,0.00,0.00,0.00,0.00,0.00,0.00,0.00,0.00,0.00,0.00,0.00,0.00,0.00,0.00,0.00,0.00,0.00,0.00,0.00,0.00,0.00,0.00,0.00,0.00,0.00,0.00,0.08,0.46,0.46,0.43,0.40,0.40,0.36,0.32,0.28,0.24,0.21,0.20,0.18,0.14,0.10,0.10,0.07,0.03,e,e,e,e,e,e,e,e,e,e,e,e,e,e,e,e,e,0.05,0.05,0.12,0.15,0.18,0.25,0.25,0.31,0.35,0.36,0.44,0.45,0.49,0.55,0.55,0.63,0.65,0.68,0.75,0.75,0.81,0.87,0.91,0.95,0.99,1.02,1.06,1.10,1.14,1.18,1.22,1.26,1.30,1.33,1.37,1.41,1.45,1.49,1.53,1.56,1.61,1.69,1.73,1.77,1.82,1.90,1.97,2.03,2.06,2.10,2.14,2.15,2.15,2.15,2.15,2.18,2.22,2.26,2.30,2.34,2.40,2.45,2.45,2.45,2.51,2.69,2.94,3.09,3.10,3.10,3.11,3.15,3.19,3.20,3.20,3.20,3.20,3.20,3.22,3.26,3.30,3.30,3.30,3.30,3.30,3.34,3.38,3.40,3.40,3.40,3.40,3.40,3.41,3.45,3.49,3.50,3.50,3.50,3.50,3.50,3.50,3.50,3.50,3.50,3.50,3.47,3.40,3.40,3.40,3.40,3.40,3.40,3.40,3.38,3.34,3.30,3.30,3.30,3.30,3.30,3.30,3.30,3.28,3.24,3.20,3.20,3.20,3.20,3.20,3.20,3.20,3.16,3.10,3.10,3.10,3.10,3.11,3.15,3.19,3.20,3.20,3.20,3.20,3.23,3.27,3.30,3.30,3.30,3.33,3.36,3.40,3.40,3.40,3.40,3.41,3.44,3.48,3.50,3.50,3.50,3.54,3.58,3.60,3.61,3.64,3.65,3.67,3.70,3.70,3.74,3.77,3.80,3.80,3.80,3.83,3.87,3.90,3.90,3.93,3.95,3.96,4.00,4.00,4.03,4.07,4.10,4.10,4.10,4.10,4.10,4.10,4.10,4.10
0.05,0.00,0.00,0.00,0.00,0.00,0.00,0.00,0.00,0.00,0.00,0.00,0.00,0.00,0.00,0.00,0.00,0.00,0.00,0.00,0.00,0.00,0.00,0.00,0.00,0.00,0.00,0.00,0.08,0.46,0.50,0.46,0.41,0.40,0.40,0.34,0.30,0.29,0.22,0.20,0.20,0.18,0.11,0.10,0.10,0.07,0.00,0.00,e,e,e,e,e,e,e,e,e,e,e,e,e,0.01,0.05,0.10,0.11,0.18,0.21,0.24,0.30,0.31,0.36,0.40,0.43,0.50,0.51,0.56,0.61,0.61,0.69,0.71,0.74,0.81,0.81,0.88,0.91,0.93,1.01,1.01,1.06,1.11,1.12,1.19,1.21,1.25,1.31,1.31,1.38,1.41,1.44,1.51,1.51,1.57,1.61,1.62,1.70,1.71,1.75,1.83,1.90,1.97,2.00,2.03,2.10,2.18,2.21,2.21,2.21,2.22,2.22,2.26,2.31,2.31,2.39,2.46,2.50,2.51,2.51,2.58,2.73,2.95,3.09,3.10,3.10,3.10,3.10,3.17,3.19,3.19,3.20,3.20,3.20,3.20,3.22,3.29,3.30,3.30,3.30,3.30,3.30,3.36,3.39,3.39,3.40,3.40,3.40,3.40,3.40,3.47,3.49,3.50,3.50,3.50,3.50,3.50,3.50,3.50,3.50,3.49,3.46,3.40,3.40,3.40,3.40,3.40,3.40,3.40,3.35,3.30,3.30,3.30,3.30,3.30,3.30,3.30,3.30,3.26,3.20,3.20,3.20,3.20,3.20,3.20,3.20,3.19,3.15,3.10,3.10,3.10,3.11,3.13,3.20,3.20,3.20,3.20,3.21,3.21,3.27,3.30,3.30,3.30,3.31,3.36,3.40,3.40,3.40,3.41,3.41,3.43,3.49,3.50,3.50,3.50,3.51,3.58,3.60,3.60,3.62,3.69,3.70,3.70,3.70,3.71,3.78,3.80,3.80,3.80,3.81,3.87,3.90,3.90,3.91,3.97,4.00,4.00,4.00,4.01,4.06,4.10,4.10,4.10,4.11,4.11,4.10,4.11,4.11,4.11
