8.38,8.10,7.97,7.97,8.03,8.01,7.90,7.87,7.71,7.55,7.40,7.24,7.09,6.97,6.82,6.65,6.65,6.65,6.65,6.70,6.90,7.06,7.10,7.04,6.91,6.81,6.72,6.62,6.50,6.39,6.27,6.16,6.06,5.98,5.86,5.74,5.63,5.51,5.40,5.28,5.18,5.10,4.99,4.86,4.75,4.64,4.51,4.41,4.32,4.22,4.10,4.00,3.87,3.76,3.66,3.58,3.46,3.37,3.32,3.30,3.30,3.30,3.30,3.31,3.36,3.39,3.40,3.40,3.40,3.40,3.40,3.40,3.41,3.46,3.49,3.50,3.50,3.50,3.50,3.50,3.50,3.50,3.50,3.48,3.46,3.46,3.46,3.46,3.48,3.50,3.50,3.50,3.50,3.50,3.51,3.56,3.59,3.60,3.60,3.60,3.60,3.60,3.60,3.61,3.65,3.69,3.70,3.70,3.70,3.70,3.70,3.72,3.76,3.76,3.78,3.80,3.80,3.80,3.80,3.80,3.81,3.86,3.89,3.90,3.90,3.90,3.90,3.90,3.92,3.96,3.96,3.99,4.00,4.00,4.00,4.00,4.00,4.02,4.06,4.06,4.09,4.10,4.10,4.10,4.10,4.13,4.17,4.20,4.20,4.20,4.20,4.21,4.26,4.29,4.30,4.30,4.30,4.30,4.34,4.38,4.40,4.40,4.40,4.40,4.41,4.46,4.49,4.50,4.50,4.50,4.55,4.56,4.58,4.60,4.60,4.60,4.63,4.66,4.66,4.69,4.70,4.70,4.70,4.70,4.70,4.70,4.70,4.70,4.70,4.70,4.72,4.76,4.76,4.76,4.76,4.77,4.80,4.80,4.80,4.80,4.80,4.80,4.80,4.80,4.80,4.80,4.84,4.88,4.90,4.90,4.90,4.90,4.90,4.90,4.95,4.98,5.00,5.01,5.06,5.06,5.08,5.10,5.10,5.10,5.13,5.16,5.16,5.16,5.16,5.16,5.16,5.16,5.24,5.26,5.27,5.30,5.35,5.38,5.42,5.47,5.50,5.50,5.53,5.57,5.60,5.60,5.63,5.67,5.71,5.75,5.79,5.80,5.81,5.86,5.89,5.93
8.52,8.33,8.35,8.37,8.41,8.36,8.24,8.20,8.01,7.83,7.68,7.52,7.37,7.26,7.11,6.92,6.90,6.90,6.91,6.99,7.22,7.34,7.31,7.20,7.07,6.99,6.90,6.78,6.66,6.56,6.43,6.32,6.23,6.15,6.01,5.91,5.79,5.66,5.57,5.44,5.33,5.25,5.15,5.02,4.91,4.80,4.67,4.59,4.50,4.38,4.26,4.16,4.03,3.93,3.85,3.75,3.61,3.51,3.42,3.35,3.33,3.31,3.31,3.34,3.40,3.40,3.40,3.40,3.40,3.40,3.40,3.41,3.44,3.49,3.50,3.50,3.50,3.50,3.50,3.50,3.51,3.53,3.53,3.51,3.50,3.50,3.50,3.50,3.50,3.50,3.50,3.50,3.50,3.51,3.54,3.59,3.60,3.60,3.60,3.60,3.60,3.61,3.63,3.63,3.69,3.70,3.70,3.70,3.70,3.70,3.71,3.75,3.80,3.80,3.80,3.80,3.80,3.80,3.82,3.83,3.84,3.90,3.90,3.90,3.90,3.90,3.90,3.92,3.96,4.00,4.00,4.00,4.00,4.00,4.00,4.00,4.01,4.05,4.10,4.10,4.10,4.10,4.10,4.10,4.12,4.17,4.20,4.20,4.20,4.20,4.21,4.24,4.30,4.30,4.30,4.31,4.33,4.33,4.37,4.40,4.40,4.40,4.42,4.43,4.44,4.50,4.50,4.50,4.51,4.53,4.59,4.60,4.60,4.60,4.60,4.62,4.66,4.70,4.70,4.70,4.70,4.70,4.70,4.70,4.70,4.70,4.71,4.72,4.73,4.73,4.75,4.80,4.80,4.80,4.80,4.80,4.80,4.80,4.80,4.80,4.80,4.80,4.80,4.80,4.80,4.80,4.87,4.90,4.90,4.90,4.90,4.91,4.93,4.93,4.99,5.00,5.01,5.04,5.09,5.10,5.10,5.11,5.13,5.13,5.17,5.20,5.20,5.22,5.23,5.23,5.23,5.23,5.28,5.31,5.33,5.33,5.41,5.43,5.45,5.50,5.52,5.53,5.56,5.60,5.60,5.62,5.67,5.71,5.73,5.79,5.80,5.81,5.84,5.90,5.92,5.96
8.71,8.67,8.74,8.81,8.78,8.70,8.61,8.47,8.31,8.15,8.00,7.84,7.69,7.54,7.38,7.24,7.17,7.16,7.20,7.31,7.54,7.56,7.47,7.35,7.26,7.18,7.05,6.94,6.84,6.69,6.60,6.48,6.35,6.28,6.19,6.06,5.94,5.85,5.70,5.61,5.52,5.43,5.28,5.20,5.07,4.95,4.86,4.78,4.65,4.54,4.44,4.29,4.20,4.12,4.02,3.88,3.79,3.66,3.55,3.47,3.40,3.33,3.34,3.39,3.40,3.40,3.40,3.40,3.40,3.40,3.40,3.43,3.49,3.50,3.50,3.50,3.50,3.50,3.50,3.50,3.53,3.59,3.59,3.53,3.50,3.50,3.50,3.50,3.50,3.50,3.50,3.50,3.50,3.53,3.59,3.60,3.60,3.60,3.60,3.60,3.60,3.65,3.69,3.69,3.70,3.70,3.70,3.70,3.70,3.70,3.74,3.79,3.80,3.80,3.80,3.80,3.80,3.80,3.86,3.89,3.89,3.90,3.90,3.90,3.90,3.90,3.90,3.96,3.99,4.00,4.00,4.00,4.00,4.00,4.00,4.00,4.05,4.09,4.10,4.10,4.10,4.10,4.10,4.10,4.17,4.19,4.20,4.20,4.20,4.20,4.24,4.29,4.30,4.30,4.30,4.32,4.39,4.39,4.40,4.40,4.40,4.40,4.46,4.49,4.49,4.50,4.50,4.50,4.53,4.59,4.60,4.60,4.60,4.60,4.60,4.66,4.69,4.70,4.70,4.70,4.70,4.70,4.70,4.70,4.70,4.70,4.72,4.79,4.79,4.79,4.79,4.80,4.80,4.80,4.80,4.80,4.80,4.80,4.80,4.80,4.80,4.80,4.80,4.80,4.80,4.80,4.87,4.90,4.90,4.90,4.90,4.95,4.99,4.99,5.00,5.00,5.03,5.09,5.10,5.10,5.10,5.12,5.19,5.19,5.20,5.20,5.21,5.28,5.29,5.29,5.29,5.29,5.30,5.35,5.39,5.40,5.47,5.49,5.49,5.51,5.58,5.59,5.59,5.60,5.60,5.67,5.70,5.73,5.79,5.80,5.80,5.84,5.89,5.90,5.97,5.99
9.07,9.09,9.13,9.20,9.16,9.04,8.88,8.73,8.57,8.42,8.26,8.11,7.99,7.82,7.64,7.50,7.42,7.41,7.48,7.62,7.81,7.73,7.63,7.51,7.40,7.32,7.22,7.10,6.98,6.87,6.75,6.64,6.53,6.46,6.34,6.22,6.11,5.99,5.88,5.79,5.69,5.58,5.46,5.35,5.23,5.13,5.05,4.93,4.82,4.70,4.58,4.47,4.39,4.29,4.17,4.06,3.94,3.82,3.73,3.64,3.52,3.44,3.40,3.40,3.40,3.40,3.40,3.40,3.40,3.40,3.43,3.47,3.50,3.50,3.50,3.50,3.50,3.50,3.50,3.53,3.57,3.60,3.60,3.57,3.55,3.55,3.55,3.55,3.55,3.54,3.50,3.54,3.55,3.57,3.60,3.60,3.60,3.60,3.60,3.60,3.64,3.68,3.70,3.70,3.70,3.70,3.70,3.71,3.75,3.75,3.78,3.80,3.80,3.80,3.80,3.80,3.81,3.85,3.88,3.90,3.90,3.90,3.90,3.90,3.90,3.90,3.95,3.98,4.00,4.00,4.00,4.00,4.00,4.01,4.05,4.05,4.08,4.10,4.10,4.10,4.10,4.12,4.15,4.15,4.19,4.20,4.20,4.20,4.25,4.25,4.27,4.30,4.30,4.30,4.33,4.37,4.40,4.40,4.40,4.40,4.41,4.45,4.48,4.50,4.50,4.50,4.50,4.53,4.57,4.60,4.60,4.60,4.60,4.61,4.65,4.69,4.70,4.70,4.70,4.70,4.70,4.70,4.70,4.70,4.74,4.75,4.76,4.80,4.80,4.80,4.80,4.80,4.80,4.80,4.80,4.80,4.80,4.80,4.83,4.85,4.85,4.85,4.85,4.85,4.85,4.85,4.88,4.90,4.90,4.90,4.90,4.95,5.00,5.00,5.04,5.05,5.07,5.10,5.10,5.14,5.15,5.16,5.20,5.20,5.23,5.25,5.26,5.29,5.30,5.32,5.35,5.35,5.35,5.38,5.42,5.46,5.49,5.50,5.52,5.56,5.60,5.60,5.62,5.65,5.65,5.69,5.73,5.77,5.80,5.80,5.83,5.87,5.91,5.95,5.99,6.00
9.43,9.52,9.62,9.67,9.55,9.36,9.15,9.00,8.84,8.69,8.53,8.38,8.29,8.10,7.90,7.76,7.68,7.68,7.77,7.91,8.03,7.90,7.79,7.68,7.54,7.47,7.38,7.26,7.13,7.04,6.91,6.80,6.72,6.63,6.49,6.38,6.27,6.14,6.06,5.97,5.86,5.73,5.64,5.50,5.40,5.32,5.22,5.08,4.98,4.86,4.74,4.66,4.57,4.45,4.32,4.23,4.09,3.99,3.91,3.81,3.67,3.57,3.49,3.43,3.42,3.40,3.40,3.40,3.40,3.41,3.47,3.50,3.50,3.50,3.50,3.50,3.50,3.50,3.51,3.56,3.60,3.60,3.60,3.60,3.60,3.60,3.60,3.60,3.60,3.58,3.52,3.59,3.60,3.60,3.60,3.60,3.60,3.61,3.62,3.62,3.68,3.70,3.70,3.70,3.70,3.70,3.71,3.73,3.80,3.80,3.80,3.80,3.80,3.80,3.80,3.81,3.83,3.89,3.90,3.90,3.90,3.90,3.90,3.91,3.92,3.92,3.99,4.00,4.00,4.00,4.00,4.00,4.01,4.04,4.10,4.10,4.10,4.10,4.10,4.10,4.11,4.15,4.20,4.20,4.20,4.20,4.21,4.22,4.29,4.30,4.30,4.30,4.30,4.31,4.36,4.40,4.40,4.40,4.40,4.41,4.43,4.49,4.50,4.50,4.50,4.52,4.52,4.56,4.60,4.60,4.60,4.61,4.62,4.63,4.69,4.70,4.70,4.70,4.72,4.72,4.72,4.72,4.72,4.72,4.77,4.80,4.80,4.80,4.80,4.80,4.80,4.80,4.80,4.80,4.81,4.82,4.82,4.82,4.86,4.90,4.90,4.90,4.90,4.90,4.90,4.90,4.90,4.90,4.90,4.90,4.91,4.96,5.00,5.01,5.08,5.10,5.11,5.12,5.12,5.18,5.20,5.20,5.22,5.22,5.26,5.30,5.30,5.30,5.31,5.35,5.40,5.40,5.40,5.41,5.44,5.50,5.50,5.51,5.55,5.60,5.60,5.61,5.66,5.70,5.70,5.71,5.76,5.80,5.80,5.81,5.87,5.91,5.93,6.00,6.00,6.01
9.72,10.00,10.44,10.40,9.98,9.64,9.47,9.32,9.16,9.01,8.85,8.70,8.56,8.35,8.15,8.01,7.93,7.98,8.09,8.19,8.16,8.07,7.95,7.83,7.74,7.66,7.53,7.42,7.31,7.17,7.08,6.99,6.90,6.76,6.67,6.54,6.42,6.33,6.25,6.12,6.01,5.91,5.77,5.67,5.59,5.49,5.35,5.26,5.13,5.02,4.93,4.85,4.72,4.61,4.50,4.36,4.27,4.19,4.08,3.95,3.86,3.72,3.62,3.55,3.48,3.42,3.40,3.40,3.40,3.47,3.49,3.50,3.50,3.50,3.50,3.50,3.50,3.50,3.56,3.59,3.60,3.60,3.60,3.60,3.60,3.60,3.60,3.60,3.60,3.59,3.58,3.60,3.60,3.60,3.60,3.60,3.60,3.64,3.68,3.68,3.70,3.70,3.70,3.70,3.70,3.70,3.73,3.78,3.80,3.80,3.80,3.80,3.80,3.80,3.80,3.83,3.88,3.90,3.90,3.90,3.90,3.90,3.90,3.94,3.98,3.98,4.00,4.00,4.00,4.00,4.00,4.00,4.04,4.09,4.10,4.10,4.10,4.10,4.10,4.10,4.15,4.19,4.20,4.20,4.20,4.20,4.22,4.28,4.30,4.30,4.30,4.30,4.30,4.36,4.39,4.40,4.40,4.40,4.40,4.43,4.48,4.50,4.50,4.50,4.52,4.58,4.58,4.59,4.60,4.60,4.60,4.65,4.68,4.68,4.70,4.70,4.70,4.72,4.78,4.78,4.78,4.78,4.78,4.78,4.79,4.80,4.80,4.80,4.80,4.80,4.80,4.80,4.80,4.80,4.83,4.88,4.88,4.88,4.89,4.90,4.90,4.90,4.90,4.90,4.90,4.90,4.90,4.90,4.90,4.90,4.96,4.99,5.00,5.01,5.08,5.10,5.13,5.18,5.18,5.19,5.20,5.22,5.28,5.28,5.29,5.30,5.30,5.30,5.35,5.39,5.40,5.40,5.40,5.44,5.49,5.50,5.50,5.55,5.59,5.60,5.60,5.66,5.69,5.70,5.70,5.76,5.79,5.80,5.81,5.87,5.89,5.93,5.98,6.00,6.00,6.04
11.23,11.51,12.01,11.69,10.99,10.35,9.89,9.60,9.44,9.28,9.13,8.97,8.82,8.63,8.45,8.31,8.23,8.29,8.37,8.41,8.34,8.23,8.11,8.00,7.92,7.81,7.69,7.58,7.46,7.34,7.26,7.16,7.05,6.93,6.82,6.70,6.60,6.52,6.41,6.29,6.17,6.06,5.94,5.86,5.76,5.64,5.52,5.41,5.29,5.20,5.11,5.00,4.88,4.77,4.65,4.53,4.45,4.35,4.24,4.12,4.01,3.89,3.79,3.71,3.59,3.52,3.44,3.41,3.45,3.49,3.50,3.50,3.50,3.50,3.50,3.50,3.51,3.54,3.59,3.60,3.60,3.60,3.60,3.60,3.60,3.61,3.64,3.64,3.64,3.63,3.60,3.60,3.60,3.60,3.60,3.60,3.63,3.67,3.70,3.70,3.70,3.70,3.70,3.70,3.70,3.73,3.77,3.80,3.80,3.80,3.80,3.80,3.80,3.84,3.84,3.86,3.90,3.90,3.90,3.90,3.90,3.90,3.93,3.97,4.00,4.00,4.00,4.00,4.00,4.00,4.00,4.03,4.07,4.10,4.10,4.10,4.10,4.10,4.11,4.14,4.18,4.20,4.20,4.20,4.20,4.22,4.26,4.30,4.30,4.30,4.32,4.34,4.34,4.38,4.40,4.40,4.40,4.44,4.44,4.46,4.50,4.50,4.50,4.52,4.56,4.60,4.60,4.60,4.60,4.60,4.64,4.68,4.70,4.70,4.70,4.70,4.72,4.76,4.80,4.80,4.80,4.80,4.80,4.80,4.80,4.80,4.80,4.80,4.80,4.82,4.84,4.84,4.84,4.84,4.87,4.90,4.90,4.90,4.90,4.90,4.90,4.90,4.90,4.90,4.90,4.90,4.90,4.90,4.91,4.94,4.99,5.00,5.01,5.05,5.09,5.10,5.14,5.20,5.20,5.20,5.22,5.26,5.30,5.30,5.30,5.31,5.34,5.34,5.38,5.40,5.41,5.44,5.44,5.47,5.51,5.54,5.54,5.58,5.62,5.64,5.64,5.68,5.72,5.74,5.75,5.79,5.80,5.81,5.85,5.89,5.93,5.97,6.00,6.00,6.03,6.07
13.40,13.57,13.91,13.37,12.54,11.66,10.85,10.35,9.98,9.65,9.39,9.23,9.07,8.92,8.77,8.62,8.54,8.60,8.63,8.60,8.52,8.37,8.27,8.19,8.10,7.96,7.86,7.74,7.61,7.53,7.45,7.33,7.20,7.11,6.96,6.87,6.79,6.70,6.55,6.45,6.33,6.21,6.13,6.04,5.92,5.79,5.70,5.56,5.46,5.38,5.29,5.14,5.05,4.93,4.80,4.72,4.64,4.51,4.39,4.30,4.15,4.05,3.97,3.87,3.72,3.64,3.51,3.44,3.50,3.50,3.50,3.50,3.50,3.50,3.50,3.50,3.53,3.60,3.60,3.60,3.60,3.60,3.60,3.60,3.60,3.63,3.70,3.70,3.70,3.67,3.61,3.61,3.61,3.61,3.61,3.61,3.67,3.70,3.70,3.70,3.70,3.70,3.70,3.71,3.71,3.77,3.80,3.80,3.80,3.80,3.80,3.80,3.81,3.88,3.90,3.90,3.90,3.90,3.90,3.90,3.90,3.91,3.98,4.00,4.00,4.00,4.00,4.00,4.00,4.01,4.01,4.07,4.10,4.10,4.10,4.10,4.10,4.11,4.12,4.19,4.20,4.20,4.20,4.21,4.21,4.26,4.30,4.30,4.30,4.31,4.34,4.40,4.40,4.40,4.40,4.40,4.41,4.48,4.50,4.50,4.50,4.50,4.51,4.55,4.60,4.60,4.60,4.60,4.60,4.62,4.69,4.70,4.70,4.70,4.71,4.71,4.75,4.80,4.80,4.80,4.80,4.80,4.80,4.80,4.80,4.80,4.80,4.81,4.81,4.86,4.90,4.90,4.90,4.90,4.90,4.90,4.90,4.90,4.90,4.90,4.90,4.90,4.90,4.90,4.90,4.90,4.91,4.91,4.93,5.00,5.00,5.00,5.04,5.10,5.10,5.11,5.14,5.20,5.20,5.21,5.25,5.30,5.30,5.31,5.31,5.34,5.40,5.40,5.41,5.41,5.43,5.50,5.50,5.50,5.53,5.60,5.60,5.61,5.64,5.70,5.70,5.71,5.75,5.80,5.80,5.81,5.81,5.84,5.90,5.91,5.97,6.00,6.01,6.01,6.08,6.10
16.50,16.31,15.94,15.99,15.96,15.66,15.07,14.27,12.43,10.77,9.69,9.48,9.33,9.22,9.07,8.88,8.80,8.85,8.86,8.78,8.65,8.55,8.46,8.37,8.24,8.14,8.01,7.90,7.80,7.72,7.60,7.48,7.37,7.24,7.14,7.06,6.96,6.83,6.73,6.60,6.49,6.40,6.32,6.19,6.08,5.97,5.84,5.74,5.66,5.55,5.43,5.33,5.20,5.08,4.99,4.91,4.78,4.67,4.56,4.43,4.33,4.20,4.07,3.95,3.85,3.72,3.61,3.53,3.50,3.50,3.50,3.50,3.50,3.50,3.50,3.53,3.58,3.60,3.60,3.60,3.60,3.60,3.60,3.60,3.63,3.68,3.70,3.70,3.70,3.69,3.67,3.67,3.67,3.67,3.67,3.67,3.69,3.70,3.70,3.70,3.70,3.70,3.72,3.77,3.77,3.79,3.80,3.80,3.80,3.80,3.80,3.82,3.87,3.89,3.90,3.90,3.90,3.90,3.90,3.90,3.92,3.97,3.99,4.00,4.00,4.00,4.00,4.00,4.03,4.07,4.07,4.09,4.10,4.10,4.10,4.10,4.14,4.17,4.18,4.20,4.20,4.20,4.22,4.27,4.27,4.29,4.30,4.30,4.30,4.35,4.38,4.40,4.40,4.40,4.40,4.42,4.47,4.49,4.50,4.50,4.50,4.50,4.55,4.58,4.60,4.60,4.60,4.60,4.62,4.67,4.70,4.70,4.70,4.71,4.77,4.77,4.79,4.80,4.80,4.80,4.80,4.80,4.80,4.80,4.80,4.80,4.82,4.87,4.87,4.89,4.90,4.90,4.90,4.90,4.90,4.90,4.90,4.90,4.90,4.90,4.90,4.90,4.90,4.90,4.90,4.90,4.95,4.97,4.98,5.00,5.00,5.04,5.08,5.10,5.10,5.14,5.18,5.20,5.20,5.25,5.29,5.30,5.30,5.36,5.37,5.38,5.40,5.40,5.45,5.47,5.48,5.50,5.50,5.54,5.58,5.60,5.60,5.64,5.68,5.70,5.70,5.75,5.79,5.80,5.80,5.86,5.87,5.88,5.91,5.96,5.99,6.03,6.07,6.07,6.09,6.14
19.12,18.43,17.91,18.28,18.67,18.82,18.60,17.87,15.89,13.71,11.77,10.44,9.73,9.49,9.34,9.13,9.06,9.09,9.05,8.94,8.81,8.73,8.64,8.52,8.40,8.29,8.17,8.07,7.99,7.88,7.76,7.64,7.53,7.41,7.33,7.23,7.12,6.99,6.89,6.76,6.67,6.58,6.48,6.32,6.22,6.11,5.97,5.89,5.79,5.67,5.55,5.45,5.30,5.19,5.10,5.00,4.87,4.76,4.63,4.49,4.41,4.27,4.13,4.01,3.90,3.78,3.67,3.57,3.50,3.50,3.50,3.50,3.50,3.50,3.52,3.57,3.60,3.60,3.60,3.60,3.60,3.60,3.60,3.62,3.66,3.70,3.70,3.70,3.70,3.70,3.70,3.70,3.70,3.70,3.70,3.70,3.70,3.70,3.70,3.70,3.70,3.72,3.76,3.80,3.80,3.80,3.80,3.80,3.80,3.80,3.82,3.85,3.90,3.90,3.90,3.90,3.90,3.90,3.92,3.94,3.95,4.00,4.00,4.00,4.00,4.00,4.00,4.02,4.06,4.10,4.10,4.10,4.10,4.10,4.10,4.13,4.17,4.20,4.20,4.20,4.20,4.22,4.25,4.30,4.30,4.30,4.30,4.30,4.33,4.38,4.40,4.40,4.40,4.40,4.42,4.45,4.50,4.50,4.50,4.51,4.54,4.54,4.58,4.60,4.60,4.60,4.63,4.64,4.66,4.70,4.70,4.70,4.71,4.75,4.80,4.80,4.80,4.80,4.80,4.80,4.80,4.81,4.84,4.84,4.84,4.84,4.85,4.90,4.90,4.90,4.90,4.90,4.90,4.90,4.90,4.90,4.90,4.90,4.92,4.94,4.94,4.94,4.94,4.94,4.94,4.94,4.98,5.00,5.00,5.00,5.03,5.07,5.10,5.10,5.13,5.18,5.20,5.21,5.23,5.28,5.30,5.31,5.34,5.39,5.40,5.41,5.44,5.44,5.48,5.50,5.51,5.53,5.54,5.57,5.61,5.64,5.64,5.67,5.71,5.74,5.74,5.78,5.80,5.81,5.84,5.89,5.90,5.91,5.94,5.99,6.02,6.06,6.10,6.10,6.13,6.17
21.38,20.08,19.84,20.30,20.83,21.33,21.61,21.22,20.13,18.06,15.21,11.94,10.25,9.74,9.60,9.39,9.31,9.30,9.21,9.08,9.00,8.92,8.80,8.67,8.59,8.43,8.34,8.26,8.17,8.01,7.93,7.80,7.67,7.60,7.52,7.39,7.27,7.18,7.02,6.93,6.86,6.76,6.61,6.45,6.35,6.24,6.09,6.02,5.88,5.76,5.67,5.52,5.36,5.25,5.15,5.00,4.92,4.79,4.63,4.49,4.41,4.27,4.16,4.06,3.91,3.83,3.70,3.57,3.50,3.50,3.50,3.50,3.50,3.50,3.57,3.60,3.60,3.60,3.60,3.60,3.60,3.60,3.60,3.66,3.70,3.70,3.70,3.70,3.70,3.70,3.70,3.70,3.70,3.70,3.70,3.70,3.70,3.70,3.70,3.70,3.70,3.75,3.80,3.80,3.80,3.80,3.80,3.80,3.80,3.80,3.85,3.90,3.90,3.90,3.90,3.90,3.90,3.90,3.97,4.00,4.00,4.00,4.00,4.00,4.00,4.00,4.00,4.06,4.10,4.10,4.10,4.10,4.10,4.10,4.10,4.18,4.20,4.20,4.20,4.20,4.20,4.24,4.30,4.30,4.30,4.30,4.30,4.31,4.39,4.40,4.40,4.40,4.40,4.40,4.45,4.50,4.50,4.50,4.50,4.54,4.60,4.60,4.60,4.60,4.60,4.60,4.68,4.70,4.70,4.70,4.70,4.70,4.74,4.80,4.80,4.80,4.80,4.80,4.80,4.80,4.80,4.83,4.90,4.90,4.90,4.90,4.90,4.90,4.90,4.90,4.90,4.90,4.90,4.90,4.90,4.90,4.90,4.90,4.95,5.00,5.00,5.00,5.00,5.00,5.00,5.00,5.00,5.00,5.00,5.00,5.07,5.10,5.10,5.11,5.18,5.20,5.20,5.22,5.29,5.30,5.30,5.32,5.40,5.40,5.40,5.43,5.50,5.50,5.50,5.50,5.52,5.60,5.60,5.60,5.63,5.70,5.70,5.70,5.74,5.80,5.80,5.80,5.80,5.82,5.90,5.90,5.90,5.93,6.00,6.00,6.06,6.10,6.10,6.10,6.17,6.20
24.64,23.42,23.09,23.55,24.04,24.12,23.68,22.80,21.71,20.36,18.55,16.07,14.03,12.28,10.80,9.70,9.57,9.47,9.37,9.27,9.19,9.07,8.96,8.84,8.72,8.61,8.49,8.39,8.30,8.14,8.06,7.93,7.79,7.66,7.58,7.45,7.33,7.24,7.09,6.96,6.86,6.76,6.61,6.50,6.38,6.26,6.15,6.03,5.88,5.76,5.67,5.52,5.41,5.29,5.17,5.06,4.94,4.79,4.65,4.55,4.42,4.31,4.19,4.07,3.97,3.84,3.70,3.57,3.50,3.50,3.50,3.50,3.51,3.56,3.59,3.60,3.60,3.60,3.60,3.60,3.60,3.61,3.66,3.69,3.70,3.70,3.70,3.70,3.70,3.70,3.70,3.75,3.76,3.76,3.76,3.76,3.72,3.70,3.70,3.70,3.75,3.78,3.80,3.80,3.80,3.80,3.80,3.81,3.86,3.86,3.88,3.90,3.90,3.90,3.90,3.90,3.91,3.96,3.99,4.00,4.00,4.00,4.00,4.00,4.00,4.01,4.05,4.09,4.10,4.10,4.10,4.10,4.10,4.12,4.17,4.19,4.20,4.20,4.20,4.20,4.24,4.28,4.30,4.30,4.30,4.33,4.36,4.37,4.39,4.40,4.40,4.41,4.46,4.46,4.48,4.50,4.50,4.50,4.54,4.58,4.60,4.60,4.60,4.60,4.61,4.66,4.69,4.70,4.70,4.70,4.70,4.74,4.78,4.80,4.80,4.80,4.80,4.82,4.86,4.86,4.86,4.88,4.90,4.90,4.90,4.90,4.90,4.90,4.90,4.90,4.90,4.90,4.90,4.94,4.96,4.96,4.96,4.96,4.98,5.00,5.00,5.00,5.00,5.00,5.00,5.00,5.00,5.00,5.01,5.06,5.09,5.10,5.12,5.17,5.19,5.20,5.22,5.27,5.30,5.30,5.33,5.37,5.40,5.40,5.44,5.48,5.50,5.50,5.54,5.56,5.57,5.60,5.60,5.63,5.67,5.70,5.70,5.74,5.78,5.80,5.80,5.84,5.86,5.87,5.90,5.90,5.94,5.98,6.01,6.06,6.09,6.10,6.11,6.16,6.19,6.23
27.59,26.65,26.36,26.65,26.81,26.43,25.49,24.33,23.17,22.10,20.84,19.01,16.74,14.26,11.91,10.10,9.78,9.61,9.50,9.40,9.30,9.17,9.06,8.95,8.82,8.72,8.59,8.48,8.37,8.21,8.13,8.01,7.86,7.73,7.63,7.50,7.38,7.28,7.12,6.99,6.87,6.77,6.63,6.53,6.41,6.29,6.19,6.03,5.90,5.78,5.67,5.54,5.44,5.31,5.18,5.10,4.94,4.80,4.69,4.58,4.45,4.34,4.22,4.08,4.00,3.85,3.71,3.59,3.50,3.50,3.50,3.51,3.54,3.59,3.60,3.60,3.60,3.60,3.60,3.60,3.61,3.63,3.69,3.70,3.70,3.70,3.70,3.70,3.70,3.71,3.73,3.79,3.80,3.80,3.80,3.80,3.75,3.73,3.73,3.73,3.78,3.80,3.80,3.80,3.80,3.80,3.81,3.84,3.90,3.90,3.90,3.90,3.90,3.90,3.90,3.91,3.94,3.99,4.00,4.00,4.00,4.00,4.00,4.01,4.03,4.03,4.09,4.10,4.10,4.10,4.10,4.12,4.13,4.15,4.20,4.20,4.20,4.21,4.23,4.23,4.28,4.30,4.30,4.30,4.32,4.37,4.40,4.40,4.40,4.40,4.41,4.44,4.50,4.50,4.50,4.50,4.50,4.52,4.57,4.60,4.60,4.60,4.60,4.61,4.64,4.70,4.70,4.70,4.71,4.73,4.73,4.77,4.80,4.80,4.80,4.82,4.83,4.85,4.90,4.90,4.90,4.90,4.90,4.90,4.90,4.90,4.90,4.90,4.90,4.91,4.93,4.93,4.93,4.97,5.00,5.00,5.00,5.00,5.00,5.00,5.00,5.02,5.03,5.03,5.03,5.03,5.03,5.03,5.04,5.10,5.10,5.11,5.15,5.20,5.20,5.22,5.26,5.30,5.30,5.32,5.36,5.40,5.40,5.42,5.47,5.50,5.50,5.52,5.57,5.60,5.61,5.63,5.63,5.66,5.71,5.73,5.73,5.77,5.80,5.80,5.83,5.88,5.90,5.91,5.93,5.93,5.97,6.01,6.03,6.09,6.10,6.11,6.14,6.20,6.22,6.26
30.14,29.75,29.64,29.54,28.99,28.09,26.96,25.80,24.45,23.10,21.75,20.34,18.03,15.50,12.90,10.62,9.90,9.72,9.60,9.45,9.30,9.22,9.09,8.97,8.88,8.73,8.63,8.52,8.37,8.21,8.13,8.01,7.87,7.79,7.64,7.54,7.43,7.28,7.12,7.03,6.91,6.78,6.69,6.55,6.44,6.34,6.19,6.03,5.93,5.82,5.68,5.60,5.46,5.31,5.18,5.10,4.94,4.84,4.73,4.59,4.50,4.37,4.22,4.08,4.00,3.85,3.74,3.64,3.50,3.50,3.50,3.53,3.59,3.60,3.60,3.60,3.60,3.60,3.60,3.60,3.63,3.69,3.70,3.70,3.70,3.70,3.70,3.70,3.70,3.73,3.79,3.80,3.80,3.80,3.80,3.80,3.79,3.79,3.79,3.79,3.80,3.80,3.80,3.80,3.80,3.80,3.84,3.89,3.90,3.90,3.90,3.90,3.90,3.90,3.90,3.93,3.99,4.00,4.00,4.00,4.00,4.00,4.00,4.05,4.09,4.09,4.10,4.10,4.10,4.10,4.10,4.17,4.19,4.19,4.20,4.20,4.20,4.23,4.29,4.29,4.30,4.30,4.30,4.30,4.37,4.40,4.40,4.40,4.40,4.40,4.44,4.49,4.50,4.50,4.50,4.50,4.50,4.57,4.60,4.60,4.60,4.60,4.60,4.64,4.69,4.70,4.70,4.70,4.73,4.79,4.79,4.80,4.80,4.80,4.80,4.86,4.89,4.89,4.90,4.90,4.90,4.90,4.90,4.90,4.90,4.90,4.90,4.90,4.90,4.95,4.99,4.99,4.99,5.00,5.00,5.00,5.00,5.00,5.00,5.00,5.00,5.07,5.09,5.09,5.09,5.09,5.09,5.09,5.09,5.10,5.10,5.15,5.19,5.20,5.20,5.26,5.29,5.30,5.30,5.36,5.40,5.40,5.40,5.47,5.50,5.50,5.51,5.58,5.60,5.60,5.62,5.69,5.69,5.70,5.73,5.79,5.79,5.80,5.80,5.81,5.88,5.90,5.90,5.92,5.99,5.99,6.00,6.03,6.09,6.10,6.10,6.14,6.19,6.20,6.27,6.30
31.42,30.97,30.68,30.44,29.78,28.75,27.45,26.12,24.70,23.29,21.91,20.53,18.21,15.54,12.76,10.34,9.87,9.73,9.61,9.47,9.36,9.24,9.10,8.97,8.89,8.73,8.64,8.52,8.38,8.27,8.15,8.01,7.88,7.80,7.64,7.54,7.43,7.28,7.17,7.05,6.91,6.78,6.70,6.55,6.45,6.34,6.19,6.08,5.96,5.85,5.73,5.61,5.46,5.33,5.22,5.10,4.99,4.87,4.75,4.64,4.52,4.37,4.24,4.13,4.01,3.89,3.78,3.64,3.50,3.50,3.53,3.57,3.60,3.60,3.60,3.60,3.60,3.60,3.60,3.63,3.67,3.70,3.70,3.70,3.70,3.70,3.70,3.70,3.73,3.77,3.80,3.80,3.80,3.80,3.80,3.80,3.80,3.80,3.80,3.80,3.80,3.80,3.80,3.80,3.80,3.84,3.87,3.90,3.90,3.90,3.90,3.90,3.90,3.95,3.96,3.97,4.00,4.00,4.00,4.00,4.00,4.00,4.04,4.08,4.10,4.10,4.10,4.10,4.10,4.11,4.15,4.19,4.20,4.20,4.20,4.20,4.23,4.27,4.30,4.30,4.30,4.30,4.31,4.35,4.39,4.40,4.40,4.40,4.45,4.46,4.47,4.50,4.50,4.50,4.53,4.56,4.56,4.59,4.60,4.60,4.61,4.65,4.66,4.67,4.70,4.70,4.70,4.73,4.77,4.80,4.80,4.80,4.80,4.81,4.85,4.89,4.90,4.90,4.90,4.90,4.90,4.90,4.90,4.90,4.90,4.92,4.96,4.96,4.96,4.98,5.00,5.00,5.00,5.00,5.00,5.00,5.00,5.00,5.03,5.06,5.06,5.09,5.10,5.10,5.10,5.10,5.10,5.10,5.10,5.10,5.14,5.18,5.20,5.20,5.25,5.28,5.30,5.31,5.35,5.39,5.40,5.41,5.46,5.49,5.50,5.52,5.56,5.59,5.60,5.62,5.66,5.70,5.70,5.73,5.77,5.80,5.80,5.83,5.86,5.86,5.90,5.90,5.93,5.97,6.00,6.00,6.03,6.07,6.10,6.10,6.14,6.17,6.21,6.25,6.29,6.30
32.21,31.63,31.16,30.70,29.87,28.72,27.32,25.90,24.61,23.29,21.94,20.54,17.92,14.93,12.11,10.01,9.79,9.70,9.58,9.46,9.38,9.25,9.10,8.97,8.89,8.73,8.64,8.52,8.38,8.29,8.15,8.01,7.88,7.80,7.64,7.54,7.43,7.29,7.21,7.07,6.91,6.78,6.70,6.55,6.45,6.34,6.19,6.12,5.98,5.85,5.75,5.61,5.46,5.35,5.25,5.10,5.02,4.89,4.76,4.66,4.52,4.37,4.26,4.16,4.01,3.93,3.80,3.65,3.52,3.52,3.57,3.60,3.60,3.60,3.60,3.60,3.60,3.60,3.61,3.66,3.70,3.70,3.70,3.70,3.70,3.70,3.70,3.71,3.76,3.80,3.80,3.80,3.80,3.80,3.80,3.80,3.80,3.81,3.82,3.82,3.82,3.81,3.81,3.82,3.82,3.87,3.90,3.90,3.90,3.90,3.90,3.91,3.92,3.99,4.00,4.00,4.00,4.00,4.00,4.01,4.02,4.02,4.08,4.10,4.10,4.10,4.10,4.10,4.11,4.13,4.20,4.20,4.20,4.21,4.22,4.22,4.27,4.30,4.30,4.30,4.31,4.32,4.34,4.40,4.40,4.40,4.41,4.43,4.49,4.50,4.50,4.50,4.50,4.51,4.56,4.60,4.60,4.60,4.60,4.61,4.63,4.69,4.70,4.70,4.70,4.70,4.71,4.76,4.80,4.80,4.80,4.80,4.81,4.83,4.89,4.90,4.90,4.90,4.90,4.90,4.91,4.92,4.92,4.92,4.92,4.95,5.00,5.00,5.00,5.00,5.00,5.00,5.00,5.01,5.02,5.02,5.02,5.02,5.06,5.10,5.10,5.10,5.10,5.10,5.10,5.10,5.10,5.10,5.10,5.12,5.18,5.20,5.21,5.22,5.29,5.30,5.31,5.33,5.39,5.40,5.41,5.44,5.50,5.50,5.51,5.55,5.60,5.60,5.61,5.65,5.70,5.70,5.71,5.76,5.80,5.80,5.82,5.87,5.90,5.90,5.92,5.92,5.96,6.00,6.02,6.02,6.06,6.11,6.12,6.12,6.17,6.21,6.23,6.30,6.31,6.32
32.30,31.68,31.11,30.16,28.84,27.44,26.07,24.80,24.11,23.12,21.91,20.57,16.97,13.25,10.70,9.83,9.66,9.57,9.48,9.40,9.32,9.23,9.10,8.97,8.89,8.73,8.64,8.52,8.37,8.23,8.13,8.01,7.88,7.80,7.64,7.54,7.43,7.29,7.21,7.07,6.91,6.78,6.70,6.55,6.45,6.34,6.19,6.12,5.98,5.83,5.70,5.61,5.46,5.35,5.25,5.10,5.02,4.89,4.74,4.61,4.51,4.37,4.26,4.16,4.01,3.93,3.80,3.67,3.58,3.58,3.59,3.60,3.60,3.60,3.60,3.60,3.60,3.60,3.66,3.69,3.70,3.70,3.70,3.70,3.70,3.70,3.70,3.76,3.79,3.80,3.80,3.80,3.80,3.80,3.80,3.80,3.80,3.84,3.88,3.88,3.88,3.84,3.83,3.88,3.88,3.89,3.90,3.90,3.90,3.90,3.90,3.92,3.98,4.00,4.00,4.00,4.00,4.00,4.00,4.04,4.08,4.08,4.10,4.10,4.10,4.10,4.10,4.10,4.13,4.19,4.20,4.20,4.20,4.22,4.28,4.28,4.29,4.30,4.30,4.30,4.36,4.38,4.39,4.40,4.40,4.40,4.43,4.48,4.50,4.50,4.50,4.50,4.50,4.56,4.59,4.60,4.60,4.60,4.60,4.63,4.68,4.70,4.70,4.70,4.70,4.70,4.76,4.79,4.80,4.80,4.80,4.80,4.83,4.89,4.90,4.90,4.90,4.90,4.90,4.90,4.95,4.98,4.98,4.98,4.98,4.99,5.00,5.00,5.00,5.00,5.00,5.00,5.00,5.05,5.08,5.08,5.08,5.08,5.09,5.10,5.10,5.10,5.10,5.10,5.10,5.10,5.10,5.10,5.12,5.18,5.20,5.20,5.22,5.28,5.30,5.30,5.33,5.39,5.40,5.40,5.44,5.49,5.50,5.50,5.55,5.59,5.60,5.60,5.65,5.69,5.70,5.70,5.76,5.79,5.80,5.80,5.87,5.89,5.90,5.91,5.98,5.98,5.99,6.02,6.08,6.08,6.09,6.13,6.18,6.18,6.19,6.23,6.29,6.30,6.36,6.38
31.95,31.23,30.45,28.43,26.59,25.09,23.98,23.25,22.83,22.09,20.76,18.56,14.30,11.50,10.05,9.68,9.53,9.44,9.36,9.29,9.21,9.13,9.03,8.92,8.84,8.72,8.61,8.49,8.37,8.21,8.13,8.01,7.88,7.80,7.64,7.54,7.43,7.28,7.17,7.05,6.91,6.78,6.70,6.55,6.45,6.34,6.19,6.08,5.96,5.82,5.68,5.61,5.46,5.35,5.25,5.10,4.98,4.87,4.73,4.59,4.51,4.37,4.26,4.16,4.01,3.89,3.77,3.67,3.60,3.60,3.60,3.60,3.60,3.60,3.60,3.60,3.61,3.65,3.69,3.70,3.70,3.70,3.70,3.70,3.70,3.71,3.74,3.79,3.80,3.80,3.80,3.80,3.80,3.80,3.80,3.80,3.83,3.87,3.90,3.90,3.90,3.87,3.86,3.90,3.90,3.90,3.90,3.90,3.90,3.93,3.95,3.96,4.00,4.00,4.00,4.00,4.00,4.00,4.03,4.07,4.10,4.10,4.10,4.10,4.10,4.10,4.14,4.15,4.17,4.20,4.20,4.20,4.22,4.26,4.30,4.30,4.30,4.30,4.31,4.34,4.38,4.40,4.40,4.40,4.40,4.43,4.46,4.50,4.50,4.50,4.50,4.51,4.54,4.58,4.60,4.60,4.60,4.64,4.65,4.67,4.70,4.70,4.70,4.72,4.75,4.75,4.79,4.80,4.80,4.80,4.84,4.85,4.87,4.90,4.90,4.90,4.92,4.95,4.95,4.95,4.98,5.00,5.00,5.00,5.00,5.00,5.00,5.00,5.00,5.02,5.05,5.05,5.05,5.08,5.10,5.10,5.10,5.10,5.10,5.10,5.10,5.10,5.13,5.15,5.15,5.15,5.15,5.15,5.16,5.20,5.20,5.22,5.26,5.30,5.30,5.33,5.37,5.40,5.40,5.43,5.47,5.50,5.50,5.54,5.58,5.60,5.60,5.64,5.68,5.70,5.71,5.75,5.79,5.82,5.85,5.85,5.89,5.90,5.92,5.95,6.00,6.00,6.02,6.06,6.10,6.10,6.13,6.16,6.20,6.20,6.23,6.27,6.31,6.35,6.39,6.40
31.45,30.45,29.04,26.00,23.85,22.42,21.66,21.50,21.08,20.38,18.77,15.58,11.34,9.97,9.70,9.56,9.40,9.31,9.24,9.16,9.08,9.00,8.93,8.85,8.77,8.69,8.56,8.45,8.36,8.21,8.12,8.00,7.87,7.79,7.63,7.53,7.42,7.27,7.12,7.03,6.91,6.78,6.69,6.55,6.44,6.33,6.19,6.03,5.94,5.82,5.68,5.61,5.46,5.35,5.24,5.10,4.94,4.84,4.73,4.59,4.51,4.37,4.25,4.15,4.01,3.85,3.75,3.67,3.60,3.60,3.60,3.60,3.60,3.60,3.60,3.60,3.63,3.70,3.70,3.70,3.70,3.70,3.70,3.70,3.70,3.73,3.80,3.80,3.80,3.80,3.80,3.80,3.80,3.80,3.80,3.81,3.87,3.90,3.90,3.90,3.90,3.90,3.90,3.90,3.90,3.90,3.90,3.90,3.91,3.98,4.00,4.00,4.00,4.00,4.00,4.00,4.00,4.01,4.07,4.10,4.10,4.10,4.10,4.10,4.10,4.12,4.19,4.20,4.20,4.20,4.20,4.21,4.25,4.30,4.30,4.30,4.30,4.30,4.32,4.39,4.40,4.40,4.40,4.41,4.41,4.46,4.50,4.50,4.50,4.51,4.51,4.53,4.59,4.60,4.60,4.60,4.61,4.68,4.70,4.70,4.70,4.70,4.71,4.75,4.80,4.80,4.80,4.80,4.80,4.82,4.89,4.90,4.90,4.90,4.91,4.91,4.95,5.00,5.00,5.00,5.00,5.00,5.00,5.00,5.01,5.01,5.01,5.01,5.01,5.06,5.10,5.10,5.10,5.10,5.10,5.10,5.10,5.11,5.11,5.11,5.11,5.11,5.16,5.20,5.20,5.20,5.20,5.20,5.20,5.20,5.21,5.26,5.30,5.30,5.31,5.37,5.40,5.40,5.41,5.47,5.50,5.50,5.51,5.58,5.60,5.60,5.62,5.69,5.70,5.70,5.73,5.80,5.80,5.85,5.90,5.90,5.91,5.91,5.94,6.00,6.00,6.01,6.05,6.10,6.10,6.11,6.16,6.20,6.20,6.21,6.27,6.30,6.33,6.40,6.40,6.41
31.00,28.91,24.98,22.24,20.89,20.18,19.80,19.59,18.44,16.83,14.58,11.52,10.14,9.66,9.53,9.43,9.27,9.19,9.11,9.03,8.95,8.88,8.80,8.72,8.64,8.57,8.47,8.39,8.31,8.21,8.08,7.97,7.86,7.72,7.57,7.47,7.36,7.21,7.11,6.99,6.87,6.77,6.63,6.53,6.41,6.29,6.19,6.03,5.94,5.82,5.68,5.61,5.46,5.32,5.20,5.10,4.94,4.84,4.73,4.59,4.51,4.37,4.23,4.10,4.00,3.85,3.75,3.67,3.60,3.60,3.60,3.60,3.60,3.60,3.60,3.63,3.68,3.70,3.70,3.70,3.70,3.70,3.70,3.70,3.73,3.78,3.80,3.80,3.80,3.80,3.80,3.80,3.80,3.80,3.81,3.87,3.89,3.90,3.90,3.90,3.90,3.90,3.90,3.90,3.90,3.90,3.90,3.91,3.97,3.99,4.00,4.00,4.00,4.00,4.00,4.00,4.01,4.07,4.09,4.10,4.10,4.10,4.10,4.10,4.12,4.18,4.20,4.20,4.20,4.20,4.20,4.25,4.29,4.30,4.30,4.30,4.30,4.33,4.38,4.40,4.40,4.40,4.42,4.47,4.47,4.49,4.50,4.50,4.50,4.55,4.57,4.58,4.60,4.60,4.60,4.62,4.68,4.70,4.70,4.70,4.70,4.70,4.75,4.79,4.80,4.80,4.80,4.80,4.82,4.88,4.90,4.90,4.90,4.91,4.97,4.97,4.99,5.00,5.00,5.00,5.00,5.00,5.00,5.00,5.05,5.07,5.07,5.07,5.07,5.09,5.10,5.10,5.10,5.10,5.10,5.10,5.10,5.15,5.17,5.17,5.17,5.17,5.19,5.20,5.20,5.20,5.20,5.20,5.20,5.20,5.26,5.29,5.30,5.30,5.36,5.39,5.40,5.41,5.47,5.49,5.50,5.52,5.57,5.59,5.60,5.62,5.68,5.70,5.70,5.73,5.78,5.80,5.80,5.85,5.90,5.90,5.96,5.97,5.98,6.00,6.00,6.05,6.09,6.10,6.10,6.16,6.19,6.20,6.21,6.27,6.29,6.33,6.38,6.40,6.40,6.44
29.85,26.59,21.35,18.99,18.05,17.61,17.20,16.35,14.78,13.29,11.68,9.74,9.54,9.45,9.39,9.30,9.15,9.06,8.98,8.90,8.83,8.75,8.67,8.59,8.52,8.44,8.36,8.29,8.21,8.13,8.01,7.91,7.82,7.70,7.54,7.44,7.33,7.18,7.08,6.96,6.84,6.73,6.60,6.50,6.38,6.26,6.15,6.03,5.92,5.80,5.68,5.57,5.45,5.31,5.18,5.10,4.94,4.84,4.73,4.59,4.51,4.37,4.22,4.08,4.00,3.85,3.75,3.67,3.60,3.60,3.60,3.60,3.61,3.64,3.64,3.67,3.70,3.70,3.70,3.70,3.70,3.70,3.70,3.72,3.76,3.80,3.80,3.80,3.80,3.80,3.80,3.80,3.80,3.81,3.85,3.89,3.90,3.90,3.90,3.90,3.90,3.90,3.91,3.94,3.94,3.94,3.94,3.95,4.00,4.00,4.00,4.00,4.00,4.00,4.02,4.04,4.05,4.09,4.10,4.10,4.10,4.10,4.10,4.12,4.16,4.20,4.20,4.20,4.22,4.24,4.24,4.28,4.30,4.30,4.30,4.33,4.34,4.36,4.40,4.40,4.40,4.42,4.45,4.50,4.50,4.50,4.50,4.50,4.53,4.58,4.60,4.60,4.60,4.60,4.62,4.65,4.70,4.70,4.70,4.70,4.70,4.73,4.78,4.80,4.80,4.80,4.83,4.84,4.86,4.90,4.90,4.90,4.92,4.95,5.00,5.00,5.00,5.01,5.04,5.04,5.04,5.04,5.04,5.04,5.08,5.10,5.10,5.10,5.10,5.10,5.10,5.10,5.10,5.10,5.11,5.14,5.14,5.18,5.20,5.20,5.20,5.20,5.20,5.20,5.20,5.20,5.20,5.20,5.21,5.24,5.28,5.30,5.31,5.34,5.39,5.40,5.41,5.45,5.50,5.50,5.52,5.55,5.60,5.60,5.62,5.66,5.70,5.70,5.72,5.76,5.80,5.80,5.83,5.87,5.91,5.94,5.99,6.00,6.01,6.04,6.04,6.08,6.12,6.14,6.14,6.19,6.20,6.21,6.24,6.29,6.32,6.36,6.40,6.40,6.43,6.47
28.18,23.72,18.07,16.12,15.28,14.81,14.12,12.30,10.55,9.84,9.72,9.49,9.34,9.29,9.26,9.17,9.02,8.93,8.85,8.78,8.70,8.62,8.54,8.47,8.39,8.31,8.23,8.16,8.08,8.00,7.92,7.85,7.77,7.69,7.54,7.44,7.33,7.18,7.02,6.93,6.81,6.68,6.60,6.45,6.35,6.24,6.09,6.01,5.88,5.76,5.67,5.52,5.43,5.31,5.18,5.10,4.94,4.84,4.73,4.59,4.51,4.37,4.22,4.08,4.00,3.85,3.75,3.67,3.60,3.60,3.60,3.60,3.62,3.69,3.70,3.70,3.70,3.70,3.70,3.70,3.70,3.70,3.70,3.77,3.80,3.80,3.80,3.80,3.80,3.80,3.80,3.80,3.80,3.84,3.90,3.90,3.90,3.90,3.90,3.90,3.90,3.90,3.93,4.00,4.00,4.00,4.00,4.00,4.00,4.00,4.00,4.00,4.00,4.00,4.06,4.10,4.10,4.10,4.10,4.10,4.10,4.10,4.10,4.16,4.20,4.20,4.20,4.20,4.24,4.30,4.30,4.30,4.30,4.30,4.31,4.38,4.40,4.40,4.40,4.40,4.40,4.45,4.50,4.50,4.50,4.50,4.50,4.51,4.59,4.60,4.60,4.60,4.60,4.60,4.65,4.70,4.70,4.70,4.70,4.70,4.71,4.79,4.80,4.80,4.80,4.80,4.88,4.90,4.90,4.90,4.90,4.90,4.94,5.00,5.00,5.00,5.00,5.03,5.10,5.10,5.10,5.10,5.10,5.10,5.10,5.10,5.10,5.10,5.10,5.10,5.10,5.10,5.10,5.10,5.14,5.20,5.20,5.20,5.20,5.20,5.20,5.20,5.20,5.20,5.20,5.20,5.20,5.20,5.22,5.30,5.30,5.30,5.33,5.40,5.40,5.40,5.44,5.50,5.50,5.50,5.55,5.60,5.60,5.60,5.66,5.70,5.70,5.70,5.77,5.80,5.80,5.80,5.87,5.90,5.93,6.00,6.00,6.00,6.04,6.10,6.10,6.10,6.15,6.20,6.20,6.20,6.20,6.23,6.30,6.30,6.37,6.40,6.40,6.40,6.47,6.50
25.11,20.20,16.42,13.98,12.57,11.81,11.35,10.61,9.95,9.62,9.46,9.23,9.18,9.13,9.09,9.05,8.89,8.80,8.73,8.65,8.57,8.49,8.42,8.34,8.26,8.18,8.11,8.03,7.94,7.81,7.73,7.65,7.58,7.50,7.40,7.31,7.22,7.12,7.02,6.93,6.81,6.68,6.60,6.45,6.31,6.20,6.09,5.96,5.85,5.74,5.61,5.51,5.38,5.27,5.16,5.03,4.93,4.81,4.69,4.58,4.45,4.35,4.22,4.08,4.00,3.85,3.75,3.67,3.60,3.60,3.60,3.62,3.67,3.70,3.70,3.70,3.70,3.70,3.70,3.70,3.70,3.71,3.76,3.79,3.80,3.80,3.80,3.80,3.80,3.80,3.80,3.85,3.87,3.88,3.90,3.90,3.90,3.90,3.90,3.90,3.90,3.94,3.98,4.00,4.00,4.00,4.00,4.00,4.00,4.00,4.00,4.00,4.00,4.05,4.09,4.10,4.10,4.10,4.10,4.10,4.11,4.17,4.17,4.18,4.20,4.20,4.20,4.24,4.28,4.30,4.30,4.30,4.30,4.32,4.37,4.39,4.40,4.40,4.40,4.40,4.44,4.48,4.50,4.50,4.50,4.50,4.52,4.57,4.60,4.60,4.60,4.61,4.66,4.67,4.68,4.70,4.70,4.70,4.74,4.77,4.77,4.80,4.80,4.80,4.81,4.86,4.89,4.90,4.90,4.90,4.90,4.90,4.94,5.00,5.00,5.00,5.03,5.07,5.10,5.10,5.10,5.10,5.10,5.10,5.10,5.10,5.10,5.10,5.10,5.10,5.12,5.17,5.17,5.17,5.18,5.20,5.20,5.20,5.20,5.20,5.20,5.20,5.24,5.27,5.27,5.27,5.27,5.27,5.27,5.30,5.30,5.33,5.38,5.40,5.40,5.44,5.48,5.50,5.50,5.55,5.58,5.60,5.60,5.65,5.69,5.70,5.71,5.76,5.79,5.80,5.81,5.86,5.89,5.93,5.98,6.00,6.00,6.04,6.08,6.10,6.10,6.15,6.18,6.20,6.20,6.25,6.27,6.28,6.31,6.36,6.39,6.40,6.41,6.46,6.49,6.50
22.17,17.70,14.92,12.14,10.73,10.04,9.78,9.62,9.52,9.39,9.22,9.04,9.02,8.97,8.93,8.89,8.76,8.65,8.57,8.49,8.41,8.34,8.26,8.18,8.10,8.03,7.95,7.87,7.78,7.65,7.57,7.49,7.42,7.34,7.26,7.18,7.11,7.03,6.95,6.88,6.77,6.65,6.57,6.44,6.30,6.17,6.09,5.93,5.84,5.72,5.58,5.48,5.35,5.24,5.13,5.00,4.90,4.78,4.66,4.55,4.42,4.32,4.20,4.07,3.97,3.84,3.73,3.65,3.60,3.62,3.63,3.66,3.70,3.70,3.70,3.70,3.70,3.70,3.70,3.72,3.73,3.74,3.79,3.80,3.80,3.80,3.80,3.80,3.80,3.81,3.83,3.89,3.90,3.90,3.90,3.90,3.90,3.90,3.90,3.90,3.92,3.97,4.00,4.00,4.00,4.00,4.00,4.00,4.00,4.00,4.00,4.01,4.03,4.09,4.10,4.10,4.10,4.10,4.10,4.11,4.15,4.20,4.20,4.20,4.20,4.20,4.23,4.27,4.30,4.30,4.30,4.30,4.31,4.35,4.40,4.40,4.40,4.41,4.43,4.43,4.48,4.50,4.50,4.50,4.52,4.53,4.55,4.60,4.60,4.60,4.61,4.64,4.70,4.70,4.70,4.70,4.70,4.72,4.77,4.80,4.80,4.80,4.80,4.80,4.82,4.90,4.90,4.90,4.90,4.90,4.90,4.92,4.96,5.00,5.00,5.02,5.06,5.10,5.10,5.10,5.10,5.10,5.10,5.10,5.12,5.13,5.13,5.13,5.13,5.13,5.15,5.20,5.20,5.20,5.20,5.20,5.20,5.20,5.21,5.23,5.23,5.23,5.27,5.30,5.30,5.30,5.30,5.30,5.30,5.30,5.32,5.37,5.40,5.40,5.42,5.47,5.50,5.50,5.53,5.58,5.60,5.61,5.63,5.69,5.70,5.71,5.74,5.79,5.80,5.81,5.84,5.90,5.90,5.95,6.00,6.00,6.02,6.07,6.10,6.10,6.13,6.18,6.20,6.21,6.23,6.28,6.30,6.31,6.34,6.39,6.40,6.41,6.44,6.50,6.50,6.52
19.38,16.36,13.56,10.64,9.86,9.70,9.59,9.43,9.28,9.13,9.00,8.91,8.84,8.82,8.78,8.71,8.62,8.49,8.38,8.30,8.22,8.14,8.07,7.99,7.91,7.84,7.76,7.68,7.60,7.52,7.44,7.37,7.29,7.21,7.13,7.06,6.98,6.90,6.82,6.75,6.67,6.59,6.51,6.43,6.30,6.17,6.09,5.93,5.84,5.72,5.57,5.42,5.33,5.21,5.08,5.00,4.85,4.75,4.64,4.50,4.41,4.27,4.16,4.06,3.91,3.83,3.70,3.60,3.61,3.68,3.69,3.70,3.70,3.70,3.70,3.70,3.70,3.70,3.70,3.75,3.79,3.79,3.80,3.80,3.80,3.80,3.80,3.80,3.80,3.83,3.89,3.90,3.90,3.90,3.90,3.90,3.90,3.90,3.90,3.90,3.97,4.00,4.00,4.00,4.00,4.00,4.00,4.00,4.00,4.00,4.00,4.03,4.09,4.10,4.10,4.10,4.10,4.10,4.10,4.14,4.20,4.20,4.20,4.20,4.20,4.21,4.28,4.30,4.30,4.30,4.30,4.30,4.35,4.40,4.40,4.40,4.40,4.43,4.49,4.49,4.50,4.50,4.50,4.50,4.57,4.59,4.60,4.60,4.60,4.60,4.64,4.69,4.70,4.70,4.70,4.70,4.70,4.78,4.80,4.80,4.80,4.80,4.80,4.80,4.82,4.90,4.90,4.90,4.90,4.90,4.90,4.96,5.00,5.00,5.00,5.07,5.10,5.10,5.10,5.10,5.10,5.10,5.10,5.10,5.16,5.19,5.19,5.19,5.19,5.19,5.20,5.20,5.20,5.20,5.20,5.20,5.20,5.20,5.24,5.29,5.29,5.29,5.30,5.30,5.30,5.30,5.30,5.30,5.30,5.30,5.37,5.40,5.40,5.41,5.48,5.50,5.50,5.51,5.59,5.60,5.60,5.62,5.69,5.70,5.70,5.73,5.79,5.80,5.80,5.84,5.89,5.90,5.90,5.95,6.00,6.01,6.08,6.10,6.10,6.11,6.19,6.20,6.20,6.22,6.29,6.30,6.30,6.33,6.39,6.40,6.40,6.44,6.49,6.50,6.50,6.55
17.96,15.34,12.68,10.37,9.74,9.56,9.40,9.24,9.09,8.93,8.80,8.73,8.69,8.65,8.61,8.57,8.50,8.35,8.24,8.16,8.09,8.01,7.93,7.86,7.78,7.70,7.62,7.55,7.47,7.39,7.32,7.24,7.16,7.08,7.01,6.93,6.85,6.77,6.70,6.62,6.54,6.47,6.39,6.31,6.21,6.11,6.03,5.92,5.80,5.69,5.57,5.42,5.33,5.21,5.06,4.94,4.83,4.71,4.60,4.48,4.36,4.25,4.13,4.02,3.90,3.78,3.70,3.66,3.66,3.69,3.70,3.70,3.70,3.70,3.70,3.70,3.71,3.76,3.76,3.78,3.80,3.80,3.80,3.80,3.80,3.80,3.80,3.84,3.86,3.87,3.90,3.90,3.90,3.90,3.90,3.90,3.90,3.90,3.91,3.96,3.99,4.00,4.00,4.00,4.00,4.00,4.00,4.01,4.05,4.06,4.06,4.07,4.10,4.10,4.10,4.10,4.10,4.10,4.14,4.18,4.20,4.20,4.20,4.23,4.26,4.26,4.29,4.30,4.30,4.31,4.35,4.36,4.38,4.40,4.40,4.40,4.43,4.47,4.50,4.50,4.50,4.50,4.51,4.56,4.59,4.60,4.60,4.60,4.60,4.60,4.64,4.70,4.70,4.70,4.70,4.70,4.70,4.78,4.80,4.80,4.80,4.80,4.80,4.83,4.87,4.90,4.90,4.90,4.90,4.90,4.90,4.96,5.00,5.00,5.00,5.07,5.10,5.10,5.10,5.15,5.16,5.16,5.16,5.16,5.19,5.20,5.20,5.20,5.20,5.20,5.20,5.20,5.20,5.20,5.22,5.26,5.26,5.26,5.28,5.30,5.30,5.30,5.30,5.30,5.30,5.30,5.30,5.30,5.31,5.36,5.39,5.40,5.42,5.46,5.49,5.50,5.52,5.56,5.60,5.60,5.63,5.67,5.70,5.70,5.73,5.77,5.80,5.80,5.84,5.88,5.90,5.90,5.94,5.98,6.02,6.06,6.09,6.10,6.12,6.16,6.20,6.20,6.23,6.27,6.30,6.30,6.33,6.37,6.40,6.40,6.44,6.48,6.50,6.50,6.54,6.58
17.03,14.63,12.15,10.28,9.71,9.48,9.26,9.09,8.92,8.75,8.62,8.56,8.54,8.49,8.45,8.43,8.37,8.23,8.11,8.04,7.96,7.88,7.81,7.73,7.65,7.57,7.50,7.42,7.34,7.26,7.19,7.11,7.03,6.96,6.88,6.80,6.72,6.65,6.57,6.49,6.41,6.34,6.26,6.18,6.11,6.03,5.95,5.87,5.75,5.64,5.55,5.41,5.32,5.19,5.05,4.90,4.82,4.69,4.57,4.48,4.32,4.22,4.10,3.98,3.88,3.75,3.70,3.70,3.70,3.70,3.70,3.70,3.70,3.70,3.71,3.72,3.74,3.80,3.80,3.80,3.80,3.80,3.80,3.80,3.81,3.82,3.82,3.88,3.90,3.90,3.90,3.90,3.90,3.90,3.90,3.90,3.91,3.92,3.94,4.00,4.00,4.00,4.00,4.00,4.00,4.00,4.01,4.04,4.10,4.10,4.10,4.10,4.10,4.10,4.10,4.11,4.12,4.12,4.17,4.20,4.20,4.20,4.22,4.26,4.30,4.30,4.30,4.30,4.31,4.34,4.40,4.40,4.40,4.40,4.40,4.40,4.46,4.50,4.50,4.50,4.50,4.50,4.52,4.60,4.60,4.60,4.60,4.60,4.60,4.60,4.64,4.70,4.70,4.70,4.70,4.70,4.70,4.78,4.80,4.80,4.80,4.80,4.80,4.83,4.88,4.90,4.90,4.90,4.90,4.90,4.90,4.96,5.00,5.00,5.00,5.07,5.10,5.10,5.10,5.18,5.20,5.20,5.20,5.20,5.20,5.20,5.20,5.20,5.20,5.21,5.22,5.22,5.22,5.22,5.25,5.30,5.30,5.30,5.30,5.30,5.30,5.30,5.30,5.31,5.32,5.32,5.32,5.32,5.34,5.40,5.40,5.41,5.44,5.50,5.50,5.51,5.55,5.60,5.60,5.61,5.66,5.70,5.70,5.72,5.77,5.80,5.80,5.82,5.87,5.90,5.90,5.92,5.98,6.01,6.04,6.10,6.10,6.11,6.15,6.20,6.20,6.21,6.26,6.30,6.30,6.32,6.37,6.40,6.40,6.42,6.47,6.50,6.50,6.52,6.58,6.60
16.78,14.47,12.21,10.29,9.71,9.48,9.25,9.03,8.81,8.59,8.44,8.43,8.36,8.34,8.30,8.24,8.23,8.10,7.99,7.91,7.83,7.75,7.68,7.60,7.52,7.45,7.37,7.29,7.21,7.14,7.06,6.98,6.91,6.83,6.75,6.67,6.60,6.52,6.44,6.36,6.29,6.21,6.13,6.06,5.98,5.90,5.82,5.75,5.66,5.58,5.50,5.41,5.27,5.16,5.05,4.90,4.82,4.69,4.57,4.48,4.32,4.18,4.07,3.96,3.82,3.73,3.70,3.70,3.70,3.70,3.70,3.70,3.70,3.70,3.76,3.79,3.79,3.80,3.80,3.80,3.80,3.80,3.80,3.80,3.84,3.89,3.89,3.90,3.90,3.90,3.90,3.90,3.90,3.90,3.90,3.90,3.96,3.99,3.99,4.00,4.00,4.00,4.00,4.00,4.00,4.00,4.03,4.09,4.10,4.10,4.10,4.10,4.10,4.10,4.10,4.13,4.19,4.19,4.20,4.20,4.20,4.20,4.27,4.29,4.30,4.30,4.30,4.30,4.33,4.39,4.40,4.40,4.40,4.40,4.40,4.40,4.46,4.50,4.50,4.50,4.50,4.50,4.52,4.60,4.60,4.60,4.60,4.60,4.60,4.60,4.64,4.70,4.70,4.70,4.70,4.70,4.70,4.78,4.80,4.80,4.80,4.80,4.80,4.81,4.83,4.90,4.90,4.90,4.90,4.90,4.90,4.96,5.00,5.00,5.00,5.07,5.10,5.10,5.10,5.18,5.20,5.20,5.20,5.20,5.20,5.20,5.20,5.20,5.20,5.24,5.29,5.29,5.29,5.29,5.29,5.30,5.30,5.30,5.30,5.30,5.30,5.30,5.30,5.33,5.39,5.39,5.39,5.39,5.39,5.40,5.40,5.44,5.49,5.50,5.50,5.55,5.59,5.60,5.60,5.66,5.69,5.70,5.70,5.77,5.79,5.80,5.81,5.87,5.89,5.90,5.92,5.98,6.00,6.04,6.09,6.10,6.10,6.15,6.19,6.20,6.20,6.26,6.29,6.30,6.30,6.37,6.39,6.40,6.41,6.47,6.49,6.50,6.52,6.58,6.60,6.60
16.94,14.75,12.61,10.64,9.88,9.51,9.25,9.02,8.82,8.58,8.36,8.25,8.21,8.17,8.14,8.10,8.10,7.97,7.86,7.78,7.70,7.63,7.55,7.47,7.40,7.32,7.24,7.16,7.09,7.01,6.93,6.85,6.78,6.70,6.62,6.55,6.47,6.39,6.31,6.24,6.16,6.08,6.01,5.93,5.85,5.77,5.70,5.62,5.54,5.46,5.38,5.26,5.15,5.06,4.97,4.85,4.77,4.67,4.55,4.44,4.32,4.17,4.06,3.96,3.81,3.73,3.70,3.70,3.70,3.70,3.70,3.72,3.75,3.75,3.78,3.80,3.80,3.80,3.80,3.80,3.80,3.80,3.84,3.85,3.87,3.90,3.90,3.90,3.90,3.90,3.90,3.90,3.93,3.95,3.95,3.95,3.98,4.00,4.00,4.00,4.00,4.00,4.00,4.00,4.04,4.05,4.07,4.10,4.10,4.10,4.10,4.10,4.10,4.10,4.13,4.17,4.20,4.20,4.20,4.20,4.20,4.20,4.28,4.30,4.30,4.30,4.30,4.30,4.32,4.36,4.40,4.40,4.40,4.40,4.40,4.40,4.46,4.50,4.50,4.50,4.50,4.50,4.52,4.60,4.60,4.60,4.60,4.60,4.60,4.60,4.64,4.70,4.70,4.70,4.70,4.70,4.70,4.78,4.80,4.80,4.80,4.80,4.80,4.80,4.82,4.90,4.90,4.90,4.90,4.90,4.90,4.96,5.00,5.00,5.00,5.07,5.10,5.10,5.10,5.18,5.20,5.20,5.20,5.20,5.23,5.25,5.25,5.25,5.25,5.28,5.30,5.30,5.30,5.30,5.30,5.30,5.30,5.30,5.32,5.35,5.35,5.35,5.35,5.37,5.40,5.40,5.40,5.40,5.40,5.40,5.44,5.48,5.50,5.50,5.54,5.58,5.60,5.61,5.65,5.68,5.70,5.71,5.75,5.79,5.80,5.82,5.85,5.89,5.90,5.92,5.96,6.00,6.00,6.05,6.10,6.10,6.14,6.18,6.20,6.21,6.25,6.28,6.30,6.31,6.35,6.39,6.40,6.42,6.45,6.49,6.50,6.52,6.56,6.60,6.60,6.62
17.46,15.34,13.24,11.21,10.13,9.55,9.26,9.04,8.88,8.61,8.32,8.09,8.07,8.01,7.97,7.97,7.96,7.84,7.73,7.65,7.58,7.50,7.42,7.35,7.27,7.19,7.11,7.04,6.96,6.88,6.80,6.73,6.65,6.57,6.49,6.41,6.33,6.25,6.17,6.10,6.02,5.94,5.86,5.79,5.71,5.63,5.56,5.48,5.40,5.32,5.23,5.09,5.00,4.93,4.85,4.77,4.70,4.62,4.51,4.38,4.30,4.17,4.05,3.95,3.81,3.73,3.70,3.70,3.70,3.70,3.71,3.75,3.80,3.80,3.80,3.80,3.80,3.80,3.80,3.81,3.81,3.82,3.89,3.90,3.90,3.90,3.90,3.90,3.90,3.90,3.91,3.91,3.96,4.00,4.00,4.00,4.00,4.00,4.00,4.00,4.00,4.01,4.01,4.02,4.09,4.10,4.10,4.10,4.10,4.10,4.10,4.10,4.11,4.11,4.16,4.20,4.20,4.20,4.20,4.20,4.20,4.20,4.28,4.30,4.30,4.30,4.30,4.30,4.30,4.32,4.39,4.40,4.40,4.40,4.40,4.40,4.46,4.50,4.50,4.50,4.50,4.50,4.52,4.59,4.60,4.60,4.60,4.60,4.60,4.60,4.64,4.70,4.70,4.70,4.70,4.70,4.70,4.77,4.79,4.80,4.80,4.80,4.80,4.80,4.82,4.90,4.90,4.90,4.90,4.90,4.90,4.96,5.00,5.00,5.00,5.07,5.10,5.10,5.10,5.18,5.20,5.20,5.20,5.20,5.27,5.30,5.30,5.30,5.30,5.30,5.30,5.30,5.30,5.30,5.30,5.31,5.31,5.31,5.35,5.40,5.40,5.40,5.40,5.40,5.40,5.40,5.40,5.41,5.41,5.41,5.48,5.50,5.50,5.52,5.59,5.60,5.60,5.63,5.69,5.70,5.71,5.73,5.80,5.80,5.81,5.84,5.90,5.90,5.91,5.95,6.00,6.00,6.01,6.06,6.10,6.11,6.18,6.20,6.20,6.21,6.29,6.30,6.30,6.32,6.40,6.40,6.41,6.44,6.50,6.50,6.51,6.55,6.60,6.60,6.61,6.66
18.89,16.58,14.38,12.25,10.56,9.59,9.28,9.16,8.96,8.65,8.31,8.02,7.90,7.86,7.85,7.84,7.78,7.69,7.60,7.53,7.45,7.37,7.29,7.22,7.14,7.06,6.99,6.91,6.83,6.75,6.68,6.60,6.52,6.44,6.31,6.21,6.14,6.06,5.98,5.90,5.83,5.75,5.67,5.60,5.52,5.44,5.36,5.29,5.21,5.13,5.05,4.96,4.88,4.80,4.72,4.65,4.57,4.49,4.41,4.31,4.24,4.14,4.03,3.90,3.80,3.73,3.70,3.70,3.70,3.70,3.75,3.79,3.80,3.80,3.80,3.80,3.80,3.80,3.80,3.84,3.88,3.88,3.90,3.90,3.90,3.90,3.90,3.90,3.90,3.92,3.98,3.98,3.99,4.00,4.00,4.00,4.00,4.00,4.00,4.00,4.00,4.04,4.08,4.08,4.10,4.10,4.10,4.10,4.10,4.10,4.10,4.12,4.18,4.18,4.19,4.20,4.20,4.20,4.20,4.20,4.20,4.20,4.28,4.30,4.30,4.30,4.30,4.30,4.30,4.32,4.39,4.40,4.40,4.40,4.40,4.40,4.46,4.50,4.50,4.50,4.50,4.50,4.51,4.52,4.58,4.60,4.60,4.60,4.60,4.60,4.64,4.70,4.70,4.70,4.70,4.70,4.70,4.72,4.77,4.80,4.80,4.80,4.80,4.80,4.82,4.90,4.90,4.90,4.90,4.90,4.90,4.96,5.00,5.00,5.00,5.07,5.10,5.10,5.10,5.18,5.20,5.20,5.20,5.20,5.27,5.30,5.30,5.30,5.30,5.30,5.30,5.30,5.30,5.30,5.33,5.38,5.38,5.38,5.39,5.40,5.40,5.40,5.40,5.40,5.40,5.40,5.40,5.43,5.48,5.48,5.49,5.50,5.52,5.58,5.60,5.60,5.63,5.68,5.70,5.70,5.74,5.78,5.80,5.80,5.84,5.88,5.90,5.90,5.95,5.99,6.00,6.00,6.06,6.09,6.10,6.11,6.18,6.20,6.20,6.21,6.29,6.30,6.30,6.32,6.40,6.40,6.44,6.48,6.50,6.50,6.55,6.59,6.60,6.60,6.66,6.69
21.50,18.82,16.30,13.73,11.11,9.64,9.36,9.25,9.00,8.68,8.34,8.03,7.82,7.74,7.71,7.67,7.63,7.55,7.46,7.36,7.28,7.20,7.13,7.05,6.97,6.89,6.82,6.74,6.66,6.59,6.51,6.43,6.35,6.28,6.15,6.06,5.99,5.91,5.83,5.75,5.68,5.60,5.52,5.44,5.37,5.29,5.21,5.14,5.06,4.98,4.90,4.83,4.75,4.67,4.60,4.52,4.44,4.36,4.29,4.21,4.13,4.05,3.95,3.84,3.76,3.72,3.70,3.71,3.74,3.74,3.78,3.80,3.80,3.80,3.80,3.80,3.80,3.80,3.83,3.87,3.90,3.90,3.90,3.90,3.90,3.90,3.90,3.93,3.94,3.96,4.00,4.00,4.00,4.00,4.00,4.00,4.00,4.00,4.01,4.04,4.04,4.07,4.10,4.10,4.10,4.10,4.10,4.10,4.10,4.13,4.14,4.16,4.20,4.20,4.20,4.20,4.20,4.20,4.20,4.22,4.24,4.24,4.29,4.30,4.30,4.30,4.30,4.30,4.30,4.32,4.39,4.40,4.40,4.40,4.40,4.40,4.43,4.47,4.50,4.50,4.50,4.50,4.50,4.50,4.58,4.60,4.60,4.60,4.60,4.60,4.62,4.67,4.70,4.70,4.70,4.70,4.70,4.70,4.76,4.80,4.80,4.80,4.80,4.80,4.81,4.86,4.89,4.90,4.90,4.90,4.90,4.96,5.00,5.00,5.00,5.04,5.08,5.10,5.10,5.15,5.18,5.20,5.20,5.20,5.27,5.30,5.30,5.30,5.30,5.32,5.34,5.34,5.34,5.34,5.36,5.40,5.40,5.40,5.40,5.40,5.40,5.40,5.40,5.41,5.44,5.44,5.44,5.47,5.50,5.50,5.50,5.52,5.56,5.60,5.60,5.62,5.66,5.70,5.70,5.73,5.77,5.80,5.80,5.83,5.87,5.90,5.90,5.94,5.98,6.00,6.01,6.04,6.08,6.10,6.11,6.14,6.19,6.20,6.22,6.25,6.30,6.30,6.32,6.35,6.40,6.40,6.46,6.50,6.50,6.54,6.58,6.60,6.61,6.64,6.68,6.70
24.78,21.67,18.69,15.44,11.71,9.69,9.48,9.32,9.02,8.71,8.40,8.09,7.78,7.64,7.55,7.49,7.49,7.42,7.31,7.17,7.09,7.02,6.94,6.86,6.78,6.71,6.63,6.55,6.48,6.40,6.32,6.24,6.17,6.09,6.01,5.94,5.86,5.78,5.70,5.63,5.55,5.47,5.39,5.32,5.24,5.16,5.09,5.01,4.93,4.85,4.78,4.70,4.62,4.54,4.47,4.39,4.31,4.24,4.16,4.08,4.01,3.93,3.86,3.78,3.70,3.70,3.70,3.73,3.80,3.80,3.80,3.80,3.80,3.80,3.80,3.80,3.80,3.81,3.88,3.90,3.90,3.90,3.90,3.90,3.90,3.90,3.90,3.97,4.00,4.00,4.00,4.00,4.00,4.00,4.00,4.00,4.00,4.00,4.03,4.10,4.10,4.10,4.10,4.10,4.10,4.10,4.10,4.10,4.10,4.17,4.20,4.20,4.20,4.20,4.20,4.20,4.20,4.20,4.20,4.25,4.30,4.30,4.30,4.30,4.30,4.30,4.30,4.30,4.30,4.32,4.40,4.40,4.40,4.40,4.40,4.40,4.40,4.44,4.50,4.50,4.50,4.50,4.50,4.50,4.58,4.60,4.60,4.60,4.60,4.60,4.60,4.62,4.69,4.70,4.70,4.70,4.70,4.70,4.76,4.80,4.80,4.80,4.80,4.80,4.80,4.80,4.88,4.90,4.90,4.90,4.90,4.96,5.00,5.00,5.00,5.00,5.05,5.10,5.10,5.10,5.16,5.20,5.20,5.20,5.27,5.30,5.30,5.30,5.30,5.35,5.40,5.40,5.40,5.40,5.40,5.40,5.40,5.40,5.40,5.40,5.40,5.40,5.40,5.44,5.50,5.50,5.50,5.50,5.50,5.50,5.50,5.55,5.60,5.60,5.60,5.66,5.70,5.70,5.70,5.77,5.80,5.80,5.80,5.88,5.90,5.90,5.91,5.99,6.00,6.00,6.02,6.10,6.10,6.10,6.13,6.20,6.20,6.20,6.24,6.30,6.30,6.30,6.35,6.40,6.40,6.40,6.46,6.50,6.51,6.59,6.60,6.60,6.62,6.70,6.70,6.70
27.68,24.86,21.45,16.96,12.24,9.78,9.59,9.39,9.09,8.74,8.40,8.09,7.78,7.53,7.38,7.36,7.30,7.27,7.18,7.04,6.97,6.89,6.81,6.73,6.66,6.58,6.50,6.43,6.35,6.27,6.19,6.12,6.04,5.96,5.88,5.81,5.73,5.65,5.58,5.50,5.42,5.34,5.27,5.19,5.11,5.03,4.96,4.88,4.80,4.73,4.65,4.57,4.49,4.42,4.34,4.26,4.19,4.11,4.03,3.96,3.94,3.87,3.82,3.78,3.70,3.70,3.73,3.78,3.80,3.80,3.80,3.80,3.80,3.80,3.80,3.83,3.87,3.87,3.89,3.90,3.90,3.90,3.90,3.90,3.90,3.91,3.97,3.99,4.00,4.00,4.00,4.00,4.00,4.00,4.00,4.00,4.05,4.07,4.08,4.10,4.10,4.10,4.10,4.10,4.10,4.10,4.13,4.17,4.17,4.19,4.20,4.20,4.20,4.20,4.20,4.20,4.21,4.26,4.27,4.28,4.30,4.30,4.30,4.30,4.30,4.30,4.30,4.30,4.33,4.37,4.40,4.40,4.40,4.40,4.40,4.40,4.40,4.44,4.50,4.50,4.50,4.50,4.50,4.50,4.58,4.60,4.60,4.60,4.60,4.60,4.60,4.62,4.69,4.70,4.70,4.70,4.70,4.70,4.76,4.80,4.80,4.80,4.80,4.80,4.80,4.80,4.88,4.90,4.90,4.90,4.90,4.96,5.00,5.00,5.00,5.00,5.05,5.10,5.10,5.10,5.16,5.20,5.20,5.20,5.27,5.30,5.30,5.30,5.35,5.38,5.40,5.40,5.40,5.40,5.40,5.40,5.40,5.40,5.40,5.42,5.47,5.47,5.47,5.48,5.50,5.50,5.50,5.50,5.50,5.50,5.50,5.55,5.60,5.60,5.60,5.66,5.70,5.70,5.70,5.77,5.80,5.80,5.80,5.88,5.90,5.90,5.91,5.99,6.00,6.00,6.02,6.10,6.10,6.14,6.18,6.20,6.20,6.24,6.28,6.30,6.30,6.35,6.38,6.40,6.40,6.45,6.49,6.50,6.51,6.59,6.60,6.63,6.67,6.70,6.70,6.73
29.71,27.40,24.00,18.56,13.39,10.42,9.68,9.42,9.12,8.78,8.43,8.12,7.81,7.49,7.27,7.20,7.14,7.12,7.03,6.92,6.84,6.76,6.68,6.61,6.53,6.45,6.37,6.30,6.22,6.14,6.07,5.99,5.91,5.83,5.76,5.68,5.60,5.53,5.45,5.37,5.29,5.22,5.14,5.06,4.98,4.91,4.83,4.75,4.68,4.60,4.52,4.44,4.37,4.29,4.22,4.17,4.09,4.03,3.97,3.90,3.90,3.84,3.80,3.78,3.70,3.72,3.77,3.80,3.80,3.80,3.80,3.80,3.80,3.80,3.82,3.86,3.90,3.90,3.90,3.90,3.90,3.90,3.90,3.92,3.93,3.94,4.00,4.00,4.00,4.00,4.00,4.00,4.00,4.01,4.03,4.03,4.08,4.10,4.10,4.10,4.10,4.10,4.10,4.10,4.13,4.13,4.16,4.20,4.20,4.20,4.20,4.20,4.20,4.20,4.22,4.23,4.24,4.29,4.30,4.30,4.30,4.30,4.30,4.30,4.31,4.33,4.33,4.33,4.36,4.40,4.40,4.40,4.40,4.40,4.40,4.40,4.40,4.44,4.50,4.50,4.50,4.50,4.50,4.50,4.55,4.59,4.60,4.60,4.60,4.60,4.60,4.62,4.69,4.70,4.70,4.70,4.70,4.70,4.74,4.78,4.80,4.80,4.80,4.80,4.80,4.80,4.88,4.90,4.90,4.90,4.90,4.94,4.98,5.00,5.00,5.00,5.05,5.10,5.10,5.10,5.16,5.20,5.20,5.20,5.27,5.30,5.30,5.30,5.38,5.40,5.40,5.40,5.40,5.40,5.41,5.43,5.43,5.43,5.43,5.45,5.50,5.50,5.50,5.50,5.50,5.50,5.50,5.50,5.51,5.53,5.53,5.57,5.60,5.60,5.63,5.67,5.70,5.70,5.73,5.78,5.80,5.81,5.83,5.89,5.90,5.91,5.94,5.99,6.00,6.01,6.05,6.10,6.10,6.15,6.20,6.20,6.20,6.26,6.30,6.30,6.30,6.37,6.40,6.41,6.43,6.49,6.50,6.51,6.54,6.59,6.62,6.66,6.70,6.70,6.72,6.77
30.89,29.29,26.37,20.23,15.16,11.61,9.73,9.43,9.12,8.81,8.49,8.19,7.88,7.51,7.20,7.01,7.01,6.95,6.87,6.79,6.71,6.63,6.56,6.48,6.40,6.32,6.25,6.17,6.09,6.02,5.94,5.86,5.78,5.71,5.63,5.55,5.47,5.40,5.32,5.24,5.17,5.09,5.01,4.93,4.86,4.78,4.70,4.63,4.55,4.47,4.39,4.32,4.24,4.16,4.11,4.10,4.03,4.00,3.97,3.90,3.90,3.84,3.80,3.78,3.70,3.77,3.80,3.80,3.80,3.80,3.80,3.80,3.80,3.80,3.87,3.90,3.90,3.90,3.90,3.90,3.90,3.90,3.90,3.96,4.00,4.00,4.00,4.00,4.00,4.00,4.00,4.00,4.00,4.04,4.10,4.10,4.10,4.10,4.10,4.10,4.10,4.10,4.10,4.11,4.18,4.20,4.20,4.20,4.20,4.20,4.20,4.20,4.20,4.20,4.26,4.30,4.30,4.30,4.30,4.30,4.30,4.30,4.30,4.30,4.33,4.40,4.40,4.40,4.40,4.40,4.40,4.40,4.40,4.40,4.40,4.40,4.40,4.44,4.50,4.50,4.50,4.50,4.50,4.50,4.50,4.56,4.60,4.60,4.60,4.60,4.60,4.62,4.69,4.70,4.70,4.70,4.70,4.70,4.70,4.74,4.80,4.80,4.80,4.80,4.80,4.80,4.88,4.90,4.90,4.90,4.90,4.90,4.94,5.00,5.00,5.00,5.05,5.10,5.10,5.10,5.16,5.20,5.20,5.20,5.27,5.30,5.30,5.30,5.38,5.40,5.40,5.40,5.40,5.40,5.44,5.50,5.50,5.50,5.50,5.50,5.50,5.50,5.50,5.50,5.50,5.50,5.50,5.50,5.52,5.59,5.60,5.60,5.60,5.61,5.68,5.70,5.70,5.71,5.79,5.80,5.80,5.82,5.90,5.90,5.90,5.93,6.00,6.00,6.00,6.04,6.10,6.10,6.10,6.15,6.20,6.20,6.20,6.26,6.30,6.30,6.30,6.37,6.40,6.42,6.50,6.50,6.50,6.53,6.60,6.60,6.66,6.70,6.70,6.70,6.77,6.80
31.03,29.60,26.86,20.50,15.80,12.16,9.74,9.48,9.18,8.84,8.50,8.19,7.88,7.55,7.24,6.98,6.84,6.79,6.74,6.66,6.58,6.51,6.43,6.35,6.27,6.20,6.12,6.04,5.97,5.89,5.81,5.73,5.66,5.58,5.50,5.42,5.35,5.27,5.19,5.12,5.04,4.96,4.88,4.81,4.73,4.65,4.57,4.50,4.42,4.34,4.27,4.24,4.17,4.12,4.10,4.10,4.02,4.00,3.97,3.90,3.90,3.84,3.80,3.79,3.76,3.79,3.80,3.80,3.80,3.80,3.80,3.80,3.81,3.85,3.89,3.90,3.90,3.90,3.90,3.90,3.90,3.91,3.95,3.99,4.00,4.00,4.00,4.00,4.00,4.00,4.00,4.05,4.06,4.07,4.10,4.10,4.10,4.10,4.10,4.10,4.10,4.13,4.16,4.16,4.19,4.20,4.20,4.20,4.20,4.20,4.20,4.22,4.26,4.26,4.28,4.30,4.30,4.30,4.30,4.30,4.30,4.30,4.35,4.36,4.37,4.40,4.40,4.40,4.40,4.40,4.40,4.40,4.40,4.42,4.46,4.46,4.46,4.47,4.50,4.50,4.50,4.50,4.50,4.50,4.50,4.55,4.60,4.60,4.60,4.60,4.60,4.62,4.69,4.70,4.70,4.70,4.70,4.70,4.70,4.74,4.80,4.80,4.80,4.80,4.80,4.80,4.88,4.90,4.90,4.90,4.90,4.90,4.94,5.00,5.00,5.00,5.05,5.10,5.10,5.10,5.16,5.20,5.20,5.20,5.27,5.30,5.30,5.30,5.33,5.37,5.40,5.40,5.40,5.44,5.48,5.50,5.50,5.50,5.50,5.50,5.50,5.50,5.50,5.52,5.56,5.56,5.56,5.56,5.57,5.60,5.60,5.60,5.62,5.66,5.69,5.70,5.72,5.77,5.80,5.80,5.83,5.87,5.90,5.90,5.93,5.97,6.00,6.00,6.04,6.08,6.10,6.10,6.14,6.18,6.20,6.20,6.25,6.28,6.30,6.31,6.35,6.39,6.43,6.47,6.50,6.50,6.53,6.57,6.61,6.65,6.69,6.70,6.71,6.76,6.79,6.83
30.80,29.33,26.36,20.29,15.90,12.33,9.75,9.50,9.21,8.87,8.52,8.21,7.90,7.58,7.26,6.96,6.71,6.65,6.60,6.53,6.46,6.38,6.30,6.22,6.15,6.07,5.99,5.91,5.84,5.76,5.68,5.61,5.53,5.45,5.37,5.30,5.22,5.14,5.06,4.97,4.89,4.81,4.73,4.67,4.60,4.53,4.47,4.39,4.33,4.26,4.20,4.20,4.15,4.11,4.10,4.10,4.02,4.00,3.97,3.90,3.90,3.84,3.80,3.80,3.80,3.80,3.80,3.80,3.80,3.80,3.81,3.82,3.83,3.89,3.90,3.90,3.90,3.90,3.90,3.91,3.92,3.93,3.99,4.00,4.00,4.00,4.00,4.00,4.01,4.02,4.03,4.09,4.10,4.10,4.10,4.10,4.10,4.10,4.11,4.12,4.12,4.17,4.20,4.20,4.20,4.20,4.20,4.20,4.20,4.22,4.22,4.24,4.30,4.30,4.30,4.30,4.30,4.30,4.30,4.31,4.32,4.32,4.38,4.40,4.40,4.40,4.40,4.40,4.40,4.40,4.42,4.42,4.42,4.44,4.50,4.50,4.50,4.50,4.50,4.50,4.50,4.50,4.51,4.52,4.52,4.56,4.60,4.60,4.60,4.60,4.60,4.61,4.67,4.69,4.70,4.70,4.70,4.70,4.70,4.74,4.80,4.80,4.80,4.80,4.80,4.80,4.86,4.89,4.90,4.90,4.90,4.90,4.94,5.00,5.00,5.00,5.05,5.10,5.10,5.10,5.16,5.20,5.20,5.20,5.25,5.29,5.30,5.30,5.30,5.35,5.40,5.40,5.40,5.46,5.50,5.50,5.50,5.50,5.50,5.51,5.52,5.52,5.52,5.55,5.60,5.60,5.60,5.60,5.60,5.60,5.60,5.60,5.63,5.70,5.70,5.70,5.74,5.80,5.80,5.80,5.85,5.90,5.90,5.90,5.96,6.00,6.00,6.00,6.07,6.10,6.10,6.10,6.17,6.20,6.21,6.23,6.29,6.30,6.31,6.33,6.39,6.40,6.45,6.50,6.50,6.52,6.57,6.60,6.61,6.69,6.70,6.71,6.74,6.80,6.80,6.85
30.08,28.26,24.36,19.42,15.23,11.90,9.74,9.44,9.19,8.90,8.59,8.28,7.97,7.61,7.26,6.96,6.66,6.50,6.43,6.40,6.33,6.25,6.17,6.10,6.02,5.94,5.86,5.79,5.71,5.63,5.56,5.48,5.40,5.32,5.25,5.17,5.09,5.01,4.94,4.80,4.70,4.62,4.54,4.53,4.47,4.42,4.41,4.33,4.31,4.26,4.20,4.20,4.19,4.15,4.10,4.10,4.02,4.00,3.97,3.90,3.90,3.84,3.80,3.80,3.80,3.80,3.80,3.80,3.80,3.80,3.85,3.89,3.89,3.90,3.90,3.90,3.90,3.90,3.90,3.95,3.99,3.99,4.00,4.00,4.00,4.00,4.00,4.00,4.04,4.09,4.09,4.10,4.10,4.10,4.10,4.10,4.10,4.10,4.12,4.19,4.19,4.19,4.20,4.20,4.20,4.20,4.20,4.20,4.20,4.26,4.29,4.29,4.30,4.30,4.30,4.30,4.30,4.30,4.30,4.34,4.39,4.39,4.40,4.40,4.40,4.40,4.40,4.40,4.40,4.42,4.48,4.49,4.49,4.49,4.50,4.50,4.50,4.50,4.50,4.50,4.50,4.50,4.52,4.59,4.59,4.59,4.60,4.60,4.60,4.60,4.60,4.60,4.61,4.68,4.70,4.70,4.70,4.70,4.70,4.74,4.80,4.80,4.80,4.80,4.80,4.80,4.81,4.86,4.90,4.90,4.90,4.90,4.94,5.00,5.00,5.00,5.05,5.10,5.10,5.10,5.16,5.20,5.20,5.20,5.21,5.25,5.30,5.30,5.30,5.35,5.40,5.40,5.40,5.46,5.50,5.50,5.50,5.50,5.50,5.52,5.59,5.59,5.59,5.59,5.60,5.60,5.60,5.60,5.60,5.60,5.60,5.60,5.63,5.70,5.70,5.70,5.74,5.80,5.80,5.80,5.85,5.90,5.90,5.90,5.96,6.00,6.00,6.00,6.07,6.10,6.10,6.10,6.17,6.20,6.23,6.29,6.30,6.30,6.33,6.39,6.40,6.40,6.45,6.50,6.50,6.57,6.59,6.60,6.61,6.69,6.70,6.74,6.79,6.80,6.80,6.85
28.85,27.10,23.74,19.42,14.75,11.36,9.69,9.42,9.15,8.88,8.60,8.29,7.98,7.64,7.31,7.01,6.70,6.45,6.30,6.24,6.20,6.12,6.02,5.92,5.84,5.76,5.69,5.61,5.53,5.45,5.38,5.30,5.22,5.14,5.07,4.99,4.91,4.84,4.76,4.68,4.63,4.58,4.50,4.50,4.45,4.40,4.39,4.32,4.30,4.26,4.20,4.20,4.20,4.15,4.10,4.10,4.02,4.00,3.97,3.90,3.90,3.84,3.80,3.80,3.80,3.80,3.80,3.80,3.80,3.84,3.88,3.90,3.90,3.90,3.90,3.90,3.90,3.90,3.94,3.98,4.00,4.00,4.00,4.00,4.00,4.00,4.00,4.04,4.08,4.10,4.10,4.10,4.10,4.10,4.10,4.10,4.14,4.15,4.16,4.20,4.20,4.20,4.20,4.20,4.20,4.20,4.22,4.25,4.25,4.29,4.30,4.30,4.30,4.30,4.30,4.30,4.31,4.35,4.35,4.37,4.40,4.40,4.40,4.40,4.40,4.40,4.44,4.45,4.45,4.46,4.50,4.50,4.50,4.50,4.50,4.50,4.50,4.50,4.51,4.55,4.55,4.55,4.56,4.60,4.60,4.60,4.60,4.60,4.60,4.60,4.60,4.61,4.65,4.69,4.70,4.70,4.70,4.70,4.70,4.72,4.76,4.79,4.80,4.80,4.80,4.80,4.80,4.85,4.90,4.90,4.90,4.90,4.94,5.00,5.00,5.00,5.05,5.10,5.10,5.10,5.13,5.17,5.20,5.20,5.20,5.24,5.30,5.30,5.30,5.35,5.40,5.40,5.40,5.46,5.50,5.50,5.50,5.54,5.55,5.56,5.60,5.60,5.60,5.60,5.60,5.60,5.60,5.60,5.61,5.65,5.65,5.65,5.67,5.70,5.70,5.73,5.77,5.80,5.80,5.84,5.87,5.90,5.90,5.94,5.98,6.00,6.01,6.04,6.08,6.10,6.11,6.15,6.19,6.20,6.23,6.30,6.30,6.33,6.37,6.40,6.40,6.44,6.47,6.51,6.55,6.59,6.60,6.62,6.66,6.69,6.73,6.77,6.80,6.80,6.84,6.88
27.49,25.90,23.32,19.71,14.54,10.98,9.65,9.41,9.11,8.85,8.58,8.28,7.98,7.67,7.36,7.05,6.75,6.44,6.20,6.07,6.07,5.98,5.86,5.74,5.66,5.59,5.51,5.43,5.35,5.28,5.20,5.12,5.05,4.97,4.90,4.83,4.76,4.69,4.63,4.61,4.60,4.58,4.50,4.50,4.45,4.40,4.39,4.32,4.30,4.26,4.20,4.20,4.20,4.15,4.10,4.10,4.02,4.00,3.97,3.90,3.90,3.84,3.80,3.80,3.80,3.80,3.81,3.81,3.82,3.89,3.90,3.90,3.90,3.90,3.90,3.90,3.90,3.92,3.98,4.00,4.00,4.00,4.00,4.00,4.00,4.00,4.01,4.08,4.10,4.10,4.10,4.10,4.10,4.10,4.10,4.11,4.17,4.20,4.20,4.20,4.20,4.20,4.20,4.20,4.21,4.21,4.25,4.30,4.30,4.30,4.30,4.30,4.30,4.30,4.31,4.31,4.33,4.39,4.40,4.40,4.40,4.40,4.40,4.41,4.41,4.42,4.49,4.50,4.50,4.50,4.50,4.50,4.50,4.50,4.50,4.51,4.51,4.51,4.53,4.59,4.60,4.60,4.60,4.60,4.60,4.60,4.60,4.60,4.61,4.61,4.61,4.63,4.70,4.70,4.70,4.70,4.70,4.70,4.70,4.70,4.71,4.79,4.80,4.80,4.80,4.80,4.81,4.86,4.90,4.90,4.90,4.90,4.94,5.00,5.00,5.00,5.05,5.10,5.10,5.10,5.11,5.14,5.20,5.20,5.21,5.25,5.30,5.30,5.31,5.36,5.40,5.40,5.41,5.47,5.51,5.51,5.51,5.57,5.60,5.60,5.60,5.60,5.60,5.60,5.60,5.61,5.61,5.61,5.63,5.70,5.70,5.70,5.70,5.70,5.71,5.77,5.80,5.80,5.81,5.87,5.90,5.90,5.92,5.98,6.00,6.01,6.02,6.09,6.10,6.11,6.13,6.20,6.20,6.21,6.24,6.30,6.31,6.37,6.40,6.40,6.41,6.47,6.50,6.52,6.60,6.60,6.61,6.64,6.70,6.70,6.76,6.80,6.80,6.81,6.88,6.91
26.11,24.56,22.43,20.19,15.07,11.21,9.64,9.35,9.09,8.82,8.52,8.21,7.97,7.67,7.36,7.05,6.75,6.44,6.15,5.94,5.94,5.81,5.70,5.61,5.54,5.46,5.38,5.30,5.23,5.15,5.07,4.99,4.92,4.84,4.83,4.76,4.71,4.70,4.68,4.63,4.60,4.58,4.50,4.50,4.45,4.40,4.39,4.32,4.30,4.26,4.20,4.20,4.20,4.15,4.10,4.10,4.02,4.00,3.97,3.90,3.90,3.84,3.80,3.80,3.80,3.80,3.84,3.88,3.88,3.90,3.90,3.90,3.90,3.90,3.90,3.90,3.92,3.98,4.00,4.00,4.00,4.00,4.00,4.00,4.00,4.01,4.08,4.09,4.10,4.10,4.10,4.10,4.10,4.10,4.11,4.17,4.19,4.20,4.20,4.20,4.20,4.20,4.20,4.21,4.27,4.28,4.29,4.30,4.30,4.30,4.30,4.30,4.30,4.30,4.35,4.38,4.38,4.40,4.40,4.40,4.40,4.40,4.40,4.44,4.48,4.48,4.50,4.50,4.50,4.50,4.50,4.50,4.50,4.50,4.50,4.56,4.58,4.58,4.58,4.60,4.60,4.60,4.60,4.60,4.60,4.60,4.60,4.61,4.67,4.68,4.68,4.68,4.70,4.70,4.70,4.70,4.70,4.70,4.70,4.70,4.71,4.79,4.80,4.80,4.80,4.80,4.86,4.89,4.90,4.90,4.90,4.90,4.94,5.00,5.00,5.00,5.05,5.10,5.10,5.10,5.15,5.19,5.20,5.20,5.25,5.29,5.30,5.30,5.36,5.39,5.40,5.41,5.47,5.49,5.53,5.58,5.58,5.59,5.60,5.60,5.60,5.60,5.60,5.60,5.61,5.67,5.68,5.68,5.68,5.70,5.70,5.70,5.70,5.71,5.77,5.79,5.80,5.81,5.87,5.89,5.90,5.92,5.98,6.00,6.00,6.03,6.08,6.10,6.10,6.13,6.18,6.20,6.20,6.24,6.28,6.30,6.37,6.39,6.40,6.41,6.47,6.49,6.50,6.52,6.60,6.60,6.64,6.69,6.70,6.70,6.76,6.80,6.82,6.88,6.89,6.94
25.01,23.86,22.18,20.47,15.24,11.23,9.64,9.33,9.06,8.79,8.50,8.19,7.93,7.65,7.36,7.05,6.75,6.44,6.13,5.87,5.78,5.65,5.56,5.49,5.41,5.33,5.25,5.18,5.11,5.06,4.99,4.93,4.88,4.80,4.80,4.74,4.70,4.70,4.70,4.63,4.60,4.58,4.50,4.50,4.45,4.40,4.39,4.32,4.30,4.28,4.24,4.20,4.20,4.15,4.10,4.10,4.02,4.00,3.97,3.90,3.90,3.86,3.82,3.80,3.80,3.83,3.87,3.90,3.90,3.90,3.90,3.90,3.90,3.90,3.93,3.94,3.96,4.00,4.00,4.00,4.00,4.00,4.00,4.03,4.04,4.05,4.10,4.10,4.10,4.10,4.10,4.10,4.10,4.12,4.15,4.19,4.20,4.20,4.20,4.20,4.20,4.20,4.21,4.25,4.29,4.30,4.30,4.30,4.30,4.30,4.30,4.31,4.34,4.34,4.38,4.40,4.40,4.40,4.40,4.40,4.41,4.44,4.44,4.47,4.50,4.50,4.50,4.50,4.50,4.50,4.50,4.53,4.54,4.54,4.54,4.59,4.60,4.60,4.60,4.60,4.60,4.60,4.60,4.60,4.63,4.64,4.64,4.65,4.69,4.70,4.70,4.70,4.70,4.70,4.70,4.70,4.70,4.73,4.74,4.74,4.75,4.79,4.80,4.80,4.81,4.84,4.89,4.90,4.90,4.90,4.90,4.90,4.94,5.00,5.00,5.03,5.07,5.10,5.10,5.13,5.18,5.20,5.21,5.24,5.28,5.30,5.31,5.34,5.39,5.42,5.44,5.45,5.49,5.53,5.56,5.60,5.60,5.60,5.60,5.60,5.60,5.63,5.64,5.64,5.65,5.69,5.70,5.70,5.70,5.70,5.70,5.70,5.70,5.71,5.78,5.80,5.80,5.82,5.89,5.90,5.90,5.92,6.00,6.00,6.00,6.03,6.10,6.10,6.10,6.14,6.20,6.20,6.23,6.27,6.30,6.31,6.38,6.40,6.42,6.45,6.50,6.50,6.52,6.56,6.60,6.63,6.67,6.70,6.70,6.74,6.78,6.82,6.85,6.90,6.90,6.95
24.01,23.41,22.19,20.61,15.21,11.14,9.63,9.33,9.02,8.75,8.49,8.19,7.88,7.63,7.36,7.05,6.75,6.44,6.13,5.84,5.61,5.52,5.43,5.36,5.29,5.21,5.14,5.06,5.00,5.00,4.93,4.90,4.88,4.80,4.80,4.75,4.70,4.70,4.70,4.63,4.60,4.58,4.50,4.50,4.45,4.40,4.39,4.32,4.30,4.30,4.28,4.21,4.20,4.15,4.10,4.10,4.02,4.00,3.97,3.91,3.90,3.90,3.86,3.80,3.81,3.88,3.90,3.90,3.90,3.90,3.90,3.90,3.90,3.91,3.97,4.00,4.00,4.00,4.00,4.00,4.00,4.00,4.01,4.07,4.10,4.10,4.10,4.10,4.10,4.10,4.10,4.11,4.11,4.14,4.20,4.20,4.20,4.20,4.20,4.20,4.20,4.20,4.24,4.30,4.30,4.30,4.30,4.30,4.30,4.30,4.31,4.33,4.40,4.40,4.40,4.40,4.40,4.40,4.40,4.41,4.43,4.50,4.50,4.50,4.50,4.50,4.50,4.50,4.50,4.51,4.51,4.57,4.60,4.60,4.60,4.60,4.60,4.60,4.60,4.60,4.60,4.61,4.61,4.61,4.68,4.70,4.70,4.70,4.70,4.70,4.70,4.70,4.70,4.70,4.71,4.71,4.71,4.78,4.80,4.80,4.80,4.80,4.80,4.80,4.83,4.90,4.90,4.90,4.90,4.90,4.90,4.90,4.94,5.00,5.01,5.07,5.10,5.10,5.11,5.18,5.20,5.20,5.22,5.29,5.30,5.31,5.33,5.40,5.40,5.46,5.50,5.50,5.51,5.56,5.60,5.60,5.60,5.60,5.60,5.61,5.61,5.68,5.70,5.70,5.70,5.70,5.70,5.70,5.70,5.70,5.70,5.71,5.71,5.71,5.78,5.80,5.80,5.82,5.89,5.90,5.90,5.93,6.00,6.00,6.00,6.04,6.10,6.10,6.10,6.15,6.20,6.21,6.28,6.30,6.30,6.31,6.38,6.40,6.44,6.50,6.50,6.50,6.55,6.60,6.61,6.68,6.70,6.70,6.72,6.79,6.80,6.85,6.90,6.90,6.90,6.95
22.66,22.28,21.59,20.46,14.95,10.88,9.58,9.32,9.02,8.72,8.45,8.19,7.88,7.59,7.32,7.05,6.75,6.44,6.13,5.84,5.61,5.42,5.31,5.25,5.22,5.15,5.11,5.06,5.00,5.00,4.93,4.90,4.88,4.80,4.80,4.78,4.75,4.70,4.70,4.63,4.60,4.58,4.50,4.50,4.45,4.40,4.40,4.38,4.33,4.30,4.28,4.21,4.20,4.15,4.10,4.10,4.02,4.00,3.99,3.96,3.91,3.90,3.86,3.81,3.87,3.89,3.90,3.90,3.90,3.90,3.90,3.90,3.91,3.96,3.99,4.00,4.00,4.00,4.00,4.00,4.00,4.01,4.06,4.09,4.10,4.10,4.10,4.10,4.10,4.10,4.10,4.16,4.17,4.18,4.20,4.20,4.20,4.20,4.20,4.20,4.20,4.24,4.28,4.30,4.30,4.30,4.30,4.30,4.30,4.35,4.37,4.38,4.40,4.40,4.40,4.40,4.40,4.40,4.45,4.47,4.48,4.50,4.50,4.50,4.50,4.50,4.50,4.50,4.53,4.57,4.57,4.59,4.60,4.60,4.60,4.60,4.60,4.60,4.60,4.60,4.65,4.67,4.67,4.67,4.69,4.70,4.70,4.70,4.70,4.70,4.70,4.70,4.70,4.75,4.77,4.77,4.77,4.79,4.80,4.80,4.80,4.80,4.80,4.83,4.88,4.90,4.90,4.90,4.90,4.90,4.90,4.94,4.98,5.01,5.07,5.09,5.10,5.12,5.17,5.19,5.20,5.22,5.27,5.30,5.35,5.37,5.38,5.40,5.45,5.49,5.50,5.50,5.56,5.59,5.60,5.60,5.60,5.60,5.63,5.67,5.67,5.69,5.70,5.70,5.70,5.70,5.70,5.70,5.70,5.70,5.75,5.77,5.77,5.77,5.80,5.80,5.83,5.87,5.90,5.90,5.93,5.98,6.00,6.00,6.04,6.08,6.10,6.10,6.15,6.18,6.21,6.27,6.29,6.30,6.32,6.37,6.40,6.44,6.48,6.50,6.50,6.55,6.58,6.62,6.67,6.69,6.70,6.72,6.77,6.80,6.85,6.88,6.90,6.90,6.95,6.99
21.31,20.90,20.14,18.37,13.63,10.38,9.48,9.22,8.94,8.66,8.39,8.16,7.87,7.57,7.30,7.05,6.75,6.44,6.13,5.84,5.61,5.35,5.20,5.13,5.12,5.05,5.03,5.01,4.96,4.93,4.89,4.85,4.82,4.77,4.77,4.75,4.71,4.66,4.64,4.59,4.55,4.52,4.47,4.47,4.41,4.37,4.36,4.34,4.29,4.27,4.25,4.17,4.17,4.12,4.07,4.06,3.99,3.97,3.97,3.96,3.88,3.87,3.85,3.85,3.90,3.90,3.90,3.90,3.90,3.90,3.90,3.91,3.94,3.99,4.00,4.00,4.00,4.00,4.00,4.00,4.01,4.04,4.09,4.10,4.10,4.10,4.10,4.10,4.10,4.11,4.14,4.19,4.20,4.20,4.20,4.20,4.20,4.20,4.20,4.20,4.23,4.27,4.30,4.30,4.30,4.30,4.30,4.31,4.33,4.38,4.40,4.40,4.40,4.40,4.40,4.41,4.43,4.43,4.48,4.50,4.50,4.50,4.50,4.50,4.50,4.50,4.53,4.53,4.56,4.60,4.60,4.60,4.60,4.60,4.60,4.60,4.62,4.63,4.63,4.63,4.68,4.70,4.70,4.70,4.70,4.70,4.70,4.70,4.70,4.72,4.73,4.73,4.73,4.78,4.80,4.80,4.80,4.80,4.80,4.80,4.80,4.83,4.83,4.86,4.90,4.90,4.90,4.90,4.91,4.93,4.93,4.98,5.01,5.05,5.10,5.10,5.12,5.15,5.20,5.23,5.23,5.26,5.30,5.33,5.38,5.40,5.41,5.43,5.48,5.52,5.53,5.54,5.59,5.60,5.60,5.61,5.63,5.63,5.67,5.70,5.70,5.70,5.70,5.70,5.70,5.70,5.72,5.73,5.73,5.73,5.78,5.80,5.80,5.80,5.80,5.82,5.86,5.90,5.90,5.92,5.97,6.00,6.00,6.03,6.07,6.10,6.10,6.13,6.18,6.20,6.22,6.30,6.30,6.32,6.35,6.40,6.40,6.46,6.50,6.51,6.53,6.58,6.60,6.62,6.70,6.70,6.72,6.76,6.80,6.80,6.86,6.90,6.91,6.93,6.98,7.00
19.93,19.30,17.95,14.60,11.40,9.67,9.34,9.03,8.79,8.56,8.33,8.09,7.86,7.57,7.30,7.05,6.75,6.44,6.13,5.84,5.61,5.30,5.10,5.00,5.00,4.92,4.90,4.90,4.89,4.81,4.80,4.76,4.70,4.70,4.70,4.65,4.60,4.59,4.52,4.50,4.46,4.40,4.40,4.40,4.35,4.30,4.30,4.22,4.20,4.20,4.19,4.11,4.10,4.06,4.00,4.00,3.92,3.90,3.90,3.89,3.81,3.80,3.84,3.90,3.90,3.90,3.90,3.90,3.90,3.90,3.90,3.94,4.00,4.00,4.00,4.00,4.00,4.00,4.00,4.00,4.03,4.10,4.10,4.10,4.10,4.10,4.10,4.10,4.10,4.13,4.20,4.20,4.20,4.20,4.20,4.20,4.20,4.20,4.20,4.20,4.28,4.30,4.30,4.30,4.30,4.30,4.30,4.32,4.39,4.40,4.40,4.40,4.40,4.40,4.40,4.44,4.50,4.50,4.50,4.50,4.50,4.50,4.50,4.50,4.50,4.51,4.58,4.60,4.60,4.60,4.60,4.60,4.60,4.60,4.60,4.60,4.66,4.70,4.70,4.70,4.70,4.70,4.70,4.70,4.70,4.70,4.70,4.70,4.70,4.76,4.80,4.80,4.80,4.80,4.80,4.80,4.80,4.80,4.80,4.80,4.81,4.89,4.90,4.90,4.90,4.90,4.90,4.90,4.93,5.00,5.00,5.00,5.04,5.10,5.10,5.10,5.15,5.20,5.20,5.28,5.30,5.30,5.31,5.39,5.40,5.40,5.42,5.50,5.50,5.55,5.60,5.60,5.60,5.60,5.60,5.62,5.69,5.70,5.70,5.70,5.70,5.70,5.70,5.70,5.70,5.70,5.76,5.80,5.80,5.80,5.80,5.80,5.80,5.80,5.80,5.86,5.90,5.90,5.90,5.97,6.00,6.00,6.00,6.08,6.10,6.10,6.11,6.19,6.20,6.20,6.22,6.30,6.30,6.35,6.40,6.40,6.40,6.46,6.50,6.51,6.59,6.60,6.60,6.62,6.70,6.70,6.75,6.80,6.80,6.80,6.86,6.90,6.92,6.99,7.00,7.00
16.54,15.72,14.55,11.87,10.23,9.42,9.16,8.90,8.66,8.46,8.26,8.03,7.80,7.55,7.30,7.05,6.75,6.44,6.13,5.84,5.61,5.30,5.03,4.86,4.81,4.78,4.78,4.75,4.71,4.68,4.63,4.60,4.56,4.51,4.51,4.49,4.46,4.41,4.38,4.34,4.30,4.28,4.28,4.23,4.19,4.16,4.11,4.08,4.04,4.01,4.01,3.98,3.93,3.90,3.86,3.81,3.78,3.78,3.76,3.72,3.74,3.78,3.84,3.90,3.90,3.90,3.90,3.90,3.90,3.95,3.96,3.98,4.00,4.00,4.00,4.00,4.00,4.00,4.00,4.03,4.07,4.10,4.10,4.10,4.10,4.10,4.10,4.10,4.13,4.17,4.20,4.20,4.20,4.20,4.20,4.20,4.20,4.20,4.21,4.26,4.29,4.30,4.30,4.30,4.30,4.30,4.30,4.32,4.40,4.40,4.40,4.40,4.40,4.40,4.44,4.48,4.50,4.50,4.50,4.50,4.50,4.50,4.50,4.53,4.56,4.57,4.59,4.60,4.60,4.60,4.60,4.60,4.60,4.62,4.66,4.66,4.68,4.70,4.70,4.70,4.70,4.70,4.70,4.70,4.70,4.73,4.76,4.76,4.76,4.79,4.80,4.80,4.80,4.80,4.80,4.80,4.80,4.80,4.80,4.82,4.87,4.90,4.90,4.90,4.90,4.90,4.95,4.96,4.97,5.00,5.00,5.04,5.08,5.11,5.16,5.16,5.18,5.22,5.26,5.29,5.30,5.32,5.37,5.40,5.44,5.46,5.47,5.50,5.55,5.58,5.60,5.60,5.60,5.64,5.66,5.67,5.70,5.70,5.70,5.70,5.70,5.70,5.70,5.72,5.76,5.76,5.79,5.80,5.80,5.80,5.80,5.80,5.80,5.80,5.80,5.86,5.90,5.90,5.90,5.97,6.00,6.00,6.00,6.08,6.10,6.12,6.17,6.20,6.20,6.23,6.27,6.30,6.35,6.38,6.40,6.40,6.45,6.48,6.52,6.57,6.60,6.60,6.63,6.67,6.70,6.75,6.78,6.80,6.81,6.85,6.89,6.90,6.92,7.00,7.00,7.03
14.21,13.13,11.94,10.12,9.50,9.24,9.03,8.79,8.56,8.37,8.18,7.97,7.74,7.50,7.27,7.03,6.74,6.44,6.13,5.84,5.61,5.30,4.99,4.76,4.65,4.65,4.63,4.59,4.54,4.52,4.47,4.44,4.40,4.35,4.35,4.33,4.30,4.25,4.23,4.17,4.15,4.14,4.12,4.07,4.04,4.00,3.95,3.93,3.88,3.85,3.84,3.82,3.77,3.74,3.71,3.65,3.65,3.66,3.66,3.64,3.71,3.79,3.86,3.90,3.90,3.90,3.90,3.91,3.93,3.99,4.00,4.00,4.00,4.00,4.00,4.00,4.01,4.03,4.03,4.07,4.10,4.10,4.10,4.10,4.10,4.10,4.10,4.12,4.16,4.20,4.20,4.20,4.20,4.20,4.20,4.20,4.20,4.21,4.24,4.30,4.30,4.30,4.30,4.30,4.30,4.30,4.31,4.34,4.40,4.40,4.40,4.40,4.40,4.40,4.46,4.50,4.50,4.50,4.50,4.50,4.50,4.50,4.52,4.57,4.60,4.60,4.60,4.60,4.60,4.60,4.60,4.62,4.63,4.65,4.70,4.70,4.70,4.70,4.70,4.70,4.70,4.71,4.73,4.73,4.73,4.77,4.80,4.80,4.80,4.80,4.80,4.80,4.80,4.80,4.80,4.80,4.80,4.82,4.83,4.85,4.90,4.90,4.90,4.91,4.93,4.93,4.98,5.00,5.01,5.03,5.03,5.07,5.11,5.14,5.20,5.22,5.23,5.24,5.30,5.32,5.33,5.35,5.40,5.42,5.47,5.51,5.53,5.53,5.58,5.61,5.63,5.63,5.63,5.67,5.70,5.70,5.70,5.70,5.70,5.70,5.70,5.72,5.73,5.75,5.80,5.80,5.80,5.80,5.80,5.80,5.80,5.81,5.83,5.83,5.83,5.87,5.90,5.90,5.92,5.98,6.00,6.01,6.03,6.08,6.11,6.15,6.20,6.20,6.22,6.26,6.31,6.32,6.38,6.40,6.41,6.43,6.49,6.50,6.54,6.60,6.60,6.62,6.66,6.70,6.70,6.78,6.80,6.81,6.83,6.89,6.90,6.91,6.94,7.00,7.02,7.06
13.56,12.11,10.57,9.78,9.37,9.14,8.96,8.73,8.50,8.27,8.07,7.90,7.67,7.44,7.21,6.97,6.74,6.44,6.13,5.84,5.61,5.30,4.99,4.72,4.52,4.52,4.47,4.43,4.41,4.34,4.32,4.28,4.23,4.22,4.22,4.17,4.13,4.11,4.04,4.02,4.02,4.00,3.93,3.92,3.87,3.83,3.82,3.75,3.73,3.72,3.71,3.64,3.62,3.58,3.53,3.52,3.52,3.57,3.64,3.70,3.78,3.85,3.89,3.90,3.90,3.90,3.90,3.93,3.99,4.00,4.00,4.00,4.00,4.00,4.00,4.00,4.02,4.09,4.09,4.10,4.10,4.10,4.10,4.10,4.10,4.10,4.10,4.17,4.19,4.20,4.20,4.20,4.20,4.20,4.20,4.20,4.20,4.24,4.29,4.30,4.30,4.30,4.30,4.30,4.30,4.30,4.34,4.39,4.40,4.40,4.40,4.40,4.40,4.40,4.46,4.50,4.50,4.50,4.50,4.50,4.50,4.50,4.57,4.60,4.60,4.60,4.60,4.60,4.60,4.60,4.60,4.66,4.69,4.69,4.70,4.70,4.70,4.70,4.70,4.70,4.70,4.74,4.79,4.79,4.79,4.80,4.80,4.80,4.80,4.80,4.80,4.80,4.80,4.80,4.80,4.80,4.80,4.87,4.89,4.89,4.90,4.90,4.90,4.94,4.99,4.99,5.00,5.00,5.03,5.09,5.09,5.10,5.14,5.19,5.20,5.26,5.29,5.29,5.30,5.37,5.39,5.39,5.41,5.48,5.50,5.54,5.59,5.59,5.60,5.65,5.69,5.69,5.69,5.70,5.70,5.70,5.70,5.70,5.70,5.70,5.70,5.77,5.79,5.79,5.80,5.80,5.80,5.80,5.80,5.80,5.80,5.85,5.89,5.89,5.89,5.90,5.90,5.91,5.98,6.00,6.00,6.02,6.09,6.10,6.15,6.19,6.20,6.20,6.26,6.29,6.32,6.39,6.40,6.40,6.43,6.49,6.50,6.50,6.54,6.60,6.60,6.66,6.69,6.70,6.70,6.78,6.80,6.83,6.89,6.90,6.90,6.94,6.99,7.00,7.07,7.09
13.16,11.73,10.14,9.69,9.35,9.10,8.90,8.67,8.43,8.20,7.98,7.79,7.55,7.35,7.14,6.91,6.68,6.42,6.13,5.84,5.61,5.30,4.99,4.71,4.49,4.37,4.31,4.27,4.23,4.20,4.16,4.12,4.09,4.09,4.05,4.01,3.98,3.93,3.90,3.86,3.84,3.83,3.79,3.75,3.72,3.68,3.64,3.60,3.59,3.57,3.53,3.50,3.46,3.42,3.41,3.45,3.49,3.56,3.63,3.71,3.79,3.86,3.90,3.90,3.90,3.90,3.93,3.97,4.00,4.00,4.00,4.00,4.00,4.00,4.00,4.02,4.06,4.10,4.10,4.10,4.10,4.10,4.10,4.10,4.10,4.11,4.15,4.19,4.20,4.20,4.20,4.20,4.20,4.20,4.20,4.20,4.24,4.27,4.30,4.30,4.30,4.30,4.30,4.30,4.30,4.33,4.37,4.40,4.40,4.40,4.40,4.40,4.40,4.44,4.48,4.50,4.50,4.50,4.50,4.50,4.51,4.55,4.59,4.60,4.60,4.60,4.60,4.60,4.62,4.65,4.65,4.69,4.70,4.70,4.70,4.70,4.70,4.72,4.75,4.75,4.75,4.77,4.80,4.80,4.80,4.80,4.80,4.80,4.80,4.80,4.82,4.85,4.85,4.85,4.85,4.85,4.85,4.89,4.90,4.90,4.91,4.95,4.95,4.97,5.00,5.00,5.04,5.05,5.07,5.10,5.15,5.15,5.17,5.21,5.25,5.29,5.30,5.31,5.35,5.39,5.43,5.45,5.46,5.49,5.54,5.57,5.60,5.60,5.64,5.68,5.70,5.70,5.70,5.70,5.70,5.70,5.70,5.74,5.75,5.75,5.75,5.79,5.80,5.80,5.80,5.80,5.80,5.80,5.81,5.85,5.85,5.88,5.90,5.90,5.90,5.90,5.92,5.96,6.00,6.00,6.03,6.06,6.10,6.10,6.16,6.20,6.21,6.25,6.28,6.30,6.32,6.40,6.40,6.43,6.47,6.50,6.50,6.53,6.57,6.61,6.65,6.69,6.70,6.71,6.75,6.79,6.80,6.83,6.90,6.90,6.93,6.97,7.00,7.00,7.07,7.10
12.79,11.45,9.95,9.64,9.35,9.08,8.85,8.60,8.37,8.14,7.91,7.68,7.44,7.26,7.06,6.83,6.61,6.38,6.12,5.84,5.61,5.30,4.99,4.71,4.48,4.23,4.16,4.12,4.06,4.05,3.99,3.97,3.96,3.95,3.88,3.86,3.82,3.76,3.75,3.69,3.67,3.66,3.65,3.59,3.56,3.52,3.47,3.47,3.46,3.42,3.36,3.35,3.30,3.29,3.32,3.40,3.48,3.56,3.63,3.71,3.79,3.86,3.90,3.90,3.90,3.91,3.96,4.00,4.00,4.00,4.00,4.00,4.00,4.00,4.01,4.06,4.10,4.10,4.10,4.10,4.10,4.10,4.10,4.10,4.11,4.13,4.20,4.20,4.20,4.20,4.20,4.20,4.20,4.20,4.20,4.22,4.27,4.30,4.30,4.30,4.30,4.30,4.30,4.30,4.31,4.37,4.40,4.40,4.40,4.40,4.40,4.40,4.42,4.48,4.50,4.50,4.50,4.50,4.50,4.51,4.54,4.60,4.60,4.60,4.60,4.60,4.60,4.61,4.65,4.70,4.70,4.70,4.70,4.70,4.70,4.71,4.72,4.75,4.80,4.80,4.80,4.80,4.80,4.80,4.80,4.80,4.81,4.82,4.82,4.82,4.85,4.90,4.90,4.90,4.90,4.90,4.90,4.90,4.91,4.92,4.93,4.99,5.00,5.01,5.02,5.02,5.08,5.10,5.11,5.12,5.19,5.20,5.21,5.23,5.29,5.31,5.32,5.34,5.40,5.41,5.46,5.50,5.50,5.52,5.57,5.61,5.62,5.62,5.68,5.70,5.70,5.70,5.70,5.70,5.71,5.72,5.72,5.78,5.80,5.80,5.80,5.80,5.80,5.80,5.80,5.82,5.82,5.82,5.83,5.90,5.90,5.90,5.90,5.90,5.90,5.90,5.94,6.00,6.00,6.01,6.06,6.10,6.10,6.11,6.16,6.21,6.23,6.29,6.30,6.31,6.33,6.40,6.41,6.46,6.50,6.50,6.51,6.57,6.61,6.63,6.69,6.70,6.71,6.74,6.80,6.81,6.82,6.84,6.90,6.92,6.97,7.01,7.02,7.02,7.08,7.11
12.34,11.12,9.89,9.58,9.32,9.08,8.84,8.54,8.31,8.08,7.84,7.61,7.38,7.16,6.94,6.71,6.54,6.32,6.08,5.84,5.61,5.30,4.99,4.71,4.47,4.18,4.02,3.95,3.93,3.86,3.84,3.84,3.82,3.76,3.74,3.69,3.65,3.63,3.57,3.54,3.54,3.52,3.46,3.44,3.40,3.35,3.34,3.34,3.29,3.25,3.23,3.16,3.20,3.26,3.32,3.40,3.48,3.56,3.63,3.71,3.79,3.86,3.90,3.90,3.90,3.96,3.99,4.00,4.00,4.00,4.00,4.00,4.00,4.00,4.06,4.09,4.10,4.10,4.10,4.10,4.10,4.10,4.10,4.10,4.13,4.18,4.20,4.20,4.20,4.20,4.20,4.20,4.20,4.20,4.21,4.27,4.29,4.30,4.30,4.30,4.30,4.30,4.30,4.31,4.37,4.39,4.40,4.40,4.40,4.40,4.40,4.42,4.48,4.50,4.50,4.50,4.50,4.50,4.50,4.54,4.59,4.60,4.60,4.60,4.60,4.60,4.60,4.65,4.69,4.70,4.70,4.70,4.70,4.70,4.70,4.77,4.78,4.79,4.80,4.80,4.80,4.80,4.80,4.80,4.80,4.80,4.83,4.88,4.88,4.88,4.89,4.90,4.90,4.90,4.90,4.90,4.90,4.90,4.95,4.98,4.98,5.00,5.00,5.04,5.08,5.08,5.10,5.10,5.12,5.18,5.20,5.20,5.23,5.28,5.30,5.36,5.38,5.39,5.40,5.46,5.49,5.50,5.51,5.57,5.59,5.64,5.68,5.68,5.70,5.70,5.70,5.70,5.70,5.70,5.73,5.78,5.78,5.79,5.80,5.80,5.80,5.80,5.80,5.80,5.81,5.87,5.88,5.88,5.88,5.90,5.90,5.90,5.90,5.90,5.90,5.90,5.94,6.00,6.00,6.06,6.09,6.10,6.10,6.16,6.19,6.23,6.28,6.30,6.30,6.33,6.38,6.40,6.46,6.49,6.50,6.50,6.57,6.59,6.63,6.68,6.70,6.70,6.74,6.79,6.80,6.86,6.88,6.89,6.91,6.97,6.99,7.03,7.08,7.08,7.10,7.14
12.07,10.85,9.83,9.56,9.31,9.08,8.84,8.53,8.29,8.06,7.81,7.55,7.32,7.08,6.85,6.63,6.44,6.24,6.03,5.79,5.56,5.29,4.99,4.71,4.47,4.16,3.92,3.79,3.76,3.71,3.68,3.67,3.65,3.61,3.57,3.53,3.50,3.46,3.42,3.41,3.39,3.35,3.31,3.28,3.24,3.20,3.17,3.17,3.13,3.13,3.15,3.15,3.21,3.29,3.36,3.40,3.48,3.56,3.63,3.71,3.79,3.86,3.90,3.91,3.94,3.99,4.00,4.00,4.00,4.00,4.00,4.00,4.01,4.04,4.08,4.10,4.10,4.10,4.10,4.10,4.10,4.10,4.10,4.13,4.17,4.20,4.20,4.20,4.20,4.20,4.20,4.20,4.20,4.22,4.25,4.30,4.30,4.30,4.30,4.30,4.30,4.30,4.31,4.35,4.39,4.40,4.40,4.40,4.40,4.40,4.42,4.46,4.50,4.50,4.50,4.50,4.50,4.50,4.53,4.57,4.60,4.60,4.60,4.60,4.60,4.60,4.64,4.68,4.70,4.70,4.70,4.70,4.70,4.71,4.75,4.79,4.80,4.80,4.80,4.80,4.80,4.80,4.81,4.84,4.84,4.84,4.86,4.90,4.90,4.90,4.90,4.90,4.90,4.90,4.90,4.91,4.94,4.94,4.98,5.00,5.01,5.04,5.04,5.07,5.10,5.10,5.13,5.14,5.16,5.20,5.24,5.24,5.27,5.31,5.34,5.38,5.40,5.41,5.45,5.49,5.53,5.54,5.55,5.59,5.63,5.67,5.70,5.70,5.70,5.70,5.70,5.70,5.74,5.74,5.77,5.80,5.80,5.80,5.80,5.80,5.80,5.80,5.83,5.84,5.85,5.89,5.90,5.90,5.90,5.90,5.90,5.90,5.91,5.94,5.94,5.94,5.98,6.04,6.04,6.08,6.12,6.14,6.15,6.22,6.24,6.26,6.30,6.34,6.34,6.39,6.44,6.44,6.49,6.52,6.54,6.55,6.63,6.64,6.67,6.71,6.74,6.74,6.79,6.84,6.85,6.89,6.92,6.94,6.96,7.03,7.04,7.07,7.11,7.14,7.14,7.20
11.84,10.59,9.77,9.54,9.31,9.07,8.82,8.52,8.28,8.05,7.79,7.49,7.26,7.02,6.79,6.56,6.33,6.15,5.95,5.72,5.50,5.27,4.99,4.71,4.47,4.16,3.86,3.65,3.58,3.57,3.51,3.48,3.48,3.47,3.40,3.38,3.34,3.28,3.28,3.28,3.23,3.18,3.17,3.11,3.08,3.05,2.98,2.99,3.00,3.04,3.12,3.19,3.27,3.35,3.40,3.41,3.49,3.56,3.64,3.71,3.79,3.86,3.90,3.93,4.00,4.00,4.00,4.00,4.00,4.00,4.00,4.00,4.02,4.09,4.10,4.10,4.10,4.10,4.10,4.10,4.10,4.10,4.11,4.17,4.20,4.20,4.20,4.20,4.20,4.20,4.20,4.20,4.21,4.24,4.30,4.30,4.30,4.30,4.30,4.30,4.30,4.30,4.34,4.40,4.40,4.40,4.40,4.40,4.40,4.41,4.45,4.50,4.50,4.50,4.50,4.50,4.50,4.51,4.57,4.60,4.60,4.60,4.60,4.60,4.60,4.62,4.69,4.70,4.70,4.70,4.70,4.70,4.70,4.73,4.80,4.80,4.80,4.80,4.80,4.80,4.81,4.81,4.83,4.90,4.90,4.90,4.90,4.90,4.90,4.90,4.90,4.90,4.90,4.91,4.91,4.93,5.00,5.00,5.01,5.01,5.02,5.09,5.10,5.10,5.11,5.11,5.18,5.20,5.20,5.22,5.29,5.30,5.30,5.32,5.39,5.41,5.41,5.43,5.50,5.51,5.56,5.60,5.60,5.61,5.67,5.70,5.70,5.70,5.70,5.70,5.71,5.72,5.79,5.80,5.80,5.80,5.80,5.80,5.80,5.80,5.81,5.81,5.86,5.90,5.90,5.90,5.90,5.90,5.90,5.90,5.91,5.91,5.94,6.00,6.01,6.01,6.04,6.10,6.11,6.11,6.16,6.21,6.21,6.28,6.30,6.31,6.32,6.40,6.41,6.45,6.50,6.51,6.51,6.56,6.61,6.61,6.68,6.71,6.71,6.72,6.80,6.81,6.85,6.90,6.91,6.91,6.96,7.01,7.02,7.09,7.11,7.11,7.13,7.21,7.21,7.26
11.39,10.26,9.71,9.47,9.24,8.98,8.70,8.45,8.22,7.98,7.74,7.49,7.26,6.99,6.72,6.49,6.26,6.05,5.83,5.61,5.43,5.20,4.96,4.71,4.47,4.16,3.86,3.61,3.44,3.39,3.36,3.35,3.34,3.28,3.26,3.21,3.17,3.15,3.15,3.11,3.07,3.04,2.98,2.96,2.92,2.87,2.86,2.92,2.97,3.04,3.12,3.19,3.27,3.35,3.42,3.47,3.55,3.63,3.68,3.71,3.79,3.86,3.93,3.98,4.00,4.00,4.00,4.00,4.00,4.00,4.00,4.03,4.08,4.10,4.10,4.10,4.10,4.10,4.10,4.10,4.10,4.11,4.16,4.19,4.20,4.20,4.20,4.20,4.20,4.20,4.20,4.20,4.24,4.28,4.30,4.30,4.30,4.30,4.30,4.30,4.30,4.34,4.38,4.40,4.40,4.40,4.40,4.40,4.40,4.45,4.49,4.50,4.50,4.50,4.50,4.50,4.51,4.57,4.59,4.60,4.60,4.60,4.60,4.60,4.62,4.67,4.70,4.70,4.70,4.70,4.70,4.70,4.74,4.78,4.80,4.80,4.80,4.80,4.80,4.80,4.85,4.87,4.88,4.90,4.90,4.90,4.90,4.90,4.90,4.90,4.90,4.90,4.90,4.95,4.97,4.98,5.00,5.00,5.04,5.07,5.08,5.10,5.10,5.13,5.17,5.17,5.19,5.20,5.22,5.27,5.30,5.30,5.33,5.38,5.40,5.45,5.47,5.48,5.50,5.56,5.59,5.60,5.61,5.66,5.69,5.70,5.70,5.70,5.70,5.74,5.77,5.77,5.80,5.80,5.80,5.80,5.80,5.80,5.80,5.82,5.87,5.87,5.89,5.90,5.90,5.90,5.90,5.90,5.90,5.90,5.95,5.97,5.98,6.00,6.06,6.07,6.08,6.11,6.17,6.17,6.22,6.27,6.27,6.29,6.34,6.37,6.38,6.46,6.47,6.48,6.51,6.57,6.57,6.62,6.67,6.67,6.70,6.74,6.77,6.79,6.86,6.87,6.89,6.92,6.97,6.97,7.03,7.07,7.08,7.10,7.15,7.17,7.19,7.27,7.27,7.29
11.09,10.01,9.64,9.41,9.16,8.89,8.61,8.38,8.15,7.92,7.69,7.46,7.22,6.94,6.66,6.43,6.20,5.97,5.73,5.52,5.33,5.13,4.91,4.68,4.44,4.16,3.86,3.57,3.34,3.24,3.23,3.21,3.18,3.13,3.10,3.05,3.01,2.99,2.99,2.95,2.91,2.88,2.83,2.80,2.78,2.77,2.81,2.88,2.96,3.04,3.12,3.19,3.27,3.35,3.42,3.50,3.58,3.66,3.71,3.74,3.79,3.86,3.94,4.00,4.00,4.00,4.00,4.00,4.00,4.00,4.02,4.06,4.10,4.10,4.10,4.10,4.10,4.10,4.10,4.10,4.10,4.11,4.19,4.20,4.20,4.20,4.20,4.20,4.20,4.20,4.20,4.23,4.27,4.30,4.30,4.30,4.30,4.30,4.30,4.30,4.33,4.37,4.40,4.40,4.40,4.40,4.40,4.41,4.43,4.48,4.50,4.50,4.50,4.50,4.50,4.51,4.54,4.59,4.60,4.60,4.60,4.60,4.60,4.62,4.66,4.70,4.70,4.70,4.70,4.70,4.70,4.73,4.77,4.80,4.80,4.80,4.80,4.80,4.80,4.83,4.88,4.90,4.90,4.90,4.90,4.90,4.91,4.94,4.94,4.94,4.94,4.94,4.94,4.98,5.00,5.01,5.04,5.04,5.07,5.10,5.10,5.13,5.14,5.16,5.20,5.20,5.23,5.24,5.26,5.30,5.33,5.34,5.36,5.41,5.43,5.48,5.50,5.51,5.54,5.59,5.62,5.64,5.64,5.69,5.70,5.70,5.71,5.74,5.74,5.77,5.80,5.80,5.80,5.80,5.80,5.80,5.80,5.83,5.84,5.85,5.90,5.90,5.90,5.90,5.90,5.90,5.90,5.92,5.94,5.94,5.98,6.02,6.04,6.04,6.09,6.12,6.14,6.15,6.20,6.23,6.27,6.31,6.34,6.34,6.37,6.41,6.44,6.49,6.52,6.54,6.55,6.60,6.63,6.67,6.71,6.74,6.74,6.77,6.81,6.85,6.90,6.93,6.94,6.95,7.00,7.03,7.07,7.11,7.14,7.14,7.18,7.22,7.25,7.30,7.33,7.34
10.89,9.81,9.58,9.35,9.05,8.78,8.55,8.32,8.09,7.86,7.62,7.39,7.16,6.87,6.60,6.37,6.13,5.90,5.67,5.44,5.21,5.05,4.84,4.61,4.38,4.15,3.86,3.55,3.27,3.11,3.10,3.05,3.00,3.00,2.92,2.90,2.87,2.80,2.80,2.80,2.76,2.70,2.70,2.63,2.65,2.73,2.81,2.88,2.96,3.04,3.12,3.19,3.27,3.35,3.42,3.50,3.58,3.66,3.73,3.80,3.80,3.86,3.94,4.00,4.00,4.00,4.00,4.00,4.00,4.00,4.06,4.10,4.10,4.10,4.10,4.10,4.10,4.10,4.10,4.10,4.10,4.11,4.19,4.20,4.20,4.20,4.20,4.20,4.20,4.20,4.21,4.28,4.30,4.30,4.30,4.30,4.30,4.30,4.30,4.30,4.38,4.40,4.40,4.40,4.40,4.40,4.40,4.42,4.50,4.50,4.50,4.50,4.50,4.50,4.50,4.54,4.60,4.60,4.60,4.60,4.60,4.60,4.60,4.65,4.70,4.70,4.70,4.70,4.70,4.70,4.70,4.77,4.80,4.80,4.80,4.80,4.80,4.80,4.81,4.89,4.90,4.90,4.90,4.90,4.90,4.90,4.93,5.00,5.00,5.00,5.00,5.00,5.00,5.00,5.00,5.03,5.10,5.10,5.10,5.10,5.11,5.19,5.20,5.20,5.20,5.20,5.28,5.30,5.30,5.31,5.38,5.40,5.40,5.42,5.49,5.50,5.50,5.53,5.60,5.60,5.66,5.70,5.70,5.70,5.70,5.70,5.72,5.80,5.80,5.80,5.80,5.80,5.80,5.80,5.80,5.80,5.80,5.87,5.90,5.90,5.90,5.90,5.90,5.90,5.90,5.90,5.90,5.94,6.00,6.00,6.00,6.05,6.10,6.10,6.10,6.16,6.20,6.20,6.20,6.27,6.30,6.32,6.40,6.40,6.40,6.43,6.50,6.50,6.57,6.60,6.60,6.60,6.67,6.70,6.73,6.80,6.80,6.80,6.84,6.90,6.90,6.97,7.00,7.00,7.00,7.08,7.10,7.13,7.20,7.20,7.20,7.24,7.30,7.30,7.37,7.40
11.10,9.79,9.51,9.28,8.99,8.72,8.49,8.26,8.02,7.79,7.56,7.33,7.10,6.84,6.60,6.37,6.13,5.90,5.64,5.37,5.14,4.94,4.72,4.50,4.32,4.08,3.83,3.57,3.31,3.06,2.95,2.89,2.86,2.81,2.78,2.74,2.70,2.67,2.67,2.63,2.59,2.58,2.63,2.66,2.72,2.77,2.81,2.88,2.96,3.04,3.12,3.19,3.27,3.35,3.42,3.50,3.58,3.66,3.73,3.80,3.80,3.86,3.94,4.00,4.00,4.00,4.00,4.00,4.00,4.05,4.09,4.10,4.10,4.10,4.10,4.10,4.10,4.10,4.10,4.10,4.12,4.17,4.20,4.20,4.20,4.20,4.20,4.20,4.20,4.22,4.27,4.29,4.30,4.30,4.30,4.30,4.30,4.30,4.31,4.36,4.39,4.40,4.40,4.40,4.40,4.40,4.43,4.47,4.50,4.50,4.50,4.50,4.50,4.50,4.54,4.58,4.60,4.60,4.60,4.60,4.60,4.60,4.65,4.68,4.70,4.70,4.70,4.70,4.70,4.71,4.76,4.79,4.80,4.80,4.80,4.80,4.80,4.80,4.81,4.89,4.90,4.90,4.90,4.90,4.90,4.93,4.98,5.00,5.00,5.00,5.00,5.00,5.00,5.00,5.03,5.07,5.10,5.10,5.14,5.16,5.17,5.20,5.20,5.23,5.26,5.26,5.29,5.30,5.32,5.37,5.39,5.40,5.43,5.47,5.50,5.55,5.56,5.57,5.60,5.65,5.68,5.70,5.70,5.70,5.74,5.76,5.77,5.80,5.80,5.80,5.80,5.80,5.80,5.80,5.82,5.86,5.86,5.89,5.90,5.90,5.90,5.90,5.90,5.90,5.91,5.96,5.96,5.98,6.01,6.06,6.06,6.08,6.12,6.16,6.16,6.23,6.26,6.25,6.20,6.31,6.36,6.37,6.40,6.45,6.46,6.50,6.56,6.56,6.59,6.63,6.66,6.66,6.74,6.76,6.77,6.80,6.85,6.86,6.90,6.96,6.96,6.99,7.03,7.06,7.07,7.14,7.16,7.18,7.21,7.26,7.26,7.31,7.36,7.36,7.39,7.43
11.49,10.04,9.56,9.31,9.03,8.76,8.51,8.28,8.04,7.80,7.55,7.32,7.07,6.83,6.59,6.34,6.11,5.87,5.61,5.34,5.11,4.88,4.64,4.43,4.25,4.02,3.79,3.56,3.31,3.03,2.82,2.73,2.70,2.64,2.62,2.58,2.54,2.54,2.52,2.49,2.48,2.52,2.60,2.67,2.75,2.81,2.83,2.91,2.97,3.04,3.12,3.19,3.27,3.35,3.42,3.50,3.58,3.66,3.72,3.77,3.80,3.86,3.94,4.00,4.00,4.00,4.00,4.01,4.03,4.09,4.10,4.10,4.10,4.10,4.10,4.10,4.10,4.10,4.10,4.12,4.15,4.20,4.20,4.20,4.20,4.20,4.20,4.20,4.21,4.25,4.30,4.30,4.30,4.30,4.30,4.30,4.30,4.31,4.34,4.40,4.40,4.40,4.40,4.40,4.40,4.42,4.46,4.50,4.50,4.50,4.50,4.50,4.50,4.52,4.57,4.60,4.60,4.60,4.60,4.60,4.61,4.63,4.68,4.70,4.70,4.70,4.70,4.70,4.71,4.74,4.80,4.80,4.80,4.80,4.80,4.80,4.82,4.83,4.84,4.89,4.90,4.90,4.90,4.90,4.92,4.97,5.00,5.00,5.02,5.03,5.03,5.03,5.03,5.03,5.06,5.11,5.13,5.13,5.17,5.20,5.20,5.23,5.23,5.26,5.30,5.30,5.30,5.31,5.35,5.40,5.42,5.43,5.46,5.50,5.53,5.58,5.61,5.63,5.63,5.69,5.72,5.73,5.73,5.73,5.78,5.80,5.80,5.80,5.80,5.80,5.80,5.80,5.82,5.83,5.86,5.90,5.90,5.90,5.90,5.90,5.90,5.90,5.92,5.93,5.94,5.99,6.02,6.03,6.05,6.13,6.13,6.13,6.16,6.23,6.23,6.27,6.30,6.29,6.23,6.35,6.41,6.43,6.43,6.51,6.53,6.55,6.60,6.62,6.63,6.67,6.73,6.73,6.78,6.81,6.83,6.83,6.91,6.93,6.96,7.00,7.03,7.03,7.07,7.13,7.13,7.18,7.22,7.23,7.24,7.32,7.33,7.36,7.41,7.43,7.43,7.48
12.11,10.63,9.75,9.44,9.19,8.92,8.63,8.40,8.17,7.90,7.62,7.38,7.08,6.83,6.57,6.27,6.04,5.81,5.58,5.34,5.11,4.88,4.64,4.41,4.19,3.96,3.72,3.49,3.26,3.02,2.73,2.57,2.52,2.51,2.44,2.42,2.42,2.41,2.34,2.38,2.45,2.52,2.60,2.67,2.75,2.83,2.90,2.98,3.00,3.04,3.12,3.19,3.27,3.35,3.42,3.50,3.58,3.66,3.70,3.72,3.79,3.86,3.94,4.00,4.00,4.00,4.00,4.03,4.09,4.10,4.10,4.10,4.10,4.10,4.10,4.10,4.10,4.10,4.10,4.15,4.19,4.20,4.20,4.20,4.20,4.20,4.20,4.20,4.25,4.29,4.30,4.30,4.30,4.30,4.30,4.30,4.30,4.34,4.39,4.40,4.40,4.40,4.40,4.40,4.40,4.46,4.50,4.50,4.50,4.50,4.50,4.50,4.50,4.57,4.60,4.60,4.60,4.60,4.60,4.60,4.62,4.69,4.70,4.70,4.70,4.70,4.70,4.70,4.74,4.79,4.80,4.80,4.80,4.80,4.80,4.80,4.85,4.89,4.89,4.90,4.90,4.90,4.90,4.90,4.97,5.00,5.00,5.01,5.08,5.09,5.09,5.09,5.09,5.09,5.10,5.12,5.19,5.19,5.20,5.20,5.21,5.28,5.29,5.30,5.30,5.30,5.30,5.35,5.39,5.41,5.48,5.49,5.49,5.52,5.59,5.60,5.64,5.69,5.69,5.70,5.75,5.79,5.79,5.79,5.80,5.80,5.80,5.80,5.80,5.80,5.80,5.81,5.88,5.89,5.89,5.90,5.90,5.90,5.90,5.90,5.90,5.90,5.95,5.99,5.99,6.00,6.06,6.09,6.11,6.19,6.19,6.19,6.22,6.29,6.29,6.30,6.30,6.30,6.29,6.37,6.44,6.49,6.49,6.57,6.59,6.59,6.61,6.68,6.69,6.73,6.79,6.79,6.80,6.85,6.89,6.90,6.97,6.99,6.99,7.01,7.08,7.09,7.14,7.19,7.19,7.20,7.25,7.29,7.30,7.38,7.39,7.40,7.42,7.49,7.49,7.54
12.89,11.39,10.20,9.67,9.38,9.11,8.81,8.53,8.30,8.02,7.74,7.50,7.19,6.91,6.64,6.37,6.10,5.82,5.57,5.34,5.11,4.88,4.61,4.36,4.12,3.89,3.66,3.43,3.20,2.97,2.70,2.50,2.38,2.33,2.30,2.26,2.25,2.29,2.30,2.37,2.44,2.52,2.60,2.67,2.75,2.83,2.90,2.94,2.98,3.04,3.12,3.19,3.27,3.35,3.42,3.50,3.58,3.66,3.70,3.71,3.79,3.86,3.94,4.00,4.00,4.00,4.00,4.03,4.10,4.10,4.10,4.10,4.10,4.10,4.10,4.10,4.10,4.10,4.14,4.18,4.20,4.20,4.20,4.20,4.20,4.20,4.20,4.24,4.28,4.30,4.30,4.30,4.30,4.30,4.30,4.30,4.34,4.38,4.40,4.40,4.40,4.40,4.40,4.41,4.45,4.48,4.50,4.50,4.50,4.50,4.50,4.52,4.56,4.59,4.60,4.60,4.60,4.60,4.60,4.63,4.67,4.70,4.70,4.70,4.70,4.70,4.70,4.74,4.77,4.80,4.80,4.80,4.80,4.80,4.80,4.85,4.88,4.90,4.90,4.90,4.90,4.90,4.90,4.90,4.98,5.00,5.02,5.06,5.09,5.10,5.10,5.10,5.10,5.10,5.13,5.17,5.20,5.20,5.23,5.26,5.26,5.30,5.30,5.32,5.36,5.36,5.36,5.38,5.42,5.46,5.49,5.53,5.56,5.56,5.60,5.64,5.68,5.70,5.70,5.74,5.78,5.80,5.80,5.80,5.80,5.80,5.80,5.80,5.84,5.86,5.86,5.86,5.89,5.90,5.90,5.90,5.90,5.90,5.90,5.91,5.96,5.96,6.01,6.06,6.06,6.06,6.12,6.16,6.16,6.20,6.24,6.26,6.27,6.30,6.35,6.36,6.36,6.36,6.36,6.39,6.45,6.51,6.56,6.59,6.63,6.66,6.66,6.69,6.74,6.77,6.81,6.85,6.86,6.88,6.92,6.96,6.99,7.03,7.06,7.06,7.10,7.14,7.18,7.21,7.26,7.26,7.28,7.32,7.36,7.39,7.44,7.46,7.46,7.50,7.54,7.58
13.67,12.13,10.68,9.88,9.53,9.26,8.95,8.65,8.41,8.13,7.84,7.59,7.28,6.98,6.71,6.46,6.16,5.86,5.59,5.35,5.11,4.88,4.60,4.33,4.10,3.85,3.62,3.38,3.15,2.92,2.68,2.44,2.25,2.16,2.18,2.14,2.13,2.21,2.29,2.37,2.44,2.52,2.60,2.67,2.75,2.82,2.88,2.90,2.96,3.04,3.12,3.19,3.27,3.35,3.42,3.50,3.58,3.64,3.69,3.71,3.79,3.86,3.94,4.00,4.00,4.00,4.01,4.04,4.10,4.10,4.10,4.10,4.10,4.10,4.10,4.10,4.10,4.12,4.18,4.20,4.20,4.20,4.20,4.20,4.20,4.20,4.22,4.28,4.30,4.30,4.30,4.30,4.30,4.30,4.30,4.32,4.37,4.40,4.40,4.40,4.40,4.40,4.41,4.43,4.49,4.50,4.50,4.50,4.50,4.50,4.51,4.54,4.60,4.60,4.60,4.60,4.60,4.60,4.61,4.66,4.70,4.70,4.70,4.70,4.70,4.70,4.72,4.77,4.80,4.80,4.80,4.80,4.80,4.81,4.82,4.88,4.90,4.90,4.90,4.90,4.90,4.90,4.90,4.92,4.98,5.01,5.04,5.10,5.10,5.11,5.12,5.12,5.12,5.12,5.16,5.20,5.20,5.22,5.27,5.30,5.30,5.30,5.31,5.35,5.40,5.40,5.41,5.42,5.44,5.50,5.52,5.57,5.60,5.60,5.62,5.68,5.71,5.72,5.72,5.78,5.80,5.80,5.80,5.80,5.80,5.81,5.82,5.82,5.88,5.90,5.90,5.90,5.90,5.90,5.90,5.90,5.92,5.92,5.92,5.94,6.02,6.02,6.07,6.11,6.12,6.12,6.17,6.21,6.22,6.22,6.28,6.31,6.32,6.32,6.39,6.41,6.42,6.42,6.42,6.42,6.46,6.53,6.62,6.62,6.66,6.71,6.72,6.72,6.78,6.82,6.84,6.90,6.91,6.92,6.95,7.02,7.02,7.07,7.11,7.12,7.12,7.19,7.22,7.24,7.30,7.32,7.32,7.35,7.42,7.42,7.47,7.51,7.52,7.52,7.59,7.62
14.40,12.77,11.16,10.01,9.60,9.33,9.02,8.71,8.47,8.19,7.89,7.59,7.28,7.02,6.75,6.46,6.22,5.92,5.65,5.40,5.11,4.88,4.63,4.39,4.16,3.86,3.62,3.38,3.15,2.92,2.63,2.37,2.17,2.04,2.10,2.11,2.13,2.21,2.29,2.37,2.44,2.52,2.60,2.67,2.75,2.80,2.82,2.89,2.96,3.04,3.12,3.19,3.27,3.35,3.42,3.50,3.58,3.61,3.64,3.71,3.79,3.86,3.94,4.00,4.00,4.00,4.04,4.09,4.10,4.10,4.10,4.10,4.10,4.10,4.10,4.10,4.12,4.18,4.20,4.20,4.20,4.20,4.20,4.20,4.20,4.22,4.28,4.30,4.30,4.30,4.30,4.30,4.30,4.30,4.31,4.38,4.39,4.40,4.40,4.40,4.40,4.40,4.43,4.48,4.50,4.50,4.50,4.50,4.50,4.50,4.54,4.59,4.60,4.60,4.60,4.60,4.60,4.60,4.66,4.69,4.70,4.70,4.70,4.70,4.70,4.71,4.77,4.79,4.80,4.80,4.80,4.80,4.80,4.82,4.88,4.90,4.90,4.90,4.90,4.90,4.90,4.90,4.92,4.98,5.00,5.04,5.09,5.10,5.10,5.15,5.18,5.18,5.18,5.18,5.19,5.20,5.20,5.27,5.29,5.30,5.30,5.30,5.36,5.39,5.40,5.40,5.46,5.48,5.49,5.51,5.57,5.59,5.60,5.61,5.68,5.70,5.74,5.78,5.78,5.80,5.80,5.80,5.80,5.80,5.80,5.84,5.88,5.88,5.90,5.90,5.90,5.90,5.90,5.90,5.90,5.91,5.98,5.98,5.98,6.01,6.08,6.08,6.09,6.13,6.18,6.18,6.19,6.24,6.28,6.28,6.30,6.34,6.38,6.38,6.40,6.45,6.48,6.48,6.48,6.48,6.49,6.54,6.68,6.68,6.69,6.73,6.78,6.78,6.85,6.88,6.89,6.90,6.96,6.98,7.01,7.08,7.08,7.09,7.13,7.18,7.18,7.25,7.28,7.29,7.30,7.37,7.38,7.42,7.48,7.48,7.49,7.53,7.58,7.58,7.66,7.68
14.85,13.18,11.51,10.12,9.63,9.34,9.04,8.77,8.50,8.21,7.91,7.64,7.33,7.05,6.78,6.51,6.24,5.97,5.70,5.43,5.16,4.92,4.67,4.41,4.18,3.90,3.66,3.41,3.15,2.92,2.65,2.40,2.20,2.05,2.13,2.17,2.21,2.26,2.34,2.41,2.47,2.52,2.60,2.64,2.70,2.77,2.81,2.88,2.96,3.04,3.12,3.19,3.27,3.35,3.42,3.50,3.54,3.58,3.63,3.71,3.79,3.86,3.94,4.01,4.05,4.05,4.07,4.10,4.10,4.10,4.10,4.10,4.10,4.10,4.10,4.12,4.16,4.20,4.20,4.20,4.20,4.20,4.20,4.20,4.22,4.26,4.30,4.30,4.30,4.30,4.30,4.30,4.30,4.32,4.35,4.40,4.40,4.40,4.40,4.40,4.40,4.43,4.46,4.50,4.50,4.50,4.50,4.50,4.50,4.53,4.57,4.60,4.60,4.60,4.60,4.60,4.61,4.64,4.68,4.70,4.70,4.70,4.70,4.70,4.71,4.75,4.79,4.80,4.80,4.80,4.80,4.80,4.82,4.86,4.90,4.90,4.90,4.90,4.90,4.90,4.93,4.95,4.96,5.00,5.04,5.08,5.10,5.10,5.14,5.18,5.20,5.20,5.20,5.20,5.22,5.25,5.25,5.29,5.30,5.32,5.35,5.35,5.38,5.40,5.41,5.45,5.49,5.50,5.51,5.55,5.59,5.63,5.65,5.66,5.70,5.73,5.77,5.80,5.80,5.80,5.80,5.80,5.81,5.84,5.85,5.87,5.90,5.90,5.90,5.90,5.90,5.90,5.90,5.93,5.95,5.96,6.00,6.03,6.05,6.06,6.10,6.14,6.15,6.17,6.21,6.24,6.25,6.27,6.31,6.35,6.35,6.40,6.45,6.45,6.45,6.51,6.55,6.55,6.55,6.51,6.52,6.58,6.70,6.74,6.75,6.78,6.85,6.85,6.88,6.92,6.95,6.95,7.02,7.05,7.06,7.10,7.14,7.15,7.18,7.25,7.25,7.28,7.32,7.35,7.35,7.43,7.45,7.46,7.50,7.54,7.55,7.59,7.65,7.65,7.69,7.72
15.19,13.48,11.78,10.21,9.66,9.36,9.06,8.82,8.52,8.22,7.93,7.69,7.39,7.08,6.80,6.56,6.25,6.01,5.73,5.45,5.21,4.98,4.70,4.42,4.19,3.96,3.73,3.46,3.17,2.94,2.71,2.48,2.28,2.13,2.20,2.28,2.33,2.34,2.41,2.49,2.52,2.54,2.62,2.63,2.68,2.75,2.83,2.91,2.98,3.05,3.12,3.19,3.27,3.35,3.42,3.49,3.50,3.56,3.63,3.71,3.79,3.86,3.94,4.02,4.09,4.10,4.10,4.10,4.10,4.10,4.10,4.10,4.10,4.10,4.11,4.15,4.20,4.20,4.20,4.20,4.20,4.20,4.20,4.21,4.25,4.30,4.30,4.30,4.30,4.30,4.30,4.30,4.31,4.34,4.40,4.40,4.40,4.40,4.40,4.40,4.41,4.46,4.50,4.50,4.50,4.50,4.50,4.50,4.50,4.57,4.60,4.60,4.60,4.60,4.60,4.60,4.61,4.69,4.70,4.70,4.70,4.70,4.70,4.71,4.74,4.80,4.80,4.80,4.80,4.80,4.80,4.81,4.85,4.90,4.90,4.90,4.90,4.90,4.90,4.91,4.97,5.00,5.00,5.01,5.08,5.10,5.10,5.12,5.19,5.20,5.20,5.21,5.21,5.21,5.25,5.30,5.30,5.31,5.31,5.34,5.40,5.40,5.41,5.41,5.43,5.50,5.51,5.51,5.54,5.60,5.61,5.67,5.70,5.70,5.71,5.77,5.80,5.80,5.80,5.80,5.81,5.81,5.82,5.89,5.90,5.90,5.90,5.90,5.90,5.90,5.90,5.91,5.91,5.97,6.00,6.01,6.01,6.07,6.11,6.11,6.11,6.18,6.21,6.21,6.22,6.30,6.31,6.31,6.33,6.41,6.41,6.46,6.50,6.51,6.51,6.57,6.60,6.61,6.60,6.54,6.55,6.62,6.70,6.78,6.81,6.84,6.90,6.91,6.91,6.95,7.01,7.01,7.08,7.11,7.11,7.12,7.19,7.21,7.24,7.30,7.31,7.31,7.36,7.41,7.41,7.48,7.51,7.51,7.52,7.60,7.61,7.65,7.70,7.71,7.71,7.76
15.51,13.69,11.89,10.23,9.70,9.42,9.11,8.82,8.57,8.28,7.98,7.69,7.44,7.15,6.85,6.56,6.31,6.03,5.76,5.50,5.21,4.98,4.73,4.49,4.25,4.02,3.79,3.55,3.30,3.07,2.84,2.61,2.42,2.32,2.34,2.41,2.47,2.53,2.55,2.61,2.65,2.67,2.75,2.81,2.84,2.88,2.96,3.03,3.06,3.11,3.18,3.20,3.27,3.35,3.41,3.43,3.48,3.56,3.63,3.71,3.79,3.86,3.94,4.00,4.02,4.08,4.10,4.10,4.10,4.10,4.10,4.10,4.10,4.10,4.15,4.19,4.20,4.20,4.20,4.20,4.20,4.20,4.20,4.25,4.29,4.30,4.30,4.30,4.30,4.30,4.30,4.30,4.34,4.38,4.40,4.40,4.40,4.40,4.40,4.40,4.46,4.49,4.50,4.50,4.50,4.50,4.50,4.50,4.50,4.57,4.60,4.60,4.60,4.60,4.60,4.60,4.61,4.69,4.70,4.70,4.70,4.70,4.70,4.74,4.78,4.80,4.80,4.80,4.80,4.80,4.80,4.85,4.89,4.90,4.90,4.90,4.90,4.90,4.91,4.97,4.99,5.00,5.02,5.07,5.09,5.10,5.12,5.18,5.20,5.20,5.23,5.27,5.27,5.27,5.29,5.30,5.30,5.36,5.37,5.38,5.40,5.40,5.45,5.47,5.48,5.50,5.56,5.57,5.58,5.61,5.66,5.69,5.70,5.71,5.77,5.79,5.80,5.80,5.80,5.80,5.84,5.87,5.88,5.90,5.90,5.90,5.90,5.90,5.90,5.90,5.92,5.97,5.97,5.99,6.03,6.07,6.07,6.09,6.14,6.17,6.18,6.19,6.24,6.27,6.29,6.36,6.37,6.37,6.40,6.47,6.47,6.49,6.52,6.57,6.57,6.59,6.63,6.66,6.61,6.58,6.59,6.62,6.70,6.78,6.84,6.88,6.91,6.97,6.97,7.02,7.07,7.07,7.09,7.14,7.17,7.18,7.26,7.27,7.28,7.31,7.37,7.37,7.42,7.47,7.48,7.49,7.54,7.57,7.58,7.66,7.67,7.69,7.71,7.77,7.77,7.83
15.71,13.86,12.01,10.25,9.69,9.42,9.14,8.83,8.56,8.29,8.00,7.69,7.46,7.17,6.86,6.57,6.33,6.06,5.81,5.56,5.29,5.05,4.82,4.59,4.36,4.13,3.89,3.66,3.43,3.20,2.97,2.74,2.55,2.48,2.48,2.53,2.61,2.68,2.68,2.74,2.79,2.83,2.88,2.95,2.98,3.01,3.08,3.16,3.18,3.22,3.28,3.31,3.36,3.42,3.49,3.52,3.56,3.63,3.70,3.75,3.83,3.90,3.96,4.01,4.04,4.08,4.10,4.10,4.10,4.10,4.10,4.10,4.11,4.14,4.18,4.20,4.20,4.20,4.20,4.20,4.20,4.20,4.23,4.28,4.30,4.30,4.30,4.30,4.30,4.30,4.30,4.33,4.38,4.40,4.40,4.40,4.40,4.40,4.41,4.44,4.49,4.50,4.50,4.50,4.50,4.50,4.50,4.51,4.54,4.58,4.60,4.60,4.60,4.60,4.60,4.61,4.65,4.69,4.70,4.70,4.70,4.70,4.70,4.75,4.80,4.80,4.80,4.80,4.80,4.80,4.80,4.87,4.90,4.90,4.90,4.90,4.90,4.90,4.91,4.99,5.00,5.02,5.05,5.10,5.10,5.12,5.16,5.20,5.20,5.22,5.26,5.30,5.30,5.33,5.34,5.34,5.34,5.39,5.40,5.41,5.44,5.44,5.48,5.50,5.51,5.54,5.59,5.60,5.61,5.64,5.69,5.72,5.74,5.75,5.80,5.80,5.80,5.81,5.84,5.84,5.87,5.90,5.90,5.90,5.90,5.90,5.90,5.90,5.93,5.94,5.96,6.00,6.03,6.04,6.06,6.11,6.14,6.14,6.19,6.24,6.24,6.24,6.30,6.34,6.35,6.39,6.43,6.44,6.45,6.50,6.53,6.54,6.56,6.60,6.63,6.64,6.66,6.69,6.64,6.64,6.64,6.65,6.70,6.78,6.88,6.94,6.95,6.99,7.03,7.06,7.11,7.14,7.14,7.17,7.21,7.24,7.29,7.32,7.34,7.35,7.40,7.43,7.47,7.51,7.54,7.54,7.57,7.61,7.64,7.69,7.72,7.74,7.75,7.80,7.83,7.87
15.83,13.98,12.12,10.27,9.65,9.38,9.13,8.82,8.51,8.25,8.00,7.69,7.46,7.17,6.87,6.57,6.34,6.11,5.87,5.64,5.41,5.18,4.95,4.72,4.48,4.25,4.02,3.79,3.56,3.33,3.09,2.86,2.68,2.60,2.61,2.66,2.74,2.81,2.81,2.87,2.95,3.00,3.00,3.08,3.11,3.14,3.21,3.29,3.31,3.34,3.42,3.50,3.50,3.55,3.63,3.70,3.70,3.76,3.81,3.82,3.89,3.97,4.00,4.02,4.10,4.10,4.10,4.10,4.10,4.10,4.10,4.10,4.12,4.19,4.20,4.20,4.20,4.20,4.20,4.20,4.20,4.21,4.29,4.30,4.30,4.30,4.30,4.30,4.30,4.30,4.31,4.38,4.40,4.40,4.40,4.40,4.40,4.40,4.42,4.50,4.50,4.50,4.50,4.50,4.50,4.50,4.50,4.52,4.60,4.60,4.60,4.60,4.60,4.60,4.60,4.64,4.70,4.70,4.70,4.70,4.70,4.70,4.70,4.76,4.80,4.80,4.80,4.80,4.80,4.80,4.80,4.87,4.90,4.90,4.90,4.90,4.90,4.90,4.92,4.99,5.00,5.04,5.10,5.10,5.10,5.15,5.20,5.20,5.20,5.26,5.30,5.30,5.30,5.37,5.40,5.40,5.40,5.40,5.40,5.44,5.50,5.50,5.50,5.50,5.52,5.60,5.60,5.60,5.63,5.70,5.70,5.76,5.80,5.80,5.80,5.80,5.80,5.83,5.90,5.90,5.90,5.90,5.90,5.90,5.90,5.90,5.90,5.90,5.98,6.00,6.00,6.01,6.09,6.10,6.10,6.12,6.20,6.20,6.25,6.30,6.30,6.30,6.36,6.40,6.40,6.40,6.47,6.50,6.50,6.50,6.58,6.60,6.60,6.61,6.69,6.70,6.70,6.70,6.70,6.70,6.70,6.70,6.70,6.78,6.91,7.00,7.00,7.00,7.07,7.10,7.12,7.20,7.20,7.20,7.23,7.30,7.30,7.36,7.40,7.40,7.40,7.47,7.50,7.53,7.60,7.60,7.60,7.64,7.70,7.70,7.77,7.80,7.80,7.80,7.88,7.90
15.80,13.89,12.00,10.25,9.61,9.29,9.01,8.76,8.45,8.19,7.93,7.63,7.45,7.21,6.95,6.70,6.47,6.19,5.97,5.77,5.54,5.31,5.08,4.84,4.61,4.38,4.15,3.92,3.69,3.45,3.22,2.99,2.81,2.73,2.79,2.82,2.87,2.94,2.99,3.02,3.08,3.13,3.13,3.21,3.27,3.31,3.34,3.42,3.47,3.51,3.55,3.62,3.63,3.68,3.76,3.83,3.83,3.89,3.95,4.00,4.03,4.10,4.13,4.14,4.17,4.17,4.13,4.10,4.10,4.10,4.10,4.12,4.17,4.20,4.20,4.20,4.20,4.20,4.20,4.20,4.22,4.27,4.30,4.30,4.30,4.30,4.30,4.30,4.30,4.32,4.37,4.39,4.40,4.40,4.40,4.40,4.40,4.43,4.47,4.50,4.50,4.50,4.50,4.50,4.50,4.50,4.53,4.57,4.60,4.60,4.60,4.60,4.60,4.60,4.64,4.68,4.70,4.70,4.70,4.70,4.70,4.70,4.75,4.78,4.80,4.80,4.80,4.80,4.80,4.81,4.86,4.89,4.90,4.90,4.90,4.90,4.90,4.92,4.97,5.00,5.00,5.04,5.10,5.10,5.15,5.18,5.20,5.21,5.26,5.29,5.30,5.31,5.36,5.39,5.40,5.40,5.40,5.45,5.47,5.48,5.50,5.50,5.54,5.57,5.57,5.60,5.65,5.67,5.68,5.71,5.76,5.79,5.80,5.80,5.80,5.85,5.87,5.87,5.90,5.90,5.90,5.90,5.90,5.90,5.90,5.93,5.97,5.97,5.99,6.03,6.07,6.07,6.15,6.17,6.17,6.18,6.26,6.27,6.28,6.32,6.37,6.37,6.39,6.42,6.47,6.47,6.49,6.53,6.57,6.57,6.59,6.63,6.67,6.67,6.75,6.77,6.77,6.77,6.77,6.77,6.77,6.75,6.70,6.83,6.94,7.02,7.07,7.07,7.13,7.17,7.17,7.20,7.25,7.27,7.29,7.37,7.37,7.39,7.42,7.47,7.47,7.54,7.57,7.57,7.60,7.65,7.67,7.70,7.77,7.77,7.79,7.83,7.87,7.87,7.94,7.97
15.86,13.95,12.06,10.29,9.58,9.23,8.95,8.72,8.46,8.22,7.97,7.68,7.51,7.29,7.05,6.80,6.56,6.29,6.06,5.88,5.67,5.44,5.20,4.97,4.74,4.51,4.28,4.05,3.81,3.58,3.35,3.12,2.94,2.86,2.94,2.96,2.99,3.07,3.15,3.16,3.20,3.27,3.29,3.34,3.41,3.47,3.49,3.55,3.62,3.66,3.68,3.75,3.78,3.82,3.88,3.96,3.98,4.03,4.09,4.16,4.16,4.23,4.26,4.25,4.23,4.23,4.18,4.12,4.10,4.10,4.12,4.16,4.20,4.20,4.20,4.20,4.20,4.20,4.20,4.22,4.25,4.30,4.30,4.30,4.30,4.30,4.30,4.30,4.32,4.35,4.40,4.40,4.40,4.40,4.40,4.40,4.42,4.46,4.50,4.50,4.50,4.50,4.50,4.50,4.50,4.52,4.56,4.60,4.60,4.60,4.60,4.60,4.60,4.62,4.67,4.70,4.70,4.70,4.70,4.70,4.71,4.73,4.78,4.80,4.80,4.80,4.80,4.80,4.80,4.82,4.89,4.90,4.90,4.90,4.90,4.90,4.90,4.94,5.00,5.00,5.02,5.06,5.11,5.13,5.18,5.20,5.21,5.24,5.29,5.32,5.33,5.34,5.40,5.40,5.41,5.43,5.43,5.49,5.50,5.51,5.53,5.53,5.58,5.60,5.61,5.63,5.68,5.70,5.71,5.74,5.79,5.82,5.83,5.83,5.83,5.88,5.90,5.90,5.90,5.90,5.90,5.90,5.90,5.93,5.93,5.97,6.03,6.03,6.03,6.08,6.13,6.14,6.19,6.22,6.23,6.24,6.30,6.32,6.33,6.35,6.40,6.42,6.43,6.45,6.50,6.53,6.53,6.57,6.63,6.63,6.63,6.68,6.73,6.73,6.79,6.82,6.83,6.83,6.83,6.83,6.82,6.78,6.73,6.86,6.96,7.03,7.10,7.13,7.18,7.21,7.23,7.23,7.30,7.33,7.35,7.40,7.43,7.43,7.47,7.53,7.53,7.58,7.61,7.63,7.63,7.71,7.73,7.75,7.80,7.83,7.83,7.87,7.93,7.93,7.98,8.02
16.02,14.16,12.30,10.38,9.57,9.19,8.95,8.72,8.55,8.34,8.11,7.87,7.65,7.42,7.15,6.86,6.63,6.39,6.16,5.95,5.79,5.56,5.33,5.10,4.87,4.64,4.40,4.17,3.94,3.71,3.48,3.25,3.06,2.99,3.07,3.09,3.12,3.20,3.28,3.29,3.33,3.41,3.48,3.49,3.54,3.62,3.68,3.69,3.75,3.79,3.80,3.88,3.95,3.98,4.01,4.09,4.16,4.19,4.22,4.29,4.29,4.35,4.39,4.37,4.30,4.29,4.24,4.17,4.10,4.10,4.16,4.20,4.20,4.20,4.20,4.20,4.20,4.20,4.20,4.25,4.30,4.30,4.30,4.30,4.30,4.30,4.30,4.30,4.35,4.40,4.40,4.40,4.40,4.40,4.40,4.40,4.46,4.50,4.50,4.50,4.50,4.50,4.50,4.50,4.50,4.56,4.60,4.60,4.60,4.60,4.60,4.60,4.60,4.68,4.70,4.70,4.70,4.70,4.70,4.70,4.72,4.79,4.80,4.80,4.80,4.80,4.80,4.80,4.80,4.82,4.89,4.90,4.90,4.90,4.90,4.90,4.90,4.94,5.00,5.00,5.06,5.10,5.12,5.19,5.20,5.20,5.23,5.29,5.30,5.36,5.39,5.40,5.40,5.40,5.45,5.49,5.49,5.50,5.50,5.53,5.59,5.59,5.60,5.60,5.62,5.69,5.70,5.70,5.73,5.79,5.80,5.86,5.89,5.89,5.89,5.90,5.90,5.90,5.90,5.90,5.90,5.90,5.91,5.98,5.99,6.04,6.09,6.09,6.09,6.15,6.19,6.19,6.20,6.26,6.29,6.29,6.30,6.37,6.39,6.40,6.40,6.47,6.49,6.50,6.51,6.58,6.59,6.64,6.69,6.69,6.69,6.75,6.79,6.79,6.80,6.86,6.89,6.89,6.89,6.89,6.85,6.80,6.80,6.88,6.96,7.03,7.11,7.18,7.20,7.24,7.29,7.29,7.37,7.39,7.40,7.41,7.48,7.49,7.53,7.59,7.59,7.60,7.64,7.69,7.70,7.77,7.79,7.80,7.81,7.88,7.89,7.94,7.99,7.99,8.00,8.05
