8.65,8.69,8.69,8.70,8.70,8.70,8.70,8.70,8.76,8.80,8.80,8.80,8.80,8.85,8.89,8.90,8.90,8.96,8.99,8.99,9.00,9.00,9.05,9.09,9.09,9.09,9.09,9.09,9.09,9.09,9.09,9.09,9.09,9.09,9.02,9.00,9.00,9.00,9.00,9.00,9.00,9.00,9.00,9.07,9.10,9.16,9.30,9.46,9.56,9.68,9.82,9.89,10.04,10.19,10.35,10.49,10.58,10.66,10.77,10.91,10.91,10.91,10.91,10.92,10.92,10.92,10.92,10.92,10.92,10.92,10.92,10.95,11.03,11.11,11.12,11.17,11.24,11.32,11.39,11.42,11.45,11.53,11.60,11.68,11.72,11.74,11.81,11.89,11.97,12.02,12.03,12.10,12.18,12.29,12.43,12.58,12.74,12.90,13.03,13.12,13.27,13.42,13.57,13.73,13.88,14.04,14.19,14.34,14.50,14.65,14.81,14.94,15.02,15.17,15.27,15.42,15.63,15.78,15.93,16.04,16.14,16.29,16.37,16.45,16.52,16.59,16.61,16.61,16.65,16.70,16.70,16.70,16.75,16.83,16.90,16.98,17.06,17.14,17.21,17.29,17.30,17.30,17.30,17.30,17.30,17.30,17.30,17.30,17.30,17.30,17.30,17.30,17.30,17.30,17.30,17.30,17.30,17.30,17.30,17.30,17.30,17.29,17.29,17.29,17.29,17.29,17.29,17.29,17.29,17.29,17.29,17.29,17.29,17.29,17.29,17.29,17.29,17.32,17.38,17.39,17.44,17.49,17.50,17.57,17.59,17.63,17.69,17.69,17.76,17.79,17.82,17.88,17.89,17.95,17.99,18.04,18.28,18.58,18.89,19.18,19.41,19.72,19.92,20.04,20.11,20.11,20.11,20.15,20.20,20.20,20.20,20.25,20.29,20.29,20.29,20.30,20.30,20.30,20.30,20.30,20.30,20.30,20.30,20.30,20.35,20.36,20.30,20.30,20.30,20.30,20.30,20.30,20.29,20.29,20.27,20.20,20.20,20.20,20.20,20.20,20.19,20.19,20.15,20.10,20.10,20.10,20.10,20.10,20.10,20.09,20.09,20.13,20.19,20.20,20.27,20.35
8.68,8.70,8.70,8.70,8.73,8.76,8.76,8.76,8.79,8.80,8.81,8.86,8.86,8.88,8.90,8.91,8.95,8.98,9.00,9.00,9.00,9.04,9.08,9.10,9.10,9.10,9.10,9.10,9.10,9.10,9.10,9.10,9.10,9.10,9.06,9.06,9.06,9.06,9.06,9.06,9.06,9.06,9.06,9.09,9.13,9.20,9.31,9.42,9.54,9.65,9.76,9.84,9.98,10.14,10.28,10.39,10.51,10.60,10.69,10.79,10.79,10.79,10.79,10.79,10.79,10.83,10.84,10.84,10.84,10.84,10.81,10.83,10.89,10.93,10.97,11.03,11.11,11.19,11.22,11.26,11.32,11.40,11.48,11.52,11.56,11.61,11.68,11.76,11.81,11.85,11.90,12.02,12.14,12.25,12.37,12.53,12.68,12.84,12.97,13.04,13.20,13.35,13.51,13.66,13.82,13.97,14.13,14.28,14.44,14.59,14.74,14.89,15.01,15.12,15.20,15.33,15.52,15.67,15.82,15.96,16.10,16.30,16.42,16.51,16.57,16.60,16.60,16.60,16.62,16.64,16.64,16.68,16.72,16.77,16.85,16.97,17.06,17.14,17.21,17.29,17.34,17.36,17.36,17.36,17.36,17.36,17.36,17.36,17.36,17.36,17.36,17.36,17.36,17.36,17.36,17.36,17.36,17.36,17.36,17.36,17.36,17.36,17.36,17.36,17.36,17.36,17.36,17.33,17.30,17.30,17.30,17.30,17.30,17.31,17.35,17.36,17.38,17.42,17.46,17.50,17.54,17.58,17.62,17.65,17.69,17.73,17.77,17.81,17.84,17.89,17.92,17.96,18.00,18.07,18.11,18.14,18.29,18.54,18.84,19.13,19.41,19.67,19.89,20.03,20.10,20.10,20.10,20.14,20.20,20.20,20.20,20.22,20.24,20.24,20.24,20.24,20.24,20.24,20.24,20.28,20.30,20.30,20.30,20.30,20.36,20.39,20.36,20.36,20.32,20.30,20.30,20.30,20.30,20.30,20.29,20.26,20.26,20.22,20.20,20.20,20.20,20.20,20.18,20.16,20.16,20.11,20.10,20.10,20.10,20.10,20.14,20.17,20.21,20.25,20.33,20.41
8.70,8.71,8.72,8.72,8.77,8.80,8.80,8.80,8.81,8.82,8.84,8.90,8.90,8.91,8.92,8.93,8.99,9.00,9.01,9.02,9.02,9.08,9.10,9.11,9.12,9.12,9.12,9.11,9.10,9.10,9.10,9.10,9.10,9.10,9.10,9.10,9.10,9.10,9.10,9.10,9.10,9.10,9.10,9.10,9.15,9.23,9.31,9.40,9.53,9.64,9.72,9.79,9.93,10.06,10.18,10.26,10.40,10.51,10.59,10.66,10.66,10.67,10.68,10.68,10.68,10.74,10.76,10.76,10.76,10.76,10.71,10.71,10.76,10.76,10.83,10.91,10.98,11.04,11.06,11.12,11.19,11.27,11.33,11.35,11.40,11.48,11.56,11.62,11.66,11.71,11.81,11.95,12.10,12.22,12.33,12.48,12.62,12.77,12.91,13.00,13.14,13.29,13.44,13.60,13.75,13.91,14.06,14.22,14.37,14.53,14.68,14.84,15.00,15.08,15.16,15.27,15.40,15.54,15.71,15.87,16.04,16.26,16.41,16.51,16.57,16.58,16.58,16.59,16.60,16.60,16.60,16.66,16.69,16.73,16.81,16.95,17.04,17.12,17.19,17.27,17.35,17.39,17.40,17.42,17.42,17.42,17.42,17.42,17.42,17.42,17.42,17.42,17.42,17.42,17.42,17.42,17.42,17.40,17.40,17.40,17.40,17.40,17.40,17.40,17.40,17.40,17.40,17.36,17.32,17.32,17.32,17.33,17.34,17.36,17.43,17.44,17.49,17.54,17.54,17.62,17.64,17.67,17.74,17.74,17.81,17.84,17.86,17.94,17.94,17.99,18.04,18.05,18.12,18.19,18.23,18.25,18.31,18.52,18.79,19.10,19.39,19.62,19.85,20.01,20.08,20.08,20.09,20.13,20.18,20.18,20.18,20.19,20.20,20.20,20.20,20.20,20.20,20.20,20.20,20.26,20.29,20.30,20.30,20.30,20.36,20.40,20.40,20.40,20.35,20.32,20.32,20.30,20.30,20.30,20.30,20.30,20.30,20.25,20.21,20.20,20.20,20.20,20.20,20.20,20.20,20.14,20.12,20.12,20.12,20.10,20.16,20.21,20.24,20.32,20.39,20.46
8.70,8.73,8.78,8.78,8.79,8.80,8.80,8.80,8.86,8.88,8.89,8.90,8.90,8.95,8.98,8.99,9.00,9.00,9.04,9.08,9.08,9.10,9.10,9.12,9.18,9.18,9.18,9.15,9.10,9.10,9.10,9.10,9.10,9.10,9.10,9.10,9.10,9.10,9.10,9.10,9.10,9.10,9.10,9.10,9.15,9.23,9.31,9.45,9.55,9.64,9.72,9.79,9.88,9.97,10.06,10.13,10.22,10.35,10.47,10.53,10.53,10.59,10.62,10.62,10.62,10.63,10.63,10.63,10.63,10.63,10.62,10.62,10.63,10.63,10.70,10.78,10.84,10.85,10.91,10.99,11.07,11.13,11.15,11.20,11.27,11.35,11.43,11.45,11.53,11.67,11.81,11.90,12.04,12.18,12.33,12.48,12.58,12.71,12.86,13.00,13.09,13.23,13.38,13.54,13.69,13.84,14.00,14.15,14.31,14.46,14.62,14.79,15.00,15.08,15.16,15.24,15.33,15.42,15.63,15.81,15.97,16.13,16.29,16.39,16.46,16.52,16.52,16.57,16.60,16.60,16.60,16.61,16.66,16.73,16.80,16.89,16.97,17.05,17.13,17.21,17.28,17.35,17.42,17.48,17.48,17.48,17.48,17.48,17.48,17.48,17.48,17.48,17.48,17.48,17.48,17.48,17.48,17.42,17.40,17.40,17.40,17.40,17.40,17.40,17.40,17.40,17.40,17.39,17.38,17.38,17.38,17.44,17.47,17.48,17.56,17.57,17.62,17.67,17.67,17.75,17.77,17.80,17.87,17.87,17.93,17.97,17.99,18.06,18.07,18.12,18.17,18.17,18.25,18.28,18.32,18.37,18.38,18.54,18.79,19.08,19.32,19.56,19.79,19.95,20.02,20.02,20.07,20.11,20.12,20.12,20.12,20.16,20.20,20.20,20.20,20.20,20.20,20.20,20.20,20.21,20.26,20.30,20.30,20.30,20.36,20.40,20.40,20.40,20.39,20.38,20.37,20.30,20.30,20.30,20.30,20.30,20.30,20.29,20.25,20.20,20.20,20.20,20.20,20.20,20.20,20.19,20.18,20.18,20.18,20.11,20.16,20.23,20.30,20.38,20.46,20.49
8.75,8.76,8.80,8.80,8.80,8.82,8.85,8.85,8.88,8.90,8.91,8.95,8.95,8.98,9.00,9.01,9.04,9.05,9.07,9.10,9.10,9.14,9.15,9.16,9.20,9.20,9.20,9.18,9.15,9.15,9.15,9.15,9.15,9.15,9.15,9.15,9.15,9.15,9.15,9.15,9.15,9.15,9.15,9.15,9.17,9.23,9.31,9.47,9.56,9.64,9.72,9.79,9.84,9.90,9.97,10.01,10.08,10.19,10.29,10.36,10.40,10.47,10.51,10.51,10.51,10.51,10.51,10.51,10.51,10.51,10.51,10.51,10.51,10.51,10.57,10.65,10.71,10.71,10.78,10.86,10.94,11.01,11.01,11.07,11.15,11.22,11.30,11.37,11.48,11.61,11.76,11.87,12.02,12.16,12.28,12.44,12.55,12.67,12.80,12.95,13.07,13.21,13.35,13.47,13.63,13.78,13.93,14.08,14.20,14.39,14.55,14.73,14.96,15.03,15.11,15.21,15.31,15.39,15.54,15.70,15.85,16.00,16.12,16.21,16.29,16.36,16.40,16.47,16.52,16.56,16.60,16.60,16.65,16.73,16.80,16.88,16.96,17.04,17.11,17.19,17.27,17.34,17.42,17.50,17.50,17.50,17.50,17.50,17.50,17.50,17.50,17.50,17.50,17.50,17.50,17.50,17.50,17.46,17.45,17.45,17.45,17.45,17.45,17.45,17.45,17.45,17.45,17.45,17.45,17.45,17.49,17.53,17.57,17.60,17.64,17.68,17.72,17.76,17.80,17.84,17.87,17.91,17.95,17.99,18.03,18.07,18.11,18.15,18.18,18.25,18.29,18.30,18.38,18.39,18.43,18.49,18.49,18.57,18.77,19.04,19.31,19.50,19.70,19.87,20.00,20.00,20.03,20.07,20.10,20.10,20.10,20.13,20.15,20.15,20.15,20.18,20.20,20.20,20.20,20.20,20.25,20.30,20.30,20.30,20.36,20.40,20.40,20.40,20.40,20.40,20.39,20.35,20.35,20.32,20.30,20.30,20.30,20.30,20.28,20.25,20.25,20.21,20.20,20.20,20.20,20.20,20.20,20.20,20.19,20.15,20.21,20.29,20.36,20.40,20.47,20.52
8.80,8.80,8.80,8.81,8.81,8.85,8.90,8.90,8.90,8.91,8.93,9.00,9.00,9.01,9.01,9.02,9.09,9.10,9.10,9.11,9.11,9.18,9.20,9.20,9.20,9.20,9.20,9.20,9.20,9.20,9.20,9.20,9.20,9.20,9.20,9.20,9.20,9.20,9.20,9.20,9.20,9.20,9.20,9.20,9.21,9.24,9.32,9.47,9.56,9.64,9.71,9.78,9.80,9.84,9.89,9.90,9.97,10.04,10.11,10.18,10.26,10.34,10.38,10.38,10.38,10.39,10.39,10.39,10.39,10.39,10.39,10.39,10.39,10.39,10.45,10.52,10.57,10.58,10.66,10.73,10.81,10.87,10.88,10.94,11.02,11.11,11.20,11.34,11.44,11.56,11.71,11.86,12.01,12.13,12.23,12.37,12.53,12.64,12.75,12.90,13.05,13.20,13.32,13.42,13.57,13.73,13.89,14.03,14.11,14.32,14.50,14.68,14.90,14.98,15.06,15.17,15.30,15.38,15.46,15.59,15.73,15.88,15.95,16.03,16.11,16.19,16.26,16.34,16.42,16.50,16.58,16.60,16.65,16.73,16.80,16.88,16.96,17.04,17.11,17.19,17.27,17.34,17.42,17.50,17.51,17.51,17.51,17.51,17.51,17.51,17.51,17.51,17.51,17.51,17.51,17.51,17.51,17.51,17.51,17.51,17.51,17.51,17.50,17.50,17.50,17.50,17.51,17.51,17.51,17.53,17.60,17.62,17.66,17.71,17.72,17.79,17.82,17.85,17.91,17.92,17.98,18.02,18.03,18.11,18.12,18.17,18.22,18.22,18.30,18.37,18.41,18.43,18.50,18.52,18.56,18.62,18.62,18.62,18.75,18.99,19.29,19.45,19.60,19.79,19.98,20.00,20.00,20.04,20.09,20.09,20.10,20.10,20.10,20.10,20.10,20.16,20.20,20.20,20.20,20.21,20.25,20.30,20.30,20.31,20.36,20.40,20.40,20.41,20.40,20.40,20.40,20.40,20.40,20.35,20.31,20.31,20.30,20.30,20.30,20.30,20.30,20.24,20.21,20.21,20.20,20.20,20.20,20.20,20.20,20.21,20.28,20.35,20.40,20.41,20.48,20.56
8.80,8.80,8.81,8.86,8.88,8.88,8.90,8.90,8.90,8.94,8.98,9.00,9.00,9.04,9.08,9.08,9.10,9.10,9.13,9.18,9.18,9.19,9.20,9.20,9.20,9.20,9.20,9.20,9.20,9.20,9.20,9.20,9.20,9.20,9.20,9.20,9.20,9.20,9.20,9.20,9.20,9.20,9.20,9.20,9.24,9.30,9.38,9.48,9.56,9.64,9.70,9.72,9.78,9.81,9.84,9.90,9.92,9.94,9.96,9.99,10.13,10.21,10.25,10.25,10.25,10.31,10.32,10.32,10.32,10.32,10.32,10.32,10.32,10.32,10.34,10.36,10.39,10.45,10.53,10.61,10.66,10.68,10.74,10.81,10.92,11.06,11.19,11.29,11.41,11.56,11.71,11.80,11.94,12.09,12.22,12.31,12.46,12.61,12.75,12.90,13.00,13.13,13.28,13.42,13.57,13.73,13.91,14.09,14.17,14.34,14.50,14.68,14.90,14.98,15.06,15.15,15.24,15.32,15.44,15.56,15.65,15.75,15.83,15.90,15.98,16.06,16.14,16.21,16.29,16.38,16.52,16.58,16.65,16.73,16.80,16.88,16.96,17.04,17.11,17.19,17.27,17.34,17.42,17.50,17.56,17.58,17.58,17.58,17.58,17.58,17.58,17.58,17.58,17.58,17.58,17.58,17.58,17.58,17.58,17.58,17.58,17.58,17.52,17.50,17.50,17.50,17.56,17.58,17.60,17.65,17.67,17.72,17.76,17.79,17.85,17.87,17.91,17.96,17.98,18.04,18.11,18.15,18.16,18.24,18.25,18.29,18.35,18.35,18.43,18.46,18.50,18.55,18.57,18.62,18.69,18.75,18.75,18.75,18.79,18.93,19.23,19.38,19.54,19.70,19.87,19.98,20.00,20.01,20.02,20.02,20.08,20.10,20.10,20.10,20.10,20.16,20.20,20.20,20.20,20.25,20.29,20.30,20.30,20.36,20.39,20.40,20.41,20.47,20.43,20.40,20.40,20.40,20.40,20.39,20.38,20.37,20.31,20.30,20.30,20.30,20.30,20.28,20.28,20.26,20.20,20.20,20.20,20.20,20.21,20.27,20.34,20.39,20.41,20.47,20.55,20.63
8.82,8.84,8.84,8.89,8.90,8.90,8.91,8.94,8.94,8.97,9.00,9.00,9.03,9.07,9.10,9.10,9.10,9.13,9.17,9.20,9.20,9.23,9.24,9.24,9.24,9.24,9.24,9.24,9.24,9.24,9.24,9.24,9.24,9.24,9.24,9.24,9.24,9.24,9.24,9.24,9.24,9.23,9.20,9.20,9.23,9.29,9.37,9.44,9.52,9.60,9.67,9.70,9.74,9.78,9.81,9.86,9.86,9.86,9.87,9.91,10.01,10.06,10.10,10.12,10.12,10.20,10.22,10.22,10.22,10.22,10.22,10.22,10.22,10.22,10.22,10.22,10.25,10.32,10.40,10.46,10.50,10.54,10.64,10.75,10.87,11.00,11.15,11.26,11.38,11.52,11.67,11.78,11.90,12.03,12.18,12.29,12.44,12.59,12.75,12.94,13.05,13.19,13.34,13.50,13.65,13.83,14.02,14.20,14.27,14.42,14.56,14.70,14.87,14.97,15.06,15.14,15.22,15.33,15.45,15.55,15.62,15.70,15.78,15.85,15.93,16.01,16.09,16.16,16.24,16.33,16.45,16.53,16.61,16.70,16.80,16.88,16.96,17.04,17.11,17.19,17.27,17.34,17.42,17.50,17.58,17.60,17.60,17.60,17.60,17.60,17.60,17.60,17.60,17.60,17.60,17.60,17.60,17.60,17.60,17.60,17.60,17.60,17.56,17.56,17.58,17.58,17.65,17.68,17.71,17.78,17.78,17.84,17.88,17.89,17.97,17.98,18.03,18.08,18.08,18.16,18.21,18.25,18.29,18.33,18.36,18.40,18.45,18.48,18.55,18.58,18.61,18.68,18.68,18.74,18.82,18.88,18.88,18.88,18.88,18.95,19.17,19.32,19.47,19.63,19.78,19.94,19.99,20.00,20.00,20.00,20.05,20.08,20.10,20.10,20.10,20.16,20.20,20.20,20.20,20.27,20.30,20.30,20.30,20.38,20.40,20.40,20.41,20.49,20.46,20.44,20.43,20.40,20.40,20.40,20.40,20.40,20.35,20.34,20.32,20.30,20.30,20.30,20.30,20.29,20.24,20.24,20.24,20.24,20.25,20.29,20.36,20.42,20.46,20.54,20.61,20.67
8.85,8.90,8.90,8.90,8.90,8.90,8.92,8.99,9.00,9.00,9.00,9.01,9.08,9.10,9.10,9.10,9.10,9.17,9.20,9.20,9.20,9.28,9.30,9.30,9.30,9.30,9.30,9.30,9.30,9.30,9.30,9.30,9.30,9.30,9.30,9.30,9.30,9.30,9.30,9.30,9.30,9.28,9.21,9.20,9.20,9.23,9.31,9.38,9.46,9.54,9.61,9.69,9.70,9.74,9.80,9.80,9.80,9.80,9.83,9.90,9.90,9.90,9.94,10.00,10.00,10.07,10.09,10.09,10.09,10.10,10.10,10.10,10.09,10.09,10.09,10.09,10.12,10.19,10.27,10.30,10.33,10.42,10.57,10.73,10.84,10.94,11.09,11.24,11.35,11.46,11.61,11.76,11.86,11.98,12.13,12.29,12.44,12.60,12.78,13.01,13.16,13.32,13.47,13.62,13.78,14.00,14.19,14.32,14.40,14.55,14.66,14.73,14.81,14.97,15.06,15.14,15.23,15.38,15.47,15.55,15.62,15.70,15.78,15.85,15.93,16.01,16.09,16.16,16.24,16.32,16.39,16.47,16.55,16.65,16.80,16.88,16.96,17.03,17.11,17.19,17.27,17.34,17.42,17.50,17.58,17.60,17.60,17.60,17.60,17.60,17.60,17.60,17.60,17.60,17.60,17.60,17.60,17.60,17.60,17.60,17.60,17.60,17.60,17.65,17.70,17.71,17.78,17.80,17.84,17.90,17.91,17.97,18.00,18.02,18.10,18.10,18.15,18.21,18.21,18.29,18.31,18.34,18.41,18.41,18.47,18.51,18.53,18.60,18.68,18.70,18.73,18.80,18.81,18.87,18.94,19.00,19.01,19.01,19.01,19.03,19.11,19.26,19.41,19.57,19.72,19.87,19.96,20.00,20.00,20.00,20.00,20.05,20.10,20.10,20.10,20.16,20.20,20.20,20.20,20.27,20.30,20.30,20.30,20.38,20.40,20.40,20.41,20.49,20.50,20.50,20.48,20.41,20.40,20.40,20.40,20.40,20.40,20.40,20.36,20.30,20.30,20.30,20.30,20.30,20.30,20.30,20.30,20.30,20.30,20.30,20.37,20.44,20.52,20.60,20.67,20.70
8.88,8.90,8.90,8.90,8.94,8.97,8.97,9.00,9.00,9.03,9.07,9.07,9.09,9.10,9.12,9.17,9.17,9.19,9.20,9.21,9.27,9.29,9.30,9.30,9.30,9.30,9.30,9.30,9.30,9.30,9.30,9.30,9.30,9.30,9.30,9.30,9.30,9.30,9.30,9.30,9.30,9.29,9.27,9.27,9.27,9.28,9.31,9.38,9.46,9.51,9.55,9.63,9.63,9.68,9.73,9.73,9.73,9.77,9.81,9.83,9.83,9.88,9.91,9.93,9.93,9.96,9.97,9.97,9.97,10.02,10.03,10.01,9.97,9.97,9.97,9.97,9.97,10.00,10.13,10.20,10.29,10.41,10.52,10.66,10.80,10.93,11.03,11.18,11.32,11.46,11.61,11.71,11.87,12.06,12.26,12.42,12.57,12.76,12.95,13.13,13.29,13.44,13.60,13.76,13.96,14.15,14.32,14.45,14.53,14.68,14.78,14.86,14.94,15.04,15.13,15.20,15.28,15.39,15.47,15.55,15.62,15.70,15.78,15.85,15.93,16.01,16.09,16.16,16.24,16.32,16.39,16.47,16.55,16.64,16.74,16.81,16.89,16.99,17.11,17.19,17.27,17.34,17.42,17.50,17.58,17.64,17.67,17.67,17.67,17.67,17.67,17.67,17.67,17.67,17.67,17.67,17.67,17.67,17.67,17.67,17.67,17.67,17.71,17.75,17.78,17.83,17.86,17.90,17.94,17.97,18.02,18.05,18.09,18.14,18.16,18.21,18.28,18.33,18.34,18.41,18.43,18.47,18.53,18.53,18.60,18.63,18.65,18.73,18.76,18.80,18.84,18.87,18.92,18.95,19.01,19.08,19.13,19.13,19.13,19.16,19.23,19.29,19.41,19.57,19.72,19.82,19.94,20.00,20.00,20.00,20.05,20.08,20.10,20.10,20.16,20.19,20.20,20.21,20.26,20.29,20.30,20.30,20.30,20.38,20.40,20.40,20.41,20.49,20.50,20.50,20.49,20.47,20.42,20.40,20.40,20.40,20.40,20.40,20.39,20.37,20.37,20.32,20.30,20.30,20.30,20.30,20.30,20.30,20.31,20.36,20.43,20.51,20.57,20.60,20.67,20.73
8.90,8.91,8.93,8.93,8.97,9.00,9.00,9.03,9.03,9.06,9.10,9.10,9.12,9.13,9.15,9.20,9.20,9.22,9.23,9.24,9.30,9.30,9.32,9.33,9.33,9.33,9.33,9.33,9.33,9.33,9.33,9.33,9.33,9.33,9.33,9.33,9.33,9.33,9.33,9.31,9.30,9.30,9.30,9.30,9.30,9.30,9.30,9.36,9.43,9.48,9.51,9.56,9.59,9.63,9.67,9.67,9.69,9.74,9.77,9.77,9.80,9.85,9.87,9.88,9.90,9.90,9.90,9.90,9.90,9.96,9.97,9.94,9.90,9.90,9.90,9.90,9.90,9.90,10.01,10.11,10.23,10.38,10.48,10.61,10.75,10.89,10.99,11.15,11.30,11.46,11.61,11.71,11.91,12.14,12.36,12.54,12.72,12.91,13.11,13.26,13.42,13.57,13.73,13.92,14.12,14.29,14.44,14.58,14.66,14.81,14.90,14.95,15.00,15.08,15.16,15.24,15.31,15.39,15.47,15.55,15.62,15.70,15.78,15.85,15.93,16.01,16.09,16.16,16.24,16.32,16.39,16.47,16.55,16.63,16.70,16.78,16.86,16.96,17.08,17.16,17.24,17.31,17.39,17.47,17.55,17.62,17.68,17.70,17.73,17.73,17.73,17.73,17.73,17.73,17.73,17.73,17.73,17.71,17.72,17.73,17.73,17.76,17.81,17.84,17.88,17.96,17.96,18.01,18.06,18.07,18.15,18.16,18.20,18.26,18.26,18.33,18.39,18.44,18.46,18.52,18.55,18.58,18.63,18.66,18.71,18.74,18.78,18.86,18.86,18.91,18.96,18.97,19.05,19.06,19.10,19.18,19.25,19.26,19.26,19.29,19.36,19.39,19.49,19.63,19.77,19.85,19.95,20.00,20.00,20.00,20.07,20.10,20.10,20.11,20.18,20.20,20.20,20.22,20.29,20.30,20.30,20.31,20.33,20.39,20.40,20.41,20.44,20.49,20.50,20.50,20.50,20.50,20.45,20.43,20.42,20.40,20.40,20.40,20.40,20.40,20.40,20.35,20.33,20.32,20.30,20.30,20.30,20.31,20.34,20.42,20.50,20.56,20.61,20.63,20.70,20.78
8.90,8.93,8.99,8.99,9.00,9.00,9.02,9.09,9.09,9.10,9.10,9.10,9.18,9.19,9.20,9.20,9.20,9.26,9.29,9.30,9.30,9.30,9.35,9.39,9.39,9.39,9.39,9.39,9.39,9.39,9.39,9.39,9.39,9.39,9.39,9.39,9.39,9.39,9.39,9.33,9.30,9.30,9.30,9.30,9.30,9.30,9.30,9.30,9.37,9.44,9.50,9.51,9.57,9.60,9.61,9.61,9.68,9.70,9.71,9.72,9.79,9.80,9.81,9.82,9.90,9.90,9.90,9.90,9.90,9.90,9.91,9.90,9.90,9.90,9.90,9.90,9.90,9.90,9.91,10.02,10.17,10.32,10.47,10.57,10.69,10.84,10.99,11.15,11.30,11.46,11.61,11.76,11.97,12.20,12.44,12.66,12.89,13.08,13.23,13.39,13.54,13.70,13.88,14.10,14.26,14.42,14.57,14.71,14.78,14.93,14.99,15.00,15.00,15.08,15.16,15.24,15.31,15.39,15.47,15.55,15.62,15.70,15.78,15.85,15.93,16.01,16.09,16.16,16.24,16.32,16.39,16.47,16.55,16.63,16.70,16.78,16.86,16.94,17.02,17.10,17.17,17.25,17.33,17.40,17.48,17.56,17.63,17.71,17.78,17.79,17.79,17.79,17.79,17.79,17.79,17.79,17.79,17.72,17.75,17.79,17.81,17.88,17.89,17.94,18.01,18.09,18.09,18.14,18.19,18.20,18.27,18.29,18.33,18.39,18.39,18.46,18.49,18.52,18.59,18.59,18.65,18.69,18.71,18.78,18.79,18.84,18.91,18.99,18.99,19.04,19.09,19.10,19.17,19.19,19.23,19.30,19.38,19.39,19.39,19.41,19.49,19.56,19.64,19.76,19.90,19.98,20.00,20.00,20.00,20.00,20.07,20.10,20.10,20.11,20.18,20.20,20.20,20.22,20.29,20.30,20.30,20.32,20.39,20.40,20.40,20.43,20.49,20.50,20.50,20.50,20.50,20.50,20.50,20.49,20.47,20.40,20.40,20.40,20.40,20.40,20.40,20.40,20.39,20.37,20.30,20.30,20.30,20.33,20.40,20.48,20.56,20.60,20.62,20.69,20.77,20.85
8.96,8.97,9.00,9.00,9.00,9.02,9.06,9.10,9.10,9.13,9.16,9.16,9.19,9.20,9.22,9.26,9.26,9.29,9.30,9.31,9.36,9.36,9.38,9.40,9.40,9.40,9.40,9.40,9.40,9.40,9.40,9.40,9.40,9.40,9.40,9.40,9.40,9.40,9.40,9.37,9.36,9.36,9.36,9.36,9.36,9.36,9.36,9.36,9.38,9.42,9.45,9.50,9.53,9.54,9.56,9.60,9.63,9.64,9.66,9.70,9.74,9.74,9.77,9.81,9.84,9.84,9.84,9.84,9.84,9.84,9.88,9.90,9.90,9.90,9.90,9.90,9.90,9.90,9.90,10.01,10.17,10.31,10.42,10.54,10.68,10.84,10.99,11.15,11.30,11.46,11.61,11.76,12.01,12.27,12.51,12.79,12.98,13.18,13.36,13.52,13.67,13.86,14.05,14.23,14.39,14.54,14.70,14.83,14.91,14.98,15.00,15.00,15.00,15.08,15.16,15.24,15.31,15.39,15.47,15.55,15.62,15.70,15.78,15.85,15.93,16.01,16.09,16.16,16.24,16.32,16.39,16.47,16.55,16.63,16.70,16.78,16.86,16.94,17.01,17.09,17.17,17.24,17.32,17.40,17.48,17.55,17.63,17.71,17.79,17.80,17.80,17.80,17.80,17.80,17.80,17.82,17.86,17.82,17.87,17.92,17.93,18.01,18.02,18.06,18.13,18.16,18.20,18.24,18.28,18.32,18.35,18.39,18.43,18.47,18.51,18.59,18.62,18.64,18.72,18.72,18.77,18.82,18.83,18.91,18.92,18.96,19.03,19.06,19.10,19.14,19.18,19.22,19.25,19.29,19.36,19.43,19.51,19.52,19.54,19.60,19.68,19.75,19.83,19.90,19.96,20.00,20.00,20.00,20.01,20.06,20.09,20.10,20.10,20.11,20.18,20.20,20.20,20.22,20.29,20.30,20.30,20.32,20.40,20.40,20.40,20.43,20.50,20.50,20.50,20.50,20.50,20.50,20.50,20.50,20.49,20.46,20.46,20.42,20.40,20.40,20.40,20.40,20.40,20.39,20.36,20.36,20.36,20.39,20.46,20.49,20.56,20.62,20.68,20.75,20.83,20.88
9.00,9.00,9.00,9.02,9.02,9.05,9.10,9.10,9.12,9.16,9.20,9.20,9.20,9.21,9.25,9.30,9.30,9.30,9.31,9.34,9.40,9.40,9.40,9.41,9.42,9.42,9.42,9.42,9.42,9.42,9.42,9.42,9.42,9.40,9.40,9.40,9.40,9.40,9.40,9.40,9.40,9.40,9.40,9.40,9.40,9.40,9.40,9.40,9.40,9.40,9.41,9.47,9.48,9.49,9.52,9.58,9.58,9.59,9.63,9.68,9.70,9.70,9.73,9.78,9.78,9.79,9.80,9.80,9.80,9.80,9.85,9.88,9.88,9.88,9.89,9.90,9.90,9.90,9.90,10.01,10.16,10.29,10.38,10.53,10.68,10.84,10.99,11.15,11.30,11.46,11.61,11.78,12.06,12.33,12.58,12.89,13.07,13.28,13.49,13.64,13.80,14.01,14.21,14.36,14.52,14.67,14.82,14.94,15.00,15.00,15.00,15.00,15.00,15.08,15.16,15.24,15.31,15.39,15.47,15.55,15.62,15.70,15.78,15.85,15.93,16.01,16.09,16.16,16.24,16.32,16.39,16.47,16.55,16.63,16.70,16.78,16.86,16.94,17.01,17.09,17.17,17.24,17.32,17.40,17.48,17.55,17.63,17.71,17.79,17.81,17.82,17.82,17.82,17.82,17.83,17.86,17.92,17.94,17.99,18.03,18.05,18.11,18.14,18.19,18.24,18.24,18.32,18.34,18.37,18.44,18.44,18.51,18.54,18.56,18.64,18.70,18.73,18.76,18.82,18.84,18.89,18.93,18.96,19.03,19.04,19.09,19.14,19.14,19.22,19.24,19.27,19.34,19.34,19.41,19.48,19.56,19.64,19.66,19.71,19.79,19.85,19.91,19.97,20.00,20.00,20.00,20.00,20.01,20.04,20.10,20.10,20.10,20.11,20.13,20.19,20.20,20.21,20.23,20.29,20.30,20.31,20.34,20.40,20.40,20.40,20.43,20.50,20.50,20.50,20.51,20.52,20.52,20.51,20.50,20.50,20.50,20.50,20.45,20.42,20.42,20.40,20.40,20.40,20.40,20.40,20.40,20.41,20.45,20.50,20.52,20.59,20.66,20.74,20.80,20.87,20.91
9.00,9.00,9.01,9.07,9.09,9.09,9.10,9.10,9.16,9.19,9.20,9.20,9.20,9.25,9.29,9.30,9.30,9.30,9.34,9.39,9.40,9.40,9.40,9.43,9.49,9.49,9.49,9.49,9.49,9.49,9.49,9.49,9.46,9.40,9.40,9.40,9.40,9.40,9.40,9.40,9.40,9.40,9.40,9.40,9.40,9.40,9.40,9.40,9.40,9.40,9.40,9.41,9.41,9.45,9.50,9.51,9.51,9.56,9.60,9.62,9.69,9.70,9.71,9.71,9.71,9.78,9.80,9.80,9.80,9.80,9.81,9.81,9.81,9.81,9.87,9.90,9.90,9.90,9.90,10.01,10.14,10.23,10.38,10.53,10.68,10.84,10.99,11.15,11.30,11.46,11.61,11.84,12.12,12.40,12.64,12.95,13.18,13.41,13.62,13.77,13.93,14.14,14.34,14.49,14.64,14.80,14.92,14.99,15.00,15.00,15.00,15.00,15.00,15.08,15.16,15.24,15.31,15.39,15.47,15.55,15.62,15.70,15.78,15.85,15.93,16.01,16.09,16.16,16.24,16.32,16.39,16.47,16.55,16.63,16.70,16.78,16.86,16.94,17.01,17.09,17.17,17.24,17.32,17.40,17.48,17.55,17.63,17.71,17.79,17.85,17.89,17.89,17.89,17.89,17.93,17.98,17.99,18.06,18.08,18.12,18.17,18.18,18.24,18.32,18.37,18.37,18.45,18.47,18.50,18.57,18.57,18.63,18.67,18.69,18.77,18.78,18.83,18.88,18.89,18.95,18.98,19.02,19.08,19.16,19.17,19.22,19.27,19.27,19.35,19.37,19.40,19.47,19.47,19.53,19.61,19.69,19.77,19.83,19.91,19.96,19.97,19.98,19.99,20.00,20.00,20.00,20.00,20.04,20.09,20.10,20.10,20.10,20.13,20.19,20.20,20.20,20.23,20.29,20.30,20.30,20.34,20.39,20.40,20.40,20.40,20.43,20.50,20.50,20.50,20.54,20.59,20.59,20.52,20.50,20.50,20.50,20.50,20.49,20.49,20.47,20.41,20.40,20.40,20.40,20.40,20.40,20.45,20.49,20.51,20.58,20.65,20.73,20.79,20.80,20.87,20.94
9.03,9.05,9.05,9.09,9.10,9.12,9.15,9.15,9.19,9.20,9.21,9.25,9.25,9.28,9.30,9.31,9.34,9.35,9.37,9.40,9.40,9.44,9.45,9.46,9.50,9.50,9.50,9.50,9.50,9.50,9.50,9.50,9.49,9.45,9.45,9.45,9.45,9.45,9.45,9.45,9.45,9.45,9.45,9.45,9.45,9.45,9.45,9.45,9.45,9.45,9.45,9.45,9.48,9.52,9.55,9.55,9.55,9.58,9.60,9.61,9.64,9.65,9.67,9.70,9.70,9.74,9.75,9.75,9.75,9.79,9.80,9.82,9.85,9.85,9.88,9.90,9.91,9.95,9.99,10.08,10.18,10.26,10.38,10.53,10.68,10.84,10.99,11.15,11.30,11.46,11.62,11.89,12.19,12.46,12.71,13.01,13.26,13.49,13.71,13.90,14.05,14.26,14.46,14.62,14.77,14.90,14.97,15.00,15.00,15.00,15.00,15.00,15.00,15.08,15.16,15.24,15.31,15.39,15.47,15.55,15.62,15.70,15.78,15.85,15.93,16.01,16.09,16.16,16.24,16.32,16.39,16.47,16.55,16.63,16.70,16.78,16.86,16.94,17.01,17.09,17.17,17.24,17.32,17.40,17.48,17.55,17.63,17.71,17.79,17.86,17.92,17.95,17.95,17.99,18.05,18.10,18.10,18.18,18.20,18.23,18.30,18.30,18.37,18.42,18.46,18.50,18.54,18.58,18.61,18.65,18.69,18.73,18.77,18.82,18.89,18.90,18.95,19.00,19.00,19.08,19.10,19.13,19.21,19.24,19.28,19.32,19.36,19.40,19.44,19.48,19.51,19.55,19.59,19.66,19.74,19.82,19.89,19.93,19.97,20.00,20.00,20.00,20.00,20.00,20.00,20.00,20.03,20.07,20.10,20.10,20.10,20.10,20.13,20.20,20.20,20.20,20.24,20.30,20.30,20.30,20.35,20.40,20.40,20.40,20.43,20.47,20.50,20.50,20.53,20.57,20.60,20.60,20.56,20.55,20.54,20.50,20.50,20.50,20.50,20.49,20.45,20.45,20.43,20.40,20.40,20.40,20.46,20.52,20.56,20.64,20.71,20.77,20.81,20.85,20.92,21.00
9.06,9.10,9.10,9.11,9.11,9.15,9.20,9.20,9.21,9.21,9.24,9.30,9.30,9.31,9.31,9.32,9.39,9.40,9.41,9.41,9.41,9.48,9.50,9.50,9.50,9.51,9.51,9.51,9.50,9.50,9.50,9.50,9.50,9.50,9.50,9.50,9.50,9.50,9.50,9.50,9.50,9.50,9.51,9.51,9.51,9.51,9.51,9.51,9.51,9.51,9.52,9.53,9.59,9.61,9.62,9.63,9.63,9.63,9.63,9.63,9.63,9.63,9.66,9.71,9.71,9.71,9.72,9.73,9.73,9.80,9.81,9.85,9.90,9.90,9.91,9.92,9.95,10.01,10.09,10.17,10.25,10.32,10.40,10.53,10.68,10.84,10.99,11.15,11.30,11.46,11.63,11.94,12.24,12.52,12.77,13.08,13.32,13.56,13.80,14.03,14.18,14.39,14.59,14.74,14.89,14.97,15.00,15.00,15.00,15.00,15.00,15.00,15.00,15.08,15.16,15.24,15.31,15.39,15.47,15.55,15.62,15.70,15.78,15.85,15.93,16.01,16.09,16.16,16.24,16.32,16.39,16.47,16.55,16.63,16.70,16.78,16.86,16.94,17.01,17.09,17.17,17.24,17.32,17.40,17.48,17.55,17.63,17.71,17.79,17.86,17.94,18.00,18.00,18.07,18.15,18.20,18.20,18.28,18.30,18.34,18.40,18.41,18.47,18.51,18.53,18.60,18.61,18.67,18.71,18.72,18.80,18.81,18.85,18.93,19.01,19.01,19.06,19.11,19.12,19.19,19.21,19.25,19.32,19.33,19.38,19.42,19.45,19.51,19.52,19.57,19.62,19.63,19.71,19.78,19.85,19.93,19.99,20.00,20.00,20.00,20.00,20.00,20.01,20.01,20.01,20.01,20.07,20.10,20.10,20.10,20.11,20.11,20.14,20.20,20.20,20.20,20.24,20.30,20.30,20.30,20.35,20.40,20.40,20.40,20.46,20.50,20.50,20.50,20.57,20.60,20.60,20.60,20.60,20.60,20.58,20.51,20.50,20.50,20.50,20.50,20.50,20.50,20.46,20.41,20.41,20.41,20.47,20.55,20.62,20.69,20.76,20.81,20.83,20.91,20.99,21.06
9.09,9.10,9.11,9.17,9.18,9.19,9.20,9.20,9.25,9.28,9.28,9.30,9.30,9.34,9.38,9.38,9.40,9.40,9.43,9.48,9.48,9.49,9.50,9.50,9.51,9.57,9.58,9.55,9.50,9.50,9.50,9.50,9.50,9.50,9.50,9.50,9.50,9.50,9.50,9.50,9.50,9.52,9.58,9.58,9.58,9.58,9.58,9.58,9.58,9.58,9.59,9.65,9.67,9.68,9.70,9.75,9.75,9.75,9.75,9.75,9.75,9.75,9.76,9.78,9.78,9.78,9.82,9.85,9.86,9.87,9.88,9.89,9.90,9.90,9.95,10.01,10.06,10.08,10.16,10.23,10.31,10.39,10.46,10.56,10.68,10.84,10.99,11.15,11.30,11.48,11.70,12.01,12.27,12.54,12.83,13.14,13.38,13.65,13.92,14.16,14.31,14.52,14.72,14.87,14.96,14.99,15.00,15.00,15.00,15.00,15.00,15.00,15.00,15.08,15.16,15.24,15.31,15.39,15.47,15.55,15.62,15.70,15.78,15.85,15.93,16.01,16.09,16.16,16.24,16.32,16.39,16.47,16.55,16.63,16.70,16.78,16.86,16.94,17.01,17.09,17.17,17.24,17.32,17.40,17.48,17.55,17.63,17.71,17.79,17.86,17.94,18.00,18.00,18.07,18.15,18.20,18.20,18.28,18.30,18.34,18.41,18.47,18.49,18.53,18.58,18.60,18.66,18.73,18.78,18.79,18.86,18.88,18.92,18.99,19.07,19.08,19.13,19.18,19.18,19.26,19.28,19.31,19.39,19.45,19.47,19.51,19.56,19.58,19.64,19.67,19.70,19.76,19.84,19.87,19.92,19.98,20.00,20.00,20.00,20.00,20.00,20.00,20.04,20.08,20.08,20.08,20.09,20.10,20.10,20.10,20.16,20.18,20.18,20.20,20.20,20.20,20.24,20.30,20.30,20.30,20.35,20.40,20.40,20.40,20.46,20.50,20.50,20.50,20.57,20.60,20.60,20.60,20.60,20.60,20.59,20.57,20.51,20.50,20.50,20.50,20.50,20.50,20.49,20.48,20.48,20.48,20.53,20.61,20.68,20.70,20.76,20.83,20.90,20.97,21.05,21.09
9.10,9.11,9.15,9.19,9.20,9.20,9.21,9.24,9.28,9.30,9.31,9.34,9.34,9.37,9.40,9.40,9.44,9.44,9.47,9.50,9.50,9.53,9.54,9.54,9.55,9.59,9.60,9.58,9.54,9.54,9.54,9.54,9.54,9.54,9.54,9.54,9.54,9.54,9.54,9.54,9.54,9.55,9.60,9.60,9.62,9.64,9.64,9.64,9.64,9.64,9.66,9.73,9.74,9.76,9.80,9.84,9.87,9.88,9.88,9.88,9.88,9.88,9.88,9.88,9.88,9.88,9.91,9.95,9.98,9.98,9.98,9.98,9.98,9.98,10.05,10.11,10.15,10.18,10.23,10.30,10.37,10.45,10.53,10.61,10.71,10.84,10.99,11.15,11.32,11.52,11.76,12.07,12.32,12.59,12.90,13.21,13.45,13.72,14.01,14.24,14.43,14.62,14.81,14.95,14.99,15.00,15.00,15.00,15.00,15.00,15.00,15.00,15.00,15.08,15.16,15.24,15.31,15.39,15.47,15.55,15.62,15.70,15.78,15.85,15.93,16.01,16.09,16.16,16.24,16.32,16.39,16.47,16.55,16.63,16.70,16.78,16.86,16.94,17.01,17.09,17.17,17.24,17.32,17.40,17.48,17.55,17.63,17.71,17.79,17.84,17.90,17.97,18.00,18.07,18.13,18.17,18.20,18.28,18.30,18.34,18.41,18.45,18.49,18.54,18.60,18.60,18.68,18.75,18.80,18.81,18.88,18.90,18.94,19.02,19.09,19.10,19.15,19.20,19.20,19.28,19.32,19.36,19.41,19.49,19.50,19.54,19.61,19.64,19.69,19.72,19.76,19.81,19.88,19.90,19.94,20.00,20.00,20.00,20.00,20.00,20.00,20.03,20.07,20.10,20.10,20.10,20.10,20.10,20.11,20.14,20.19,20.20,20.20,20.20,20.20,20.23,20.26,20.30,20.30,20.33,20.37,20.40,20.40,20.43,20.47,20.50,20.50,20.50,20.57,20.60,20.60,20.60,20.60,20.60,20.60,20.60,20.55,20.54,20.53,20.50,20.50,20.50,20.50,20.50,20.50,20.53,20.57,20.63,20.70,20.74,20.81,20.88,20.95,21.00,21.07,21.12
9.11,9.13,9.20,9.20,9.20,9.21,9.22,9.29,9.30,9.30,9.33,9.40,9.40,9.40,9.40,9.42,9.49,9.50,9.50,9.51,9.51,9.58,9.60,9.60,9.60,9.60,9.60,9.60,9.60,9.60,9.60,9.60,9.60,9.60,9.60,9.60,9.60,9.60,9.60,9.60,9.61,9.61,9.61,9.61,9.65,9.70,9.71,9.71,9.71,9.71,9.72,9.80,9.81,9.85,9.91,9.91,9.99,10.01,10.02,10.02,10.01,10.01,10.01,10.01,10.01,10.01,10.01,10.04,10.11,10.11,10.11,10.11,10.11,10.12,10.18,10.21,10.23,10.31,10.31,10.37,10.44,10.52,10.59,10.67,10.75,10.84,11.00,11.15,11.36,11.59,11.83,12.13,12.38,12.65,12.96,13.27,13.51,13.79,14.07,14.31,14.54,14.72,14.87,15.00,15.00,15.00,15.00,15.00,15.00,15.00,15.00,15.00,15.00,15.08,15.16,15.24,15.31,15.39,15.47,15.55,15.62,15.70,15.78,15.85,15.93,16.01,16.09,16.16,16.24,16.32,16.39,16.47,16.55,16.63,16.70,16.78,16.86,16.94,17.01,17.09,17.17,17.24,17.32,17.40,17.48,17.55,17.63,17.70,17.78,17.80,17.84,17.92,17.99,18.07,18.10,18.13,18.20,18.28,18.30,18.34,18.40,18.40,18.47,18.54,18.60,18.60,18.68,18.75,18.80,18.81,18.88,18.90,18.94,19.02,19.09,19.10,19.15,19.20,19.20,19.28,19.36,19.40,19.41,19.49,19.50,19.54,19.62,19.70,19.70,19.75,19.80,19.81,19.88,19.90,19.94,20.00,20.00,20.00,20.00,20.00,20.01,20.08,20.10,20.10,20.10,20.10,20.10,20.11,20.12,20.20,20.20,20.20,20.20,20.20,20.20,20.26,20.30,20.30,20.30,20.37,20.40,20.40,20.40,20.48,20.50,20.50,20.50,20.50,20.57,20.60,20.60,20.61,20.61,20.60,20.60,20.60,20.60,20.60,20.56,20.51,20.51,20.50,20.50,20.50,20.51,20.58,20.60,20.64,20.72,20.79,20.87,20.94,21.00,21.01,21.08,21.16
9.17,9.18,9.20,9.20,9.24,9.27,9.27,9.30,9.30,9.33,9.38,9.40,9.40,9.40,9.42,9.47,9.50,9.50,9.53,9.57,9.57,9.59,9.60,9.60,9.60,9.60,9.60,9.60,9.60,9.60,9.60,9.60,9.60,9.60,9.60,9.60,9.60,9.60,9.60,9.65,9.67,9.67,9.67,9.67,9.69,9.72,9.77,9.77,9.77,9.80,9.84,9.87,9.92,9.95,9.99,10.04,10.12,10.18,10.21,10.20,10.15,10.14,10.14,10.14,10.14,10.14,10.14,10.17,10.24,10.24,10.24,10.24,10.25,10.30,10.33,10.34,10.36,10.44,10.44,10.49,10.57,10.64,10.67,10.73,10.81,10.91,11.06,11.22,11.42,11.65,11.89,12.20,12.45,12.72,13.03,13.33,13.57,13.85,14.14,14.37,14.60,14.82,14.96,15.00,15.00,15.00,15.00,15.00,15.00,15.00,15.00,15.00,15.00,15.08,15.16,15.24,15.31,15.39,15.47,15.55,15.62,15.70,15.78,15.85,15.93,16.01,16.09,16.16,16.24,16.32,16.39,16.47,16.55,16.63,16.70,16.78,16.86,16.94,17.01,17.09,17.17,17.24,17.32,17.40,17.48,17.55,17.61,17.64,17.72,17.77,17.84,17.92,17.99,18.07,18.10,18.13,18.20,18.28,18.30,18.34,18.40,18.40,18.47,18.54,18.60,18.60,18.68,18.72,18.75,18.81,18.88,18.90,18.94,19.02,19.09,19.10,19.15,19.20,19.20,19.28,19.36,19.40,19.41,19.49,19.50,19.54,19.62,19.70,19.70,19.75,19.80,19.81,19.88,19.94,19.98,20.00,20.00,20.00,20.00,20.02,20.07,20.09,20.10,20.10,20.10,20.10,20.15,20.17,20.18,20.20,20.20,20.20,20.20,20.20,20.26,20.29,20.30,20.30,20.30,20.37,20.40,20.40,20.40,20.48,20.50,20.50,20.51,20.56,20.59,20.60,20.61,20.67,20.67,20.63,20.60,20.60,20.60,20.60,20.59,20.57,20.57,20.52,20.50,20.52,20.57,20.59,20.64,20.70,20.78,20.86,20.89,20.94,21.01,21.07,21.14,21.22
9.20,9.21,9.23,9.23,9.27,9.30,9.31,9.33,9.33,9.37,9.40,9.40,9.43,9.43,9.46,9.50,9.50,9.52,9.56,9.60,9.60,9.60,9.62,9.63,9.63,9.63,9.63,9.63,9.63,9.63,9.63,9.63,9.63,9.63,9.63,9.63,9.63,9.63,9.63,9.68,9.71,9.73,9.73,9.73,9.73,9.76,9.83,9.83,9.83,9.87,9.94,9.96,10.01,10.05,10.09,10.17,10.24,10.32,10.37,10.36,10.28,10.27,10.27,10.27,10.27,10.27,10.28,10.32,10.37,10.37,10.37,10.37,10.38,10.46,10.47,10.48,10.51,10.57,10.57,10.62,10.69,10.74,10.76,10.83,10.89,10.96,11.09,11.25,11.47,11.72,11.95,12.26,12.51,12.78,13.08,13.37,13.63,13.90,14.18,14.43,14.69,14.89,15.00,15.00,15.00,15.00,15.00,15.00,15.00,15.00,15.00,15.00,15.00,15.08,15.16,15.24,15.31,15.39,15.47,15.55,15.62,15.70,15.78,15.85,15.93,16.01,16.09,16.16,16.24,16.32,16.39,16.47,16.55,16.63,16.70,16.78,16.86,16.94,17.01,17.09,17.17,17.24,17.32,17.40,17.48,17.54,17.58,17.61,17.69,17.76,17.84,17.92,17.99,18.05,18.08,18.13,18.20,18.28,18.30,18.34,18.40,18.40,18.47,18.54,18.60,18.60,18.68,18.70,18.73,18.81,18.88,18.90,18.94,19.01,19.06,19.09,19.15,19.20,19.20,19.28,19.34,19.38,19.41,19.49,19.50,19.54,19.62,19.70,19.70,19.75,19.80,19.81,19.88,19.96,20.00,20.00,20.00,20.00,20.02,20.05,20.10,20.10,20.10,20.11,20.13,20.13,20.18,20.20,20.20,20.20,20.20,20.22,20.23,20.24,20.29,20.30,20.30,20.30,20.30,20.37,20.40,20.40,20.40,20.48,20.50,20.50,20.51,20.59,20.60,20.60,20.62,20.70,20.70,20.67,20.63,20.63,20.61,20.60,20.60,20.60,20.60,20.55,20.53,20.55,20.60,20.63,20.69,20.77,20.84,20.89,20.92,20.97,21.05,21.13,21.21,21.27
9.20,9.23,9.30,9.30,9.30,9.30,9.32,9.39,9.40,9.40,9.40,9.40,9.48,9.50,9.50,9.50,9.50,9.56,9.60,9.60,9.60,9.60,9.65,9.70,9.70,9.70,9.70,9.70,9.70,9.70,9.70,9.70,9.70,9.70,9.70,9.70,9.70,9.70,9.70,9.70,9.74,9.80,9.80,9.80,9.80,9.83,9.90,9.90,9.90,9.93,10.01,10.09,10.10,10.14,10.22,10.29,10.37,10.45,10.49,10.48,10.41,10.39,10.39,10.39,10.39,10.39,10.44,10.49,10.49,10.49,10.49,10.49,10.51,10.59,10.59,10.64,10.69,10.69,10.69,10.75,10.79,10.81,10.88,10.96,10.99,11.02,11.10,11.25,11.50,11.78,12.02,12.33,12.58,12.84,13.14,13.37,13.67,13.94,14.19,14.50,14.80,14.95,15.00,15.00,15.00,15.00,15.00,15.00,15.00,15.00,15.00,15.00,15.00,15.08,15.16,15.24,15.31,15.39,15.47,15.55,15.62,15.70,15.78,15.85,15.93,16.01,16.09,16.16,16.24,16.32,16.39,16.47,16.55,16.63,16.70,16.78,16.86,16.94,17.01,17.09,17.17,17.24,17.32,17.40,17.48,17.50,17.53,17.61,17.69,17.76,17.84,17.92,17.99,18.00,18.05,18.13,18.20,18.28,18.30,18.34,18.40,18.40,18.47,18.54,18.60,18.60,18.68,18.70,18.73,18.81,18.88,18.90,18.94,19.00,19.00,19.07,19.15,19.20,19.20,19.28,19.30,19.34,19.41,19.49,19.50,19.54,19.62,19.70,19.70,19.75,19.80,19.81,19.88,19.96,20.00,20.00,20.00,20.00,20.05,20.10,20.10,20.10,20.10,20.13,20.20,20.20,20.20,20.20,20.20,20.20,20.20,20.25,20.30,20.30,20.30,20.30,20.30,20.30,20.30,20.37,20.40,20.40,20.40,20.48,20.50,20.50,20.51,20.59,20.60,20.60,20.62,20.70,20.70,20.70,20.70,20.69,20.62,20.60,20.60,20.60,20.60,20.60,20.60,20.60,20.60,20.68,20.75,20.83,20.90,20.90,20.96,21.04,21.12,21.19,21.27,21.30
9.26,9.27,9.30,9.30,9.34,9.36,9.37,9.40,9.40,9.43,9.46,9.46,9.49,9.50,9.52,9.56,9.56,9.59,9.60,9.61,9.66,9.66,9.68,9.70,9.70,9.70,9.70,9.70,9.70,9.70,9.70,9.70,9.70,9.70,9.70,9.70,9.72,9.76,9.76,9.76,9.78,9.80,9.80,9.85,9.86,9.87,9.90,9.95,10.00,10.06,10.13,10.16,10.20,10.24,10.28,10.36,10.44,10.52,10.58,10.61,10.53,10.52,10.52,10.52,10.52,10.52,10.57,10.62,10.62,10.62,10.62,10.62,10.64,10.71,10.72,10.77,10.82,10.82,10.87,10.90,10.92,10.93,11.01,11.05,11.09,11.13,11.16,11.26,11.47,11.74,12.02,12.28,12.55,12.82,13.09,13.37,13.72,14.03,14.31,14.62,14.88,14.98,15.00,15.00,15.00,15.00,15.00,15.00,15.00,15.00,15.03,15.06,15.06,15.09,15.16,15.24,15.31,15.39,15.47,15.55,15.62,15.70,15.78,15.85,15.93,16.01,16.09,16.16,16.24,16.32,16.39,16.47,16.55,16.63,16.70,16.78,16.86,16.94,17.01,17.09,17.17,17.24,17.31,17.34,17.42,17.47,17.53,17.61,17.69,17.72,17.78,17.86,17.93,17.98,18.05,18.13,18.20,18.28,18.30,18.34,18.40,18.40,18.47,18.54,18.60,18.60,18.68,18.70,18.73,18.81,18.88,18.90,18.94,19.00,19.00,19.07,19.12,19.15,19.20,19.28,19.30,19.33,19.41,19.49,19.50,19.54,19.61,19.64,19.69,19.75,19.80,19.81,19.88,19.96,20.00,20.00,20.00,20.00,20.05,20.10,20.10,20.10,20.10,20.13,20.20,20.20,20.20,20.20,20.21,20.26,20.26,20.28,20.30,20.30,20.30,20.30,20.32,20.36,20.36,20.39,20.40,20.41,20.46,20.49,20.50,20.50,20.51,20.59,20.60,20.60,20.62,20.70,20.70,20.70,20.70,20.70,20.67,20.66,20.64,20.60,20.60,20.60,20.60,20.61,20.66,20.74,20.78,20.83,20.91,20.95,21.03,21.10,21.17,21.20,21.27,21.33
9.30,9.30,9.30,9.32,9.37,9.40,9.40,9.42,9.42,9.46,9.50,9.50,9.52,9.52,9.55,9.60,9.60,9.62,9.62,9.64,9.70,9.70,9.71,9.72,9.72,9.72,9.72,9.72,9.72,9.72,9.72,9.72,9.72,9.72,9.72,9.72,9.75,9.80,9.80,9.82,9.82,9.82,9.82,9.90,9.92,9.93,9.96,10.03,10.09,10.16,10.23,10.25,10.30,10.34,10.37,10.45,10.53,10.60,10.68,10.74,10.66,10.65,10.65,10.65,10.65,10.65,10.70,10.75,10.75,10.75,10.75,10.76,10.78,10.84,10.85,10.90,10.95,10.95,11.03,11.05,11.06,11.08,11.14,11.15,11.19,11.25,11.25,11.32,11.48,11.71,12.02,12.27,12.56,12.84,13.11,13.41,13.77,14.11,14.42,14.73,14.94,15.00,15.00,15.00,15.00,15.00,15.00,15.00,15.00,15.02,15.06,15.10,15.10,15.10,15.16,15.24,15.31,15.39,15.47,15.55,15.62,15.70,15.78,15.85,15.93,16.01,16.09,16.16,16.24,16.32,16.39,16.47,16.55,16.63,16.70,16.78,16.86,16.94,17.01,17.09,17.15,17.22,17.28,17.30,17.38,17.45,17.52,17.58,17.66,17.69,17.74,17.82,17.89,17.97,18.05,18.13,18.20,18.26,18.29,18.34,18.40,18.40,18.47,18.54,18.60,18.60,18.68,18.70,18.73,18.81,18.86,18.89,18.94,19.00,19.00,19.07,19.10,19.13,19.20,19.28,19.30,19.33,19.41,19.47,19.49,19.54,19.60,19.60,19.68,19.74,19.78,19.81,19.88,19.95,19.98,20.00,20.00,20.00,20.05,20.10,20.10,20.10,20.10,20.13,20.20,20.20,20.20,20.21,20.24,20.30,20.30,20.30,20.30,20.30,20.32,20.32,20.35,20.40,20.40,20.40,20.40,20.42,20.50,20.50,20.50,20.51,20.53,20.59,20.60,20.61,20.64,20.70,20.70,20.70,20.70,20.70,20.70,20.70,20.67,20.62,20.60,20.60,20.61,20.65,20.73,20.78,20.81,20.86,20.93,21.01,21.07,21.14,21.20,21.22,21.30,21.38
9.30,9.30,9.31,9.37,9.40,9.40,9.41,9.48,9.49,9.49,9.50,9.50,9.57,9.59,9.59,9.60,9.60,9.66,9.69,9.69,9.70,9.70,9.75,9.79,9.79,9.79,9.79,9.79,9.79,9.79,9.79,9.79,9.79,9.79,9.79,9.79,9.79,9.80,9.80,9.86,9.89,9.89,9.89,9.96,9.99,10.01,10.08,10.16,10.18,10.23,10.30,10.37,10.38,10.43,10.50,10.58,10.66,10.73,10.81,10.87,10.79,10.78,10.78,10.78,10.78,10.78,10.83,10.88,10.88,10.88,10.88,10.91,10.97,10.98,10.98,11.02,11.08,11.08,11.15,11.18,11.21,11.27,11.28,11.28,11.32,11.38,11.38,11.45,11.54,11.71,12.02,12.32,12.63,12.93,13.23,13.54,13.86,14.17,14.48,14.79,14.95,15.00,15.00,15.00,15.00,15.00,15.00,15.00,15.00,15.06,15.09,15.10,15.10,15.10,15.16,15.24,15.31,15.39,15.47,15.55,15.62,15.70,15.78,15.85,15.93,16.01,16.09,16.16,16.24,16.32,16.39,16.47,16.55,16.63,16.70,16.78,16.86,16.94,17.01,17.09,17.11,17.16,17.23,17.30,17.38,17.45,17.50,17.52,17.60,17.67,17.74,17.82,17.89,17.97,18.05,18.13,18.20,18.21,18.26,18.34,18.40,18.40,18.47,18.54,18.60,18.60,18.68,18.70,18.73,18.80,18.81,18.87,18.94,19.00,19.00,19.07,19.10,19.13,19.20,19.28,19.30,19.33,19.40,19.41,19.47,19.54,19.60,19.60,19.68,19.71,19.74,19.81,19.88,19.91,19.95,20.00,20.00,20.00,20.05,20.10,20.10,20.10,20.10,20.13,20.20,20.20,20.20,20.24,20.29,20.30,20.30,20.30,20.30,20.31,20.37,20.39,20.39,20.40,20.40,20.40,20.40,20.42,20.50,20.50,20.50,20.53,20.59,20.60,20.60,20.64,20.69,20.70,20.70,20.70,20.70,20.70,20.70,20.70,20.70,20.68,20.61,20.60,20.64,20.71,20.79,20.80,20.85,20.92,21.00,21.08,21.10,21.14,21.22,21.29,21.36,21.44
9.33,9.35,9.36,9.39,9.40,9.42,9.46,9.50,9.50,9.50,9.51,9.55,9.59,9.60,9.62,9.65,9.65,9.68,9.70,9.71,9.75,9.75,9.78,9.80,9.80,9.80,9.80,9.80,9.80,9.80,9.80,9.80,9.80,9.80,9.84,9.85,9.85,9.85,9.85,9.88,9.92,9.95,9.95,10.03,10.08,10.12,10.16,10.24,10.28,10.34,10.41,10.45,10.49,10.53,10.58,10.65,10.73,10.81,10.89,10.95,10.96,10.92,10.90,10.90,10.90,10.90,10.96,11.00,11.00,11.00,11.00,11.04,11.10,11.10,11.14,11.18,11.20,11.21,11.28,11.30,11.34,11.40,11.40,11.44,11.48,11.50,11.50,11.58,11.63,11.73,11.97,12.28,12.59,12.91,13.26,13.57,13.91,14.24,14.56,14.90,14.98,15.00,15.00,15.00,15.00,15.00,15.00,15.01,15.05,15.09,15.10,15.10,15.10,15.10,15.16,15.24,15.31,15.39,15.47,15.55,15.62,15.70,15.78,15.85,15.93,16.01,16.09,16.16,16.24,16.32,16.39,16.47,16.55,16.63,16.70,16.78,16.86,16.94,17.01,17.04,17.08,17.14,17.22,17.30,17.34,17.40,17.46,17.51,17.59,17.66,17.74,17.82,17.89,17.93,18.00,18.07,18.15,18.19,18.26,18.34,18.40,18.40,18.47,18.52,18.56,18.60,18.68,18.70,18.73,18.80,18.80,18.86,18.94,19.00,19.00,19.07,19.10,19.13,19.20,19.28,19.30,19.33,19.40,19.40,19.47,19.54,19.60,19.60,19.68,19.70,19.73,19.81,19.88,19.90,19.94,20.00,20.00,20.00,20.02,20.05,20.05,20.09,20.10,20.12,20.15,20.19,20.20,20.24,20.30,20.30,20.30,20.33,20.35,20.36,20.39,20.40,20.40,20.40,20.40,20.44,20.45,20.46,20.50,20.50,20.50,20.53,20.60,20.60,20.60,20.64,20.70,20.70,20.70,20.73,20.74,20.70,20.70,20.70,20.70,20.69,20.66,20.65,20.67,20.72,20.80,20.84,20.91,20.99,21.06,21.09,21.13,21.19,21.27,21.35,21.39,21.45
9.36,9.40,9.40,9.41,9.42,9.45,9.50,9.50,9.51,9.52,9.54,9.60,9.60,9.61,9.64,9.70,9.70,9.70,9.71,9.73,9.80,9.80,9.80,9.80,9.82,9.82,9.82,9.82,9.82,9.82,9.82,9.82,9.82,9.82,9.88,9.90,9.91,9.92,9.93,9.93,9.97,10.03,10.03,10.11,10.18,10.22,10.24,10.32,10.38,10.45,10.52,10.53,10.59,10.62,10.66,10.73,10.81,10.89,10.97,11.04,11.12,11.07,11.03,11.03,11.03,11.03,11.08,11.13,11.13,11.13,11.13,11.17,11.23,11.23,11.30,11.33,11.34,11.35,11.41,11.43,11.46,11.53,11.53,11.60,11.63,11.63,11.63,11.69,11.72,11.78,11.92,12.22,12.52,12.87,13.24,13.56,13.94,14.30,14.64,15.00,15.00,15.00,15.00,15.00,15.00,15.00,15.01,15.03,15.10,15.10,15.10,15.10,15.10,15.10,15.16,15.24,15.31,15.39,15.47,15.55,15.62,15.70,15.78,15.85,15.93,16.01,16.09,16.16,16.24,16.32,16.39,16.47,16.55,16.63,16.70,16.78,16.85,16.92,16.99,17.00,17.07,17.14,17.22,17.28,17.30,17.35,17.43,17.51,17.59,17.66,17.73,17.80,17.88,17.90,17.95,18.03,18.10,18.18,18.26,18.33,18.39,18.40,18.47,18.50,18.52,18.60,18.68,18.70,18.73,18.80,18.80,18.86,18.94,19.00,19.00,19.07,19.10,19.13,19.20,19.28,19.30,19.33,19.40,19.40,19.47,19.54,19.60,19.60,19.68,19.70,19.73,19.81,19.87,19.89,19.93,19.99,20.00,20.00,20.00,20.00,20.00,20.08,20.10,20.10,20.11,20.19,20.20,20.24,20.29,20.30,20.30,20.35,20.40,20.40,20.40,20.40,20.41,20.42,20.42,20.47,20.50,20.50,20.50,20.50,20.51,20.54,20.60,20.60,20.60,20.64,20.70,20.70,20.70,20.75,20.78,20.72,20.72,20.71,20.70,20.70,20.70,20.70,20.71,20.74,20.82,20.89,20.96,21.03,21.10,21.11,21.18,21.26,21.33,21.40,21.41,21.47
9.39,9.40,9.41,9.47,9.48,9.49,9.50,9.50,9.56,9.58,9.58,9.60,9.60,9.65,9.69,9.70,9.70,9.70,9.73,9.78,9.80,9.80,9.80,9.82,9.88,9.88,9.88,9.88,9.88,9.88,9.88,9.88,9.88,9.88,9.90,9.90,9.93,9.99,10.05,10.06,10.10,10.16,10.16,10.23,10.27,10.30,10.37,10.44,10.47,10.52,10.59,10.65,10.67,10.72,10.78,10.86,10.94,11.02,11.09,11.17,11.25,11.20,11.16,11.16,11.16,11.16,11.21,11.26,11.26,11.26,11.26,11.30,11.36,11.36,11.43,11.46,11.48,11.54,11.56,11.56,11.59,11.66,11.66,11.72,11.76,11.76,11.76,11.77,11.82,11.87,11.92,12.16,12.46,12.80,13.19,13.56,13.94,14.36,14.74,15.00,15.00,15.00,15.00,15.00,15.00,15.00,15.03,15.08,15.10,15.10,15.10,15.10,15.10,15.10,15.16,15.24,15.31,15.39,15.47,15.55,15.62,15.70,15.78,15.85,15.93,16.01,16.09,16.16,16.24,16.32,16.39,16.47,16.55,16.63,16.70,16.78,16.81,16.86,16.93,16.99,17.07,17.14,17.20,17.22,17.28,17.35,17.43,17.51,17.59,17.66,17.71,17.74,17.81,17.88,17.95,18.03,18.10,18.18,18.26,18.31,18.33,18.39,18.47,18.50,18.52,18.60,18.68,18.70,18.73,18.80,18.80,18.86,18.94,19.00,19.00,19.07,19.10,19.13,19.20,19.28,19.30,19.33,19.40,19.40,19.47,19.54,19.60,19.60,19.68,19.70,19.73,19.80,19.82,19.87,19.91,19.93,19.99,20.00,20.00,20.00,20.00,20.08,20.10,20.10,20.11,20.19,20.20,20.21,20.24,20.30,20.30,20.35,20.40,20.40,20.40,20.40,20.43,20.48,20.48,20.49,20.50,20.50,20.50,20.50,20.54,20.59,20.60,20.60,20.60,20.64,20.70,20.70,20.70,20.75,20.79,20.78,20.78,20.73,20.70,20.70,20.70,20.70,20.74,20.80,20.88,20.96,20.99,21.03,21.11,21.17,21.24,21.32,21.38,21.40,21.46,21.53
9.42,9.44,9.45,9.49,9.50,9.52,9.54,9.54,9.58,9.60,9.61,9.64,9.64,9.68,9.70,9.71,9.74,9.74,9.77,9.80,9.80,9.83,9.84,9.86,9.90,9.90,9.90,9.90,9.90,9.90,9.93,9.94,9.94,9.94,9.98,9.99,10.02,10.10,10.18,10.19,10.23,10.29,10.29,10.33,10.37,10.40,10.45,10.53,10.57,10.63,10.70,10.74,10.77,10.83,10.91,10.99,11.03,11.10,11.18,11.25,11.33,11.31,11.29,11.29,11.29,11.29,11.32,11.36,11.39,11.39,11.41,11.45,11.49,11.49,11.56,11.59,11.61,11.69,11.69,11.71,11.75,11.79,11.79,11.82,11.86,11.89,11.89,11.89,11.92,11.94,11.95,12.12,12.42,12.78,13.18,13.60,13.99,14.40,14.77,15.00,15.00,15.00,15.00,15.00,15.00,15.00,15.04,15.10,15.10,15.10,15.10,15.10,15.10,15.10,15.16,15.24,15.31,15.39,15.47,15.55,15.62,15.70,15.78,15.85,15.93,16.01,16.09,16.16,16.24,16.32,16.39,16.47,16.55,16.63,16.70,16.75,16.78,16.84,16.91,16.99,17.07,17.13,17.17,17.20,17.28,17.35,17.43,17.50,17.55,17.62,17.67,17.72,17.79,17.87,17.95,18.03,18.10,18.15,18.21,18.27,18.31,18.39,18.47,18.50,18.52,18.60,18.68,18.70,18.73,18.80,18.80,18.86,18.94,19.00,19.00,19.07,19.10,19.13,19.20,19.28,19.30,19.33,19.40,19.40,19.47,19.52,19.57,19.60,19.68,19.70,19.73,19.80,19.80,19.86,19.90,19.91,19.95,19.99,20.00,20.00,20.00,20.04,20.08,20.10,20.11,20.15,20.18,20.20,20.21,20.25,20.29,20.33,20.37,20.40,20.40,20.40,20.44,20.50,20.50,20.50,20.50,20.51,20.54,20.54,20.58,20.60,20.60,20.60,20.63,20.67,20.70,20.70,20.73,20.77,20.80,20.80,20.80,20.77,20.74,20.74,20.70,20.73,20.79,20.87,20.94,20.99,21.02,21.08,21.15,21.23,21.28,21.34,21.41,21.44,21.52,21.59
9.46,9.50,9.50,9.51,9.51,9.54,9.60,9.60,9.61,9.61,9.63,9.70,9.70,9.70,9.71,9.72,9.79,9.80,9.80,9.81,9.81,9.88,9.90,9.90,9.90,9.91,9.91,9.91,9.92,9.92,9.98,10.01,10.02,10.02,10.10,10.12,10.15,10.23,10.30,10.32,10.36,10.42,10.42,10.42,10.46,10.51,10.52,10.60,10.67,10.75,10.81,10.81,10.88,10.95,11.03,11.11,11.11,11.17,11.25,11.33,11.40,11.42,11.42,11.42,11.42,11.42,11.42,11.44,11.52,11.52,11.58,11.62,11.62,11.62,11.69,11.72,11.74,11.82,11.82,11.87,11.91,11.92,11.92,11.92,11.95,12.01,12.01,12.01,12.02,12.02,12.02,12.09,12.40,12.78,13.18,13.64,14.03,14.42,14.77,15.00,15.00,15.00,15.00,15.00,15.00,15.00,15.05,15.10,15.10,15.10,15.10,15.10,15.10,15.10,15.16,15.24,15.31,15.39,15.47,15.55,15.62,15.70,15.78,15.85,15.93,16.01,16.09,16.16,16.24,16.32,16.39,16.47,16.55,16.62,16.69,16.70,16.76,16.84,16.91,16.98,17.06,17.10,17.12,17.20,17.27,17.35,17.42,17.49,17.50,17.56,17.64,17.72,17.79,17.87,17.95,18.02,18.09,18.10,18.16,18.24,18.31,18.39,18.47,18.50,18.52,18.60,18.68,18.70,18.73,18.80,18.80,18.86,18.94,19.00,19.00,19.07,19.10,19.13,19.20,19.27,19.30,19.33,19.40,19.40,19.47,19.50,19.52,19.60,19.68,19.70,19.73,19.80,19.80,19.86,19.90,19.90,19.90,19.97,20.00,20.00,20.00,20.00,20.05,20.09,20.10,20.10,20.16,20.20,20.20,20.20,20.27,20.30,20.33,20.39,20.40,20.40,20.44,20.50,20.50,20.50,20.50,20.53,20.60,20.60,20.60,20.60,20.60,20.61,20.67,20.70,20.70,20.70,20.77,20.80,20.80,20.80,20.80,20.80,20.80,20.79,20.71,20.78,20.85,20.92,21.00,21.01,21.06,21.14,21.22,21.29,21.30,21.35,21.43,21.50,21.58,21.65
9.49,9.50,9.51,9.56,9.57,9.58,9.60,9.60,9.65,9.67,9.68,9.70,9.70,9.74,9.77,9.77,9.80,9.80,9.83,9.87,9.87,9.89,9.90,9.90,9.90,9.96,9.97,10.00,10.04,10.04,10.06,10.11,10.16,10.22,10.24,10.28,10.32,10.35,10.43,10.44,10.49,10.54,10.54,10.54,10.56,10.59,10.65,10.73,10.76,10.81,10.88,10.94,10.96,11.02,11.10,11.17,11.23,11.30,11.38,11.45,11.53,11.54,11.54,11.54,11.54,11.54,11.54,11.57,11.64,11.64,11.70,11.74,11.75,11.81,11.83,11.84,11.87,11.94,11.94,11.96,11.99,12.04,12.04,12.04,12.05,12.07,12.07,12.12,12.14,12.14,12.14,12.17,12.43,12.78,13.17,13.58,13.97,14.39,14.77,15.00,15.00,15.00,15.00,15.00,15.00,15.05,15.08,15.10,15.10,15.10,15.10,15.10,15.10,15.10,15.16,15.24,15.31,15.39,15.47,15.55,15.62,15.70,15.78,15.85,15.93,16.01,16.09,16.16,16.24,16.32,16.39,16.47,16.51,16.56,16.63,16.69,16.76,16.84,16.90,16.93,17.00,17.06,17.12,17.20,17.22,17.28,17.36,17.43,17.49,17.56,17.64,17.72,17.79,17.87,17.91,17.95,18.03,18.09,18.16,18.24,18.31,18.39,18.47,18.50,18.52,18.60,18.68,18.70,18.73,18.80,18.80,18.86,18.94,19.00,19.00,19.07,19.10,19.13,19.20,19.22,19.27,19.33,19.40,19.40,19.47,19.50,19.52,19.60,19.68,19.70,19.73,19.80,19.80,19.86,19.90,19.90,19.90,19.92,19.96,20.00,20.00,20.00,20.02,20.05,20.10,20.10,20.12,20.16,20.20,20.20,20.27,20.30,20.31,20.33,20.39,20.40,20.44,20.50,20.50,20.50,20.53,20.58,20.60,20.60,20.60,20.60,20.61,20.66,20.69,20.70,20.70,20.70,20.77,20.80,20.80,20.80,20.80,20.80,20.80,20.80,20.77,20.84,20.88,20.92,21.00,21.06,21.13,21.20,21.27,21.30,21.35,21.41,21.49,21.57,21.59,21.65
9.50,9.51,9.54,9.59,9.60,9.60,9.61,9.63,9.68,9.70,9.70,9.70,9.73,9.77,9.80,9.80,9.83,9.84,9.86,9.90,9.90,9.93,9.94,9.95,9.98,10.05,10.07,10.11,10.17,10.17,10.17,10.22,10.30,10.37,10.37,10.43,10.47,10.48,10.56,10.57,10.61,10.67,10.67,10.67,10.67,10.70,10.77,10.82,10.86,10.91,10.98,11.03,11.06,11.12,11.19,11.27,11.35,11.41,11.47,11.55,11.62,11.66,11.67,11.67,11.67,11.67,11.69,11.72,11.77,11.77,11.83,11.87,11.89,11.96,11.97,11.97,11.99,12.07,12.07,12.07,12.09,12.14,12.14,12.16,12.17,12.17,12.17,12.22,12.24,12.25,12.27,12.27,12.51,12.84,13.20,13.56,13.94,14.34,14.71,14.96,14.99,15.00,15.00,15.00,15.03,15.08,15.10,15.10,15.10,15.10,15.10,15.10,15.10,15.10,15.16,15.24,15.31,15.39,15.47,15.55,15.62,15.70,15.78,15.85,15.93,16.01,16.09,16.16,16.24,16.31,16.36,16.44,16.48,16.53,16.60,16.68,16.76,16.82,16.87,16.90,16.97,17.03,17.09,17.16,17.19,17.25,17.33,17.41,17.49,17.56,17.64,17.71,17.76,17.84,17.88,17.93,18.00,18.08,18.16,18.24,18.31,18.36,18.43,18.48,18.52,18.60,18.68,18.70,18.73,18.80,18.80,18.86,18.93,18.97,19.00,19.07,19.10,19.13,19.20,19.20,19.26,19.33,19.40,19.40,19.47,19.50,19.52,19.60,19.68,19.70,19.73,19.80,19.80,19.86,19.90,19.90,19.90,19.90,19.93,19.97,20.00,20.00,20.00,20.02,20.07,20.10,20.10,20.14,20.20,20.20,20.25,20.28,20.30,20.31,20.38,20.40,20.42,20.47,20.50,20.50,20.53,20.57,20.60,20.60,20.62,20.64,20.64,20.69,20.70,20.70,20.70,20.70,20.77,20.80,20.80,20.80,20.80,20.80,20.80,20.80,20.80,20.87,20.92,20.96,21.04,21.11,21.17,21.23,21.30,21.33,21.40,21.48,21.55,21.60,21.63,21.69
9.50,9.53,9.60,9.60,9.60,9.60,9.62,9.69,9.70,9.70,9.70,9.70,9.78,9.80,9.80,9.81,9.89,9.90,9.90,9.90,9.90,9.97,10.00,10.03,10.11,10.18,10.20,10.24,10.30,10.30,10.30,10.35,10.42,10.50,10.50,10.55,10.60,10.61,10.69,10.70,10.74,10.80,10.80,10.80,10.80,10.83,10.90,10.90,10.96,11.04,11.10,11.10,11.17,11.25,11.32,11.40,11.48,11.50,11.53,11.61,11.69,11.76,11.80,11.80,11.80,11.80,11.85,11.90,11.90,11.90,11.96,12.00,12.01,12.09,12.10,12.10,12.12,12.20,12.20,12.20,12.20,12.20,12.20,12.26,12.30,12.30,12.30,12.30,12.30,12.33,12.40,12.40,12.64,12.95,13.26,13.56,13.94,14.28,14.59,14.90,14.98,15.00,15.00,15.01,15.09,15.10,15.10,15.10,15.10,15.10,15.10,15.10,15.10,15.10,15.16,15.24,15.31,15.39,15.47,15.55,15.62,15.70,15.78,15.85,15.93,16.01,16.09,16.16,16.24,16.30,16.30,16.37,16.45,16.53,16.60,16.68,16.76,16.80,16.81,16.89,16.97,17.00,17.02,17.10,17.18,17.25,17.33,17.41,17.49,17.56,17.64,17.70,17.70,17.77,17.85,17.93,18.00,18.08,18.16,18.24,18.30,18.30,18.37,18.44,18.52,18.60,18.68,18.70,18.73,18.80,18.80,18.86,18.90,18.92,18.99,19.07,19.10,19.13,19.20,19.20,19.26,19.33,19.40,19.40,19.47,19.50,19.52,19.60,19.68,19.70,19.73,19.80,19.80,19.86,19.90,19.90,19.90,19.90,19.90,19.93,20.00,20.00,20.00,20.00,20.01,20.09,20.10,20.14,20.20,20.20,20.20,20.25,20.30,20.31,20.38,20.40,20.40,20.42,20.49,20.50,20.50,20.53,20.60,20.60,20.66,20.70,20.70,20.70,20.70,20.70,20.70,20.70,20.77,20.80,20.80,20.80,20.80,20.80,20.80,20.80,20.80,20.87,20.95,21.02,21.10,21.18,21.20,21.23,21.31,21.39,21.46,21.54,21.60,21.60,21.67,21.75
9.53,9.57,9.60,9.60,9.64,9.66,9.67,9.70,9.70,9.73,9.76,9.76,9.79,9.80,9.82,9.87,9.90,9.90,9.90,9.91,9.96,10.04,10.10,10.16,10.23,10.31,10.33,10.36,10.43,10.43,10.43,10.47,10.55,10.63,10.63,10.68,10.73,10.74,10.81,10.83,10.87,10.93,10.93,10.93,10.93,10.94,10.97,11.02,11.05,11.10,11.17,11.22,11.30,11.34,11.39,11.46,11.54,11.60,11.66,11.74,11.81,11.89,11.93,11.93,11.93,11.93,11.98,12.03,12.03,12.08,12.11,12.13,12.14,12.22,12.23,12.23,12.23,12.26,12.26,12.30,12.33,12.33,12.33,12.35,12.39,12.43,12.43,12.43,12.43,12.44,12.47,12.52,12.76,13.07,13.38,13.69,14.07,14.38,14.63,14.84,14.96,15.00,15.00,15.00,15.03,15.08,15.10,15.10,15.10,15.10,15.10,15.10,15.10,15.15,15.22,15.30,15.38,15.45,15.53,15.61,15.69,15.76,15.79,15.85,15.93,16.01,16.09,16.16,16.21,16.25,16.30,16.37,16.45,16.53,16.60,16.63,16.70,16.76,16.81,16.89,16.92,16.97,17.02,17.10,17.18,17.25,17.33,17.40,17.43,17.50,17.58,17.65,17.70,17.77,17.85,17.93,18.00,18.08,18.12,18.17,18.24,18.29,18.37,18.44,18.52,18.60,18.63,18.67,18.73,18.80,18.80,18.86,18.90,18.92,18.99,19.07,19.10,19.13,19.20,19.20,19.26,19.33,19.40,19.40,19.47,19.50,19.52,19.60,19.68,19.70,19.73,19.80,19.80,19.82,19.86,19.90,19.90,19.90,19.90,19.91,19.94,19.99,20.00,20.00,20.00,20.03,20.08,20.12,20.15,20.20,20.20,20.22,20.26,20.30,20.33,20.38,20.40,20.41,20.43,20.48,20.50,20.52,20.60,20.60,20.62,20.66,20.70,20.70,20.70,20.73,20.76,20.76,20.79,20.80,20.82,20.86,20.86,20.86,20.84,20.81,20.86,20.93,21.01,21.09,21.16,21.19,21.24,21.30,21.37,21.45,21.49,21.54,21.61,21.66,21.69,21.75
9.57,9.60,9.60,9.62,9.67,9.70,9.70,9.73,9.73,9.76,9.80,9.80,9.82,9.83,9.85,9.90,9.90,9.92,9.94,9.97,10.05,10.13,10.21,10.28,10.36,10.44,10.45,10.49,10.55,10.55,10.55,10.60,10.68,10.75,10.75,10.81,10.85,10.86,10.94,10.95,11.00,11.06,11.08,11.08,11.08,11.08,11.09,11.14,11.15,11.19,11.26,11.32,11.40,11.44,11.48,11.56,11.63,11.71,11.79,11.86,11.92,11.99,12.04,12.05,12.05,12.05,12.10,12.15,12.16,12.24,12.25,12.25,12.26,12.32,12.33,12.34,12.35,12.35,12.35,12.39,12.44,12.45,12.45,12.45,12.48,12.53,12.53,12.55,12.55,12.55,12.56,12.64,12.89,13.20,13.51,13.82,14.16,14.42,14.62,14.77,14.93,14.99,15.00,15.00,15.00,15.06,15.10,15.10,15.10,15.10,15.10,15.11,15.13,15.19,15.26,15.34,15.41,15.49,15.57,15.63,15.70,15.77,15.79,15.85,15.93,16.01,16.06,16.14,16.18,16.22,16.29,16.37,16.44,16.50,16.57,16.59,16.66,16.74,16.81,16.87,16.89,16.94,17.02,17.10,17.18,17.24,17.30,17.38,17.40,17.46,17.54,17.62,17.69,17.77,17.84,17.90,17.98,18.05,18.09,18.14,18.21,18.29,18.37,18.44,18.52,18.57,18.59,18.65,18.73,18.80,18.80,18.86,18.90,18.92,18.99,19.07,19.10,19.13,19.20,19.20,19.26,19.33,19.40,19.40,19.47,19.50,19.52,19.60,19.68,19.70,19.73,19.80,19.80,19.80,19.83,19.88,19.90,19.90,19.90,19.90,19.90,19.96,19.99,20.00,20.00,20.00,20.07,20.10,20.11,20.17,20.19,20.20,20.23,20.30,20.30,20.34,20.38,20.40,20.40,20.47,20.50,20.52,20.57,20.59,20.60,20.63,20.70,20.70,20.70,20.74,20.80,20.80,20.80,20.80,20.83,20.90,20.90,20.90,20.87,20.84,20.92,21.00,21.06,21.12,21.20,21.22,21.28,21.35,21.41,21.49,21.52,21.56,21.62,21.70,21.72,21.76
9.60,9.60,9.61,9.68,9.70,9.70,9.71,9.78,9.79,9.80,9.80,9.80,9.87,9.89,9.89,9.90,9.90,9.96,10.03,10.10,10.18,10.26,10.33,10.41,10.49,10.57,10.58,10.62,10.68,10.68,10.68,10.73,10.81,10.88,10.88,10.94,10.98,10.99,11.07,11.08,11.12,11.20,11.27,11.27,11.27,11.27,11.27,11.28,11.28,11.32,11.38,11.39,11.46,11.53,11.61,11.68,11.76,11.84,11.91,11.98,11.99,12.06,12.13,12.18,12.18,12.18,12.23,12.28,12.29,12.36,12.38,12.38,12.38,12.39,12.39,12.43,12.48,12.48,12.48,12.49,12.52,12.58,12.58,12.58,12.59,12.59,12.59,12.66,12.68,12.68,12.69,12.76,13.02,13.33,13.64,13.95,14.20,14.40,14.56,14.71,14.86,14.96,15.00,15.00,15.00,15.06,15.10,15.10,15.10,15.10,15.10,15.12,15.19,15.20,15.26,15.34,15.41,15.49,15.57,15.60,15.63,15.71,15.78,15.85,15.93,16.00,16.01,16.07,16.15,16.22,16.29,16.37,16.40,16.44,16.51,16.58,16.66,16.74,16.80,16.81,16.87,16.94,17.02,17.10,17.18,17.20,17.24,17.32,17.39,17.46,17.54,17.62,17.69,17.77,17.80,17.84,17.91,17.99,18.06,18.14,18.21,18.29,18.37,18.44,18.50,18.51,18.58,18.65,18.73,18.80,18.80,18.86,18.90,18.92,18.99,19.07,19.10,19.13,19.20,19.20,19.26,19.33,19.40,19.40,19.47,19.50,19.52,19.60,19.68,19.70,19.73,19.80,19.80,19.80,19.80,19.82,19.89,19.90,19.90,19.90,19.90,19.91,19.96,20.00,20.00,20.00,20.07,20.10,20.10,20.11,20.18,20.20,20.23,20.30,20.30,20.31,20.34,20.40,20.40,20.47,20.50,20.50,20.51,20.58,20.60,20.63,20.70,20.70,20.70,20.74,20.80,20.80,20.80,20.80,20.83,20.90,20.90,20.90,20.90,20.91,20.98,21.06,21.10,21.12,21.20,21.27,21.35,21.39,21.41,21.49,21.56,21.59,21.62,21.70,21.77,21.80
9.60,9.62,9.66,9.69,9.70,9.72,9.76,9.80,9.84,9.85,9.85,9.86,9.89,9.93,9.97,10.02,10.06,10.13,10.18,10.23,10.31,10.38,10.46,10.54,10.61,10.65,10.69,10.75,10.81,10.81,10.85,10.89,10.93,11.01,11.01,11.07,11.11,11.12,11.20,11.21,11.25,11.33,11.41,11.41,11.41,11.41,11.41,11.41,11.41,11.43,11.46,11.51,11.58,11.63,11.68,11.76,11.83,11.91,11.99,12.06,12.10,12.17,12.25,12.31,12.31,12.35,12.39,12.41,12.41,12.45,12.49,12.51,12.51,12.51,12.51,12.53,12.57,12.61,12.61,12.61,12.62,12.65,12.65,12.69,12.71,12.71,12.71,12.74,12.75,12.77,12.81,12.89,13.15,13.44,13.70,13.92,14.15,14.34,14.50,14.70,14.81,14.93,15.00,15.00,15.00,15.03,15.07,15.10,15.10,15.10,15.10,15.13,15.20,15.20,15.26,15.34,15.41,15.44,15.51,15.57,15.62,15.70,15.78,15.82,15.88,15.95,15.99,16.06,16.14,16.22,16.29,16.33,16.37,16.43,16.50,16.58,16.66,16.72,16.75,16.79,16.87,16.94,17.01,17.04,17.12,17.17,17.23,17.31,17.39,17.46,17.54,17.61,17.64,17.72,17.77,17.83,17.90,17.98,18.06,18.14,18.21,18.29,18.33,18.39,18.46,18.50,18.58,18.65,18.73,18.80,18.80,18.86,18.90,18.92,18.99,19.07,19.10,19.13,19.20,19.20,19.26,19.33,19.40,19.40,19.47,19.50,19.52,19.60,19.68,19.70,19.73,19.80,19.80,19.80,19.80,19.81,19.84,19.88,19.90,19.90,19.90,19.90,19.93,19.96,20.00,20.00,20.03,20.07,20.10,20.10,20.17,20.20,20.21,20.25,20.29,20.30,20.34,20.40,20.40,20.43,20.47,20.50,20.50,20.54,20.58,20.62,20.65,20.69,20.70,20.72,20.76,20.80,20.80,20.83,20.87,20.90,20.90,20.90,20.92,20.96,21.00,21.07,21.13,21.18,21.26,21.29,21.36,21.42,21.46,21.49,21.56,21.62,21.66,21.70,21.77,21.83
9.61,9.64,9.70,9.70,9.71,9.75,9.80,9.82,9.88,9.90,9.91,9.94,9.95,10.01,10.09,10.17,10.24,10.31,10.35,10.37,10.44,10.51,10.59,10.66,10.72,10.73,10.80,10.88,10.94,10.94,11.01,11.04,11.06,11.14,11.14,11.19,11.24,11.25,11.33,11.35,11.39,11.46,11.53,11.54,11.54,11.54,11.54,11.54,11.54,11.54,11.55,11.61,11.69,11.73,11.76,11.84,11.92,11.99,12.07,12.15,12.22,12.30,12.37,12.42,12.44,12.50,12.53,12.54,12.54,12.54,12.59,12.62,12.62,12.64,12.64,12.64,12.66,12.72,12.72,12.73,12.74,12.74,12.74,12.79,12.82,12.82,12.84,12.84,12.84,12.86,12.92,13.02,13.25,13.51,13.73,13.88,14.11,14.29,14.46,14.68,14.76,14.89,14.99,15.00,15.00,15.00,15.03,15.08,15.10,15.10,15.10,15.13,15.20,15.20,15.26,15.33,15.38,15.40,15.47,15.55,15.62,15.70,15.76,15.79,15.83,15.91,15.99,16.06,16.13,16.20,16.28,16.29,16.35,16.43,16.50,16.57,16.64,16.69,16.71,16.77,16.85,16.93,16.99,17.00,17.08,17.15,17.23,17.31,17.39,17.45,17.52,17.58,17.60,17.67,17.75,17.83,17.90,17.98,18.05,18.12,18.19,18.27,18.29,18.34,18.42,18.50,18.58,18.65,18.72,18.78,18.80,18.86,18.90,18.92,18.99,19.07,19.10,19.13,19.20,19.20,19.26,19.33,19.40,19.40,19.47,19.50,19.52,19.60,19.66,19.69,19.72,19.78,19.80,19.80,19.80,19.80,19.80,19.86,19.89,19.90,19.90,19.90,19.90,19.93,19.98,20.00,20.00,20.04,20.10,20.10,20.16,20.19,20.20,20.21,20.28,20.30,20.33,20.38,20.40,20.40,20.44,20.49,20.50,20.50,20.56,20.60,20.61,20.67,20.69,20.70,20.72,20.80,20.80,20.84,20.89,20.90,20.90,20.91,20.95,21.00,21.02,21.09,21.16,21.22,21.30,21.31,21.36,21.43,21.50,21.52,21.57,21.64,21.70,21.72,21.78,21.85
9.64,9.69,9.70,9.70,9.75,9.79,9.81,9.88,9.89,9.90,9.94,10.07,10.13,10.20,10.28,10.36,10.44,10.46,10.50,10.55,10.56,10.64,10.72,10.77,10.79,10.85,10.93,11.00,11.06,11.06,11.13,11.16,11.19,11.26,11.26,11.32,11.36,11.38,11.45,11.52,11.55,11.58,11.66,11.66,11.66,11.66,11.66,11.66,11.66,11.66,11.67,11.68,11.75,11.82,11.89,11.97,12.04,12.12,12.20,12.28,12.35,12.43,12.47,12.50,12.56,12.58,12.62,12.66,12.66,12.66,12.68,12.68,12.69,12.76,12.76,12.76,12.77,12.78,12.78,12.83,12.86,12.86,12.86,12.88,12.88,12.90,12.96,12.96,12.96,12.97,12.99,13.13,13.30,13.51,13.73,13.88,14.11,14.29,14.45,14.62,14.70,14.83,14.94,15.00,15.00,15.00,15.01,15.03,15.10,15.10,15.10,15.13,15.20,15.20,15.26,15.31,15.33,15.39,15.47,15.55,15.62,15.70,15.71,15.76,15.83,15.91,15.99,16.06,16.11,16.14,16.21,16.28,16.35,16.43,16.50,16.51,16.58,16.65,16.70,16.72,16.79,16.86,16.94,17.00,17.08,17.15,17.23,17.31,17.39,17.41,17.46,17.53,17.60,17.67,17.75,17.83,17.90,17.98,18.01,18.05,18.13,18.21,18.27,18.34,18.42,18.50,18.58,18.65,18.71,18.72,18.79,18.86,18.90,18.92,18.99,19.07,19.10,19.13,19.20,19.20,19.26,19.33,19.40,19.40,19.47,19.50,19.52,19.60,19.61,19.66,19.71,19.72,19.79,19.80,19.80,19.80,19.80,19.81,19.86,19.90,19.90,19.90,19.90,19.91,19.93,19.99,20.00,20.04,20.10,20.10,20.11,20.16,20.20,20.21,20.28,20.30,20.31,20.33,20.39,20.40,20.41,20.44,20.50,20.50,20.56,20.60,20.60,20.62,20.67,20.70,20.72,20.80,20.80,20.81,20.84,20.90,20.90,20.95,20.99,21.01,21.08,21.15,21.19,21.22,21.30,21.36,21.39,21.43,21.51,21.57,21.59,21.64,21.72,21.78,21.80,21.85
9.67,9.70,9.70,9.74,9.78,9.82,9.85,9.90,9.90,9.94,10.04,10.20,10.31,10.40,10.47,10.55,10.63,10.64,10.68,10.74,10.74,10.78,10.82,10.86,10.90,10.98,11.05,11.13,11.19,11.19,11.26,11.29,11.32,11.39,11.39,11.45,11.49,11.50,11.58,11.66,11.69,11.71,11.79,11.79,11.79,11.79,11.79,11.79,11.79,11.79,11.79,11.79,11.86,11.92,11.97,12.05,12.12,12.20,12.28,12.36,12.43,12.51,12.57,12.61,12.69,12.69,12.72,12.75,12.75,12.75,12.77,12.79,12.80,12.84,12.85,12.85,12.86,12.89,12.89,12.92,12.95,12.95,12.99,12.99,12.99,13.00,13.04,13.05,13.07,13.09,13.10,13.18,13.35,13.54,13.73,13.92,14.12,14.29,14.44,14.55,14.63,14.76,14.89,14.96,14.99,15.00,15.00,15.02,15.10,15.10,15.10,15.13,15.20,15.20,15.23,15.27,15.31,15.39,15.47,15.52,15.58,15.65,15.69,15.75,15.83,15.90,15.95,16.02,16.07,16.12,16.19,16.27,16.35,16.41,16.46,16.49,16.56,16.62,16.66,16.70,16.77,16.84,16.92,17.00,17.08,17.15,17.22,17.26,17.34,17.38,17.44,17.52,17.59,17.67,17.75,17.81,17.86,17.93,17.98,18.04,18.11,18.19,18.27,18.34,18.42,18.50,18.54,18.61,18.67,18.71,18.78,18.86,18.90,18.92,18.99,19.04,19.08,19.13,19.20,19.20,19.26,19.32,19.36,19.39,19.47,19.50,19.52,19.60,19.60,19.65,19.70,19.71,19.78,19.80,19.80,19.80,19.80,19.80,19.83,19.87,19.90,19.90,19.90,19.90,19.91,19.99,20.00,20.02,20.06,20.10,20.10,20.15,20.20,20.20,20.24,20.28,20.30,20.32,20.39,20.40,20.40,20.42,20.50,20.50,20.56,20.60,20.60,20.60,20.67,20.70,20.72,20.80,20.80,20.82,20.86,20.90,20.90,20.96,21.02,21.05,21.10,21.17,21.22,21.26,21.30,21.38,21.43,21.46,21.51,21.59,21.63,21.67,21.72,21.80,21.83,21.87
9.70,9.70,9.72,9.79,9.81,9.85,9.90,9.91,9.92,10.03,10.18,10.34,10.49,10.59,10.66,10.74,10.82,10.83,10.87,10.92,10.93,10.93,10.93,10.96,11.03,11.10,11.18,11.26,11.32,11.32,11.39,11.42,11.44,11.52,11.52,11.58,11.62,11.63,11.71,11.79,11.82,11.84,11.92,11.92,11.92,11.92,11.92,11.92,11.92,11.92,11.93,11.93,11.99,12.02,12.04,12.12,12.20,12.28,12.35,12.43,12.51,12.59,12.66,12.74,12.82,12.82,12.82,12.82,12.82,12.82,12.87,12.91,12.91,12.92,12.92,12.92,12.94,13.01,13.01,13.02,13.02,13.03,13.10,13.11,13.11,13.11,13.12,13.12,13.17,13.21,13.21,13.22,13.39,13.58,13.75,13.97,14.13,14.28,14.41,14.49,14.58,14.70,14.82,14.90,14.98,15.00,15.00,15.02,15.10,15.10,15.10,15.13,15.20,15.20,15.20,15.24,15.31,15.39,15.46,15.49,15.52,15.60,15.68,15.75,15.83,15.89,15.90,15.96,16.04,16.12,16.19,16.26,16.34,16.39,16.40,16.48,16.55,16.59,16.61,16.69,16.77,16.84,16.92,16.99,17.07,17.14,17.19,17.21,17.29,17.36,17.44,17.52,17.59,17.66,17.74,17.79,17.80,17.88,17.96,18.04,18.11,18.19,18.26,18.33,18.41,18.49,18.50,18.55,18.63,18.71,18.78,18.86,18.90,18.92,18.99,19.00,19.05,19.13,19.20,19.20,19.26,19.30,19.31,19.39,19.47,19.50,19.52,19.60,19.60,19.65,19.70,19.71,19.78,19.80,19.80,19.80,19.80,19.80,19.80,19.82,19.89,19.90,19.90,19.90,19.91,19.99,20.00,20.00,20.02,20.10,20.10,20.15,20.20,20.20,20.20,20.26,20.30,20.32,20.39,20.40,20.40,20.43,20.50,20.51,20.56,20.60,20.60,20.61,20.67,20.70,20.73,20.80,20.81,20.86,20.90,20.90,20.91,20.96,21.04,21.10,21.11,21.17,21.25,21.30,21.31,21.38,21.46,21.50,21.52,21.59,21.66,21.70,21.73,21.80,21.87,21.91
9.70,9.72,9.78,9.80,9.85,9.88,9.91,9.97,10.08,10.22,10.37,10.53,10.68,10.78,10.86,10.93,11.01,11.02,11.03,11.06,11.12,11.12,11.12,11.13,11.15,11.23,11.31,11.39,11.45,11.45,11.52,11.55,11.57,11.65,11.65,11.70,11.75,11.76,11.84,11.91,11.95,11.97,12.05,12.05,12.05,12.05,12.05,12.05,12.05,12.08,12.12,12.12,12.14,12.15,12.17,12.25,12.33,12.40,12.48,12.56,12.64,12.71,12.79,12.87,12.94,12.95,12.95,12.95,12.95,12.95,12.96,12.97,12.98,13.04,13.05,13.05,13.05,13.07,13.07,13.11,13.15,13.15,13.17,13.17,13.17,13.19,13.25,13.25,13.26,13.27,13.28,13.33,13.44,13.60,13.80,13.91,14.06,14.22,14.35,14.43,14.56,14.67,14.76,14.84,14.91,14.97,15.00,15.02,15.10,15.10,15.10,15.13,15.20,15.20,15.20,15.24,15.31,15.39,15.42,15.46,15.52,15.60,15.68,15.75,15.81,15.83,15.89,15.96,16.04,16.12,16.19,16.22,16.28,16.35,16.40,16.48,16.52,16.55,16.61,16.69,16.77,16.84,16.91,16.93,17.00,17.08,17.15,17.21,17.29,17.36,17.44,17.52,17.59,17.62,17.67,17.75,17.80,17.88,17.96,18.04,18.11,18.19,18.22,18.27,18.35,18.42,18.48,18.55,18.63,18.71,18.78,18.86,18.90,18.92,18.99,19.00,19.05,19.13,19.20,19.20,19.26,19.30,19.31,19.39,19.47,19.50,19.52,19.60,19.60,19.65,19.70,19.70,19.72,19.77,19.80,19.80,19.80,19.80,19.80,19.81,19.83,19.88,19.90,19.90,19.91,19.99,20.00,20.00,20.02,20.10,20.10,20.15,20.20,20.20,20.20,20.26,20.30,20.32,20.39,20.40,20.43,20.48,20.50,20.56,20.59,20.60,20.61,20.67,20.69,20.73,20.78,20.80,20.85,20.89,20.90,20.90,20.96,20.99,21.04,21.11,21.17,21.19,21.25,21.32,21.37,21.39,21.46,21.52,21.58,21.60,21.66,21.73,21.78,21.80,21.87,21.94
9.72,9.76,9.80,9.83,9.88,9.90,9.93,10.06,10.22,10.37,10.53,10.68,10.87,10.97,11.05,11.12,11.20,11.21,11.21,11.23,11.31,11.31,11.31,11.31,11.32,11.37,11.44,11.50,11.54,11.57,11.65,11.68,11.70,11.78,11.78,11.83,11.89,11.92,11.97,12.04,12.08,12.10,12.17,12.18,12.20,12.21,12.21,12.21,12.21,12.24,12.28,12.28,12.28,12.26,12.27,12.38,12.42,12.49,12.57,12.65,12.73,12.80,12.88,12.96,13.03,13.07,13.08,13.08,13.08,13.08,13.08,13.08,13.08,13.13,13.14,13.14,13.15,13.18,13.18,13.21,13.24,13.24,13.24,13.26,13.28,13.29,13.34,13.34,13.36,13.38,13.38,13.43,13.50,13.62,13.78,13.89,14.01,14.15,14.29,14.40,14.53,14.62,14.71,14.81,14.89,14.96,15.00,15.02,15.10,15.10,15.10,15.13,15.20,15.20,15.20,15.24,15.31,15.36,15.39,15.45,15.52,15.60,15.65,15.72,15.77,15.81,15.89,15.96,16.03,16.08,16.16,16.19,16.25,16.33,16.40,16.45,16.48,16.54,16.61,16.69,16.74,16.81,16.87,16.90,16.98,17.05,17.13,17.21,17.29,17.36,17.42,17.48,17.56,17.59,17.65,17.73,17.80,17.88,17.96,18.02,18.07,18.15,18.19,18.24,18.32,18.40,18.48,18.55,18.63,18.70,18.75,18.82,18.88,18.92,18.99,19.00,19.05,19.13,19.20,19.20,19.26,19.30,19.31,19.39,19.47,19.50,19.52,19.60,19.60,19.65,19.70,19.70,19.70,19.74,19.76,19.77,19.80,19.80,19.80,19.80,19.80,19.88,19.90,19.90,19.91,19.99,20.00,20.02,20.05,20.10,20.13,20.17,20.20,20.20,20.23,20.28,20.31,20.35,20.40,20.43,20.47,20.50,20.50,20.58,20.60,20.61,20.64,20.69,20.72,20.76,20.81,20.84,20.88,20.90,20.91,20.94,20.99,21.02,21.06,21.11,21.19,21.23,21.27,21.32,21.40,21.43,21.47,21.53,21.60,21.63,21.68,21.74,21.81,21.84,21.88,21.95
9.75,9.80,9.81,9.88,9.90,9.90,9.95,10.18,10.35,10.50,10.66,10.81,11.04,11.16,11.24,11.32,11.39,11.41,11.41,11.43,11.50,11.50,11.51,11.51,11.51,11.51,11.57,11.60,11.62,11.70,11.77,11.80,11.83,11.90,11.90,11.96,12.04,12.10,12.10,12.17,12.20,12.22,12.30,12.30,12.36,12.40,12.40,12.40,12.40,12.40,12.40,12.40,12.40,12.36,12.35,12.50,12.50,12.56,12.64,12.71,12.79,12.87,12.95,13.02,13.10,13.18,13.20,13.20,13.20,13.20,13.20,13.20,13.20,13.20,13.20,13.20,13.23,13.30,13.30,13.30,13.30,13.30,13.30,13.37,13.40,13.40,13.40,13.40,13.45,13.50,13.50,13.50,13.56,13.64,13.73,13.88,13.97,14.09,14.24,14.40,14.48,14.55,14.66,14.81,14.89,14.96,15.00,15.02,15.10,15.10,15.10,15.13,15.20,15.20,15.20,15.24,15.30,15.30,15.37,15.44,15.52,15.60,15.60,15.65,15.73,15.81,15.89,15.96,16.00,16.02,16.09,16.17,16.25,16.32,16.40,16.40,16.46,16.54,16.61,16.69,16.70,16.74,16.82,16.90,16.98,17.05,17.13,17.21,17.28,17.36,17.40,17.42,17.49,17.57,17.65,17.73,17.80,17.88,17.96,18.00,18.01,18.09,18.17,18.24,18.32,18.40,18.47,18.55,18.63,18.70,18.70,18.76,18.84,18.92,18.99,19.00,19.05,19.13,19.20,19.20,19.26,19.30,19.31,19.39,19.47,19.50,19.52,19.60,19.60,19.65,19.70,19.70,19.70,19.70,19.70,19.72,19.79,19.80,19.80,19.80,19.80,19.88,19.90,19.90,19.91,19.99,20.00,20.04,20.10,20.10,20.17,20.20,20.20,20.21,20.28,20.30,20.34,20.40,20.40,20.47,20.50,20.50,20.50,20.58,20.60,20.63,20.70,20.70,20.77,20.80,20.82,20.90,20.90,20.90,20.93,21.00,21.00,21.06,21.10,21.12,21.19,21.27,21.30,21.33,21.40,21.48,21.50,21.53,21.61,21.69,21.70,21.74,21.82,21.90,21.90,21.95
9.75,9.80,9.81,9.88,9.90,9.95,10.08,10.31,10.52,10.69,10.85,11.00,11.18,11.33,11.43,11.51,11.59,11.60,11.60,11.60,11.63,11.68,11.70,11.70,11.70,11.70,11.72,11.73,11.75,11.82,11.90,11.93,11.96,12.03,12.03,12.09,12.16,12.23,12.23,12.30,12.33,12.35,12.43,12.48,12.51,12.53,12.53,12.53,12.53,12.53,12.53,12.53,12.53,12.48,12.46,12.57,12.62,12.69,12.76,12.84,12.92,13.00,13.07,13.15,13.23,13.30,13.33,13.33,13.33,13.33,13.33,13.33,13.33,13.33,13.33,13.33,13.34,13.37,13.37,13.40,13.43,13.43,13.43,13.45,13.47,13.48,13.53,13.53,13.55,13.58,13.63,13.69,13.72,13.77,13.84,13.89,13.97,14.06,14.18,14.33,14.46,14.55,14.66,14.81,14.89,14.96,15.00,15.02,15.10,15.10,15.10,15.13,15.20,15.20,15.24,15.28,15.30,15.30,15.37,15.42,15.46,15.53,15.58,15.65,15.73,15.81,15.89,15.92,15.96,16.02,16.09,16.17,16.22,16.26,16.34,16.39,16.46,16.51,16.55,16.62,16.68,16.74,16.82,16.90,16.98,17.05,17.11,17.14,17.22,17.30,17.36,17.42,17.49,17.57,17.65,17.73,17.80,17.83,17.89,17.96,18.01,18.09,18.17,18.24,18.32,18.40,18.43,18.49,18.56,18.64,18.69,18.76,18.84,18.92,18.99,19.00,19.05,19.13,19.20,19.20,19.26,19.30,19.31,19.39,19.47,19.50,19.52,19.60,19.60,19.65,19.70,19.70,19.70,19.70,19.70,19.71,19.73,19.78,19.80,19.80,19.80,19.88,19.90,19.90,19.91,19.99,20.00,20.04,20.10,20.10,20.17,20.20,20.22,20.27,20.29,20.34,20.38,20.41,20.46,20.49,20.50,20.52,20.57,20.59,20.64,20.68,20.71,20.76,20.79,20.80,20.82,20.90,20.90,20.93,20.98,21.00,21.05,21.09,21.12,21.17,21.20,21.27,21.33,21.37,21.40,21.48,21.54,21.58,21.61,21.69,21.74,21.78,21.82,21.90,21.95,21.98
9.77,9.80,9.81,9.88,9.90,9.99,10.18,10.41,10.66,10.85,11.02,11.19,11.35,11.50,11.62,11.70,11.78,11.79,11.79,11.79,11.79,11.84,11.87,11.89,11.89,11.89,11.89,11.89,11.90,11.95,12.03,12.06,12.08,12.16,12.18,12.23,12.29,12.36,12.38,12.43,12.47,12.50,12.56,12.63,12.66,12.66,12.66,12.66,12.66,12.66,12.66,12.66,12.66,12.63,12.60,12.63,12.73,12.81,12.89,12.97,13.05,13.10,13.17,13.25,13.33,13.40,13.44,13.46,13.46,13.46,13.46,13.46,13.46,13.46,13.46,13.46,13.46,13.46,13.46,13.50,13.53,13.53,13.53,13.55,13.56,13.57,13.63,13.65,13.66,13.69,13.76,13.84,13.88,13.91,13.96,13.99,14.04,14.10,14.20,14.33,14.44,14.54,14.65,14.78,14.86,14.93,14.98,15.02,15.10,15.10,15.11,15.15,15.20,15.20,15.26,15.30,15.30,15.30,15.37,15.40,15.42,15.50,15.58,15.65,15.72,15.78,15.86,15.89,15.94,16.02,16.09,16.15,16.19,16.23,16.30,16.36,16.43,16.48,16.51,16.59,16.67,16.74,16.82,16.90,16.95,17.02,17.08,17.11,17.19,17.26,17.34,17.42,17.49,17.55,17.62,17.70,17.77,17.79,17.86,17.94,18.01,18.09,18.17,18.23,18.29,18.37,18.39,18.45,18.53,18.61,18.68,18.76,18.83,18.89,18.96,18.99,19.05,19.13,19.20,19.20,19.26,19.30,19.31,19.39,19.47,19.50,19.52,19.60,19.60,19.64,19.68,19.70,19.70,19.70,19.70,19.70,19.70,19.77,19.80,19.80,19.80,19.88,19.90,19.90,19.91,19.96,19.99,20.04,20.11,20.13,20.18,20.22,20.25,20.30,20.32,20.37,20.41,20.44,20.49,20.50,20.51,20.55,20.60,20.62,20.67,20.71,20.74,20.79,20.80,20.81,20.84,20.90,20.92,20.97,21.01,21.03,21.09,21.12,21.16,21.20,21.23,21.28,21.35,21.41,21.43,21.48,21.56,21.61,21.64,21.69,21.76,21.81,21.84,21.90,21.97,22.01
9.80,9.80,9.81,9.88,9.90,10.01,10.24,10.47,10.77,10.98,11.16,11.38,11.54,11.69,11.81,11.89,11.97,11.98,11.98,11.98,11.98,11.98,12.04,12.08,12.08,12.08,12.08,12.08,12.08,12.09,12.16,12.19,12.21,12.29,12.36,12.38,12.42,12.50,12.57,12.58,12.63,12.68,12.69,12.76,12.79,12.79,12.79,12.79,12.79,12.79,12.79,12.79,12.79,12.78,12.76,12.70,12.85,12.94,13.02,13.10,13.17,13.19,13.24,13.31,13.39,13.47,13.54,13.59,13.59,13.59,13.59,13.59,13.59,13.59,13.59,13.59,13.59,13.59,13.59,13.59,13.59,13.59,13.59,13.65,13.69,13.69,13.69,13.76,13.79,13.81,13.89,13.97,14.04,14.08,14.10,14.17,14.18,14.23,14.31,14.39,14.40,14.51,14.63,14.72,14.79,14.87,14.94,15.02,15.10,15.10,15.15,15.20,15.20,15.20,15.26,15.30,15.30,15.30,15.37,15.40,15.42,15.50,15.58,15.65,15.70,15.72,15.79,15.87,15.94,16.02,16.09,16.10,16.15,16.23,16.30,16.31,16.37,16.44,16.51,16.59,16.67,16.74,16.82,16.90,16.91,16.96,17.04,17.11,17.19,17.26,17.34,17.42,17.49,17.50,17.56,17.63,17.71,17.78,17.86,17.94,18.01,18.09,18.17,18.20,18.23,18.31,18.38,18.45,18.53,18.61,18.68,18.76,18.80,18.82,18.90,18.97,19.05,19.13,19.20,19.20,19.26,19.30,19.31,19.39,19.47,19.50,19.52,19.60,19.60,19.60,19.63,19.70,19.70,19.70,19.70,19.70,19.70,19.77,19.80,19.80,19.80,19.88,19.90,19.90,19.90,19.91,19.97,20.04,20.12,20.19,20.20,20.25,20.30,20.31,20.38,20.40,20.44,20.49,20.50,20.50,20.54,20.59,20.60,20.67,20.70,20.73,20.79,20.80,20.80,20.84,20.89,20.90,20.97,21.00,21.03,21.09,21.10,21.16,21.20,21.21,21.29,21.30,21.35,21.42,21.49,21.50,21.56,21.63,21.69,21.70,21.76,21.84,21.89,21.90,21.97,22.05
9.83,9.86,9.86,9.89,9.90,10.04,10.32,10.59,10.90,11.14,11.33,11.52,11.67,11.86,12.03,12.13,12.17,12.17,12.17,12.17,12.17,12.17,12.22,12.27,12.27,12.27,12.27,12.27,12.27,12.27,12.30,12.34,12.38,12.42,12.49,12.55,12.59,12.63,12.70,12.75,12.79,12.83,12.87,12.90,12.91,12.91,12.91,12.91,12.91,12.91,12.91,12.91,12.91,12.91,12.89,12.82,12.93,13.01,13.09,13.17,13.24,13.29,13.36,13.43,13.51,13.59,13.67,13.70,13.66,13.66,13.66,13.66,13.66,13.66,13.66,13.66,13.66,13.66,13.66,13.66,13.68,13.71,13.71,13.74,13.76,13.77,13.81,13.89,13.91,13.94,14.02,14.10,14.17,14.21,14.23,14.31,14.35,14.39,14.44,14.51,14.51,14.59,14.69,14.77,14.84,14.92,14.97,15.02,15.10,15.10,15.15,15.20,15.20,15.20,15.26,15.30,15.30,15.30,15.37,15.40,15.42,15.50,15.53,15.60,15.66,15.71,15.79,15.86,15.94,16.01,16.04,16.08,16.15,16.21,16.25,16.29,16.36,16.44,16.51,16.59,16.67,16.72,16.76,16.84,16.89,16.95,17.03,17.11,17.19,17.26,17.32,17.36,17.44,17.48,17.55,17.63,17.70,17.78,17.86,17.94,18.01,18.04,18.11,18.17,18.22,18.30,18.38,18.45,18.53,18.60,18.64,18.70,18.77,18.82,18.89,18.97,19.05,19.13,19.20,19.20,19.26,19.30,19.31,19.39,19.43,19.47,19.52,19.60,19.60,19.60,19.61,19.64,19.64,19.68,19.70,19.70,19.70,19.77,19.80,19.80,19.80,19.83,19.88,19.90,19.90,19.90,19.97,20.04,20.12,20.20,20.20,20.25,20.30,20.31,20.38,20.40,20.44,20.50,20.50,20.54,20.58,20.61,20.66,20.69,20.73,20.77,20.80,20.80,20.84,20.88,20.91,20.96,20.99,21.03,21.07,21.10,21.15,21.18,21.22,21.26,21.30,21.30,21.35,21.42,21.50,21.54,21.58,21.63,21.71,21.75,21.78,21.84,21.91,21.96,21.99,22.05
9.85,9.90,9.90,9.90,9.93,10.10,10.40,10.70,11.00,11.27,11.50,11.67,11.82,12.02,12.22,12.36,12.36,12.36,12.36,12.36,12.36,12.36,12.42,12.46,12.46,12.46,12.46,12.46,12.46,12.44,12.44,12.49,12.55,12.56,12.63,12.70,12.75,12.77,12.83,12.91,12.95,12.98,13.04,13.06,13.05,13.04,13.04,13.04,13.04,13.04,13.04,13.04,13.04,13.04,13.02,12.94,13.00,13.08,13.16,13.25,13.33,13.41,13.48,13.56,13.64,13.72,13.78,13.80,13.74,13.74,13.74,13.74,13.74,13.74,13.74,13.74,13.74,13.74,13.74,13.74,13.77,13.82,13.82,13.83,13.84,13.86,13.94,14.02,14.05,14.09,14.17,14.23,14.30,14.35,14.37,14.44,14.51,14.55,14.58,14.64,14.64,14.70,14.77,14.85,14.91,14.97,15.00,15.02,15.10,15.10,15.15,15.20,15.20,15.20,15.26,15.30,15.30,15.32,15.37,15.40,15.42,15.50,15.50,15.55,15.63,15.71,15.79,15.85,15.92,15.98,16.00,16.07,16.14,16.18,16.20,16.28,16.36,16.43,16.49,16.57,16.65,16.69,16.72,16.80,16.88,16.95,17.03,17.11,17.17,17.24,17.29,17.32,17.39,17.47,17.55,17.63,17.70,17.76,17.84,17.91,17.98,18.00,18.07,18.14,18.22,18.30,18.38,18.44,18.51,18.58,18.60,18.66,18.74,18.82,18.89,18.97,19.04,19.10,19.18,19.20,19.26,19.30,19.31,19.39,19.40,19.44,19.52,19.60,19.60,19.60,19.60,19.60,19.60,19.66,19.70,19.70,19.70,19.77,19.80,19.80,19.80,19.80,19.84,19.89,19.90,19.90,19.95,20.02,20.10,20.18,20.19,20.25,20.31,20.33,20.39,20.41,20.45,20.50,20.52,20.58,20.61,20.64,20.70,20.70,20.76,20.80,20.80,20.82,20.87,20.91,20.94,21.00,21.02,21.06,21.11,21.13,21.19,21.20,21.24,21.30,21.30,21.31,21.36,21.42,21.50,21.58,21.60,21.63,21.71,21.79,21.81,21.85,21.92,22.00,22.02,22.06
9.85,9.90,9.90,9.90,10.00,10.23,10.52,10.76,11.07,11.37,11.64,11.86,12.01,12.18,12.37,12.55,12.55,12.55,12.55,12.55,12.55,12.55,12.61,12.65,12.65,12.65,12.65,12.65,12.64,12.58,12.57,12.62,12.69,12.75,12.77,12.83,12.90,12.96,12.97,13.04,13.11,13.16,13.17,13.23,13.21,13.17,13.17,13.17,13.17,13.17,13.17,13.17,13.17,13.17,13.15,13.07,13.08,13.14,13.25,13.38,13.46,13.53,13.61,13.69,13.77,13.84,13.88,13.88,13.87,13.87,13.87,13.87,13.87,13.87,13.87,13.87,13.87,13.87,13.87,13.87,13.87,13.88,13.88,13.94,13.97,13.99,14.07,14.14,14.21,14.28,14.36,14.37,14.43,14.50,14.56,14.57,14.64,14.71,14.76,14.77,14.77,14.82,14.90,14.97,14.98,14.99,15.00,15.02,15.10,15.10,15.15,15.20,15.20,15.20,15.26,15.30,15.31,15.38,15.40,15.40,15.42,15.50,15.50,15.55,15.63,15.71,15.79,15.81,15.86,15.93,16.00,16.07,16.11,16.14,16.20,16.28,16.36,16.41,16.43,16.51,16.58,16.65,16.72,16.80,16.88,16.95,17.03,17.10,17.11,17.18,17.25,17.32,17.39,17.47,17.55,17.63,17.70,17.71,17.77,17.85,17.93,17.99,18.07,18.14,18.22,18.30,18.38,18.41,18.45,18.52,18.59,18.66,18.74,18.82,18.89,18.97,19.01,19.04,19.12,19.18,19.26,19.30,19.31,19.39,19.40,19.44,19.52,19.60,19.60,19.60,19.60,19.60,19.60,19.66,19.70,19.70,19.70,19.77,19.80,19.80,19.80,19.80,19.81,19.84,19.90,19.90,19.91,19.96,20.04,20.11,20.18,20.25,20.32,20.39,20.40,20.45,20.49,20.51,20.58,20.60,20.64,20.69,20.70,20.70,20.76,20.80,20.81,20.87,20.89,20.94,20.99,21.00,21.06,21.09,21.12,21.19,21.20,21.20,21.24,21.30,21.30,21.36,21.39,21.42,21.50,21.58,21.60,21.63,21.71,21.79,21.85,21.89,21.92,22.00,22.06,22.09
9.88,9.90,9.90,9.90,10.05,10.30,10.61,10.87,11.18,11.47,11.74,12.00,12.20,12.36,12.53,12.70,12.74,12.75,12.75,12.75,12.75,12.75,12.80,12.85,12.85,12.85,12.85,12.83,12.78,12.70,12.66,12.72,12.82,12.90,12.94,12.98,13.03,13.10,13.14,13.18,13.24,13.30,13.30,13.37,13.37,13.33,13.30,13.34,13.35,13.35,13.35,13.35,13.35,13.32,13.27,13.20,13.20,13.25,13.35,13.46,13.54,13.61,13.69,13.77,13.85,13.92,13.97,14.00,14.00,14.00,14.00,14.00,14.00,14.00,14.00,14.00,14.00,14.00,14.00,14.00,14.00,14.00,14.00,14.06,14.12,14.16,14.20,14.27,14.35,14.43,14.50,14.54,14.58,14.63,14.70,14.74,14.78,14.82,14.86,14.90,14.90,14.93,14.97,15.00,15.00,15.03,15.05,15.06,15.10,15.10,15.15,15.20,15.20,15.20,15.26,15.30,15.31,15.39,15.40,15.40,15.42,15.50,15.50,15.55,15.62,15.66,15.74,15.78,15.84,15.91,15.95,16.02,16.08,16.13,16.20,16.24,16.31,16.37,16.41,16.49,16.57,16.64,16.72,16.80,16.88,16.93,16.98,17.06,17.09,17.16,17.24,17.32,17.39,17.47,17.53,17.58,17.65,17.69,17.76,17.84,17.91,17.99,18.07,18.14,18.21,18.25,18.33,18.38,18.43,18.51,18.58,18.66,18.74,18.81,18.85,18.92,18.97,19.03,19.10,19.18,19.26,19.30,19.31,19.39,19.40,19.44,19.51,19.55,19.59,19.60,19.60,19.60,19.60,19.66,19.70,19.70,19.70,19.74,19.75,19.76,19.80,19.80,19.80,19.82,19.86,19.89,19.90,19.94,20.02,20.10,20.14,20.20,20.28,20.35,20.39,20.46,20.50,20.52,20.59,20.60,20.65,20.70,20.70,20.74,20.78,20.82,20.85,20.89,20.93,20.97,21.01,21.05,21.09,21.10,21.13,21.20,21.20,21.23,21.27,21.31,21.34,21.38,21.42,21.46,21.50,21.58,21.63,21.67,21.71,21.79,21.86,21.92,21.96,22.00,22.07,22.12
9.90,9.90,9.90,9.91,10.11,10.38,10.69,11.00,11.31,11.58,11.84,12.15,12.38,12.55,12.71,12.85,12.93,12.94,12.94,12.94,12.94,12.94,12.99,13.04,13.04,13.04,13.04,13.00,12.92,12.84,12.77,12.82,12.94,13.03,13.10,13.13,13.17,13.24,13.31,13.33,13.38,13.43,13.44,13.50,13.53,13.50,13.44,13.51,13.53,13.53,13.53,13.53,13.53,13.48,13.40,13.32,13.32,13.37,13.45,13.52,13.61,13.69,13.77,13.84,13.92,14.00,14.08,14.13,14.13,14.13,14.13,14.13,14.13,14.13,14.13,14.13,14.13,14.13,14.13,14.12,14.11,14.11,14.12,14.18,14.25,14.31,14.32,14.40,14.48,14.55,14.63,14.71,14.73,14.77,14.84,14.90,14.91,14.91,14.93,15.00,15.01,15.01,15.01,15.01,15.01,15.07,15.11,15.11,15.11,15.11,15.16,15.20,15.21,15.21,15.26,15.30,15.32,15.39,15.40,15.41,15.43,15.50,15.50,15.55,15.60,15.61,15.69,15.76,15.84,15.89,15.90,15.97,16.04,16.11,16.19,16.20,16.26,16.34,16.41,16.49,16.57,16.64,16.71,16.79,16.86,16.89,16.93,17.01,17.09,17.16,17.24,17.31,17.38,17.46,17.49,17.53,17.60,17.68,17.76,17.84,17.91,17.98,18.05,18.13,18.19,18.20,18.28,18.35,18.43,18.51,18.58,18.65,18.73,18.79,18.80,18.87,18.95,19.03,19.10,19.18,19.25,19.29,19.31,19.39,19.40,19.44,19.50,19.50,19.57,19.59,19.60,19.60,19.60,19.65,19.69,19.70,19.70,19.70,19.70,19.72,19.79,19.80,19.80,19.80,19.81,19.88,19.90,19.94,20.01,20.08,20.10,20.15,20.23,20.29,20.37,20.45,20.49,20.51,20.58,20.60,20.65,20.70,20.71,20.78,20.81,20.84,20.90,20.91,20.97,21.00,21.02,21.10,21.10,21.11,21.14,21.20,21.21,21.27,21.30,21.33,21.39,21.41,21.45,21.50,21.51,21.58,21.66,21.70,21.72,21.79,21.86,21.94,22.00,22.01,22.08,22.15
9.90,9.90,9.91,9.96,10.21,10.51,10.82,11.13,11.44,11.73,12.03,12.34,12.57,12.74,12.90,13.04,13.12,13.13,13.13,13.13,13.13,13.13,13.18,13.23,13.23,13.23,13.23,13.19,13.11,13.04,12.96,12.95,13.02,13.15,13.23,13.30,13.34,13.36,13.44,13.50,13.54,13.57,13.63,13.65,13.65,13.65,13.63,13.65,13.65,13.65,13.65,13.65,13.65,13.61,13.53,13.45,13.39,13.43,13.51,13.59,13.73,13.82,13.89,13.97,14.05,14.13,14.20,14.25,14.25,14.25,14.25,14.25,14.25,14.25,14.25,14.25,14.25,14.25,14.25,14.21,14.18,14.18,14.24,14.27,14.32,14.39,14.45,14.53,14.60,14.68,14.76,14.84,14.90,14.94,14.96,14.97,14.98,14.98,14.98,15.00,15.06,15.08,15.08,15.08,15.08,15.09,15.13,15.18,15.18,15.18,15.19,15.22,15.28,15.28,15.29,15.33,15.38,15.40,15.40,15.43,15.48,15.50,15.50,15.55,15.60,15.61,15.69,15.76,15.81,15.84,15.90,15.97,16.01,16.05,16.13,16.19,16.26,16.34,16.41,16.49,16.57,16.61,16.65,16.72,16.80,16.86,16.93,17.01,17.09,17.16,17.24,17.30,17.32,17.40,17.46,17.53,17.60,17.68,17.76,17.84,17.90,17.92,17.99,18.07,18.14,18.20,18.28,18.35,18.43,18.51,18.58,18.61,18.66,18.74,18.80,18.87,18.95,19.03,19.10,19.18,19.21,19.25,19.31,19.39,19.40,19.44,19.50,19.50,19.52,19.56,19.60,19.60,19.60,19.61,19.65,19.70,19.70,19.70,19.70,19.71,19.73,19.78,19.80,19.80,19.80,19.82,19.87,19.91,19.94,20.02,20.08,20.15,20.21,20.23,20.31,20.38,20.45,20.50,20.52,20.58,20.65,20.72,20.78,20.80,20.84,20.88,20.91,20.97,20.99,21.00,21.02,21.10,21.10,21.14,21.18,21.20,21.26,21.29,21.33,21.38,21.40,21.45,21.49,21.52,21.58,21.59,21.66,21.73,21.78,21.80,21.86,21.94,22.01,22.07,22.09,22.15
9.90,9.90,9.92,10.12,10.41,10.72,11.03,11.34,11.64,11.95,12.26,12.57,12.80,12.95,13.09,13.24,13.35,13.33,13.32,13.32,13.32,13.32,13.37,13.42,13.42,13.42,13.40,13.34,13.26,13.19,13.11,13.08,13.13,13.28,13.36,13.44,13.49,13.53,13.57,13.65,13.70,13.73,13.78,13.81,13.80,13.78,13.78,13.78,13.78,13.78,13.78,13.78,13.78,13.73,13.66,13.58,13.50,13.54,13.61,13.70,13.82,13.91,13.98,14.06,14.14,14.21,14.29,14.35,14.38,14.38,14.38,14.38,14.38,14.38,14.38,14.38,14.37,14.34,14.34,14.29,14.25,14.29,14.33,14.37,14.42,14.50,14.58,14.65,14.73,14.81,14.88,14.93,14.98,15.00,15.01,15.04,15.04,15.04,15.04,15.04,15.09,15.10,15.11,15.14,15.14,15.14,15.16,15.20,15.20,15.23,15.24,15.26,15.30,15.33,15.34,15.36,15.41,15.44,15.44,15.47,15.51,15.54,15.54,15.57,15.61,15.65,15.69,15.74,15.78,15.82,15.89,15.94,15.98,16.03,16.10,16.18,16.26,16.34,16.41,16.45,16.53,16.58,16.62,16.70,16.78,16.85,16.93,17.00,17.05,17.12,17.20,17.27,17.30,17.37,17.45,17.53,17.60,17.68,17.73,17.79,17.86,17.90,17.97,18.04,18.12,18.20,18.28,18.33,18.39,18.47,18.54,18.58,18.64,18.72,18.79,18.87,18.95,19.02,19.06,19.14,19.18,19.23,19.31,19.39,19.40,19.44,19.50,19.50,19.50,19.53,19.57,19.60,19.60,19.60,19.62,19.66,19.66,19.69,19.70,19.70,19.70,19.75,19.76,19.77,19.80,19.80,19.87,19.90,19.92,20.00,20.07,20.13,20.17,20.21,20.28,20.36,20.42,20.47,20.50,20.57,20.63,20.68,20.76,20.79,20.86,20.90,20.91,20.99,21.00,21.02,21.05,21.10,21.13,21.17,21.21,21.24,21.29,21.32,21.36,21.41,21.44,21.48,21.52,21.55,21.60,21.63,21.67,21.73,21.80,21.84,21.88,21.94,22.02,22.10,22.13,22.17
9.90,9.91,9.97,10.36,10.68,10.98,11.28,11.59,11.90,12.21,12.52,12.82,13.06,13.17,13.28,13.43,13.59,13.55,13.51,13.51,13.51,13.51,13.56,13.61,13.61,13.61,13.55,13.47,13.40,13.32,13.24,13.21,13.26,13.41,13.49,13.56,13.64,13.71,13.71,13.78,13.85,13.91,13.91,13.98,13.96,13.91,13.91,13.91,13.91,13.91,13.91,13.91,13.91,13.86,13.78,13.71,13.63,13.66,13.74,13.81,13.89,13.97,14.05,14.13,14.20,14.28,14.36,14.44,14.51,14.51,14.51,14.51,14.51,14.51,14.51,14.50,14.48,14.40,14.40,14.35,14.34,14.40,14.41,14.47,14.55,14.63,14.70,14.78,14.86,14.93,15.00,15.00,15.00,15.00,15.02,15.09,15.10,15.10,15.10,15.10,15.10,15.10,15.13,15.20,15.20,15.20,15.20,15.20,15.20,15.27,15.30,15.30,15.31,15.38,15.40,15.40,15.42,15.49,15.50,15.50,15.53,15.60,15.60,15.60,15.63,15.70,15.70,15.70,15.74,15.82,15.89,15.90,15.95,16.03,16.10,16.18,16.26,16.33,16.40,16.40,16.47,16.54,16.62,16.70,16.78,16.85,16.93,17.00,17.00,17.06,17.14,17.22,17.29,17.37,17.45,17.53,17.60,17.68,17.70,17.74,17.81,17.89,17.97,18.04,18.12,18.19,18.27,18.30,18.33,18.41,18.48,18.56,18.64,18.72,18.79,18.87,18.94,19.00,19.00,19.08,19.16,19.23,19.31,19.39,19.40,19.44,19.50,19.50,19.50,19.50,19.53,19.60,19.60,19.60,19.60,19.60,19.60,19.67,19.70,19.70,19.70,19.70,19.70,19.73,19.80,19.80,19.86,19.90,19.92,20.00,20.07,20.10,20.13,20.21,20.28,20.36,20.40,20.42,20.49,20.57,20.60,20.62,20.70,20.78,20.85,20.90,20.91,20.99,21.00,21.04,21.10,21.10,21.18,21.20,21.23,21.30,21.30,21.36,21.40,21.42,21.49,21.50,21.55,21.60,21.61,21.68,21.70,21.74,21.81,21.89,21.90,21.94,22.02,22.10,22.17,22.20
9.94,10.13,10.55,10.99,11.16,11.31,11.54,11.85,12.15,12.46,12.77,13.08,13.31,13.39,13.45,13.57,13.77,13.78,13.74,13.70,13.70,13.70,13.76,13.80,13.80,13.80,13.74,13.67,13.58,13.45,13.37,13.34,13.37,13.47,13.60,13.69,13.77,13.84,13.90,13.92,13.98,14.05,14.10,14.13,14.12,14.08,14.04,14.04,14.04,14.04,14.04,14.04,14.04,13.99,13.91,13.83,13.76,13.75,13.80,13.88,13.96,14.03,14.14,14.26,14.33,14.41,14.49,14.56,14.64,14.64,14.64,14.64,14.64,14.64,14.59,14.54,14.49,14.47,14.41,14.42,14.45,14.47,14.53,14.60,14.68,14.75,14.83,14.91,14.95,15.00,15.07,15.07,15.07,15.07,15.07,15.10,15.10,15.13,15.17,15.17,15.17,15.17,15.18,15.20,15.20,15.24,15.27,15.27,15.27,15.29,15.30,15.32,15.37,15.39,15.40,15.42,15.47,15.50,15.50,15.53,15.58,15.60,15.60,15.64,15.68,15.70,15.70,15.74,15.78,15.81,15.83,15.88,15.95,16.03,16.10,16.18,16.22,16.27,16.34,16.39,16.47,16.54,16.62,16.70,16.78,16.82,16.86,16.94,16.99,17.06,17.14,17.22,17.29,17.37,17.45,17.51,17.54,17.61,17.67,17.74,17.81,17.89,17.97,18.04,18.11,18.13,18.21,18.27,18.33,18.41,18.48,18.56,18.64,18.72,18.79,18.82,18.88,18.95,19.00,19.08,19.16,19.23,19.31,19.39,19.40,19.44,19.50,19.50,19.50,19.50,19.51,19.54,19.59,19.60,19.60,19.60,19.60,19.62,19.66,19.70,19.70,19.70,19.70,19.71,19.74,19.79,19.82,19.86,19.92,20.00,20.02,20.07,20.13,20.21,20.28,20.32,20.36,20.42,20.49,20.52,20.56,20.62,20.70,20.78,20.82,20.85,20.91,20.99,21.04,21.08,21.11,21.17,21.19,21.23,21.28,21.30,21.36,21.39,21.43,21.47,21.50,21.55,21.58,21.62,21.67,21.69,21.74,21.78,21.81,21.89,21.94,21.98,22.02,22.10,22.17,22.23
10.10,10.50,11.13,11.59,11.69,11.74,11.87,12.11,12.41,12.72,13.03,13.33,13.57,13.63,13.66,13.75,13.94,13.98,13.97,13.92,13.90,13.90,13.95,14.00,13.99,13.97,13.90,13.83,13.74,13.61,13.53,13.48,13.49,13.57,13.70,13.81,13.90,13.97,14.05,14.08,14.12,14.18,14.26,14.26,14.26,14.23,14.16,14.16,14.16,14.16,14.16,14.16,14.16,14.12,14.04,13.96,13.91,13.88,13.90,13.97,14.05,14.13,14.23,14.35,14.43,14.51,14.58,14.66,14.73,14.76,14.76,14.75,14.73,14.70,14.63,14.57,14.53,14.53,14.48,14.50,14.54,14.57,14.65,14.73,14.81,14.88,14.96,15.01,15.03,15.06,15.13,15.13,15.13,15.13,15.13,15.13,15.13,15.16,15.21,15.23,15.23,15.23,15.23,15.23,15.23,15.28,15.30,15.31,15.33,15.33,15.33,15.35,15.40,15.43,15.43,15.46,15.50,15.53,15.53,15.56,15.61,15.63,15.63,15.67,15.70,15.70,15.73,15.77,15.80,15.80,15.80,15.87,15.95,16.02,16.07,16.15,16.19,16.24,16.31,16.39,16.47,16.54,16.61,16.67,16.74,16.79,16.83,16.91,16.99,17.06,17.14,17.22,17.29,17.35,17.42,17.48,17.50,17.58,17.66,17.74,17.81,17.89,17.97,18.03,18.07,18.10,18.18,18.25,18.33,18.41,18.48,18.56,18.64,18.71,18.76,18.79,18.85,18.93,19.00,19.08,19.16,19.23,19.31,19.39,19.40,19.43,19.47,19.47,19.49,19.50,19.50,19.50,19.56,19.57,19.58,19.60,19.60,19.60,19.63,19.67,19.67,19.69,19.70,19.70,19.71,19.79,19.80,19.84,19.91,19.97,19.99,20.05,20.13,20.20,20.26,20.29,20.34,20.41,20.46,20.49,20.55,20.62,20.70,20.75,20.79,20.83,20.91,20.99,21.04,21.08,21.12,21.20,21.25,21.30,21.33,21.34,21.39,21.42,21.46,21.50,21.53,21.58,21.61,21.65,21.70,21.70,21.76,21.81,21.84,21.89,21.96,22.01,22.05,22.13,22.18,22.25
10.40,11.03,11.71,12.17,12.26,12.27,12.29,12.38,12.67,12.97,13.28,13.59,13.82,13.88,13.92,14.00,14.08,14.15,14.19,14.16,14.09,14.09,14.14,14.19,14.18,14.11,14.03,13.95,13.88,13.79,13.72,13.64,13.62,13.69,13.77,13.91,14.03,14.10,14.18,14.25,14.29,14.31,14.39,14.39,14.39,14.36,14.29,14.29,14.29,14.29,14.29,14.29,14.29,14.24,14.17,14.09,14.09,14.03,14.02,14.10,14.18,14.26,14.34,14.42,14.49,14.57,14.65,14.72,14.80,14.88,14.89,14.86,14.78,14.71,14.63,14.60,14.60,14.60,14.59,14.59,14.63,14.70,14.78,14.86,14.93,15.01,15.09,15.09,15.10,15.12,15.20,15.20,15.20,15.20,15.20,15.20,15.20,15.20,15.22,15.30,15.30,15.30,15.30,15.30,15.30,15.30,15.30,15.32,15.39,15.40,15.40,15.40,15.40,15.48,15.50,15.50,15.51,15.59,15.60,15.60,15.62,15.70,15.70,15.70,15.70,15.71,15.78,15.80,15.80,15.80,15.80,15.87,15.95,16.00,16.01,16.09,16.16,16.24,16.31,16.39,16.47,16.54,16.60,16.60,16.68,16.76,16.83,16.91,16.99,17.06,17.14,17.22,17.29,17.30,17.35,17.43,17.50,17.58,17.66,17.74,17.81,17.89,17.97,18.00,18.02,18.10,18.18,18.25,18.33,18.41,18.48,18.56,18.64,18.70,18.70,18.77,18.85,18.93,19.00,19.08,19.16,19.23,19.31,19.39,19.40,19.40,19.40,19.40,19.48,19.50,19.50,19.50,19.50,19.50,19.54,19.60,19.60,19.60,19.60,19.60,19.61,19.68,19.70,19.70,19.71,19.79,19.80,19.84,19.90,19.90,19.98,20.05,20.13,20.20,20.20,20.26,20.34,20.40,20.40,20.47,20.55,20.62,20.70,20.70,20.76,20.83,20.91,20.99,21.00,21.04,21.12,21.20,21.34,21.39,21.40,21.40,21.40,21.46,21.50,21.51,21.59,21.60,21.64,21.70,21.70,21.70,21.76,21.83,21.90,21.90,21.96,22.04,22.11,22.19,22.20,22.25
11.02,11.27,12.28,12.69,12.81,12.84,12.84,12.87,12.99,13.23,13.54,13.85,14.08,14.14,14.17,14.24,14.27,14.38,14.44,14.42,14.34,14.29,14.33,14.38,14.37,14.29,14.18,14.08,14.00,13.93,13.85,13.77,13.74,13.82,13.90,14.00,14.11,14.23,14.31,14.38,14.44,14.49,14.52,14.56,14.55,14.51,14.48,14.43,14.42,14.44,14.47,14.42,14.42,14.37,14.30,14.22,14.22,14.16,14.13,14.17,14.25,14.32,14.40,14.49,14.61,14.69,14.77,14.86,14.98,14.96,14.92,14.86,14.79,14.76,14.69,14.66,14.66,14.66,14.71,14.72,14.75,14.83,14.91,14.98,15.04,15.07,15.10,15.14,15.16,15.19,15.26,15.26,15.26,15.28,15.32,15.32,15.32,15.32,15.33,15.36,15.36,15.36,15.36,15.36,15.36,15.36,15.36,15.37,15.40,15.40,15.43,15.46,15.46,15.49,15.54,15.56,15.57,15.60,15.64,15.66,15.67,15.70,15.70,15.73,15.76,15.76,15.79,15.80,15.82,15.86,15.86,15.89,15.95,16.00,16.00,16.08,16.16,16.24,16.31,16.39,16.47,16.54,16.61,16.66,16.69,16.75,16.83,16.91,16.99,17.06,17.14,17.22,17.29,17.34,17.41,17.47,17.50,17.58,17.66,17.74,17.81,17.89,17.97,18.03,18.08,18.16,18.24,18.31,18.37,18.41,18.48,18.56,18.64,18.71,18.76,18.83,18.91,18.99,19.06,19.14,19.22,19.27,19.31,19.39,19.40,19.40,19.40,19.40,19.43,19.44,19.44,19.44,19.49,19.50,19.52,19.54,19.54,19.58,19.60,19.60,19.60,19.63,19.67,19.70,19.70,19.74,19.78,19.82,19.85,19.90,19.93,20.02,20.13,20.20,20.20,20.26,20.34,20.40,20.40,20.47,20.55,20.61,20.64,20.69,20.76,20.83,20.90,20.94,20.98,21.04,21.11,21.14,21.33,21.46,21.52,21.52,21.52,21.54,21.56,21.57,21.60,21.60,21.65,21.70,21.70,21.75,21.78,21.83,21.91,21.95,21.99,22.04,22.12,22.20,22.24,22.31
11.71,11.51,12.61,13.21,13.40,13.43,13.41,13.41,13.41,13.56,13.82,14.12,14.32,14.38,14.43,14.49,14.49,14.61,14.67,14.65,14.60,14.52,14.53,14.56,14.54,14.46,14.34,14.23,14.15,14.08,14.00,13.91,13.87,13.93,14.02,14.10,14.21,14.36,14.44,14.51,14.59,14.65,14.67,14.73,14.71,14.66,14.64,14.58,14.57,14.60,14.63,14.55,14.55,14.50,14.42,14.35,14.35,14.29,14.25,14.26,14.33,14.41,14.50,14.60,14.74,14.82,14.90,15.00,15.12,15.04,14.96,14.89,14.82,14.80,14.75,14.72,14.73,14.75,14.81,14.84,14.88,14.96,15.03,15.08,15.10,15.10,15.12,15.20,15.22,15.25,15.32,15.32,15.34,15.38,15.42,15.42,15.42,15.42,15.42,15.42,15.42,15.42,15.42,15.42,15.42,15.42,15.42,15.42,15.42,15.42,15.46,15.51,15.52,15.52,15.57,15.61,15.62,15.62,15.68,15.70,15.71,15.72,15.72,15.76,15.80,15.80,15.82,15.82,15.85,15.90,15.90,15.92,15.96,16.01,16.03,16.10,16.17,16.24,16.31,16.39,16.47,16.54,16.62,16.70,16.72,16.78,16.85,16.93,17.01,17.09,17.15,17.22,17.29,17.37,17.45,17.51,17.53,17.60,17.68,17.76,17.84,17.91,17.99,18.06,18.12,18.20,18.28,18.35,18.41,18.43,18.51,18.59,18.66,18.74,18.82,18.89,18.97,19.04,19.10,19.18,19.26,19.30,19.31,19.37,19.38,19.39,19.40,19.40,19.40,19.40,19.40,19.41,19.46,19.48,19.48,19.48,19.50,19.55,19.58,19.58,19.58,19.60,19.64,19.68,19.68,19.70,19.75,19.79,19.82,19.87,19.89,19.99,20.11,20.18,20.18,20.24,20.31,20.38,20.40,20.45,20.52,20.58,20.60,20.66,20.73,20.81,20.88,20.90,20.97,21.03,21.08,21.10,21.34,21.55,21.67,21.67,21.67,21.66,21.65,21.65,21.65,21.65,21.68,21.72,21.72,21.78,21.81,21.85,21.91,21.99,22.02,22.07,22.14,22.20,22.27,22.35
12.49,11.79,12.54,13.73,14.04,14.04,13.99,13.99,13.99,14.01,14.14,14.44,14.54,14.61,14.68,14.75,14.75,14.82,14.86,14.86,14.85,14.77,14.76,14.74,14.67,14.59,14.51,14.42,14.35,14.27,14.19,14.07,13.98,13.99,14.14,14.23,14.34,14.49,14.56,14.64,14.72,14.79,14.86,14.87,14.87,14.84,14.77,14.76,14.76,14.77,14.76,14.68,14.67,14.63,14.55,14.47,14.47,14.42,14.37,14.39,14.46,14.54,14.65,14.78,14.87,14.95,15.03,15.11,15.18,15.10,15.03,14.95,14.87,14.81,14.79,14.79,14.81,14.87,14.88,14.94,15.01,15.08,15.16,15.13,15.10,15.12,15.18,15.26,15.29,15.32,15.39,15.39,15.44,15.48,15.49,15.49,15.49,15.49,15.49,15.49,15.49,15.49,15.49,15.49,15.49,15.49,15.49,15.49,15.49,15.49,15.49,15.52,15.59,15.59,15.59,15.63,15.69,15.69,15.70,15.70,15.72,15.79,15.79,15.79,15.80,15.81,15.88,15.89,15.89,15.90,15.90,15.96,15.99,16.02,16.09,16.17,16.19,16.24,16.31,16.39,16.47,16.54,16.62,16.70,16.77,16.84,16.92,17.00,17.07,17.15,17.19,17.22,17.29,17.37,17.45,17.52,17.59,17.67,17.75,17.82,17.90,17.98,18.05,18.09,18.12,18.20,18.28,18.35,18.43,18.49,18.57,18.65,18.73,18.80,18.88,18.96,19.04,19.09,19.10,19.18,19.26,19.30,19.30,19.31,19.31,19.35,19.40,19.40,19.40,19.40,19.40,19.40,19.41,19.41,19.41,19.43,19.49,19.51,19.51,19.51,19.51,19.58,19.61,19.61,19.62,19.69,19.71,19.75,19.80,19.81,19.88,19.96,20.04,20.11,20.11,20.17,20.25,20.33,20.39,20.41,20.46,20.53,20.60,20.61,20.67,20.75,20.82,20.89,20.97,21.01,21.03,21.10,21.39,21.68,21.86,21.86,21.86,21.81,21.77,21.77,21.77,21.77,21.78,21.79,21.79,21.80,21.85,21.89,21.91,21.99,22.06,22.13,22.19,22.20,22.27,22.35
13.56,12.30,11.91,13.22,14.08,14.46,14.46,14.46,14.46,14.46,14.52,14.70,14.70,14.70,14.72,14.74,14.70,14.73,14.75,14.76,14.80,14.76,14.78,14.80,14.80,14.76,14.66,14.56,14.49,14.41,14.33,14.23,14.14,14.11,14.22,14.34,14.45,14.57,14.68,14.77,14.82,14.86,14.90,14.90,14.90,14.89,14.85,14.85,14.85,14.85,14.84,14.81,14.80,14.76,14.69,14.65,14.61,14.55,14.52,14.57,14.69,14.77,14.87,14.97,15.05,15.13,15.18,15.20,15.20,15.16,15.09,15.01,14.94,14.86,14.85,14.85,14.87,14.95,14.95,15.01,15.08,15.15,15.15,15.08,15.07,15.13,15.25,15.32,15.35,15.38,15.45,15.45,15.51,15.55,15.55,15.55,15.55,15.55,15.55,15.55,15.55,15.55,15.55,15.55,15.55,15.55,15.55,15.55,15.55,15.55,15.55,15.56,15.60,15.60,15.63,15.67,15.70,15.70,15.73,15.75,15.76,15.80,15.80,15.83,15.85,15.86,15.89,15.90,15.92,15.95,15.95,15.99,16.00,16.03,16.10,16.18,16.23,16.29,16.36,16.44,16.52,16.60,16.67,16.75,16.83,16.88,16.93,17.01,17.09,17.16,17.22,17.27,17.35,17.42,17.50,17.58,17.65,17.73,17.78,17.84,17.91,17.99,18.07,18.12,18.17,18.25,18.33,18.40,18.48,18.56,18.64,18.71,18.77,18.82,18.89,18.97,19.05,19.11,19.15,19.23,19.28,19.30,19.30,19.30,19.30,19.32,19.35,19.35,19.35,19.35,19.36,19.40,19.40,19.40,19.40,19.41,19.45,19.45,19.45,19.46,19.50,19.54,19.58,19.60,19.61,19.64,19.65,19.69,19.76,19.80,19.84,19.90,19.96,20.00,20.04,20.11,20.19,20.26,20.29,20.33,20.40,20.46,20.50,20.54,20.61,20.68,20.76,20.84,20.88,20.92,20.98,21.10,21.24,21.50,21.72,21.80,21.80,21.77,21.77,21.80,21.80,21.80,21.80,21.80,21.80,21.84,21.88,21.92,21.96,21.99,22.06,22.14,22.21,22.25,22.32,22.38
