87.39,86.22,84.69,83.30,82.39,81.43,80.22,78.66,76.54,74.42,72.32,70.26,69.26,68.20,67.04,65.94,65.86,65.79,65.71,65.61,65.46,65.30,65.20,65.09,64.92,64.68,64.20,63.66,63.10,62.50,62.17,61.86,61.68,61.77,62.16,62.66,63.03,63.16,63.16,63.17,63.25,63.38,63.45,63.37,63.13,62.76,62.29,61.76,61.27,60.77,60.25,59.79,59.40,59.15,58.97,58.74,58.59,58.43,58.28,58.13,57.97,57.75,57.48,57.14,56.76,56.37,56.04,55.70,55.31,54.85,54.39,54.11,54.03,53.92,53.43,52.85,52.25,51.71,51.26,50.92,50.68,50.52,50.29,50.19,50.07,49.95,49.95,49.82,49.61,49.36,49.11,48.80,48.61,48.61,48.75,48.83,48.97,49.08,49.18,49.34,49.44,49.58,49.72,49.83,49.99,50.20,50.50,50.85,51.16,51.40,51.59,51.72,51.80,51.87,51.89,51.86,51.77,51.61,51.46,51.26,51.00,50.70,50.23,49.76,49.30,48.90,49.03,49.60,51.05,53.20,55.37,57.58,59.69,61.84,64.15,66.47,68.66,71.21,74.12,76.70,79.49,83.27,87.72,92.13,96.75,100.64,104.02,107.17,110.73,115.39,119.61,123.02,125.87,128.80,133.24,138.63,144.22,150.47,156.79,162.18,166.39,170.46,175.14,179.41,183.28,187.08,192.12,197.41,202.94,208.55,213.35,217.89,223.07,229.05,235.54,241.40,246.77,252.39,259.03,265.90,273.12,280.04,286.06,290.14,291.42,291.83,291.62,290.61,286.52,279.91,272.10,264.23,256.62,250.08,244.12,238.39,232.32,226.22,219.46,211.98,203.92,197.35,191.52,185.57,179.51,175.49,171.34,166.52,161.49,157.34,154.07,150.57,146.53,141.62,134.70,130.23,127.24,125.12,123.11,121.11,118.63,115.80,112.86,109.91,107.26,104.75,102.28,99.81,97.53,95.28,92.99,90.65,87.83,84.70,81.35,77.84,73.67,70.68,68.78,67.84,67.48,67.41,66.88,66.08,65.38,64.89,64.04,62.29,59.78,58.93,58.34,58.07,58.14,58.52,58.98,59.34
89.05,87.90,86.41,84.97,83.85,82.53,80.86,79.00,76.81,74.58,72.35,70.20,69.14,68.18,67.32,66.64,66.56,66.53,66.45,66.31,66.16,66.05,65.93,65.77,65.55,65.10,64.58,64.02,63.47,63.12,62.80,62.53,62.41,62.60,63.09,63.58,63.93,64.06,64.06,64.10,64.15,64.20,64.22,64.05,63.71,63.27,62.81,62.32,61.81,61.31,60.84,60.43,60.08,59.80,59.56,59.38,59.23,59.07,58.92,58.76,58.61,58.39,58.09,57.72,57.33,56.95,56.61,56.27,55.89,55.53,55.09,54.79,54.60,54.15,53.62,53.07,52.51,51.97,51.61,51.44,51.34,51.22,50.99,50.89,50.77,50.64,50.59,50.69,50.44,49.97,49.49,49.18,49.07,49.10,49.20,49.33,49.44,49.56,49.71,49.92,50.26,50.62,51.00,51.37,51.58,51.67,51.77,51.95,52.31,52.60,52.87,53.07,53.14,53.16,53.17,53.13,53.05,52.95,52.76,52.53,52.30,52.04,51.52,51.01,50.49,50.01,49.79,50.11,51.33,53.33,55.49,57.38,59.12,60.99,63.26,65.52,67.67,70.02,72.71,75.63,78.98,82.95,87.35,91.81,96.34,100.26,103.76,107.05,110.71,115.19,119.32,122.76,125.62,128.55,132.80,137.96,143.45,149.60,156.04,161.47,165.51,169.29,173.71,178.13,182.36,186.31,190.86,196.01,201.43,206.84,211.78,216.36,221.38,227.14,233.63,239.62,245.17,250.87,257.33,263.01,269.27,275.94,282.40,286.33,288.10,288.85,288.72,287.61,283.57,277.38,270.25,263.20,256.18,249.56,243.48,237.83,232.09,226.12,219.42,212.01,204.05,197.48,191.57,185.53,179.38,175.36,171.17,166.30,161.29,157.33,154.16,150.73,146.68,141.72,135.13,130.51,127.45,125.44,123.43,121.47,119.08,116.27,113.17,110.08,107.46,105.03,102.61,100.19,97.88,95.41,92.78,90.09,87.49,84.84,81.96,78.67,74.50,71.12,68.93,67.78,66.78,66.16,65.41,64.58,63.78,63.00,62.13,60.98,59.60,58.85,58.19,57.67,57.42,57.70,58.05,58.48
90.21,89.19,87.87,86.33,84.79,83.08,81.19,79.23,77.11,74.92,72.69,70.49,69.28,68.34,67.69,67.35,67.30,67.27,67.17,67.02,66.89,66.79,66.62,66.38,66.08,65.54,64.98,64.46,64.04,63.78,63.48,63.21,63.15,63.47,64.01,64.51,64.85,64.99,64.99,65.03,65.05,65.04,64.99,64.69,64.28,63.81,63.32,62.86,62.35,61.88,61.46,61.12,60.81,60.50,60.24,60.09,59.91,59.74,59.59,59.43,59.25,59.01,58.68,58.29,57.88,57.51,57.19,56.85,56.47,56.16,55.73,55.34,54.99,54.39,53.82,53.27,52.76,52.32,52.12,52.04,52.00,51.93,51.69,51.59,51.47,51.37,51.42,51.68,51.46,50.92,50.33,50.04,49.90,49.89,49.99,50.19,50.39,50.63,50.90,51.20,51.67,52.13,52.61,53.06,53.21,53.24,53.23,53.27,53.53,53.79,54.10,54.35,54.45,54.47,54.46,54.41,54.33,54.26,54.07,53.83,53.58,53.35,52.81,52.27,51.74,51.23,50.79,50.76,51.66,53.39,55.38,57.02,58.55,60.23,62.33,64.54,66.70,68.98,71.59,75.00,78.71,82.80,87.13,91.49,95.94,99.93,103.55,106.95,110.61,114.84,118.86,122.38,125.26,128.17,132.27,137.27,142.71,148.73,155.11,160.54,164.58,168.11,172.20,176.61,181.04,185.09,189.38,194.39,199.73,205.06,210.19,214.77,219.56,224.97,231.48,237.57,243.37,249.22,255.42,260.44,265.91,271.80,277.74,282.20,284.38,285.35,285.31,284.25,280.43,274.76,268.35,262.06,255.48,248.98,242.89,237.26,231.90,225.96,219.25,211.78,203.72,197.33,191.46,185.34,179.06,175.07,170.84,165.81,160.70,157.09,154.01,150.67,146.69,141.79,135.65,130.86,127.67,125.73,123.75,121.79,119.42,116.60,113.36,110.20,107.59,105.18,102.76,100.32,97.83,95.17,92.35,89.52,87.06,84.65,82.10,79.22,75.60,72.09,69.55,68.06,66.84,65.96,65.08,64.18,63.28,62.30,61.36,60.45,59.57,58.88,58.16,57.47,56.94,56.85,57.19,57.65
90.89,90.09,89.07,87.38,85.22,83.12,81.21,79.35,77.41,75.42,73.33,71.12,69.66,68.65,68.14,68.06,68.06,67.99,67.87,67.74,67.66,67.51,67.25,66.92,66.53,65.99,65.39,64.99,64.79,64.49,64.18,63.92,63.90,64.36,64.90,65.44,65.81,65.94,65.94,65.95,65.95,65.91,65.76,65.32,64.86,64.36,63.83,63.37,62.90,62.48,62.12,61.88,61.58,61.27,61.01,60.85,60.62,60.45,60.29,60.13,59.90,59.61,59.26,58.85,58.39,58.07,57.76,57.42,57.04,56.73,56.31,55.78,55.19,54.64,54.04,53.46,53.01,52.77,52.76,52.71,52.66,52.63,52.40,52.29,52.18,52.13,52.42,52.80,52.68,52.20,51.61,51.37,51.09,50.97,51.09,51.39,51.83,52.28,52.73,53.18,53.65,54.11,54.55,54.89,54.90,54.90,54.86,54.81,54.82,54.98,55.28,55.58,55.73,55.80,55.76,55.69,55.61,55.53,55.39,55.14,54.86,54.63,54.09,53.55,53.03,52.56,52.03,51.57,52.03,53.37,55.01,56.50,57.97,59.55,61.37,63.53,65.75,68.06,70.73,74.79,78.67,82.80,87.06,91.17,95.58,99.65,103.40,106.88,110.44,114.32,118.23,121.88,124.81,127.68,131.67,136.57,142.00,147.88,153.99,159.37,163.59,166.92,170.60,174.85,179.33,183.42,187.67,192.56,197.84,203.23,208.55,213.14,217.60,222.55,229.11,235.25,241.38,247.45,253.30,258.18,263.02,267.61,272.11,277.75,280.27,281.35,281.40,280.54,277.11,272.07,266.40,260.80,254.53,248.32,242.33,236.71,231.74,225.74,218.93,211.30,202.97,196.92,191.17,184.99,178.56,174.61,170.35,165.05,159.75,156.63,153.61,150.38,146.55,141.83,136.24,131.29,127.93,126.00,124.06,122.06,119.68,116.81,113.43,110.26,107.65,105.23,102.75,100.20,97.41,94.57,91.73,88.94,86.53,84.14,81.79,79.49,76.96,73.57,70.64,68.67,67.65,66.79,65.85,64.85,63.85,62.77,61.70,60.66,59.70,59.01,58.25,57.48,56.72,55.99,56.39,56.85
91.29,90.54,89.59,87.57,85.31,83.12,81.09,79.24,77.31,75.39,73.44,71.46,70.08,69.23,68.85,68.82,68.82,68.72,68.60,68.49,68.36,68.12,67.77,67.37,66.97,66.43,66.05,65.83,65.68,65.37,65.06,64.69,64.62,65.31,65.81,66.34,66.73,66.90,66.90,66.90,66.85,66.71,66.41,65.91,65.43,64.94,64.40,63.94,63.59,63.25,62.93,62.65,62.34,62.03,61.77,61.62,61.39,61.21,61.04,60.82,60.55,60.20,59.83,59.42,58.96,58.65,58.31,57.92,57.49,57.09,56.57,56.00,55.43,54.84,54.27,53.83,53.54,53.40,53.40,53.35,53.30,53.28,53.09,53.00,53.05,53.26,53.57,53.95,53.92,53.54,52.97,53.11,53.12,53.14,53.27,53.62,53.99,54.34,54.69,55.10,55.57,56.03,56.39,56.56,56.56,56.52,56.49,56.46,56.46,56.52,56.61,56.77,57.01,57.08,57.04,56.99,56.95,56.87,56.69,56.45,56.19,55.96,55.42,54.92,54.41,53.90,53.36,52.88,52.73,53.17,54.70,56.13,57.55,59.00,60.54,62.89,65.26,67.64,70.35,74.63,78.59,82.69,86.84,90.80,95.19,99.27,103.08,106.70,110.35,114.12,117.86,121.37,124.31,127.17,130.92,135.52,140.82,146.88,152.85,158.16,162.49,165.67,169.07,173.13,177.59,181.82,186.07,190.73,195.82,201.25,206.49,211.20,215.64,220.33,226.43,232.49,238.10,243.80,250.17,255.04,259.64,263.88,267.90,272.64,275.63,277.27,277.64,276.83,273.83,269.57,264.59,259.32,253.44,247.50,241.70,236.19,231.25,225.29,218.60,211.03,202.50,196.24,190.13,183.90,177.79,173.76,169.20,164.00,159.05,156.06,153.09,149.82,146.05,141.60,136.13,131.31,127.96,125.95,124.02,122.02,119.63,116.75,113.31,110.10,107.38,104.83,102.25,99.61,96.79,93.93,91.13,88.48,86.17,83.90,81.65,79.39,76.92,74.05,71.38,69.32,68.36,67.41,66.46,65.49,64.48,63.36,62.26,61.15,60.05,59.22,58.43,57.66,56.84,55.88,55.75,56.05
91.61,90.84,89.92,87.71,85.41,83.13,80.98,79.11,77.22,75.42,73.67,71.92,70.57,69.86,69.59,69.58,69.57,69.45,69.32,69.19,69.00,68.67,68.25,67.82,67.43,66.94,66.78,66.69,66.55,66.24,65.90,65.43,65.34,66.20,66.74,67.25,67.64,67.84,67.84,67.80,67.68,67.44,67.03,66.51,66.02,65.51,64.98,64.60,64.32,64.04,63.73,63.44,63.12,62.80,62.54,62.38,62.15,61.98,61.78,61.52,61.19,60.80,60.40,59.98,59.51,59.16,58.78,58.35,57.89,57.40,56.82,56.23,55.68,55.06,54.56,54.26,54.12,54.04,54.04,53.98,53.94,53.92,53.81,53.82,54.03,54.39,54.71,55.08,55.14,54.88,54.41,54.87,55.13,55.32,55.51,55.92,56.25,56.54,56.82,57.16,57.55,57.93,58.17,58.22,58.20,58.15,58.12,58.12,58.12,58.11,58.06,58.11,58.33,58.37,58.33,58.29,58.27,58.19,57.99,57.77,57.54,57.30,56.76,56.28,55.78,55.24,54.72,54.19,53.61,53.39,54.50,55.89,57.29,58.63,59.92,62.28,64.73,67.18,69.93,74.28,78.44,82.54,86.57,90.44,94.78,98.84,102.68,106.37,110.08,113.75,117.37,120.82,123.77,126.63,130.11,134.39,139.61,145.72,151.57,156.89,161.39,164.52,167.70,171.51,175.81,180.17,184.41,188.82,193.67,199.02,204.18,209.07,213.58,218.03,223.36,229.55,234.92,240.23,246.48,251.55,256.07,260.14,263.92,267.88,271.18,273.22,273.88,273.22,270.68,267.03,262.64,257.78,252.29,246.58,240.95,235.56,230.57,224.64,217.98,210.42,201.85,195.48,189.03,182.75,177.00,172.77,167.88,162.82,158.30,155.38,152.45,149.15,145.44,141.25,135.81,131.15,127.88,125.83,123.87,121.86,119.44,116.53,113.11,109.90,107.13,104.53,101.92,99.14,96.12,93.17,90.44,88.10,85.89,83.70,81.50,79.24,76.77,74.28,71.96,70.04,69.04,68.04,67.08,66.12,65.10,63.94,62.81,61.63,60.42,59.45,58.65,57.83,56.91,55.83,55.19,55.29
91.83,90.95,89.99,87.89,85.56,83.18,80.91,78.99,77.18,75.60,74.13,72.62,71.17,70.54,70.35,70.34,70.28,70.19,70.04,69.80,69.51,69.14,68.70,68.27,67.89,67.55,67.57,67.56,67.38,67.07,66.64,66.13,66.06,66.97,67.71,68.20,68.53,68.73,68.73,68.61,68.39,68.06,67.61,67.14,66.62,66.09,65.58,65.38,65.11,64.80,64.51,64.27,63.90,63.57,63.31,63.15,62.92,62.74,62.53,62.22,61.84,61.40,60.94,60.49,60.02,59.58,59.13,58.67,58.20,57.67,57.07,56.49,55.93,55.32,54.95,54.80,54.75,54.68,54.68,54.62,54.58,54.58,54.56,54.83,55.15,55.49,55.86,56.18,56.33,56.23,55.95,56.61,57.04,57.39,57.76,58.21,58.60,58.93,59.21,59.46,59.66,59.80,59.88,59.88,59.81,59.79,59.78,59.78,59.78,59.72,59.69,59.70,59.73,59.67,59.65,59.61,59.54,59.47,59.31,59.11,58.88,58.65,58.11,57.62,57.12,56.59,56.12,55.43,54.76,54.32,54.50,55.87,57.29,58.56,59.65,61.72,64.09,66.59,69.40,73.60,78.16,82.37,86.26,90.12,94.31,98.33,102.15,105.80,109.51,113.05,116.65,120.19,123.19,126.06,129.22,133.18,138.39,144.30,150.07,155.51,160.32,163.55,166.61,170.05,173.99,178.45,182.63,186.80,191.32,196.40,201.51,206.62,211.33,215.59,219.69,226.37,232.04,236.98,241.97,247.58,252.24,256.35,260.16,263.78,267.07,269.24,270.13,269.77,267.71,264.42,260.44,256.15,251.06,245.51,240.00,234.70,229.62,223.68,216.87,209.23,200.90,194.62,187.91,181.60,176.18,171.61,166.33,161.45,157.42,154.55,151.62,148.32,144.71,140.73,135.19,130.75,127.65,125.62,123.56,121.54,119.03,116.06,112.79,109.68,106.97,104.45,101.89,98.91,95.41,92.21,89.62,87.82,85.73,83.54,81.30,79.05,76.57,74.20,72.30,70.90,69.70,68.68,67.72,66.75,65.67,64.51,63.31,62.06,60.79,59.72,58.91,57.95,56.84,55.76,54.75,54.59
92.07,91.09,90.06,87.97,85.64,83.26,81.01,79.16,77.56,76.08,74.63,73.17,71.74,71.20,71.07,71.08,71.16,71.25,71.11,70.76,70.29,69.70,69.20,68.77,68.41,68.34,68.45,68.45,68.25,67.86,67.33,66.81,66.75,67.64,68.49,69.15,69.63,69.90,69.66,69.39,69.08,68.70,68.23,67.69,67.15,66.67,66.31,66.15,65.88,65.59,65.32,65.05,64.64,64.31,64.07,63.92,63.68,63.45,63.17,62.81,62.38,61.92,61.46,60.99,60.48,59.94,59.45,58.97,58.47,57.88,57.31,56.73,56.15,55.62,55.43,55.39,55.41,55.37,55.33,55.29,55.25,55.23,55.31,55.71,56.15,56.57,56.96,57.31,57.53,57.62,57.64,58.34,58.89,59.34,59.72,60.10,60.46,60.71,60.90,61.09,61.24,61.34,61.39,61.39,61.35,61.31,61.29,61.29,61.29,61.25,61.22,61.19,61.19,61.11,61.03,60.95,60.87,60.80,60.65,60.45,60.22,59.99,59.49,58.98,58.47,57.92,57.29,56.58,55.91,55.35,54.99,56.00,57.16,58.29,59.33,61.06,63.50,66.26,69.34,73.47,78.08,82.28,86.08,89.70,93.67,97.64,101.51,105.22,108.93,112.45,116.01,119.51,122.56,125.40,128.36,132.07,137.11,142.83,148.66,154.07,158.72,162.29,165.37,168.53,172.12,176.52,180.61,184.73,189.14,193.96,198.82,203.87,208.80,213.36,217.18,222.56,228.42,233.94,238.39,243.31,247.96,252.29,256.22,259.70,263.01,265.32,266.52,266.77,265.01,262.05,258.33,254.21,249.43,244.22,238.91,233.64,228.42,222.39,215.40,207.65,199.52,193.06,186.19,179.85,174.50,169.66,164.38,159.88,156.29,153.31,150.34,147.10,143.63,139.80,134.11,130.10,127.26,125.17,123.08,121.07,118.39,115.25,112.01,109.16,106.65,104.27,101.85,98.95,95.14,91.68,89.02,87.40,85.45,83.35,81.16,78.92,76.61,74.67,73.08,71.77,70.45,69.35,68.33,67.33,66.25,65.01,63.74,62.45,61.15,59.95,58.98,57.92,56.78,55.70,54.62,54.11
92.28,91.22,90.11,88.03,85.73,83.40,81.20,79.40,77.97,76.55,75.10,73.65,72.32,71.90,71.87,71.93,72.16,72.38,72.27,71.83,71.20,70.42,69.86,69.47,69.20,69.33,69.47,69.44,69.16,68.64,68.00,67.49,67.46,68.33,69.24,70.06,70.72,71.07,70.59,70.17,69.76,69.33,68.84,68.23,67.70,67.30,67.07,66.91,66.65,66.38,66.13,65.82,65.37,65.05,64.84,64.68,64.44,64.13,63.77,63.38,62.90,62.43,61.95,61.46,60.92,60.31,59.78,59.26,58.70,58.10,57.53,56.95,56.39,55.98,55.95,56.00,56.06,56.06,55.99,55.96,55.93,55.89,56.05,56.53,57.08,57.58,57.98,58.39,58.74,59.05,59.37,60.06,60.70,61.20,61.56,61.86,62.16,62.33,62.42,62.56,62.71,62.81,62.86,62.86,62.86,62.80,62.77,62.76,62.76,62.76,62.72,62.67,62.65,62.56,62.43,62.32,62.23,62.15,62.01,61.82,61.61,61.38,60.90,60.37,59.80,59.19,58.41,57.69,57.01,56.35,55.63,56.19,57.05,58.04,59.05,60.44,63.02,66.07,69.39,73.49,78.01,82.14,85.84,89.24,93.01,96.92,100.83,104.62,108.33,111.86,115.36,118.79,121.90,124.71,127.54,131.03,135.81,141.29,147.13,152.48,156.98,160.95,164.10,167.06,170.34,174.51,178.53,182.65,186.99,191.59,196.15,200.97,206.01,210.91,214.83,218.83,224.51,230.45,234.91,239.05,243.55,248.01,252.17,255.71,259.01,261.40,262.91,263.81,262.30,259.59,256.07,252.06,247.62,242.77,237.68,232.44,227.03,220.85,213.68,205.89,198.01,191.29,184.32,177.99,172.63,167.60,162.47,158.31,155.02,151.93,148.91,145.75,142.36,138.56,132.87,129.34,126.77,124.63,122.54,120.43,117.58,114.29,111.06,108.50,106.16,103.91,101.57,98.72,94.76,91.19,88.50,86.92,85.09,83.11,81.03,78.89,76.85,75.32,73.97,72.64,71.26,70.04,68.95,67.89,66.77,65.45,64.13,62.81,61.49,60.18,59.04,57.90,56.76,55.67,54.57,53.72
92.34,91.27,90.11,88.09,85.91,83.68,81.50,79.60,78.17,76.80,75.44,74.04,72.96,72.79,72.95,73.14,73.38,73.56,73.45,73.03,72.35,71.52,70.98,70.75,70.79,70.82,70.90,70.72,70.19,69.42,68.68,68.19,68.24,69.15,70.02,70.86,71.59,72.02,71.49,70.98,70.47,69.94,69.36,68.74,68.34,68.07,67.84,67.62,67.43,67.19,66.89,66.58,66.14,65.81,65.61,65.45,65.16,64.76,64.35,63.94,63.42,62.90,62.37,61.84,61.30,60.74,60.13,59.50,58.90,58.34,57.75,57.17,56.69,56.53,56.57,56.64,56.69,56.69,56.68,56.63,56.59,56.59,56.75,57.28,57.84,58.36,58.81,59.32,59.92,60.54,61.09,61.79,62.42,62.90,63.21,63.46,63.76,63.90,63.94,64.03,64.18,64.28,64.33,64.33,64.33,64.31,64.27,64.23,64.23,64.23,64.22,64.19,64.12,63.98,63.88,63.76,63.63,63.56,63.41,63.28,63.14,62.91,62.38,61.81,61.13,60.34,59.50,58.73,57.98,57.23,56.41,56.44,57.08,58.03,58.97,60.01,62.84,66.11,69.39,73.55,77.86,81.77,85.33,88.73,92.45,96.25,100.08,103.92,107.62,111.19,114.64,117.98,121.19,124.00,126.83,130.16,134.45,139.59,145.16,150.46,155.20,159.62,162.82,165.79,168.89,172.41,176.42,180.54,184.83,189.26,193.52,197.85,202.62,207.64,212.11,215.83,220.27,225.43,231.08,235.06,239.01,243.27,247.85,251.98,255.16,257.50,259.22,260.67,259.36,256.72,253.27,249.48,245.54,240.98,236.12,230.97,225.27,218.74,211.44,203.82,196.41,189.33,182.46,176.25,170.83,165.75,160.99,156.93,153.48,150.39,147.38,144.25,140.76,136.68,131.44,128.43,126.14,123.99,121.90,119.39,116.40,113.14,109.92,107.60,105.29,102.99,100.57,97.42,93.71,90.52,88.08,86.35,84.56,82.70,80.85,79.12,77.57,76.19,74.84,73.48,72.15,70.81,69.59,68.42,67.16,65.78,64.45,63.11,61.75,60.43,59.21,58.03,56.88,55.73,54.59,53.43
92.39,91.37,90.20,88.26,86.15,83.96,81.81,79.88,78.38,76.99,75.63,74.27,73.73,73.84,74.13,74.35,74.55,74.68,74.62,74.27,73.50,72.75,72.32,72.25,72.52,72.59,72.64,72.35,71.65,70.57,69.40,68.86,69.05,69.94,70.93,71.81,72.50,72.84,72.30,71.76,71.18,70.57,69.96,69.37,69.02,68.79,68.56,68.36,68.20,67.97,67.66,67.35,66.87,66.56,66.35,66.13,65.78,65.33,64.87,64.43,63.89,63.35,62.81,62.27,61.73,61.15,60.50,59.80,59.09,58.55,57.95,57.47,57.18,57.14,57.20,57.26,57.30,57.33,57.33,57.30,57.26,57.26,57.45,58.02,58.61,59.18,59.85,60.71,61.54,62.28,62.90,63.49,64.13,64.60,64.86,65.02,65.31,65.44,65.46,65.54,65.63,65.73,65.80,65.80,65.80,65.80,65.77,65.73,65.70,65.70,65.70,65.66,65.54,65.39,65.29,65.18,65.04,64.96,64.88,64.80,64.66,64.40,63.79,63.15,62.42,61.56,60.65,59.66,58.75,57.93,57.05,57.04,57.46,58.12,58.86,59.72,62.51,65.90,69.36,73.33,77.40,81.20,84.75,88.21,91.85,95.59,99.36,103.07,106.68,110.27,113.76,117.13,120.44,123.29,126.07,129.14,132.89,137.84,143.08,148.28,153.23,157.72,161.28,164.38,167.30,170.36,174.26,178.37,182.62,186.88,190.75,194.78,199.07,203.64,208.44,212.68,216.72,221.06,226.13,230.54,234.50,238.53,242.80,247.03,250.55,253.10,254.79,255.94,254.89,252.76,249.89,246.60,243.05,238.84,234.17,229.05,223.35,216.57,209.35,202.05,195.03,188.08,181.52,175.29,169.43,164.34,159.84,155.87,152.27,148.74,145.52,142.34,138.80,134.61,130.15,127.49,125.34,123.21,121.09,118.14,114.96,111.74,108.68,106.34,103.99,101.64,99.19,96.08,92.86,90.25,88.27,86.56,84.78,82.98,81.22,79.59,78.23,76.93,75.63,74.32,73.04,71.63,70.24,68.89,67.54,66.15,64.79,63.40,61.95,60.57,59.31,58.12,56.94,55.71,54.42,53.10
92.42,91.48,90.34,88.50,86.41,84.25,82.15,80.23,78.64,77.18,75.78,74.46,74.58,74.96,75.33,75.55,75.71,75.80,75.78,75.50,74.67,74.06,73.77,73.86,74.31,74.47,74.51,74.18,73.35,71.95,70.28,69.67,69.97,70.77,71.89,72.83,73.44,73.61,73.06,72.52,71.90,71.23,70.62,70.08,69.74,69.50,69.28,69.12,68.97,68.74,68.43,68.11,67.60,67.29,67.08,66.76,66.36,65.86,65.35,64.87,64.33,63.79,63.25,62.71,62.17,61.56,60.89,60.13,59.31,58.75,58.17,57.83,57.77,57.77,57.84,57.87,57.89,57.97,57.97,57.97,57.94,57.91,58.14,58.77,59.43,60.14,61.10,62.38,63.37,64.13,64.74,65.20,65.84,66.31,66.51,66.59,66.85,66.97,67.00,67.07,67.07,67.18,67.27,67.27,67.27,67.27,67.27,67.25,67.18,67.17,67.16,67.10,66.95,66.80,66.70,66.58,66.43,66.37,66.39,66.34,66.18,65.86,65.17,64.47,63.70,62.83,61.80,60.53,59.44,58.56,57.64,57.81,58.05,58.36,58.83,59.60,62.18,65.58,69.27,72.98,76.83,80.56,84.16,87.70,91.24,94.95,98.64,102.19,105.66,109.24,112.78,116.23,119.64,122.54,125.26,128.06,131.26,136.06,140.94,145.99,151.10,155.52,159.55,162.87,165.64,168.35,172.04,176.12,180.34,184.45,187.93,191.73,195.47,199.35,204.27,209.27,213.42,217.09,220.89,225.78,229.99,233.80,237.49,241.53,245.45,248.25,249.83,250.43,249.69,248.27,246.21,243.52,240.31,236.49,232.00,226.90,221.31,214.32,207.27,200.40,193.80,187.23,181.15,174.91,168.47,163.31,158.98,155.10,151.33,147.18,143.57,140.23,136.63,132.46,128.89,126.47,124.38,122.27,120.05,116.67,113.31,110.18,107.35,104.88,102.49,100.11,97.69,94.91,92.31,90.35,88.83,87.19,85.43,83.67,81.94,80.27,78.93,77.66,76.42,75.18,73.92,72.46,70.87,69.30,67.89,66.50,65.10,63.64,62.11,60.65,59.36,58.15,56.94,55.61,54.16,52.74
92.38,91.47,90.48,88.73,86.70,84.65,82.67,80.80,79.12,77.53,76.10,74.98,75.45,75.99,76.44,76.71,76.92,76.97,76.91,76.63,75.94,75.43,75.27,75.50,76.04,76.31,76.41,76.17,75.43,73.88,72.29,71.66,71.73,72.04,72.82,73.76,74.38,74.37,73.77,73.22,72.63,72.01,71.45,71.01,70.56,70.24,70.11,69.90,69.73,69.50,69.18,68.82,68.34,68.03,67.75,67.33,66.84,66.31,65.78,65.25,64.71,64.17,63.63,63.09,62.55,61.99,61.30,60.54,59.74,58.98,58.59,58.40,58.35,58.41,58.43,58.47,58.52,58.54,58.60,58.61,58.60,58.61,58.84,59.60,60.70,62.00,63.25,64.41,65.29,65.98,66.59,67.06,67.61,68.03,68.23,68.31,68.45,68.51,68.53,68.61,68.61,68.68,68.74,68.74,68.74,68.74,68.74,68.73,68.71,68.65,68.60,68.51,68.36,68.26,68.09,67.89,67.74,67.82,68.03,67.98,67.68,67.27,66.57,65.84,65.02,64.08,62.86,61.47,60.21,59.15,58.34,58.60,58.91,59.22,59.60,60.42,62.45,65.34,68.82,72.53,76.47,80.21,83.73,87.12,90.62,94.28,97.96,101.54,104.91,108.31,111.73,115.17,118.68,121.58,124.33,127.06,129.96,134.17,138.60,143.37,148.37,152.94,157.30,160.90,163.86,166.56,169.62,173.50,177.74,181.90,185.37,188.74,192.08,195.58,199.62,204.46,209.40,213.88,217.40,221.16,225.25,229.18,232.76,236.36,239.33,241.70,243.47,244.67,244.52,243.69,242.22,240.10,237.18,233.69,229.56,224.67,218.84,211.74,204.81,198.44,192.86,186.99,181.81,176.08,169.48,163.78,159.24,155.29,151.40,146.75,142.12,138.11,134.27,130.33,127.36,124.87,122.68,120.51,117.80,114.19,111.03,108.26,105.63,103.21,100.97,98.79,96.73,95.33,93.45,91.70,90.08,88.35,86.68,85.05,83.42,81.78,80.20,78.80,77.51,76.23,74.77,73.11,71.29,69.52,68.02,66.58,65.13,63.67,62.18,60.71,59.30,57.94,56.59,55.17,53.76,52.36
92.40,91.49,90.56,89.05,87.12,85.14,83.22,81.34,79.60,77.94,76.53,75.61,76.28,76.95,77.50,77.86,78.10,78.18,78.10,77.82,77.29,76.87,76.79,77.10,77.75,78.16,78.27,78.12,77.58,76.23,74.90,74.15,73.88,73.84,74.40,75.07,75.37,75.10,74.51,73.94,73.34,72.77,72.31,71.81,71.32,71.00,70.94,70.73,70.55,70.30,69.97,69.56,69.08,68.68,68.29,67.80,67.26,66.72,66.19,65.67,65.13,64.59,64.05,63.51,62.97,62.38,61.68,60.94,60.19,59.42,59.11,58.99,58.96,59.01,59.04,59.08,59.12,59.15,59.20,59.23,59.30,59.46,60.02,61.02,62.41,64.00,65.42,66.41,67.20,67.89,68.55,69.07,69.63,70.06,70.31,70.39,70.51,70.58,70.62,70.70,70.70,70.73,70.72,70.62,70.62,70.62,70.62,70.62,70.62,70.53,70.40,70.26,70.11,69.89,69.63,69.34,69.14,69.35,69.67,69.60,69.18,68.64,67.94,67.17,66.29,65.24,63.87,62.45,61.10,59.92,59.04,59.30,59.61,59.90,60.21,61.41,63.24,65.64,68.58,72.08,75.95,79.68,83.19,86.51,89.88,93.49,97.17,100.79,104.09,107.36,110.70,114.12,117.62,120.62,123.42,126.10,128.76,132.32,136.44,140.90,145.57,150.23,154.72,158.68,162.05,164.81,167.59,171.02,174.96,179.15,182.82,186.00,189.04,192.16,195.60,199.98,204.98,209.93,214.10,217.35,221.14,224.90,228.36,231.59,233.99,236.16,238.12,239.75,239.92,239.60,238.69,237.07,234.56,231.13,227.09,222.31,216.07,208.92,202.28,196.42,191.41,186.47,182.00,176.62,169.98,164.11,159.45,155.43,151.47,146.63,141.15,136.46,132.35,128.64,125.96,123.41,120.98,118.51,115.52,112.16,109.52,107.42,105.42,103.43,101.15,99.04,97.42,96.67,95.30,93.74,92.03,90.03,88.19,86.55,84.96,83.31,81.58,80.03,78.50,76.91,75.18,73.31,71.35,69.49,67.97,66.53,65.05,63.57,62.10,60.63,59.14,57.69,56.25,54.76,53.36,51.96
92.47,91.54,90.59,89.43,87.65,85.72,83.78,81.85,80.07,78.38,77.04,76.31,77.08,77.85,78.52,79.01,79.25,79.41,79.35,79.08,78.69,78.37,78.32,78.67,79.42,80.04,80.11,80.03,79.79,78.93,78.00,77.08,76.36,76.07,76.54,76.67,76.41,75.81,75.27,74.66,74.05,73.51,73.20,72.52,72.03,71.79,71.77,71.62,71.40,71.13,70.79,70.33,69.80,69.26,68.72,68.18,67.64,67.10,66.59,66.12,65.58,65.04,64.50,63.96,63.42,62.73,62.03,61.34,60.65,60.03,59.71,59.59,59.59,59.59,59.66,59.69,59.71,59.79,59.79,59.84,60.02,60.43,61.58,62.92,64.48,66.12,67.59,68.40,69.12,69.84,70.60,71.22,71.84,72.34,72.67,72.75,72.96,73.10,73.18,73.25,73.25,73.25,73.13,72.86,72.86,72.86,72.86,72.86,72.86,72.71,72.51,72.31,72.14,71.68,71.28,70.89,70.63,70.93,71.31,71.20,70.67,69.98,69.28,68.48,67.51,66.32,64.85,63.44,62.09,60.84,59.76,59.91,60.19,60.44,60.69,62.53,64.44,66.38,68.52,71.61,75.31,79.01,82.55,85.87,89.05,92.59,96.30,99.96,103.20,106.39,109.67,113.07,116.47,119.65,122.53,125.15,127.64,130.52,134.42,138.57,142.71,147.42,151.86,156.26,160.22,163.08,165.86,168.65,172.02,176.25,180.26,183.47,186.29,189.02,192.12,195.79,200.23,205.37,210.97,214.22,217.53,220.89,224.22,227.16,229.31,231.45,233.60,235.53,235.80,235.92,235.54,234.37,232.35,228.74,224.61,219.84,213.05,205.90,199.71,194.36,189.52,185.72,181.81,176.64,170.07,164.35,159.62,155.53,151.54,146.75,140.56,135.20,130.78,127.30,124.68,122.05,119.28,116.32,113.23,110.48,108.66,107.48,106.45,105.20,102.74,100.57,99.47,98.77,97.74,96.36,94.54,92.16,89.92,88.14,86.54,84.84,83.06,81.35,79.43,77.29,75.21,73.13,71.09,69.25,67.78,66.39,64.89,63.38,61.91,60.44,58.91,57.41,55.92,54.38,52.98,51.54
92.56,91.67,90.74,89.82,88.13,86.25,84.36,82.43,80.55,78.98,77.75,76.89,77.76,78.63,79.61,80.65,81.22,81.48,81.44,81.10,80.47,80.20,80.07,80.38,81.26,81.68,81.51,81.17,80.79,80.38,79.81,79.19,78.63,78.23,78.01,77.32,76.75,76.51,75.92,75.35,74.78,74.21,73.66,73.06,72.74,72.63,72.66,72.46,72.27,72.00,71.62,71.10,70.43,69.78,69.17,68.63,68.09,67.55,67.02,66.50,65.96,65.42,64.88,64.34,63.80,63.11,62.45,61.86,61.37,61.09,60.92,60.92,61.06,61.16,61.28,61.36,61.43,61.56,61.65,61.91,62.43,63.26,64.37,65.68,67.08,68.46,69.59,70.33,71.00,71.77,72.73,73.64,74.32,74.92,75.43,75.60,75.91,76.09,76.16,76.19,76.19,76.19,76.08,75.81,75.47,75.37,75.35,75.32,75.23,75.08,74.87,74.67,74.50,74.08,73.65,73.24,72.92,72.89,72.88,72.58,72.03,71.38,70.64,69.79,68.78,67.60,66.23,64.88,63.53,62.24,61.21,60.68,60.67,61.06,61.76,63.67,65.44,67.07,68.64,70.62,74.30,78.17,81.81,84.99,88.06,91.47,95.07,98.70,102.09,105.38,108.66,111.99,115.39,118.66,121.54,124.12,126.55,129.11,132.40,136.05,139.92,144.00,148.65,153.09,157.06,160.40,163.24,166.01,169.01,172.53,176.94,180.65,183.70,186.32,189.07,192.34,196.21,200.69,205.77,210.71,214.38,217.53,220.54,223.29,225.65,227.83,229.83,231.57,232.36,232.69,232.40,231.38,229.47,226.23,221.94,216.55,209.56,202.39,196.39,191.50,187.44,184.23,180.38,175.44,169.49,164.11,159.43,155.27,151.25,146.75,140.50,134.98,130.52,127.21,124.54,122.13,119.79,117.49,115.42,113.47,111.88,110.63,109.68,108.68,106.91,105.11,103.69,102.41,100.77,99.05,97.15,94.71,92.22,89.98,87.98,86.17,84.20,82.17,79.72,76.95,74.67,72.34,70.36,68.70,67.28,65.74,64.27,62.81,61.36,59.98,58.67,57.25,55.72,54.12,52.63,51.16
92.66,91.77,90.88,90.13,88.58,86.77,84.88,82.97,81.08,79.59,78.43,77.52,78.49,79.69,81.10,82.58,83.44,83.73,83.68,83.32,82.59,82.30,82.04,82.24,83.12,83.34,82.94,82.35,81.81,81.62,81.23,80.78,80.28,79.78,79.16,78.01,77.25,77.18,76.61,76.03,75.44,74.83,74.14,73.67,73.47,73.46,73.53,73.32,73.13,72.85,72.41,71.82,71.07,70.33,69.66,69.08,68.54,68.00,67.45,66.91,66.37,65.83,65.29,64.75,64.21,63.68,63.19,62.77,62.49,62.41,62.32,62.40,62.67,62.92,63.09,63.21,63.32,63.45,63.71,64.16,64.94,66.06,67.16,68.32,69.50,70.62,71.52,72.23,72.92,73.74,74.82,75.90,76.71,77.43,78.08,78.34,78.69,78.91,78.99,78.99,78.99,78.99,78.91,78.68,78.18,77.95,77.83,77.75,77.59,77.42,77.22,77.03,76.86,76.45,75.97,75.50,75.09,74.76,74.42,73.97,73.41,72.79,72.02,71.12,70.10,68.97,67.67,66.33,64.99,63.74,62.76,61.81,61.42,61.68,62.63,64.37,65.93,67.31,68.55,69.83,73.28,77.18,80.94,84.09,87.11,90.34,93.80,97.44,100.93,104.29,107.55,110.78,114.12,117.46,120.39,122.98,125.37,127.75,130.46,133.65,137.28,140.80,145.20,149.51,153.54,157.32,160.43,163.32,166.16,169.22,173.40,177.38,180.80,183.65,186.18,189.15,192.52,196.42,201.03,206.71,210.96,214.33,217.19,219.74,222.13,224.35,226.33,227.93,229.04,229.64,229.47,228.38,226.55,223.51,218.93,212.89,206.01,198.87,193.09,188.58,185.00,182.22,178.42,173.78,168.58,163.50,158.92,154.71,150.62,146.24,140.44,135.09,130.70,127.54,125.06,122.94,121.14,119.61,118.24,117.05,115.77,114.53,113.52,112.46,111.05,109.44,107.72,105.89,103.79,101.72,99.59,97.05,94.35,91.72,89.31,87.22,85.04,82.74,79.87,76.53,73.62,71.29,69.48,68.02,66.68,65.14,63.68,62.22,60.74,59.47,58.29,56.97,55.50,54.00,52.45,50.95
92.75,91.86,91.02,90.31,88.97,87.25,85.34,83.48,81.68,80.19,79.03,78.23,79.30,81.14,83.15,84.91,85.96,86.20,86.11,85.77,85.14,84.76,84.30,84.29,85.02,85.05,84.41,83.59,82.88,82.58,82.14,81.64,81.08,80.48,79.86,78.78,78.02,77.84,77.36,76.71,76.03,75.34,74.65,74.37,74.23,74.24,74.36,74.20,73.99,73.65,73.15,72.47,71.71,70.94,70.20,69.52,68.98,68.44,67.90,67.36,66.82,66.28,65.74,65.20,64.66,64.50,64.37,64.25,64.15,64.07,63.94,64.04,64.44,64.94,65.13,65.28,65.41,65.50,66.00,66.63,67.53,68.75,69.90,70.78,71.64,72.52,73.38,74.08,74.86,75.78,76.87,77.95,78.94,79.84,80.58,80.88,81.20,81.46,81.61,81.61,81.61,81.61,81.57,81.44,81.04,80.62,80.31,80.11,79.96,79.74,79.55,79.39,79.22,78.76,78.20,77.63,77.09,76.51,75.93,75.37,74.81,74.19,73.42,72.49,71.49,70.44,69.20,67.78,66.47,65.35,64.41,63.42,62.54,62.30,63.18,64.48,65.71,66.93,68.15,69.33,72.25,75.99,79.90,83.20,86.21,89.21,92.48,96.16,99.71,103.07,106.28,109.41,112.60,115.97,119.01,121.70,124.09,126.42,128.63,131.41,134.85,137.92,141.41,145.35,149.55,153.67,157.37,160.58,163.54,166.49,169.59,173.47,177.45,181.02,183.50,186.29,189.27,192.73,196.98,202.02,207.13,211.33,214.29,216.63,218.79,221.04,223.18,224.74,225.90,226.85,226.83,225.39,223.60,220.54,215.43,208.72,202.39,195.34,189.82,185.60,182.06,179.48,175.74,171.53,167.21,162.38,157.96,153.76,149.56,145.03,140.38,135.65,131.48,128.41,126.48,124.75,123.64,122.98,121.86,121.31,120.48,119.38,118.17,116.62,115.08,113.38,111.42,109.10,106.80,104.36,101.78,99.10,96.20,93.31,90.52,87.91,85.47,82.97,79.86,76.04,71.90,69.88,68.41,67.17,65.98,64.64,63.16,61.60,60.05,58.88,57.72,56.50,55.25,54.05,52.52,50.98
92.88,92.00,91.20,90.50,89.36,87.78,85.91,84.10,82.36,80.75,79.52,78.95,80.62,83.17,85.63,87.43,88.47,88.69,88.61,88.30,87.64,87.00,86.48,86.40,86.84,86.47,85.71,84.86,84.07,83.51,82.93,82.31,81.68,81.02,80.36,79.46,78.78,78.46,77.87,77.19,76.50,75.84,75.32,75.16,75.05,75.05,75.14,75.03,74.82,74.46,73.91,73.17,72.36,71.57,70.83,70.13,69.47,68.92,68.40,67.86,67.32,66.78,66.31,65.94,65.69,65.72,65.80,65.85,65.81,65.73,65.59,65.74,66.22,66.71,67.09,67.33,67.55,67.92,68.47,69.15,70.06,71.20,72.28,72.92,73.62,74.43,75.23,75.94,76.81,77.81,78.85,79.89,80.90,81.83,82.61,83.04,83.33,83.63,83.87,83.96,83.96,84.02,84.03,83.93,83.63,83.19,82.81,82.53,82.37,82.19,81.99,81.75,81.41,80.82,80.08,79.34,78.64,78.02,77.41,76.81,76.22,75.60,74.74,73.81,72.87,71.91,70.63,69.23,67.94,66.81,65.76,64.67,63.69,63.08,63.15,64.35,65.51,66.69,67.88,69.08,71.38,74.83,78.81,82.30,85.28,88.05,91.07,94.64,98.40,101.81,104.96,107.98,111.02,114.31,117.45,120.30,122.81,125.09,127.22,129.61,132.44,135.62,138.59,141.80,145.32,149.11,153.06,156.83,160.35,163.58,166.39,169.96,173.76,177.46,180.60,183.61,186.61,189.85,193.60,198.29,203.39,207.90,211.32,213.76,215.93,218.14,220.25,221.92,223.22,224.31,224.42,222.99,220.76,216.56,211.40,205.68,199.55,192.84,187.61,183.52,179.81,176.63,172.97,169.17,165.36,161.24,157.09,153.02,148.96,144.78,140.43,136.43,133.07,130.55,128.66,127.51,126.88,126.44,125.49,124.78,123.85,122.68,121.31,119.90,118.42,116.57,114.20,111.47,108.70,105.82,102.84,99.80,96.82,93.82,90.84,87.93,85.08,82.36,78.84,74.54,70.72,69.03,67.68,66.42,65.17,63.86,62.50,61.07,59.62,58.46,57.30,56.10,54.88,53.68,52.31,50.93
93.00,92.14,91.39,90.69,89.76,88.34,86.53,84.77,83.05,81.35,80.16,80.06,82.36,85.52,88.35,90.21,91.17,91.38,91.30,90.96,90.22,89.32,88.79,88.59,88.59,87.78,86.90,86.03,85.19,84.49,83.85,83.17,82.45,81.73,81.02,80.18,79.45,78.90,78.33,77.66,76.97,76.38,76.03,75.94,75.87,75.85,75.93,75.87,75.66,75.25,74.63,73.86,73.03,72.28,71.60,70.93,70.09,69.46,68.92,68.39,67.87,67.38,67.02,66.83,66.83,66.96,67.16,67.33,67.36,67.34,67.25,67.46,68.01,68.54,69.11,69.45,69.76,70.36,70.89,71.59,72.51,73.60,74.59,75.10,75.66,76.36,77.09,77.81,78.76,79.81,80.81,81.82,82.82,83.75,84.55,85.10,85.40,85.73,86.06,86.26,86.28,86.40,86.45,86.35,86.11,85.74,85.34,85.00,84.82,84.65,84.41,84.06,83.58,82.93,82.08,81.19,80.36,79.68,78.97,78.28,77.62,77.00,76.08,75.16,74.27,73.37,72.04,70.85,69.52,68.11,66.95,65.80,64.83,64.01,63.39,64.24,65.33,66.51,67.70,68.89,70.56,73.69,77.72,81.42,84.30,86.90,89.66,92.92,96.87,100.39,103.57,106.51,109.45,112.63,115.81,118.82,121.51,123.76,125.88,127.99,130.30,133.46,136.09,138.70,141.55,144.90,148.83,152.84,156.69,160.21,163.14,166.54,170.16,173.88,177.64,180.87,183.95,187.07,190.46,194.81,199.76,204.45,208.34,211.03,213.34,215.51,217.54,219.30,220.64,221.80,221.90,220.31,217.30,212.43,207.56,202.87,197.14,190.94,186.06,182.09,178.29,174.47,170.83,167.35,163.96,160.54,156.66,152.72,148.84,145.03,141.06,137.85,135.32,133.32,131.41,130.63,130.22,129.79,128.95,127.93,126.80,125.51,123.99,122.67,121.18,119.16,116.44,113.28,110.00,106.71,103.40,100.02,96.92,93.78,90.65,87.59,84.46,81.51,77.58,72.94,69.79,68.40,67.13,65.82,64.51,63.19,61.93,60.63,59.29,58.10,56.93,55.73,54.51,53.28,52.06,50.83
93.13,92.29,91.58,90.89,90.19,88.97,87.24,85.53,83.77,82.09,81.25,82.12,84.91,88.39,91.48,93.57,94.39,94.57,94.41,93.92,93.04,91.94,91.41,90.95,90.15,88.95,87.87,86.90,86.07,85.62,85.18,84.54,83.76,82.94,82.18,81.04,79.85,78.90,78.78,78.17,77.51,76.99,76.79,76.71,76.63,76.64,76.77,76.75,76.52,76.01,75.27,74.50,73.71,73.17,72.72,72.14,71.05,70.14,69.45,68.97,68.50,68.18,68.02,67.98,67.98,68.06,68.25,68.47,68.65,68.83,68.90,69.21,69.85,70.63,71.31,71.74,72.11,72.66,73.14,73.83,74.78,75.96,76.90,77.48,77.93,78.37,78.95,79.76,80.71,81.72,82.73,83.73,84.74,85.67,86.47,87.08,87.46,87.84,88.21,88.56,88.68,88.83,88.86,88.71,88.48,88.26,87.96,87.60,87.32,87.10,86.71,86.23,85.76,85.26,84.48,83.59,82.69,81.81,80.77,79.82,79.03,78.41,77.48,76.60,75.74,74.83,73.46,72.90,71.35,69.07,67.91,66.81,65.94,65.22,64.55,64.31,65.18,66.43,67.67,68.72,69.76,72.58,76.64,80.59,83.22,85.78,88.26,90.81,94.82,98.63,102.00,104.98,107.92,110.96,114.09,117.20,120.17,122.41,124.54,126.63,128.80,131.36,133.91,136.44,139.07,141.97,145.36,148.69,152.13,155.82,159.54,163.21,166.90,170.66,174.62,177.91,181.01,184.16,187.63,191.54,196.34,201.13,205.35,208.53,211.16,213.39,215.29,217.00,218.15,219.21,218.99,216.61,212.27,208.39,204.42,200.15,195.46,190.11,185.67,181.90,178.28,174.06,170.29,166.93,163.90,160.92,157.27,153.48,149.72,146.11,143.05,140.74,138.86,137.09,135.29,134.25,133.50,132.80,132.01,130.64,129.30,127.87,126.16,124.54,122.75,120.54,117.71,114.00,110.27,106.70,103.22,99.65,96.25,92.85,89.60,86.64,83.66,80.39,76.14,71.51,69.25,68.09,66.88,65.57,64.25,62.94,61.64,60.35,59.08,57.80,56.57,55.37,54.20,53.03,51.85,50.64
93.48,92.83,91.90,91.14,90.46,89.39,87.86,86.16,84.42,83.06,82.88,84.67,87.72,91.51,94.87,97.05,97.58,97.69,97.43,96.83,95.94,94.89,93.96,92.84,91.30,89.70,88.62,87.71,86.95,86.70,86.56,86.01,85.20,84.38,83.61,82.18,80.54,79.16,79.01,78.52,78.05,77.72,77.60,77.52,77.45,77.46,77.60,77.60,77.30,76.73,75.99,75.39,74.83,74.45,74.02,73.26,72.17,71.28,70.61,70.14,69.65,69.31,69.19,69.22,69.22,69.33,69.61,69.99,70.36,70.77,71.14,71.66,72.38,73.23,73.75,74.11,74.44,74.91,75.45,76.15,77.11,78.26,79.12,79.71,80.13,80.49,80.99,81.79,82.68,83.64,84.64,85.65,86.63,87.55,88.42,89.22,89.87,90.42,90.92,91.41,91.53,91.59,91.56,91.39,91.16,90.82,90.44,90.07,89.76,89.60,89.12,88.50,87.94,87.47,86.80,85.98,85.09,84.20,83.10,82.05,81.08,80.18,79.04,78.11,77.23,76.31,75.38,75.14,73.60,70.93,68.92,67.88,67.06,66.32,65.56,64.91,65.36,66.36,67.52,68.49,69.39,71.84,75.52,79.39,82.10,84.61,86.93,89.18,92.41,96.24,99.81,102.93,105.79,108.76,111.83,114.96,118.07,120.81,123.03,125.07,127.11,129.33,131.77,134.27,136.81,139.45,142.44,145.50,148.75,152.28,156.11,159.81,163.63,167.62,171.70,175.05,178.07,181.06,184.32,188.46,193.21,198.11,202.71,206.00,208.87,211.16,212.93,214.34,214.95,215.14,214.16,211.47,207.68,204.49,201.01,197.03,192.81,189.11,185.64,182.39,179.34,175.26,171.33,167.93,165.14,162.39,159.25,155.76,152.12,148.71,146.25,144.27,142.50,140.73,139.03,137.74,136.59,135.44,134.25,132.57,131.12,129.61,127.58,125.56,123.43,120.87,117.61,113.15,109.22,105.57,102.01,98.31,94.72,91.40,88.39,85.69,82.79,79.19,74.79,70.41,68.83,67.70,66.55,65.31,64.00,62.72,61.52,60.35,59.17,57.85,56.54,55.28,54.04,52.78,51.54,50.43
94.05,93.66,92.52,91.58,90.76,89.75,88.42,86.72,85.02,84.14,84.70,87.20,90.45,94.61,98.20,100.33,100.55,100.65,100.35,99.68,98.82,97.82,96.34,94.46,92.35,90.43,89.35,88.50,87.83,87.77,87.91,87.48,86.70,85.96,85.08,83.41,81.44,79.67,79.24,78.85,78.59,78.45,78.40,78.34,78.27,78.28,78.42,78.43,78.07,77.49,76.83,76.46,76.15,75.87,75.38,74.40,73.46,72.74,72.17,71.71,71.17,70.78,70.65,70.71,70.71,70.87,71.28,71.82,72.38,73.00,73.68,74.42,75.19,75.99,76.27,76.51,76.79,77.16,77.80,78.54,79.47,80.58,81.32,81.88,82.29,82.64,83.11,83.87,84.69,85.58,86.57,87.59,88.60,89.60,90.59,91.60,92.53,93.29,93.90,94.48,94.55,94.51,94.39,94.21,93.93,93.37,92.87,92.49,92.18,92.11,91.64,90.96,90.30,89.81,89.21,88.48,87.61,86.71,85.65,84.56,83.43,82.20,80.80,79.75,78.80,77.87,77.52,77.46,76.03,73.21,70.14,68.98,68.11,67.31,66.46,65.71,65.70,66.31,67.35,68.27,69.19,71.25,74.36,78.03,80.94,83.41,85.62,87.72,90.01,93.65,97.33,100.61,103.44,106.37,109.39,112.49,115.66,119.01,121.37,123.35,125.29,127.30,129.65,132.13,134.65,137.15,139.86,142.84,145.99,149.30,153.01,156.66,160.58,164.78,168.93,172.36,175.31,178.08,181.02,185.45,190.25,195.32,200.25,203.52,206.51,208.79,210.35,211.38,211.31,210.44,208.60,205.83,203.17,200.50,197.34,193.65,189.79,187.84,185.49,182.91,180.54,176.92,173.03,169.64,166.99,164.37,161.76,158.65,155.24,152.08,150.03,148.10,146.19,144.27,142.63,141.09,139.52,137.89,136.14,134.23,132.64,130.94,128.54,126.04,123.55,120.58,116.78,111.65,107.67,104.01,100.39,96.61,92.91,89.80,87.13,84.70,81.88,77.95,73.51,69.55,68.46,67.32,66.21,65.08,63.80,62.59,61.53,60.50,59.40,58.09,56.72,55.36,54.03,52.64,51.33,50.29
95.37,95.19,94.45,92.97,91.53,90.22,88.93,87.23,85.48,85.26,86.40,88.50,92.29,96.95,100.57,102.24,102.41,102.92,102.89,102.28,101.38,99.90,97.85,95.69,93.76,91.95,90.37,89.27,88.75,88.84,88.99,88.78,88.31,87.80,86.23,84.59,82.82,81.03,79.87,79.36,79.07,78.94,79.03,79.07,79.07,79.09,79.19,79.31,78.97,78.55,78.19,77.92,77.62,77.22,76.64,75.81,75.32,74.93,74.58,74.20,73.66,73.39,73.31,73.34,73.39,73.60,74.03,74.59,75.19,75.87,76.56,77.29,78.00,78.45,78.66,78.90,79.18,79.46,80.25,81.03,81.96,83.04,83.59,83.99,84.36,84.76,85.28,86.04,86.82,87.65,88.56,89.68,91.09,92.55,93.92,94.92,95.86,96.67,97.28,97.61,97.63,97.54,97.35,97.05,96.48,95.82,95.27,94.85,94.55,94.56,94.52,94.27,93.74,93.05,92.37,91.56,90.56,89.37,88.22,87.12,85.99,84.75,83.31,82.00,80.83,79.87,79.77,79.80,78.52,75.80,72.33,70.09,68.78,67.94,67.11,66.51,66.12,66.39,67.35,68.22,69.09,70.63,73.09,76.57,79.71,82.12,84.21,86.30,88.39,91.27,94.54,97.94,101.11,104.07,107.03,110.05,113.18,116.67,119.18,121.22,123.12,125.19,127.59,130.03,132.52,135.17,137.98,140.99,144.18,147.57,151.28,154.97,158.77,162.71,166.77,170.41,173.49,176.18,178.75,182.34,187.66,193.21,198.04,201.46,204.09,205.81,206.82,207.56,206.86,205.40,203.24,200.49,198.13,195.63,192.77,189.65,186.83,185.46,183.93,182.16,180.26,177.67,174.96,172.19,169.42,166.79,164.31,161.74,159.09,156.47,154.39,152.31,150.06,147.58,145.79,143.98,142.05,140.00,137.96,136.01,133.88,131.42,128.53,125.34,122.55,119.20,114.85,110.01,106.16,102.49,98.81,95.08,91.42,88.49,85.96,83.50,80.93,76.75,72.54,69.29,68.15,67.04,65.99,64.96,63.93,62.87,61.89,60.91,59.85,58.59,57.23,55.85,54.49,53.15,51.89,50.64
96.66,96.66,96.30,94.72,93.07,91.48,89.90,88.02,86.34,86.24,87.40,89.29,93.40,98.14,101.88,103.86,104.60,105.31,105.39,104.74,103.49,101.38,99.05,96.82,94.94,93.11,91.30,90.14,89.78,89.99,90.15,90.13,89.92,89.50,87.85,86.15,84.32,82.38,80.65,79.96,79.61,79.46,79.56,79.75,79.89,80.01,80.15,80.27,80.03,79.74,79.51,79.31,79.06,78.76,78.34,77.75,77.47,77.20,76.93,76.63,76.21,76.06,76.00,76.01,76.11,76.37,76.81,77.38,78.00,78.64,79.27,79.95,80.61,81.03,81.32,81.61,81.91,82.17,82.91,83.63,84.49,85.48,85.89,86.19,86.49,86.88,87.45,88.24,89.17,90.20,91.26,92.57,94.15,95.75,97.13,97.96,98.72,99.42,99.95,100.18,100.18,100.07,99.86,99.54,98.87,98.20,97.66,97.26,96.95,97.00,97.13,97.14,96.86,96.38,95.78,95.04,94.10,92.79,91.46,90.12,88.74,87.27,85.83,84.45,83.21,82.25,81.99,81.62,80.28,77.79,74.42,71.61,69.74,68.58,67.82,67.28,66.70,66.71,67.45,68.24,69.03,70.33,72.43,75.63,78.53,80.87,82.95,85.00,87.01,89.39,92.29,95.62,99.06,102.17,105.14,108.05,110.98,114.33,116.98,119.14,121.04,123.18,125.64,128.13,130.73,133.63,136.69,139.89,143.25,146.79,150.50,154.34,158.21,162.04,165.86,169.44,172.46,175.08,177.59,180.75,186.09,191.49,195.80,198.93,201.24,202.53,203.02,203.14,201.82,199.95,197.61,194.94,192.18,189.09,186.48,184.51,182.84,182.07,181.28,180.22,178.73,177.20,175.28,173.07,170.75,168.85,167.27,165.46,163.40,161.24,159.04,156.81,154.38,151.66,149.05,146.75,144.51,142.20,139.75,137.53,134.77,131.62,128.41,124.73,121.44,117.71,113.21,108.67,104.90,101.34,97.82,94.29,90.89,88.10,85.60,83.04,80.45,76.10,72.04,69.24,68.19,67.22,66.34,65.49,64.62,63.56,62.55,61.54,60.46,59.25,57.94,56.60,55.28,54.00,52.71,51.39
97.93,98.09,98.10,96.73,95.16,93.30,91.18,89.00,87.48,87.11,87.89,89.74,94.00,98.53,102.44,105.27,106.99,107.77,107.82,107.06,105.27,102.42,99.98,97.86,95.94,94.02,92.15,91.07,90.89,91.20,91.37,91.53,91.50,91.08,89.77,87.95,85.87,83.71,81.55,80.64,80.20,80.03,80.03,80.40,80.73,81.01,81.23,81.31,81.20,81.01,80.80,80.65,80.50,80.44,80.35,80.05,79.82,79.53,79.25,79.02,78.80,78.77,78.72,78.71,78.86,79.16,79.62,80.19,80.79,81.33,81.87,82.45,83.07,83.69,84.17,84.55,84.86,85.17,85.72,86.31,87.06,87.90,88.21,88.46,88.69,89.02,89.64,90.48,91.69,93.08,94.48,96.02,97.61,99.08,100.24,100.78,101.25,101.71,102.11,102.34,102.34,102.23,102.05,101.77,101.16,100.54,100.05,99.68,99.37,99.43,99.55,99.68,99.75,99.75,99.34,98.77,98.03,96.73,95.15,93.44,91.63,89.77,88.38,87.03,85.84,84.87,84.16,83.07,81.50,79.34,76.41,73.41,70.89,69.21,68.59,68.04,67.39,67.19,67.62,68.32,69.01,70.24,72.20,75.05,77.37,79.63,81.78,83.79,85.80,87.88,90.44,93.59,97.23,100.57,103.59,106.37,109.00,112.01,114.79,117.11,119.04,121.28,123.80,126.40,129.20,132.45,135.84,139.35,142.96,146.67,150.39,154.48,158.53,162.37,165.84,169.17,172.01,174.58,177.22,180.23,185.23,190.03,193.53,196.04,198.02,198.96,198.93,198.23,196.34,194.15,191.78,189.21,185.60,181.45,179.07,178.58,178.10,177.92,177.82,177.42,176.32,175.87,174.46,172.78,171.32,170.65,170.50,169.62,168.02,166.26,163.90,161.50,159.02,156.29,152.43,149.46,146.93,144.47,141.52,138.85,135.41,131.64,128.22,124.21,120.32,116.23,111.85,107.59,103.86,100.47,97.28,94.06,91.04,88.38,85.82,83.11,80.32,75.87,71.91,69.37,68.51,67.73,67.10,66.48,65.71,64.55,63.45,62.33,61.18,60.02,58.79,57.55,56.32,55.08,53.70,52.41
98.92,99.23,99.45,98.87,97.54,95.45,92.77,89.95,88.46,87.86,88.27,89.94,94.54,98.95,102.87,106.16,108.72,109.54,109.55,108.58,106.00,102.26,99.70,97.87,96.29,94.66,92.93,92.10,92.23,92.54,92.76,92.87,92.64,91.78,90.32,88.53,86.58,84.54,82.38,81.72,81.53,81.50,81.50,81.68,81.88,82.12,82.38,82.41,82.25,82.11,82.03,81.98,82.06,82.25,82.42,82.41,82.18,81.89,81.62,81.43,81.56,81.62,81.63,81.63,81.74,82.08,82.43,82.78,83.15,83.64,84.21,84.79,85.37,85.99,86.60,87.15,87.65,88.11,88.75,89.41,90.06,90.65,90.96,91.24,91.58,92.08,92.95,93.90,95.10,96.48,97.91,99.15,100.38,101.45,102.25,102.59,102.95,103.40,103.86,104.20,104.25,104.15,104.01,103.82,103.20,102.79,102.47,102.16,101.80,101.76,101.85,101.98,102.05,101.95,101.62,101.18,100.60,99.74,98.56,96.81,94.72,92.71,91.07,89.45,88.04,86.92,85.67,83.99,82.12,79.97,77.29,74.30,71.85,70.13,69.22,68.58,68.09,67.84,67.93,68.52,69.20,70.29,71.89,74.10,76.26,78.44,80.62,82.79,85.05,87.34,89.97,93.10,96.84,100.14,102.93,105.40,107.84,110.45,113.20,115.76,118.06,120.60,123.37,126.36,129.51,132.70,136.15,139.67,143.30,147.08,151.04,155.58,159.75,163.35,166.62,169.75,172.49,174.99,177.54,180.55,184.89,188.64,190.84,191.68,192.02,191.67,190.84,189.99,188.58,186.65,184.46,182.21,179.64,176.84,174.73,173.35,171.98,171.67,172.11,172.85,173.40,173.59,172.97,172.36,172.26,172.78,173.47,173.13,171.95,170.78,168.81,166.55,163.97,161.05,157.59,153.77,150.14,146.83,143.60,140.09,136.31,132.44,128.74,125.08,121.60,117.83,113.53,108.98,104.74,100.95,97.78,95.49,92.46,89.52,86.69,83.92,80.99,77.39,73.90,71.01,69.35,68.63,68.05,67.47,66.79,65.69,64.56,63.46,62.38,61.17,59.90,58.61,57.33,56.04,54.70,53.43
100.01,100.44,100.79,100.60,99.40,97.16,94.11,90.96,89.41,88.68,88.94,90.48,94.81,98.96,102.93,106.66,109.79,110.80,110.76,109.48,106.22,101.98,99.42,97.80,96.39,94.99,93.75,93.29,93.58,93.89,94.14,94.13,93.52,91.99,90.46,88.82,87.02,85.10,83.30,82.93,82.91,82.98,83.00,83.05,83.16,83.33,83.56,83.58,83.46,83.37,83.38,83.40,83.67,84.02,84.35,84.55,84.45,84.23,84.00,83.88,84.19,84.36,84.48,84.56,84.64,84.99,85.27,85.50,85.74,86.14,86.64,87.17,87.74,88.45,89.21,89.94,90.64,91.31,92.03,92.67,93.20,93.60,93.91,94.26,94.70,95.35,96.33,97.27,98.35,99.54,100.79,101.85,102.85,103.67,104.25,104.51,104.81,105.20,105.63,105.99,106.13,106.12,106.02,105.88,105.39,105.16,104.93,104.64,104.21,104.09,104.14,104.23,104.26,104.10,103.81,103.40,102.86,102.17,101.21,99.59,97.54,95.48,93.56,91.72,90.05,88.60,86.92,84.90,82.81,80.60,78.03,75.22,72.95,71.24,70.02,69.17,68.75,68.49,68.36,68.79,69.41,70.51,72.05,73.90,75.89,77.93,80.05,82.31,84.73,87.29,90.07,93.18,96.92,100.12,102.76,105.10,107.47,110.03,112.94,115.68,118.13,120.95,124.01,127.24,130.50,133.57,136.91,140.52,144.33,148.28,152.48,157.12,161.19,164.55,167.72,170.62,173.26,175.74,178.24,181.27,185.08,187.52,187.79,187.17,185.83,184.26,182.77,181.76,180.91,179.70,178.17,176.42,174.59,172.43,170.34,168.42,166.61,166.06,166.76,168.29,170.05,171.27,171.59,172.05,173.18,174.77,176.11,176.37,175.81,175.21,173.58,171.42,168.69,165.40,162.07,157.82,153.49,149.41,145.74,141.51,137.38,133.50,129.96,126.76,123.58,120.11,116.13,111.58,107.09,103.06,99.75,97.43,94.29,90.96,87.77,84.96,82.06,79.08,75.94,72.90,70.83,69.91,69.17,68.48,67.85,66.79,65.71,64.64,63.56,62.30,61.00,59.68,58.36,57.00,55.67,54.32
101.19,101.74,102.13,101.83,100.65,98.34,95.14,92.04,90.32,89.60,89.95,91.40,94.75,98.50,102.56,106.70,110.07,111.45,111.37,109.66,105.86,101.55,99.14,97.66,96.21,94.96,94.61,94.67,94.92,95.23,95.53,95.29,94.10,91.61,90.13,88.75,87.14,85.34,84.33,84.28,84.38,84.46,84.53,84.54,84.60,84.68,84.77,84.85,84.85,84.84,84.86,84.93,85.34,85.75,86.11,86.40,86.60,86.54,86.41,86.37,86.68,86.98,87.27,87.50,87.58,87.88,88.14,88.37,88.61,88.85,89.17,89.60,90.21,91.11,92.02,92.93,93.86,94.83,95.60,96.10,96.48,96.79,97.10,97.53,98.11,98.85,99.78,100.57,101.38,102.19,103.02,104.03,104.98,105.73,106.24,106.54,106.85,107.13,107.40,107.71,108.01,108.14,108.11,107.96,107.77,107.66,107.46,107.11,106.58,106.40,106.40,106.43,106.36,106.21,105.88,105.39,104.75,103.91,102.93,101.66,100.05,98.03,95.82,93.82,91.86,89.84,87.86,85.80,83.60,81.23,78.61,76.16,74.22,72.59,71.03,69.83,69.36,69.12,68.96,69.14,69.65,70.93,72.75,74.60,76.40,78.20,80.18,82.45,84.91,87.85,90.83,93.92,97.57,100.57,103.17,105.58,108.06,110.96,114.26,117.13,119.45,122.51,125.90,129.20,132.30,135.17,138.22,142.01,146.17,150.41,154.86,159.19,162.89,166.02,169.19,171.82,174.37,176.89,179.39,182.47,185.89,186.71,184.28,182.48,179.41,176.71,174.74,173.52,173.34,173.39,173.09,172.05,170.61,168.26,165.89,163.84,162.13,161.18,161.84,163.72,166.20,168.90,170.33,171.84,174.08,176.61,178.34,179.29,179.59,179.53,178.16,176.08,173.13,169.28,165.75,161.58,156.98,152.23,147.97,143.15,138.66,134.87,132.02,129.41,126.39,123.19,119.82,115.61,111.18,107.12,103.47,99.97,96.59,92.73,89.10,86.26,83.61,80.94,78.03,75.08,73.06,71.66,70.46,69.50,68.87,67.86,66.90,65.87,64.70,63.40,62.08,60.77,59.42,57.96,56.58,55.05
102.60,103.00,103.00,101.99,100.64,98.51,95.68,92.72,91.59,91.29,91.81,93.19,95.73,98.86,102.90,107.56,110.61,112.05,111.96,110.19,106.55,101.56,99.06,97.76,96.53,95.86,95.90,96.17,96.48,96.74,97.01,96.38,94.58,91.50,89.86,88.55,87.22,85.85,85.54,85.66,85.82,85.93,86.01,86.05,86.09,86.06,85.94,86.10,86.28,86.37,86.41,86.62,87.06,87.47,87.83,88.14,88.42,88.57,88.74,88.99,89.39,89.75,90.10,90.38,90.46,90.63,90.85,91.08,91.31,91.54,91.83,92.40,93.30,94.40,95.39,96.38,97.36,98.23,98.91,99.32,99.62,99.93,100.19,100.69,101.25,101.86,102.61,103.38,104.13,104.85,105.59,106.37,107.20,107.85,108.28,108.59,108.98,109.35,109.73,110.12,110.30,110.44,110.50,110.47,110.36,110.24,109.99,109.59,109.05,108.71,108.56,108.50,108.42,108.31,107.88,107.26,106.50,105.69,104.56,103.31,101.81,99.85,97.52,95.32,93.14,90.92,88.74,86.49,84.15,81.73,79.23,77.53,76.15,74.78,73.12,71.62,70.71,70.10,69.68,69.66,70.28,71.53,73.19,74.91,76.68,78.43,80.52,83.19,86.05,89.07,92.03,95.06,98.56,101.33,103.84,106.28,108.83,112.21,115.69,118.81,121.53,124.62,127.97,131.11,134.02,136.83,140.27,144.40,148.78,153.07,157.33,161.08,164.42,167.49,170.66,173.26,175.83,178.30,180.54,183.58,185.28,184.65,181.66,178.45,174.67,171.63,169.53,168.25,167.67,167.46,167.07,166.10,164.67,162.91,161.00,159.07,157.32,156.53,157.26,159.29,162.20,165.19,168.36,171.54,174.70,178.12,179.97,180.92,181.31,181.53,180.62,179.20,176.90,173.47,169.30,164.76,159.87,154.83,150.28,144.97,140.31,136.63,134.07,131.65,128.98,126.00,122.66,118.84,114.80,110.95,107.18,103.11,99.09,94.86,90.88,87.60,85.02,82.43,79.95,77.63,75.53,74.07,72.74,71.51,70.41,69.18,68.17,67.11,65.86,64.59,63.25,61.84,60.36,58.76,57.15,55.50
104.07,104.19,103.59,101.93,100.37,98.39,95.98,93.60,93.17,93.26,93.89,95.19,97.10,99.74,103.66,108.48,111.12,112.64,112.53,110.71,107.33,101.68,99.07,98.01,97.10,97.00,97.30,97.69,98.05,98.28,98.48,97.62,95.41,91.78,89.80,88.53,87.53,86.70,86.82,87.03,87.23,87.38,87.48,87.54,87.54,87.38,87.07,87.32,87.63,87.84,87.98,88.40,88.95,89.47,89.93,90.29,90.64,91.00,91.40,91.86,92.29,92.65,92.98,93.24,93.31,93.39,93.55,93.75,93.97,94.20,94.56,95.29,96.41,97.61,98.65,99.67,100.61,101.36,101.96,102.36,102.68,103.01,103.26,103.79,104.31,104.80,105.39,106.12,106.85,107.58,108.30,108.99,109.75,110.35,110.72,111.07,111.52,111.95,112.35,112.72,112.79,112.90,112.99,113.02,112.93,112.77,112.50,112.11,111.57,111.10,110.80,110.64,110.56,110.44,109.92,109.17,108.28,107.44,106.22,104.91,103.40,101.40,98.90,96.52,94.21,91.89,89.55,87.22,84.87,82.56,80.45,79.30,78.24,77.00,75.41,73.81,72.58,71.65,71.00,70.71,71.18,72.26,73.74,75.33,77.04,78.78,81.07,84.17,87.36,90.38,93.29,96.25,99.53,102.13,104.62,107.12,109.80,113.54,117.18,120.52,123.56,126.65,129.84,132.80,135.59,138.37,142.35,146.75,151.19,155.42,159.46,162.83,165.94,169.02,172.29,174.92,177.43,179.73,181.71,184.37,184.44,182.54,179.13,174.67,170.38,167.16,165.00,163.56,162.51,161.85,161.19,160.22,158.84,157.52,155.91,154.00,152.12,151.59,152.52,154.68,157.67,161.24,165.94,170.60,174.72,179.11,181.09,182.16,182.78,183.25,182.57,181.67,180.10,177.40,172.81,167.87,162.59,157.23,152.45,147.00,142.12,138.29,135.87,133.56,131.17,128.38,125.07,121.54,117.83,114.14,110.33,106.02,101.42,96.89,92.65,88.94,86.39,83.96,81.86,80.04,78.02,76.52,75.07,73.60,72.10,70.71,69.55,68.38,67.07,65.77,64.34,62.82,61.20,59.49,57.73,56.00
105.60,105.26,103.68,101.68,99.89,97.89,95.90,95.01,95.29,95.63,96.22,97.42,99.03,101.52,105.10,109.31,111.50,113.21,113.06,111.11,108.02,101.90,99.23,98.47,98.10,98.39,98.81,99.23,99.58,99.81,99.92,99.21,97.01,92.79,90.16,88.90,88.37,88.15,88.18,88.38,88.60,88.80,88.94,88.96,88.88,88.61,88.16,88.46,88.82,89.17,89.58,90.35,91.20,92.05,92.79,93.29,93.80,94.30,94.79,95.23,95.57,95.78,95.93,96.05,96.12,96.20,96.29,96.42,96.59,96.82,97.37,98.25,99.39,100.50,101.57,102.49,103.27,103.98,104.53,105.09,105.60,106.02,106.32,106.77,107.25,107.72,108.20,108.84,109.60,110.42,111.25,112.13,112.98,113.60,114.00,114.44,114.90,115.25,115.46,115.53,115.61,115.64,115.64,115.57,115.43,115.22,114.98,114.66,114.12,113.65,113.26,113.01,112.92,112.65,112.06,111.21,110.16,109.13,107.96,106.56,104.81,102.62,99.77,97.29,94.97,92.65,90.27,88.09,85.98,84.10,82.88,81.79,80.48,79.10,77.85,76.55,75.31,74.31,73.55,72.81,72.54,73.23,74.61,76.10,77.61,79.39,81.97,85.52,88.75,91.70,94.57,97.45,100.39,102.96,105.54,108.23,111.15,114.98,118.76,122.20,125.28,128.37,131.27,134.08,136.86,139.64,144.31,148.79,153.01,157.00,160.90,164.31,167.50,170.68,174.24,176.99,179.23,181.15,182.95,184.52,183.47,180.65,176.56,171.21,166.59,163.35,161.19,159.36,157.96,156.82,155.83,154.88,153.74,152.31,150.51,148.38,146.21,146.01,147.37,149.63,152.09,157.15,162.78,168.35,173.61,179.13,181.32,182.91,184.25,184.96,184.01,183.22,182.30,180.73,176.29,170.95,165.13,159.30,154.33,149.39,144.16,139.66,137.14,134.89,132.62,129.98,126.80,123.32,119.74,116.10,112.32,108.31,103.34,98.65,94.27,90.28,87.73,85.65,83.78,82.04,80.46,78.88,77.25,75.62,74.02,72.63,71.15,69.72,68.38,66.88,65.26,63.59,61.89,60.13,58.42,56.67
106.84,105.91,103.89,101.73,99.85,98.20,96.97,96.73,97.27,97.84,98.64,99.99,101.57,103.90,106.91,110.23,112.28,113.97,113.65,111.61,109.05,103.67,100.76,99.69,99.64,99.99,100.46,100.92,101.31,101.54,101.46,100.57,98.34,94.35,91.79,90.27,89.59,89.53,89.61,89.78,90.00,90.22,90.41,90.49,90.56,90.35,89.74,90.09,90.79,91.59,92.41,93.34,94.23,95.16,96.02,96.63,97.14,97.61,98.01,98.31,98.51,98.64,98.73,98.81,98.89,99.11,99.24,99.33,99.46,99.76,100.40,101.27,102.28,103.28,104.36,105.21,105.89,106.55,107.09,107.69,108.29,108.85,109.35,109.88,110.40,110.90,111.40,112.05,112.86,113.73,114.58,115.51,116.41,117.04,117.39,117.74,118.02,118.23,118.34,118.34,118.42,118.36,118.23,118.07,117.88,117.66,117.42,117.15,116.72,116.26,115.79,115.44,115.28,114.89,114.30,113.44,112.36,111.28,109.93,108.39,106.43,103.74,100.65,98.05,95.75,93.58,91.33,89.28,87.70,86.74,86.52,85.39,83.83,82.14,80.62,79.35,78.10,77.03,76.14,75.21,74.46,74.53,75.39,76.82,78.25,80.18,82.93,86.52,89.77,92.55,95.27,98.08,100.98,103.83,106.52,109.34,112.63,116.34,119.88,123.19,126.27,129.28,132.19,135.08,138.07,141.30,145.99,150.36,154.50,158.49,162.32,165.80,169.13,172.50,176.16,178.67,180.47,182.01,183.69,183.80,182.28,178.96,173.98,168.27,163.16,159.40,156.79,154.71,153.15,151.72,150.52,149.62,148.58,147.07,145.12,142.94,141.11,141.37,143.25,146.26,149.83,155.20,161.05,166.66,171.91,178.19,181.02,182.95,184.63,186.27,186.22,185.80,184.91,183.31,179.28,173.98,168.02,161.92,156.60,151.73,146.54,141.72,138.23,135.95,133.54,130.85,127.81,124.41,120.91,117.27,113.48,109.54,104.84,100.16,95.88,92.34,89.64,87.66,85.98,84.40,82.90,81.15,79.34,77.57,75.98,74.44,72.84,71.19,69.50,67.81,66.02,64.20,62.38,60.53,58.86,57.22
107.95,106.53,104.37,102.21,100.29,99.02,98.52,98.68,99.39,100.20,101.26,102.77,104.37,106.49,108.87,111.27,113.27,114.74,114.18,112.12,110.10,105.91,102.83,101.35,101.54,101.82,102.27,102.74,103.11,103.28,102.85,101.65,99.42,95.97,93.58,91.79,90.90,90.91,91.07,91.22,91.41,91.65,91.89,92.07,92.38,92.32,91.64,92.13,93.20,94.42,95.61,96.60,97.45,98.37,99.24,99.91,100.37,100.78,101.07,101.23,101.31,101.39,101.48,101.59,101.73,102.12,102.32,102.43,102.56,102.96,103.62,104.39,105.22,106.14,107.17,107.96,108.58,109.19,109.74,110.35,111.00,111.70,112.39,113.03,113.61,114.17,114.72,115.41,116.25,117.14,117.98,118.90,119.79,120.40,120.69,120.92,121.03,121.10,121.15,121.15,121.22,121.09,120.87,120.63,120.40,120.17,119.93,119.67,119.33,118.87,118.37,117.93,117.65,117.16,116.58,115.75,114.69,113.60,112.03,110.34,108.20,105.02,101.76,98.97,96.64,94.67,92.77,90.92,89.88,89.77,90.23,89.03,87.33,85.42,83.53,82.20,80.90,79.71,78.66,77.60,76.52,75.99,76.26,77.52,78.90,81.05,83.93,87.40,90.61,93.21,95.78,98.50,101.42,104.63,107.48,110.42,113.95,117.46,120.71,123.84,126.91,129.85,132.87,135.88,139.10,142.86,147.43,151.68,155.79,159.87,163.68,167.26,170.80,174.35,177.98,180.05,181.40,182.54,183.88,182.75,180.95,177.32,171.68,165.85,160.19,155.71,152.44,149.99,148.17,146.56,145.28,144.36,143.33,141.84,139.88,137.81,136.62,137.52,140.03,143.91,148.80,154.08,159.85,165.19,170.04,176.64,180.36,182.77,184.74,187.32,188.40,188.44,187.54,185.75,182.12,176.99,171.02,164.77,159.19,154.17,149.06,144.02,139.46,136.98,134.21,131.32,128.35,125.11,121.72,118.09,114.26,110.32,106.06,101.54,97.50,94.50,91.76,89.85,88.32,86.89,85.33,83.43,81.44,79.53,77.90,76.19,74.49,72.62,70.51,68.60,66.66,64.70,62.74,60.78,59.13,57.60
108.87,107.53,105.81,104.05,102.16,100.92,100.59,101.20,102.21,103.35,104.59,105.96,107.41,109.16,110.95,112.67,114.62,115.37,114.44,112.46,110.79,108.09,105.42,103.88,104.14,104.27,104.54,104.81,104.97,104.84,103.53,101.88,99.79,97.11,94.38,92.71,92.12,92.39,92.60,92.71,92.88,93.13,93.42,93.69,94.27,94.56,94.24,95.27,96.42,97.59,98.73,99.67,100.42,101.21,101.94,102.46,102.93,103.33,103.67,103.92,103.99,104.07,104.24,104.54,104.97,105.48,105.78,106.01,106.34,106.78,107.30,107.87,108.53,109.40,110.25,110.99,111.64,112.19,112.79,113.45,114.13,114.83,115.52,116.16,116.80,117.44,118.04,118.73,119.54,120.38,121.17,122.04,122.73,123.21,123.50,123.73,123.88,123.95,123.96,123.96,123.98,123.90,123.74,123.51,123.28,123.04,122.78,122.44,121.96,121.49,121.02,120.54,120.07,119.49,118.88,118.10,117.11,116.03,114.37,112.58,110.36,107.13,103.77,100.54,97.93,96.25,95.28,93.96,93.19,92.97,92.65,91.34,89.98,88.44,86.59,85.16,83.61,82.15,80.85,79.49,78.37,77.70,77.61,78.23,79.56,81.99,85.03,88.21,91.22,93.74,96.18,98.74,101.62,105.09,108.34,111.40,114.45,117.71,120.90,124.03,127.11,130.10,133.16,136.20,139.49,143.49,148.21,152.55,156.72,160.90,164.81,168.65,172.48,176.18,179.42,180.73,181.75,182.42,182.48,181.50,179.34,175.67,170.56,164.93,158.61,153.30,149.08,145.55,142.78,141.24,140.18,138.98,137.80,136.67,135.19,133.68,133.53,135.69,139.15,143.56,148.54,153.52,158.96,163.91,168.23,173.85,178.98,182.58,185.10,187.82,189.44,189.98,189.68,188.56,184.99,179.99,174.06,167.83,162.54,157.16,151.72,146.42,141.55,138.23,134.63,131.11,127.89,125.04,121.97,118.45,114.58,110.64,106.67,102.74,99.14,96.14,93.99,92.33,90.85,89.37,87.76,85.81,83.74,81.63,79.56,77.80,75.84,73.66,71.30,69.09,67.02,64.94,62.83,60.72,59.02,57.44
109.95,109.02,107.86,106.45,104.78,103.70,103.54,104.34,105.44,106.69,108.00,109.31,110.58,111.91,113.15,114.33,116.11,116.09,114.90,113.11,111.57,109.76,107.65,106.40,106.72,106.79,106.94,106.97,106.65,105.58,103.61,101.74,99.80,97.49,94.82,93.73,93.60,93.94,94.17,94.24,94.38,94.61,94.95,95.32,96.03,96.66,96.93,98.20,99.43,100.59,101.63,102.47,103.15,103.84,104.48,104.98,105.44,105.87,106.25,106.57,106.74,106.99,107.35,107.81,108.35,108.92,109.35,109.73,110.15,110.61,111.10,111.63,112.25,113.07,113.79,114.38,114.86,115.28,115.93,116.61,117.30,118.00,118.69,119.35,120.03,120.71,121.36,122.05,122.79,123.54,124.29,125.14,125.65,126.02,126.31,126.54,126.71,126.77,126.77,126.77,126.77,126.74,126.61,126.38,126.15,125.89,125.59,125.19,124.62,124.12,123.63,123.09,122.45,121.83,121.17,120.40,119.50,118.42,116.83,115.06,112.81,109.56,106.23,102.98,100.39,98.86,98.36,97.41,96.54,95.74,94.66,93.34,92.11,90.77,89.18,87.77,86.17,84.58,83.08,81.49,80.29,79.45,79.06,79.26,80.84,83.34,86.22,89.07,91.97,94.54,97.04,99.76,103.14,106.81,109.95,112.71,115.39,118.31,121.25,124.21,127.17,130.09,133.21,136.30,139.65,143.80,148.58,152.99,157.25,161.55,165.74,169.78,173.67,177.23,179.98,180.87,181.49,181.72,181.26,179.78,177.05,173.40,169.09,164.46,158.33,152.49,147.46,143.46,140.01,137.46,135.51,133.91,132.89,132.09,131.14,130.33,130.94,134.08,138.29,143.13,148.24,153.08,158.11,162.67,166.63,171.23,177.46,182.03,185.06,188.12,189.94,190.72,190.76,190.21,187.62,182.79,177.25,171.73,166.71,161.14,155.44,149.78,144.32,140.29,135.95,131.78,128.15,125.57,122.67,119.32,115.64,111.91,108.21,104.63,101.26,98.21,96.44,94.93,93.44,91.88,90.20,88.17,85.95,83.61,81.21,78.91,76.64,74.26,71.74,69.33,67.09,64.87,62.65,60.42,58.73,57.12
111.09,110.74,110.16,109.10,107.78,106.97,106.98,107.83,108.90,110.13,111.45,112.76,113.82,114.71,115.42,116.14,117.64,116.86,115.49,113.94,112.42,111.10,109.66,108.87,109.21,109.29,109.37,109.12,108.20,105.86,103.36,101.38,99.58,97.44,95.09,94.81,95.22,95.53,95.76,95.80,95.88,96.09,96.48,96.95,97.75,98.71,99.70,101.00,102.31,103.47,104.40,105.10,105.72,106.35,106.95,107.50,107.97,108.45,108.89,109.27,109.59,110.10,110.68,111.28,111.82,112.43,113.00,113.51,113.98,114.45,114.97,115.55,116.19,116.96,117.59,117.97,118.21,118.44,119.13,119.82,120.51,121.21,121.90,122.59,123.29,123.98,124.68,125.37,126.02,126.67,127.37,128.21,128.59,128.87,129.16,129.40,129.58,129.65,129.65,129.65,129.67,129.69,129.60,129.36,129.13,128.81,128.44,127.98,127.35,126.78,126.22,125.58,124.82,124.20,123.45,122.67,121.83,120.75,119.34,117.67,115.43,112.21,108.98,105.97,103.59,102.09,101.76,101.03,99.82,98.21,96.43,95.15,93.91,92.66,91.42,90.10,88.56,86.95,85.30,83.54,82.23,81.22,80.59,80.50,82.47,84.89,87.44,89.96,92.87,95.55,98.26,101.34,105.51,109.29,112.04,114.28,116.65,119.15,121.72,124.39,127.15,129.93,133.11,136.26,139.67,143.92,148.68,153.16,157.53,161.97,166.53,170.69,174.47,177.71,179.92,180.60,180.79,180.60,179.99,177.66,174.35,170.81,167.42,164.20,158.74,152.71,147.09,143.03,139.06,134.90,131.40,129.24,128.48,127.96,127.53,127.48,128.73,132.66,137.45,142.64,147.87,152.68,157.28,161.46,165.16,168.78,175.79,181.15,184.69,188.16,190.08,190.96,191.20,191.12,189.98,185.44,180.52,176.06,171.26,165.70,159.84,153.76,147.56,142.90,137.96,133.19,129.06,126.60,123.82,120.66,117.24,113.84,110.37,107.01,103.72,100.61,99.04,97.59,96.06,94.38,92.57,90.43,87.99,85.36,82.67,79.60,77.03,74.55,71.96,69.42,66.99,64.62,62.29,59.97,58.32,56.69
111.92,111.55,111.09,110.43,110.09,109.95,110.12,111.02,112.18,113.55,114.97,116.26,117.08,117.50,117.72,117.94,118.59,117.65,116.25,114.78,113.49,112.33,111.31,110.75,110.88,111.01,111.01,110.55,109.27,106.53,103.51,101.08,99.15,97.46,95.85,95.95,96.61,97.12,97.30,97.38,97.43,97.58,98.02,98.63,99.84,101.31,102.69,103.84,105.08,106.16,107.01,107.66,108.28,109.02,109.81,110.51,111.13,111.75,112.31,112.81,113.33,113.86,114.45,115.05,115.59,116.20,116.77,117.30,117.82,118.33,118.87,119.44,120.06,120.68,121.25,121.64,121.90,122.08,122.62,123.23,123.90,124.59,125.29,125.94,126.61,127.30,128.00,128.69,129.37,130.05,130.75,131.44,131.94,132.32,132.63,132.97,133.38,133.55,133.56,133.62,133.88,134.14,134.18,133.89,133.61,132.91,132.20,131.50,130.62,129.71,128.84,128.01,127.24,126.52,125.64,124.71,123.75,122.67,121.43,120.04,118.17,115.34,112.20,109.61,107.43,105.64,105.01,103.62,101.91,100.04,98.16,96.83,95.48,94.08,92.69,91.38,89.99,88.43,86.74,85.23,83.96,83.00,82.37,82.04,83.81,85.96,88.32,90.87,94.57,97.44,100.76,104.73,108.90,112.18,114.76,116.89,118.86,120.62,122.59,124.81,127.28,130.06,133.15,136.26,139.67,143.92,148.34,152.88,157.56,162.36,166.97,170.74,173.93,176.55,178.42,179.16,179.14,178.26,176.41,173.98,171.27,168.63,166.13,163.20,158.42,153.93,150.06,146.59,142.21,137.07,131.99,127.81,126.01,125.28,124.80,124.98,127.71,131.95,136.63,141.61,146.86,151.86,156.26,160.31,164.12,167.59,172.90,178.23,182.87,186.18,189.48,190.89,191.26,191.33,190.49,187.50,183.70,179.47,174.47,170.11,164.85,158.63,151.70,146.54,142.08,137.81,133.58,130.14,127.50,124.25,120.47,116.97,113.69,110.39,107.14,104.10,102.29,100.44,98.47,96.33,94.03,91.52,88.41,84.89,81.33,78.66,76.34,74.13,71.85,69.46,66.84,64.20,61.66,59.39,57.74,56.12
112.80,112.39,111.98,111.67,112.09,112.55,113.03,114.08,115.36,116.96,118.57,119.84,120.46,120.55,120.37,120.07,119.64,118.50,117.15,115.79,114.61,113.57,112.87,112.52,112.51,112.66,112.32,111.49,109.95,107.11,103.68,100.87,98.88,97.77,97.10,97.47,98.18,98.80,99.08,99.21,99.26,99.45,100.08,101.06,102.56,104.23,105.72,106.85,108.12,109.24,110.13,110.87,111.57,112.37,113.22,113.99,114.66,115.31,115.93,116.53,117.20,117.80,118.38,118.95,119.51,120.01,120.50,121.01,121.55,122.04,122.57,123.16,123.79,124.38,124.89,125.30,125.62,125.85,126.29,126.80,127.38,128.01,128.70,129.35,130.03,130.72,131.42,132.11,132.81,133.50,134.19,134.78,135.34,135.80,136.19,136.63,137.18,137.45,137.54,137.67,138.03,138.31,138.33,138.05,137.76,136.96,136.06,135.11,133.96,132.73,131.58,130.58,129.76,128.88,127.78,126.68,125.67,124.61,123.45,122.16,120.52,118.21,115.50,113.19,111.05,109.02,107.83,106.04,104.06,102.05,100.02,98.41,96.84,95.33,93.94,92.60,91.26,89.78,88.17,86.81,85.66,84.82,84.20,83.63,84.97,86.82,89.09,91.85,96.02,99.52,103.45,107.84,111.94,115.03,117.47,119.42,121.00,122.22,123.77,125.60,127.73,130.34,133.28,136.30,139.65,143.80,148.14,152.84,157.71,162.55,166.82,170.26,173.00,175.10,176.66,177.15,176.74,175.37,173.03,170.78,168.64,166.62,164.62,162.11,158.33,155.00,152.15,149.20,144.66,139.07,133.08,127.40,124.00,122.61,122.07,122.72,126.62,131.18,135.80,140.65,145.97,151.17,155.39,159.21,162.93,166.35,170.54,175.50,180.39,183.63,187.60,189.92,190.95,191.14,190.61,188.51,185.43,181.62,177.11,173.37,168.95,163.40,156.48,150.73,146.17,142.13,138.22,134.58,131.82,128.56,124.77,121.09,117.58,114.14,110.79,107.58,105.33,102.96,100.40,97.68,94.94,92.12,88.61,84.60,80.54,78.09,75.88,73.76,71.59,69.15,66.32,63.48,60.87,58.78,57.14,55.51
113.72,113.26,112.84,112.82,113.77,114.78,115.70,116.99,118.44,120.36,122.26,123.47,123.94,123.85,123.39,122.56,120.79,119.42,118.18,116.99,115.76,114.82,114.34,114.16,114.11,114.26,113.30,111.94,110.25,107.61,103.88,100.75,98.78,98.37,98.84,99.37,99.95,100.56,101.08,101.29,101.40,101.71,102.69,104.25,105.91,107.47,108.79,110.02,111.43,112.70,113.75,114.74,115.60,116.40,117.18,117.95,118.57,119.13,119.74,120.44,121.21,121.91,122.48,122.98,123.60,123.86,124.21,124.65,125.18,125.58,126.09,126.70,127.39,128.08,128.50,128.93,129.37,129.74,130.13,130.53,130.96,131.46,132.15,132.84,133.54,134.23,134.93,135.62,136.32,137.01,137.70,138.24,138.79,139.32,139.85,140.39,140.99,141.37,141.60,141.82,142.14,142.19,142.05,141.82,141.58,140.96,140.02,138.81,137.36,135.84,134.46,133.29,132.36,131.29,129.88,128.60,127.60,126.59,125.38,124.02,122.50,120.83,118.85,116.69,114.46,112.25,110.22,108.27,106.30,104.24,102.01,99.88,97.99,96.40,95.15,93.76,92.37,90.98,89.59,88.27,87.35,86.66,86.06,85.30,85.95,87.45,89.76,92.89,97.20,101.77,106.32,110.68,114.63,117.85,120.19,121.85,123.10,123.97,125.24,126.76,128.51,130.77,133.49,136.37,139.59,143.55,148.08,153.04,158.00,162.54,166.07,169.25,171.69,173.38,174.64,174.56,173.59,171.94,169.85,168.04,166.46,164.79,162.92,160.95,158.47,155.90,153.35,150.85,146.42,140.93,134.67,128.04,122.47,119.96,119.35,120.73,125.46,130.37,134.98,139.74,145.21,150.60,154.66,158.17,161.60,165.07,168.71,172.95,177.26,180.50,184.42,188.02,190.26,190.53,190.35,188.47,185.71,182.49,179.17,175.50,172.15,168.06,161.89,155.45,150.24,146.16,142.97,139.91,136.79,133.58,130.14,126.21,122.02,118.26,114.66,111.04,108.15,105.14,101.87,98.44,95.30,92.22,88.58,84.49,80.28,77.88,75.66,73.47,71.17,68.49,65.41,62.46,59.92,58.13,56.50,54.87
114.62,114.15,113.79,114.44,115.59,116.80,118.11,120.11,122.21,124.35,126.12,127.11,127.39,127.30,126.73,125.55,123.47,121.41,119.58,118.05,116.91,116.29,115.93,115.76,115.63,114.91,113.61,112.13,110.44,108.09,104.29,101.32,99.76,99.85,100.62,101.36,102.04,102.69,103.55,104.28,104.79,105.33,106.38,107.98,109.65,111.29,112.83,114.25,115.67,116.92,117.97,118.88,119.74,120.57,121.42,122.32,123.03,123.72,124.43,125.18,126.00,126.52,126.91,127.27,127.75,128.04,128.39,128.78,129.18,129.52,129.84,130.33,130.99,131.50,131.78,132.13,132.55,132.99,133.51,134.00,134.47,134.97,135.66,136.36,137.05,137.76,138.50,139.24,139.95,140.60,141.16,141.84,142.45,143.01,143.55,144.10,144.50,144.74,144.92,145.20,145.19,145.06,144.87,144.61,144.15,143.53,142.61,141.42,140.14,138.78,137.42,136.21,135.29,134.39,133.32,131.88,130.13,128.58,127.30,126.04,124.68,123.15,121.22,119.17,117.03,114.85,112.76,110.77,108.75,106.56,103.90,101.41,99.32,97.65,96.37,95.12,93.97,92.73,91.33,89.93,88.93,88.14,87.46,86.78,87.25,88.52,91.01,94.88,99.34,104.01,108.72,113.26,117.20,120.16,122.34,123.96,125.26,125.97,127.02,128.34,130.00,132.28,134.84,137.47,140.50,144.48,149.07,154.29,159.02,162.46,165.11,167.67,169.86,171.51,172.33,171.89,170.44,168.66,167.26,165.76,164.25,162.69,161.07,159.46,157.54,155.40,153.10,150.72,146.21,140.89,134.76,127.97,121.65,118.58,118.20,120.24,124.48,129.44,134.06,138.68,143.85,149.49,153.50,156.88,160.23,163.52,166.98,170.70,174.36,177.32,180.12,182.58,184.54,185.82,186.22,185.02,182.98,180.59,178.59,175.88,173.15,169.86,165.27,160.07,155.16,150.80,147.10,144.14,141.16,138.03,134.69,131.07,127.25,123.36,119.39,115.38,111.52,107.90,103.77,99.25,95.72,92.29,88.57,84.62,80.62,77.85,75.36,73.05,70.77,67.93,64.77,61.80,59.28,57.54,55.92,54.30
115.54,115.09,114.80,115.92,117.21,118.84,120.97,123.86,126.24,128.27,129.77,130.53,130.61,130.40,129.67,128.26,125.98,123.40,121.00,119.13,118.21,117.83,117.53,117.26,116.88,115.40,113.81,112.22,110.54,108.37,104.74,102.22,101.20,101.67,102.54,103.38,104.14,104.85,105.93,107.01,107.91,108.80,110.14,111.78,113.54,115.27,116.87,118.29,119.68,120.93,122.00,122.92,123.84,124.79,125.81,126.90,127.91,128.84,129.72,130.58,131.39,131.81,132.11,132.37,132.66,132.90,133.18,133.45,133.69,133.89,133.87,134.08,134.57,134.87,135.04,135.30,135.68,136.18,136.89,137.57,138.20,138.81,139.56,140.19,140.79,141.42,142.19,142.93,143.60,144.19,144.68,145.38,146.02,146.61,147.15,147.62,147.83,147.95,148.06,148.26,148.03,147.81,147.57,147.24,146.62,145.98,145.05,143.90,142.74,141.52,140.25,139.16,138.44,137.60,136.71,135.31,133.36,131.41,129.97,128.60,127.16,125.55,123.63,121.69,119.65,117.50,115.41,113.38,111.33,109.09,106.28,103.55,101.21,99.30,97.82,96.72,95.74,94.59,93.19,91.78,90.67,89.73,88.92,88.25,88.59,89.84,92.55,96.87,101.26,105.90,110.77,115.56,119.52,122.24,124.37,126.04,127.40,128.04,128.92,130.16,131.83,134.09,136.49,139.05,142.08,146.02,150.75,155.89,160.09,162.53,164.49,166.50,168.25,169.47,169.69,168.78,166.99,165.19,164.27,163.09,161.82,160.49,159.13,157.83,156.33,154.56,152.46,149.98,145.31,140.08,134.19,127.65,121.13,117.55,117.12,119.48,123.43,128.41,133.02,137.45,142.17,147.96,152.10,155.51,158.75,161.88,165.20,168.46,171.46,174.00,175.89,177.38,178.77,180.23,180.76,180.16,178.98,177.68,177.01,175.28,173.25,170.80,167.64,163.46,159.24,155.20,151.49,148.34,145.39,142.28,138.96,135.54,132.01,128.09,123.95,119.73,115.33,110.98,106.01,100.68,96.64,92.86,88.96,85.03,81.23,78.07,75.30,72.80,70.39,67.40,64.20,61.24,58.79,57.09,55.44,53.80
116.49,116.08,115.90,117.12,118.46,120.97,124.66,128.69,130.62,132.03,133.03,133.59,133.47,132.88,131.88,130.42,128.04,125.23,122.42,120.27,119.80,119.47,119.12,118.58,117.67,115.75,113.91,112.20,110.47,108.31,105.26,103.60,103.30,103.96,104.69,105.45,106.22,107.02,108.10,109.19,110.38,111.85,113.88,115.65,117.63,119.46,120.80,121.87,123.20,124.47,125.61,126.73,127.85,129.09,130.42,131.77,133.42,134.77,135.96,137.02,137.73,138.22,138.59,138.82,138.87,138.91,138.96,139.00,139.03,138.93,138.35,138.02,138.10,138.15,138.29,138.47,138.78,139.38,140.33,141.33,142.31,143.24,144.14,144.59,144.91,145.32,146.09,146.73,147.28,147.78,148.31,148.81,149.41,150.02,150.57,150.84,150.89,150.95,150.98,150.88,150.65,150.47,150.19,149.73,149.11,148.39,147.42,146.26,145.10,143.93,142.84,142.11,141.94,140.90,139.85,138.84,137.69,135.69,133.95,132.09,130.11,128.10,126.24,124.41,122.46,120.31,118.22,116.15,114.10,111.98,109.52,106.77,104.06,101.62,99.68,98.73,97.74,96.57,95.20,93.93,92.72,91.57,90.54,89.72,89.96,91.52,94.51,98.74,102.69,107.20,112.27,117.42,121.43,123.98,126.25,128.15,129.51,130.20,131.02,132.32,134.17,136.29,138.53,141.34,144.70,148.45,153.47,157.95,161.19,162.88,164.50,166.12,167.07,167.17,166.50,164.93,163.03,161.37,160.52,159.67,159.01,158.18,157.06,156.00,154.75,153.28,151.32,148.39,143.47,138.20,132.68,127.00,121.02,116.96,115.97,118.06,122.26,127.22,131.77,135.95,140.00,145.79,150.37,154.02,157.07,160.10,163.33,166.18,168.54,170.45,171.93,172.99,173.55,173.59,173.49,173.30,173.20,173.34,174.01,173.21,172.07,170.58,168.54,164.75,161.76,159.12,156.39,152.65,149.48,146.25,142.85,139.38,135.89,132.09,128.09,124.03,119.82,114.51,108.79,103.17,98.44,94.27,90.03,85.90,82.24,78.69,75.67,72.87,70.05,66.91,63.69,60.84,58.53,56.83,55.14,53.45
117.40,117.09,117.14,118.38,121.06,124.82,129.09,132.67,134.38,135.54,136.22,136.38,135.79,134.78,133.37,131.57,129.21,126.40,123.57,121.44,121.13,120.86,120.41,119.58,118.23,116.18,114.20,112.32,110.45,108.25,105.96,105.10,105.37,106.11,106.84,107.58,108.40,109.37,110.61,111.82,113.25,115.02,117.18,119.01,120.87,122.56,123.89,125.02,126.35,127.82,129.38,130.93,132.52,134.16,135.71,137.03,138.41,139.60,140.60,141.41,142.02,142.45,142.79,143.03,143.07,143.07,143.07,143.09,143.13,143.21,142.75,142.51,142.66,142.78,143.08,143.36,143.78,144.52,145.48,146.39,147.24,148.03,148.68,149.01,149.28,149.60,150.05,150.59,151.03,151.42,151.85,152.31,152.68,153.06,153.45,153.72,153.61,153.57,153.54,153.35,153.11,152.85,152.48,151.98,151.44,150.67,149.72,148.65,147.61,146.57,145.78,145.36,145.33,144.81,144.07,143.20,142.15,140.54,138.78,136.80,134.62,132.30,130.05,127.88,125.73,123.58,121.49,119.18,116.98,114.87,112.51,110.05,107.77,105.57,103.41,101.93,100.39,98.81,97.27,95.96,94.68,93.42,92.37,91.80,92.10,93.81,96.66,100.31,103.89,108.36,113.60,118.89,122.55,125.40,127.95,130.03,131.48,132.41,133.25,134.55,136.50,138.75,141.43,144.42,147.76,151.54,156.35,159.50,161.42,162.61,163.84,164.88,165.34,165.07,163.94,161.67,159.48,157.79,156.90,156.17,155.73,155.30,154.72,153.83,152.88,151.42,148.99,145.03,140.73,136.37,131.61,126.25,120.98,116.32,114.68,116.61,121.37,126.04,130.30,134.25,138.12,143.24,148.09,152.16,155.30,158.32,161.32,163.84,165.87,167.64,168.78,169.39,169.57,169.42,169.27,168.86,168.81,169.34,170.43,170.22,169.67,168.84,167.68,165.67,163.36,161.23,159.35,156.47,153.15,149.83,146.54,143.11,139.03,134.98,130.94,126.87,122.62,117.47,111.75,105.83,100.53,95.82,91.39,87.23,83.36,79.42,76.22,73.16,69.88,66.71,63.58,60.79,58.44,56.58,54.84,53.10
118.31,118.10,118.41,119.99,124.09,128.97,133.53,136.28,137.71,138.63,139.02,138.83,137.75,136.29,134.45,132.30,129.97,127.25,124.59,122.66,122.42,122.19,121.58,120.48,118.83,116.73,114.63,112.59,110.57,108.37,106.88,106.72,107.39,108.19,109.00,109.76,110.68,111.83,113.23,114.59,116.22,118.15,120.26,122.12,123.83,125.39,126.80,128.18,129.66,131.39,133.32,135.20,137.11,138.98,140.63,141.86,142.86,143.81,144.59,145.16,145.70,146.08,146.43,146.73,146.90,146.92,146.93,146.99,147.17,147.50,147.36,147.36,147.66,147.92,148.33,148.73,149.23,149.97,150.78,151.50,152.15,152.72,153.10,153.38,153.67,153.96,154.13,154.53,154.85,155.12,155.40,155.81,155.96,156.10,156.31,156.55,156.27,156.10,155.99,155.74,155.50,155.15,154.70,154.17,153.71,152.92,152.01,151.08,150.17,149.30,148.83,148.67,148.67,148.67,148.33,147.63,146.61,145.39,143.69,141.69,139.42,136.88,134.28,131.76,129.38,127.17,125.00,122.48,120.10,117.86,115.45,113.26,111.45,109.64,107.46,105.52,103.44,101.38,99.49,97.92,96.56,95.28,94.31,93.99,94.33,96.07,98.69,101.74,105.07,109.48,114.78,120.11,123.45,126.69,129.48,131.69,133.27,134.50,135.47,136.86,138.98,141.55,144.70,147.84,151.11,154.94,158.97,160.75,161.55,162.40,163.25,163.62,163.61,163.13,161.85,158.88,156.24,154.32,153.30,152.57,152.22,152.11,151.99,151.25,150.37,148.67,145.79,141.39,137.93,134.55,130.58,125.64,120.92,115.48,113.12,114.93,120.35,124.74,128.70,132.45,136.23,140.62,145.55,149.99,153.45,156.44,159.23,161.48,163.29,165.04,165.87,166.16,166.15,166.06,165.94,165.22,164.90,165.32,166.38,166.66,166.69,166.50,166.07,165.72,164.12,162.48,161.29,159.44,156.15,152.88,149.76,146.36,141.51,137.13,133.02,128.88,124.57,119.83,114.38,108.36,102.61,97.40,92.85,88.69,84.52,80.17,76.78,73.49,69.89,66.75,63.73,60.96,58.51,56.50,54.67,52.84
119.27,119.09,119.63,122.70,127.41,132.68,137.39,139.35,140.13,140.52,140.60,140.35,138.98,137.00,134.77,132.48,130.11,127.63,125.46,124.00,123.77,123.53,122.66,121.33,119.72,117.57,115.38,113.22,111.11,109.06,108.39,108.57,109.28,110.17,111.13,112.12,113.23,114.52,115.97,117.46,119.19,121.09,122.95,124.80,126.58,128.24,129.79,131.76,133.75,135.78,137.75,139.37,140.90,142.38,143.76,144.99,145.99,146.94,147.78,148.48,149.02,149.57,150.09,150.60,151.17,151.25,151.27,151.48,152.03,152.46,152.69,152.92,153.24,153.59,153.88,154.22,154.58,154.88,155.20,155.75,156.32,156.80,157.19,157.55,157.91,158.26,158.54,158.70,158.84,158.96,159.09,159.25,159.35,159.44,159.52,159.46,159.02,158.64,158.34,158.04,157.75,157.39,156.94,156.41,155.95,155.11,154.31,153.59,152.79,152.15,151.93,151.93,151.93,151.93,151.89,151.61,150.97,149.79,148.14,146.16,143.91,141.42,138.91,136.39,133.88,131.41,128.90,126.39,123.85,121.22,118.42,116.16,114.36,112.76,111.12,109.48,107.31,104.79,102.11,99.81,98.26,97.14,96.40,96.03,96.23,97.78,100.16,102.96,106.34,110.60,115.68,120.83,124.28,127.75,130.60,132.85,134.62,136.15,137.52,139.34,141.90,145.21,148.47,151.72,155.09,158.77,160.62,161.48,162.07,162.88,163.38,162.97,162.30,161.57,160.72,157.11,153.67,151.04,149.59,148.71,148.40,148.34,148.24,147.59,146.01,143.55,140.70,138.27,135.68,132.71,129.33,125.51,120.73,114.07,110.83,112.59,118.69,123.01,126.82,130.44,134.11,138.10,142.57,147.14,151.39,154.28,156.98,159.12,160.83,162.49,163.13,163.45,163.51,163.36,163.10,162.23,161.39,160.95,161.27,161.98,162.79,163.39,163.46,163.25,162.95,162.42,161.53,160.02,157.33,154.49,151.55,148.15,142.49,137.80,133.60,129.33,125.13,120.68,115.76,110.31,104.41,99.01,94.41,90.19,85.73,80.93,77.17,73.76,70.35,67.31,64.39,61.55,58.96,56.95,54.93,52.87
120.80,121.13,122.06,125.75,131.34,136.36,139.79,141.20,141.74,141.92,141.72,141.06,139.46,137.35,135.07,132.80,130.41,128.24,126.46,125.30,125.11,124.71,123.56,122.00,120.32,118.26,116.13,114.01,112.00,110.29,110.10,110.55,111.41,112.50,113.53,114.60,115.82,117.23,118.83,120.49,122.29,124.17,125.98,127.89,129.80,131.69,133.56,135.76,137.80,139.71,141.45,142.86,144.22,145.53,146.82,148.12,149.29,150.38,151.39,152.28,152.89,153.53,154.16,154.80,155.52,155.88,156.20,156.60,157.19,157.65,157.97,158.22,158.48,158.96,159.22,159.57,159.93,160.19,160.41,160.77,161.21,161.67,162.12,162.49,162.83,163.13,163.37,163.52,163.64,163.74,163.82,163.86,163.91,163.97,163.98,163.73,163.19,162.59,162.01,161.50,160.96,160.29,159.59,158.92,158.26,157.49,156.79,156.15,155.44,155.11,155.07,155.15,155.19,155.29,155.35,155.27,154.91,153.92,152.48,150.63,148.44,146.04,143.60,141.04,138.38,135.68,133.05,130.44,127.77,124.97,121.97,119.25,117.18,115.54,114.05,112.84,110.73,108.04,105.08,102.56,100.64,99.23,98.36,98.07,98.16,99.54,101.74,104.36,107.46,111.61,116.48,121.40,125.01,128.63,131.54,133.87,135.85,137.57,139.57,142.08,145.25,149.20,152.68,155.91,159.06,162.40,163.10,163.42,163.63,163.82,163.45,162.52,161.57,160.48,158.53,154.24,150.38,147.42,145.53,144.51,144.16,144.03,143.80,143.21,141.77,139.70,137.47,135.83,133.66,130.97,127.97,124.72,120.26,113.29,109.51,110.67,116.24,120.98,124.85,128.24,131.65,135.38,139.47,143.97,148.63,152.15,154.74,156.76,158.40,159.89,160.37,160.69,160.80,160.62,160.14,159.19,158.25,157.66,157.91,158.68,159.67,160.56,161.02,161.16,161.34,161.17,160.40,158.94,156.66,154.18,151.47,148.17,142.73,138.04,133.74,129.40,125.29,120.98,116.42,111.49,105.87,100.26,95.65,91.53,87.07,81.86,77.80,74.28,70.92,67.85,65.03,62.33,59.79,57.62,55.43,53.20
122.69,123.69,125.02,129.02,135.39,139.75,141.39,142.41,142.92,143.00,142.51,141.33,139.56,137.51,135.35,133.16,130.81,128.96,127.53,126.62,126.47,125.84,124.43,122.65,120.85,118.89,116.90,114.91,113.06,111.83,111.93,112.58,113.63,114.94,116.04,117.16,118.46,119.99,121.78,123.62,125.48,127.35,129.23,131.24,133.30,135.44,137.65,139.85,141.72,143.36,144.80,146.04,147.35,148.63,149.92,151.31,152.71,153.99,155.20,156.31,157.02,157.73,158.43,159.14,159.89,160.57,161.26,161.87,162.33,162.79,163.09,163.26,163.46,164.10,164.42,164.82,165.27,165.66,165.97,166.18,166.47,166.94,167.47,167.81,168.08,168.30,168.48,168.71,168.89,169.00,169.07,169.07,169.07,169.11,169.10,168.73,168.13,167.32,166.44,165.66,164.77,163.66,162.59,161.71,160.79,160.10,159.47,158.84,158.25,158.28,158.40,158.55,158.65,158.87,158.89,158.86,158.71,157.91,156.74,155.08,153.00,150.69,148.29,145.68,142.89,139.97,137.34,134.60,131.82,128.97,125.88,122.55,120.07,118.23,116.72,115.97,113.99,111.29,108.30,105.82,103.50,101.64,100.46,100.26,100.24,101.44,103.45,105.92,108.62,112.65,117.28,121.93,125.73,129.42,132.38,134.81,136.99,138.93,141.69,145.03,148.87,153.37,157.08,160.20,163.01,165.86,165.97,165.91,165.60,164.90,163.49,162.20,161.08,159.49,155.71,150.79,146.74,143.65,141.41,140.27,139.86,139.60,139.21,138.67,137.75,136.55,135.17,133.71,131.74,129.31,126.59,123.63,119.63,112.81,108.64,108.91,113.36,118.68,122.76,125.97,129.05,132.54,136.29,140.58,145.39,149.83,152.44,154.40,155.99,157.28,157.60,157.90,158.03,157.82,157.12,156.13,155.29,154.91,155.39,156.07,156.94,157.87,158.64,159.17,159.42,159.23,158.50,156.98,154.99,152.81,150.31,147.12,142.37,137.83,133.45,129.11,125.12,120.88,116.58,112.12,106.95,101.19,96.60,92.67,88.36,82.81,78.52,74.89,71.52,68.37,65.69,63.22,60.84,58.46,56.12,53.74
125.16,126.23,127.51,132.79,137.71,140.83,142.18,143.29,143.86,143.47,142.43,141.21,139.54,137.51,135.39,133.34,131.33,129.71,128.63,128.10,128.00,127.13,125.68,123.87,121.91,119.71,117.79,115.91,114.30,113.80,113.97,114.59,115.61,116.92,118.22,119.76,121.46,123.26,125.09,126.99,128.90,130.86,132.99,135.10,137.20,139.22,141.14,143.05,144.85,146.59,148.19,149.49,150.85,152.20,153.58,155.02,156.47,157.80,159.08,160.29,161.15,161.92,162.67,163.37,163.92,164.46,165.10,165.69,166.10,166.56,166.93,167.25,167.65,168.48,169.27,169.95,170.52,170.96,171.27,171.59,171.94,172.36,172.79,173.07,173.34,173.65,174.02,174.31,174.44,174.48,174.50,174.50,174.50,174.51,174.49,174.27,173.65,172.76,171.80,171.03,169.69,168.20,166.81,165.67,164.80,164.00,163.22,162.54,162.20,162.79,163.20,163.47,163.76,163.88,163.53,163.22,162.95,161.90,160.83,159.37,157.49,155.22,152.77,150.22,147.44,144.44,141.70,139.06,136.33,133.45,130.41,126.86,123.91,121.66,120.11,119.56,117.78,115.21,112.25,109.67,107.55,105.70,104.29,103.65,103.48,104.32,105.95,108.16,110.86,114.37,118.45,122.79,126.74,130.16,133.05,135.60,138.05,140.78,144.43,148.62,153.12,157.87,161.23,164.17,166.75,168.81,168.76,167.91,166.65,165.27,163.66,162.13,160.21,157.28,152.12,147.14,143.03,140.01,138.16,137.11,136.73,136.54,136.28,135.79,135.05,134.07,132.89,131.53,129.81,127.90,125.59,122.69,118.78,112.26,107.62,106.66,110.13,115.26,119.95,123.78,126.60,129.50,132.95,136.85,141.16,145.89,149.59,152.07,153.56,154.60,154.78,154.99,155.07,154.82,154.07,153.10,152.38,152.19,152.82,153.55,154.39,155.25,156.01,156.45,156.60,156.40,155.79,154.52,152.65,150.38,147.63,144.19,139.95,135.60,131.36,127.41,123.66,119.63,115.55,111.30,106.24,100.84,96.50,92.78,88.81,83.30,78.92,75.21,71.87,68.92,66.56,64.35,62.15,59.86,57.39,54.86
126.95,128.34,130.26,136.05,139.62,141.75,142.99,144.15,144.72,144.07,142.71,141.35,139.71,137.78,135.77,133.84,132.20,130.91,130.15,129.81,129.57,128.54,126.97,125.09,123.05,120.71,118.75,117.00,115.70,115.73,115.99,116.63,117.63,118.98,120.55,122.37,124.29,126.22,128.19,130.26,132.30,134.36,136.55,138.74,140.89,142.90,144.67,146.45,148.16,149.87,151.53,152.89,154.33,155.79,157.28,158.83,160.38,161.81,163.14,164.33,165.29,166.13,166.95,167.69,168.29,168.79,169.43,170.05,170.49,170.98,171.43,171.86,172.36,173.26,174.21,175.12,175.91,176.47,176.92,177.39,177.91,178.45,178.97,179.25,179.51,179.85,180.37,180.64,180.76,180.80,180.83,180.91,180.97,180.92,180.74,180.42,179.60,178.54,177.49,176.77,175.39,173.95,172.41,170.80,169.61,168.28,167.25,166.68,166.66,167.48,168.06,168.45,168.79,168.87,168.36,167.73,167.05,165.76,164.62,163.29,161.59,159.38,156.99,154.48,151.75,148.78,146.10,143.57,140.89,137.98,134.92,131.22,127.86,125.18,123.45,122.53,120.81,118.54,115.91,113.20,111.22,109.39,107.85,107.00,106.74,107.30,108.58,110.49,113.11,116.30,119.96,123.92,127.80,130.95,133.76,136.39,139.05,142.97,147.39,152.15,157.00,161.18,164.23,166.92,169.08,170.25,170.04,168.63,166.66,164.67,162.98,160.97,158.08,153.98,148.35,143.62,139.80,136.99,135.21,134.13,133.65,133.44,133.25,132.87,132.26,131.58,130.76,129.63,128.05,126.40,124.45,121.91,117.76,111.63,106.80,104.90,107.44,111.77,116.64,121.08,124.16,126.68,129.73,133.22,137.17,141.80,145.82,148.70,150.53,151.67,151.81,151.95,151.90,151.48,150.44,149.33,148.51,148.25,148.98,150.03,151.22,152.39,153.36,153.66,153.75,153.57,153.03,151.69,149.71,147.30,144.45,141.11,137.40,133.35,129.34,125.69,122.06,118.02,113.91,109.71,104.95,100.23,96.21,92.59,88.78,83.54,79.18,75.42,72.09,69.21,67.03,65.03,63.02,60.91,58.66,56.29
128.17,130.09,133.25,138.89,141.17,142.54,143.82,144.98,145.50,144.77,143.28,141.74,140.04,138.28,136.43,134.60,133.35,132.50,132.02,131.71,131.18,130.04,128.31,126.30,124.26,121.87,119.78,118.16,117.24,117.62,118.00,118.67,119.69,121.09,123.02,125.00,126.97,128.94,131.09,133.45,135.71,137.85,139.94,142.17,144.41,146.47,148.25,150.03,151.62,153.21,154.80,156.27,157.80,159.39,161.03,162.73,164.43,166.01,167.36,168.43,169.43,170.37,171.25,172.10,172.94,173.50,174.19,174.87,175.41,175.95,176.49,176.99,177.53,178.38,179.23,180.31,181.39,182.16,182.85,183.54,184.29,185.13,185.89,186.21,186.45,186.77,187.39,187.57,187.72,187.85,187.93,188.16,188.33,188.19,187.71,187.10,185.94,184.62,183.46,182.84,181.75,180.71,179.17,176.92,175.08,172.87,171.50,171.18,171.55,172.30,172.97,173.48,173.78,173.85,173.34,172.37,171.03,169.49,168.15,166.88,165.37,163.21,160.97,158.51,155.83,153.01,150.54,148.12,145.49,142.56,139.39,135.65,131.92,128.79,126.73,124.97,123.20,121.37,119.33,116.48,114.56,112.74,111.17,110.32,110.01,110.35,111.32,112.90,115.37,118.41,121.75,125.27,128.91,131.76,134.49,137.19,140.01,145.46,150.52,155.63,160.57,163.46,166.25,168.65,170.21,170.39,170.02,168.26,165.79,163.27,161.57,158.89,154.89,149.76,144.43,140.22,136.98,134.50,132.52,131.29,130.63,130.31,130.14,129.91,129.41,129.08,128.74,127.96,126.44,124.84,123.21,121.29,116.59,110.94,106.16,103.57,105.22,108.21,112.88,117.93,121.73,124.05,126.61,129.69,133.40,137.59,141.24,144.44,147.00,148.53,148.73,148.78,148.55,147.86,146.33,144.92,143.80,143.28,144.05,145.65,147.52,149.32,150.67,150.83,150.87,150.74,150.24,148.55,146.27,143.67,140.84,137.90,134.73,131.09,127.39,123.97,120.34,116.11,111.75,107.44,103.18,99.39,95.77,92.14,88.34,83.54,79.30,75.55,72.21,69.28,67.18,65.33,63.53,61.67,59.95,57.98
129.51,132.04,136.14,139.96,141.80,143.15,144.49,145.74,146.27,145.45,143.84,142.25,140.59,138.85,137.28,136.07,135.41,134.70,134.17,133.70,132.96,131.68,129.93,127.84,125.53,123.04,121.04,119.59,118.84,119.28,119.84,120.80,122.14,123.82,125.56,127.53,129.76,132.19,134.45,136.79,139.16,141.55,143.87,146.12,148.13,149.95,151.63,153.26,154.86,156.45,158.09,160.04,162.02,164.01,165.88,167.43,168.79,170.18,171.51,172.73,173.93,174.94,176.00,177.21,178.64,179.59,180.63,181.69,182.69,183.95,184.80,185.42,185.95,186.56,187.17,187.84,188.50,189.03,189.58,190.16,190.79,191.44,192.07,192.49,192.81,193.12,193.49,193.75,194.00,194.17,194.21,194.29,194.28,194.11,193.71,192.95,191.85,190.54,189.11,187.73,186.21,184.68,182.98,181.07,179.32,177.10,175.44,174.71,175.10,176.08,177.02,177.80,178.34,178.76,178.54,177.85,176.77,175.41,173.84,172.14,170.08,167.29,165.15,162.82,160.11,157.04,154.57,152.24,149.75,146.89,143.39,140.12,136.66,133.15,129.77,127.41,125.46,123.62,121.71,119.53,117.36,115.27,113.55,112.65,112.29,112.74,113.83,115.43,117.71,120.24,123.24,126.63,130.07,132.99,135.66,138.58,142.29,148.01,153.23,157.92,161.99,165.05,167.90,169.68,170.36,170.28,169.00,166.88,164.41,161.95,159.24,155.54,150.93,145.81,141.10,137.76,134.86,132.16,129.50,127.35,126.34,125.94,125.81,125.82,125.93,126.17,126.40,126.35,124.89,123.40,121.94,120.16,114.92,109.56,104.75,101.49,101.96,105.00,108.99,113.48,118.02,121.10,123.82,126.67,129.91,133.41,136.87,139.91,142.30,143.84,144.09,143.93,143.41,142.58,141.52,140.12,138.90,138.23,138.67,139.64,140.85,142.16,143.40,144.08,144.72,144.94,144.49,143.18,141.60,139.68,137.41,134.82,131.81,128.64,125.40,122.09,118.18,113.76,109.44,105.37,101.36,98.06,94.84,91.38,87.39,82.61,78.68,75.26,72.10,69.26,67.30,65.55,63.83,62.12,60.42,58.75
131.06,133.92,138.42,141.28,142.81,144.09,145.45,146.79,147.27,146.50,144.97,143.33,141.75,140.00,138.56,137.69,137.42,136.86,136.29,135.67,134.76,133.32,131.45,129.22,126.73,124.26,122.39,121.06,120.43,121.08,121.79,122.88,124.38,126.26,128.14,130.39,132.93,135.63,138.07,140.48,142.95,145.41,147.68,149.78,151.63,153.31,154.93,156.52,158.16,159.88,161.75,164.07,166.25,168.36,170.24,171.68,172.84,174.18,175.63,177.14,178.69,180.11,181.56,183.16,185.00,186.30,187.64,188.94,190.14,191.57,192.45,193.02,193.45,193.84,194.25,194.62,194.95,195.27,195.74,196.25,196.81,197.39,197.93,198.46,198.91,199.26,199.52,199.82,200.13,200.34,200.35,200.31,200.17,199.90,199.43,198.52,197.47,196.18,194.65,192.89,190.87,188.73,186.65,184.75,183.03,180.83,179.08,178.23,178.76,179.94,181.12,182.16,182.94,183.54,183.60,183.22,182.51,181.60,180.07,178.21,175.82,172.51,170.12,167.51,164.56,161.33,158.59,156.05,153.49,150.69,147.24,144.18,140.90,137.33,133.50,130.27,127.93,125.96,124.13,122.39,120.12,117.84,115.96,114.98,114.54,115.04,116.20,117.78,119.86,122.04,124.74,127.92,131.20,134.20,137.03,140.32,144.77,150.46,155.62,159.83,163.11,166.22,168.85,170.06,170.05,169.48,167.57,165.24,162.69,159.97,156.34,152.00,147.11,142.15,138.23,135.42,132.56,129.43,126.01,123.51,122.36,121.96,121.95,122.28,122.86,123.50,124.12,124.60,123.44,122.15,120.63,118.49,113.37,107.82,103.07,99.96,99.68,102.08,105.10,108.95,114.01,117.72,120.77,123.65,126.61,129.64,132.87,135.78,138.11,139.61,139.95,139.72,139.08,138.17,137.30,135.71,134.27,133.44,133.65,134.21,135.01,136.03,137.22,138.31,139.29,139.71,139.35,138.45,137.35,135.92,134.08,131.79,129.00,126.17,123.18,119.86,115.73,111.34,107.16,103.31,99.67,96.73,93.80,90.47,86.39,81.66,77.99,74.78,71.71,69.03,67.17,65.49,63.85,62.24,60.59,58.89
132.88,135.71,139.79,143.05,144.43,145.54,146.87,148.25,148.60,148.12,146.94,145.25,143.77,141.97,140.43,139.49,139.32,138.94,138.38,137.61,136.55,134.97,132.82,130.35,127.83,125.56,123.85,122.56,121.99,123.08,123.87,124.90,126.31,128.25,130.78,133.74,136.66,139.32,142.05,144.67,147.20,149.50,151.27,153.03,154.79,156.51,158.13,159.82,161.56,163.59,165.94,168.46,170.48,172.27,173.87,175.26,176.42,177.94,179.72,181.69,183.83,186.13,188.28,190.29,192.27,193.87,195.41,196.75,197.76,198.55,199.01,199.29,199.48,199.67,199.98,200.22,200.39,200.57,201.04,201.56,202.16,202.82,203.36,204.01,204.63,205.15,205.45,205.76,206.07,206.29,206.35,206.21,206.01,205.55,204.77,203.71,202.69,201.45,200.02,198.51,195.90,192.99,190.19,187.81,186.04,183.87,182.30,181.77,182.64,183.98,185.34,186.59,187.60,188.15,188.42,188.41,188.21,188.08,187.00,185.39,183.00,179.34,176.21,172.73,169.25,165.98,162.60,159.42,156.48,153.71,150.90,147.65,144.38,141.23,138.22,133.71,130.68,128.45,126.64,125.00,122.82,120.50,118.48,117.34,116.81,117.25,118.35,119.87,121.75,123.81,126.26,129.12,132.30,135.38,138.65,142.55,147.50,152.74,157.57,161.26,163.85,166.81,168.78,169.54,169.12,167.71,165.59,163.26,160.48,157.02,152.66,148.25,143.51,138.91,135.98,133.25,129.98,126.13,121.88,119.87,118.89,118.60,118.82,119.60,120.41,121.20,121.95,122.68,122.15,121.17,119.24,116.03,112.00,105.57,100.99,99.23,98.86,99.58,101.20,104.35,109.61,113.72,117.35,120.60,123.59,126.47,129.38,132.24,134.70,136.10,136.58,136.50,135.97,135.09,133.97,131.85,130.02,129.02,129.19,129.70,130.48,131.52,132.82,134.10,135.03,135.41,135.20,134.74,133.75,132.48,130.89,128.84,126.34,123.64,120.61,117.11,112.87,108.81,104.91,101.24,98.14,95.44,92.61,89.33,85.30,80.72,77.20,74.04,70.91,68.48,66.66,65.03,63.48,61.92,60.36,58.18
134.71,137.38,140.87,144.19,146.07,147.38,148.49,149.58,149.97,149.79,149.06,147.82,146.43,144.80,143.25,142.08,141.84,141.12,140.33,139.44,138.24,136.34,134.03,131.48,128.95,127.00,125.40,124.17,123.64,124.79,125.79,126.83,128.35,130.84,134.01,137.23,140.32,143.22,146.29,148.56,150.63,152.56,154.26,155.92,157.74,159.66,161.61,163.43,165.45,167.65,169.98,172.20,174.04,175.71,177.38,179.23,181.26,183.38,185.55,187.75,190.11,192.60,194.82,196.69,198.28,199.54,200.68,201.62,202.28,202.81,203.20,203.49,203.72,203.92,204.40,204.88,205.30,205.66,206.38,207.06,207.73,208.42,209.04,209.69,210.30,210.83,211.18,211.49,211.85,212.11,212.14,212.03,211.82,211.47,210.82,209.36,207.82,206.32,204.77,203.06,200.56,197.76,194.79,191.75,188.72,186.59,185.55,185.66,186.84,188.57,190.31,192.07,193.85,194.85,195.26,195.37,195.26,194.76,193.65,192.09,189.97,187.09,184.22,180.13,175.73,171.63,167.41,163.71,160.16,156.79,153.96,150.48,147.13,144.08,141.32,137.44,134.35,131.72,129.43,127.69,125.58,123.50,121.80,120.89,119.89,120.06,121.11,122.69,124.21,125.79,127.82,130.40,133.40,136.44,139.97,144.16,149.12,154.42,158.66,161.90,164.29,166.23,167.24,167.33,166.62,165.32,163.26,160.62,157.32,153.34,148.94,144.57,140.42,136.71,133.80,130.74,126.85,122.71,119.14,117.50,116.53,116.13,116.26,116.94,117.87,118.80,119.72,120.71,120.48,119.67,117.76,114.52,111.24,104.52,100.04,98.78,98.06,98.49,99.51,101.66,105.60,110.22,114.06,117.62,121.08,124.02,126.82,129.46,131.64,132.87,133.48,133.52,133.05,132.15,130.61,128.37,126.35,125.06,125.00,125.45,126.24,127.30,128.57,129.84,130.96,131.52,131.39,131.12,130.24,129.03,127.55,125.84,123.59,120.88,117.69,114.07,110.23,106.42,102.74,99.34,96.54,93.89,91.08,87.81,83.79,79.78,76.34,73.13,70.06,67.87,65.95,64.17,62.50,60.96,58.98,56.51
136.39,138.92,142.05,145.46,147.89,149.51,150.55,151.51,151.96,152.02,151.62,150.72,149.36,147.82,146.22,144.80,144.27,143.23,142.21,141.16,139.78,137.65,135.27,132.74,130.21,128.41,126.87,125.69,125.20,126.33,127.50,128.82,130.75,133.82,137.58,141.01,144.15,147.09,150.13,152.03,153.70,155.35,157.08,158.81,160.77,162.90,165.14,167.15,169.39,171.67,173.88,175.84,177.81,179.66,181.60,183.89,186.61,189.23,191.67,193.92,196.22,198.57,200.61,202.24,203.47,204.47,205.24,205.82,206.23,206.64,207.06,207.44,207.80,208.18,208.87,209.59,210.27,210.85,211.77,212.60,213.39,214.16,214.90,215.55,216.12,216.60,217.00,217.34,217.73,217.99,217.94,217.85,217.64,217.40,216.91,215.26,213.39,211.62,209.76,207.47,204.95,202.26,199.24,195.78,191.74,189.60,189.07,189.85,191.35,193.39,195.40,197.50,199.77,201.10,201.66,201.86,201.79,201.03,199.85,198.31,196.47,194.39,191.81,187.57,182.71,177.93,172.73,168.48,164.40,160.47,157.18,153.42,149.93,146.81,144.05,140.95,137.94,135.03,132.37,130.49,128.50,126.81,125.59,124.99,123.76,123.65,124.44,125.78,126.81,127.88,129.49,131.76,134.60,137.65,141.43,145.84,150.72,156.06,159.62,162.28,164.32,165.17,165.32,164.87,163.94,162.76,160.48,157.43,153.69,149.43,145.17,141.07,137.55,134.55,131.47,127.95,123.70,119.62,116.78,115.38,114.39,113.86,113.80,114.30,115.29,116.35,117.44,118.63,118.68,118.05,116.34,113.43,110.72,103.95,99.53,98.45,97.42,97.72,98.41,99.77,102.30,107.04,110.90,114.70,118.70,121.96,124.75,127.14,128.99,130.03,130.67,130.73,130.20,129.11,127.31,124.98,122.74,121.08,120.75,121.15,122.00,123.15,124.48,125.77,127.06,127.78,127.75,127.59,126.81,125.64,124.21,122.68,120.61,117.88,114.64,111.11,107.75,104.12,100.65,97.52,94.86,92.21,89.38,86.11,82.15,78.75,75.43,72.22,69.28,67.27,65.26,63.32,61.48,59.77,57.34,54.70
