117.37,121.78,123.17,123.40,122.42,120.09,116.54,112.28,107.56,103.83,101.73,101.79,103.12,105.28,107.95,111.02,114.91,119.07,124.00,128.94,132.31,134.39,135.24,134.65,132.52,129.23,124.94,120.17,117.07,121.28,126.46,132.67,139.51,146.36,151.44,155.04,157.68,159.45,159.36,157.50,153.98,149.43,145.06,141.76,141.32,144.16,149.91,153.12,156.24,159.17,161.89,164.37,166.87,170.21,174.55,179.85,180.38,180.48,179.99,178.59,174.87,172.00,169.61,167.00,162.93,158.65,154.46,150.71,147.63,144.71,141.25,136.73,131.63,128.14,125.63,123.34,121.54,120.75,120.14,119.71,119.33,118.91,118.40,118.05,117.29,115.98,114.07,112.26,110.60,109.20,108.13,107.00,105.84,104.72,103.70,102.79,101.90,101.04,100.22,99.43,98.60,97.79,97.14,96.70,96.07,95.54,94.92,94.14,93.17,92.49,91.78,91.05,90.36,89.71,89.05,88.45,87.92,87.43,86.95,86.44,85.94,85.52,85.15,84.71,84.22,83.67,83.05,82.47,82.06,81.80,81.56,81.32,81.02,80.66,80.27,80.04,79.89,79.83,79.81,79.69,79.56,79.42,79.30,79.19,78.85,78.99,79.54,80.49,82.29,82.80,82.48,81.45,79.73,77.58,75.33,73.01,70.67,69.70,69.10,68.61,68.09,67.49,67.01,66.55,66.08,65.62,65.35,65.20,65.07,64.91,64.84,64.60,64.28,63.92,63.61,63.32,63.07,62.83,62.58,62.35,62.07,61.80,61.55,61.32,60.99,60.66,60.35,60.04,59.75,59.50,59.27,59.03,58.80,58.57,58.33,58.14,58.18,58.33,58.44,58.54,58.72,58.93,59.10,59.27,59.42,59.42,59.37,59.18,58.87,58.52,58.72,59.01,59.33,59.67,60.16,60.90,61.75,62.64,63.59,64.63,65.37,65.77,65.85,66.00,66.14,66.20,66.10,65.66,65.26,64.87,64.45,64.01,63.62,63.22,63.08,63.41,64.19,64.96,65.74,66.51,67.19,67.65,68.24,69.20,70.74,70.10,68.96,67.79,67.10,68.26,69.74,71.03,72.13,73.29,74.45,75.69
113.61,118.38,120.13,119.63,118.04,115.34,111.67,107.44,103.39,100.53,99.40,100.42,102.36,105.12,108.21,111.38,114.94,118.68,122.94,127.26,130.67,132.53,132.89,131.65,128.88,125.40,120.71,116.30,114.46,120.40,125.93,131.76,137.86,144.08,149.16,152.71,155.13,156.52,156.15,154.04,150.49,146.18,142.31,139.79,140.10,143.23,148.64,152.56,156.10,159.38,162.35,164.79,167.23,170.86,175.43,180.29,180.60,180.63,180.31,179.32,176.02,173.49,171.56,169.64,166.68,162.14,157.69,153.76,150.57,147.54,143.64,138.52,132.77,128.83,126.47,124.57,123.11,122.23,121.55,121.08,120.66,120.21,119.73,119.47,118.91,117.80,115.90,114.01,111.61,109.51,108.42,107.15,105.85,104.67,103.67,102.75,101.82,100.90,100.04,99.30,98.64,98.01,97.54,97.22,96.61,96.22,95.66,94.82,93.70,92.67,91.62,90.69,90.04,89.39,88.65,88.00,87.46,86.92,86.36,85.77,85.20,84.70,84.25,83.77,83.26,82.71,82.09,81.47,81.00,80.70,80.53,80.33,80.08,79.80,79.52,79.41,79.33,79.27,79.22,79.06,78.91,78.74,78.56,78.40,78.13,78.31,78.73,79.23,79.93,79.91,79.27,78.06,76.36,74.37,72.60,71.02,69.55,69.12,68.66,68.21,67.76,67.21,66.73,66.36,66.06,65.75,65.58,65.51,65.47,65.41,65.24,64.96,64.63,64.28,63.93,63.62,63.36,63.12,62.86,62.63,62.36,62.10,61.86,61.57,61.22,60.87,60.54,60.23,59.89,59.63,59.39,59.16,58.93,58.70,58.51,58.42,58.50,58.62,58.73,58.86,59.01,59.21,59.40,59.62,59.86,59.92,59.73,59.43,59.13,58.94,59.16,59.42,59.70,60.00,60.57,61.33,62.15,63.01,63.91,64.88,65.70,66.22,66.33,66.46,66.60,66.63,66.45,66.02,65.60,65.20,64.80,64.37,63.95,63.55,63.55,64.20,64.97,65.72,66.47,67.24,67.98,68.59,69.59,71.13,73.21,72.48,71.20,69.57,67.97,67.92,68.99,70.23,71.43,72.59,73.78,75.05
110.15,114.77,117.25,115.91,113.78,110.98,107.52,103.25,100.04,98.20,98.03,99.72,102.44,105.55,108.80,112.04,115.28,118.65,122.19,125.82,129.38,130.89,130.71,128.89,125.64,121.87,116.49,112.49,112.25,119.61,125.49,130.88,136.13,141.53,146.43,150.05,152.24,152.95,152.19,150.21,146.85,142.78,139.33,138.09,139.05,141.92,146.31,151.46,155.75,159.56,162.87,165.26,167.65,171.56,176.21,180.28,180.65,180.71,180.44,179.63,177.08,174.81,173.04,171.60,170.12,165.35,160.76,156.76,153.51,150.34,145.84,140.19,134.05,129.31,127.18,125.80,124.75,123.83,123.05,122.55,122.09,121.53,120.92,120.72,120.38,119.53,117.73,115.72,112.43,109.50,108.40,107.09,105.79,104.67,103.76,102.88,101.98,101.02,100.11,99.43,98.98,98.59,98.27,97.99,97.39,97.16,96.76,96.04,94.95,93.50,91.93,90.62,89.88,89.17,88.38,87.69,87.16,86.63,85.96,85.27,84.61,84.06,83.51,82.96,82.40,81.83,81.20,80.58,80.08,79.76,79.67,79.51,79.30,79.10,78.94,78.79,78.69,78.61,78.51,78.36,78.20,78.00,77.80,77.64,77.41,77.58,77.93,78.18,77.54,76.94,75.92,74.46,72.84,71.22,70.10,69.42,69.05,68.66,68.22,67.80,67.42,66.98,66.53,66.30,66.22,66.14,66.07,65.99,65.94,65.90,65.59,65.28,64.97,64.64,64.26,63.94,63.68,63.42,63.12,62.89,62.65,62.42,62.16,61.78,61.45,61.10,60.74,60.42,60.04,59.76,59.53,59.29,59.06,58.83,58.72,58.74,58.82,58.90,59.02,59.18,59.33,59.48,59.71,59.98,60.27,60.39,60.02,59.60,59.35,59.43,59.66,59.89,60.12,60.38,61.01,61.80,62.65,63.50,64.35,65.20,66.05,66.68,66.84,66.92,67.05,67.03,66.77,66.39,65.94,65.52,65.14,64.75,64.29,63.88,64.02,65.02,65.80,66.52,67.25,68.02,68.79,69.75,71.39,73.58,76.00,75.01,73.55,71.66,69.53,68.14,68.40,69.41,70.72,71.89,73.12,74.41
108.27,112.74,114.47,112.84,110.53,107.64,104.28,100.70,98.09,97.27,98.08,100.11,103.08,106.25,109.50,112.74,115.99,119.23,122.40,125.40,128.07,128.45,127.57,125.65,122.82,118.21,113.40,110.66,111.73,119.39,125.43,130.88,135.86,140.43,144.84,148.15,149.90,149.90,148.41,146.69,143.75,140.30,138.13,136.99,137.89,140.35,143.93,149.78,155.31,159.71,162.87,165.26,167.61,171.04,175.06,178.76,179.92,180.27,180.05,179.37,177.76,175.93,174.15,172.46,170.83,167.19,162.80,158.56,155.17,152.00,147.31,141.70,135.76,130.57,128.88,127.54,126.30,125.42,124.60,124.01,123.47,122.88,122.26,121.73,121.18,120.46,119.36,116.35,112.49,109.35,108.21,107.01,105.84,104.85,104.11,103.71,103.18,102.36,101.51,101.03,99.84,99.33,99.08,98.78,98.38,98.18,97.86,97.23,96.05,94.49,92.89,91.39,90.13,89.27,88.71,88.23,87.76,87.38,86.81,86.13,85.41,84.76,84.12,83.39,82.62,81.81,81.03,80.34,79.85,79.54,79.30,78.99,78.73,78.52,78.37,78.16,78.05,77.92,77.75,77.65,77.46,77.27,77.08,76.87,76.64,76.47,76.38,76.30,75.47,74.31,72.83,71.35,70.67,69.98,69.36,68.88,68.60,68.21,67.85,67.55,67.33,67.13,66.94,66.81,66.73,66.66,66.58,66.50,66.41,66.29,65.98,65.62,65.29,64.97,64.64,64.28,63.97,63.69,63.44,63.21,62.93,62.65,62.36,62.02,61.67,61.32,60.98,60.62,60.28,59.98,59.72,59.49,59.25,59.02,58.93,59.00,59.13,59.22,59.34,59.48,59.58,59.79,60.13,60.51,60.79,60.57,60.14,59.81,59.68,59.81,60.04,60.24,60.45,60.77,61.44,62.17,62.97,63.82,64.67,65.52,66.37,67.03,67.29,67.36,67.46,67.39,67.09,66.71,66.25,65.92,65.63,65.13,64.67,64.29,64.54,65.73,66.61,67.39,68.15,69.08,70.68,74.04,76.54,78.00,78.63,77.73,76.15,74.17,71.96,69.63,68.67,68.90,69.98,71.25,72.49,73.81
106.79,110.62,111.75,110.02,107.52,104.49,101.18,98.01,96.28,96.56,98.31,100.70,103.79,106.97,110.20,113.48,116.95,120.14,122.73,124.66,126.03,125.88,124.66,122.60,119.76,114.97,110.96,109.69,112.22,119.59,125.48,130.77,135.49,139.63,143.49,146.59,147.88,147.04,145.16,143.44,140.96,138.21,136.54,135.97,137.01,139.08,141.90,148.10,154.21,159.06,162.38,164.68,166.97,169.97,173.35,176.53,177.72,178.19,178.19,177.79,176.63,175.36,174.07,172.76,171.39,168.52,164.40,160.07,156.47,152.90,148.02,142.58,137.11,132.42,130.39,128.85,127.60,126.75,125.88,125.17,124.49,123.78,123.08,122.32,121.59,120.85,119.98,116.22,112.26,109.28,108.13,107.10,106.33,105.67,105.14,105.04,104.75,104.70,104.73,104.54,103.28,102.57,101.93,101.09,100.27,99.74,99.21,98.49,97.33,95.93,94.51,92.97,91.25,89.91,89.24,88.80,88.41,88.13,87.64,86.99,86.26,85.57,84.82,84.00,83.12,82.20,81.35,80.59,79.99,79.56,79.25,78.92,78.60,78.33,78.12,77.81,77.60,77.36,77.08,76.92,76.70,76.51,76.34,76.11,75.85,75.38,74.89,74.47,73.49,72.30,70.98,69.85,69.65,69.44,69.17,68.90,68.68,68.32,68.00,67.75,67.59,67.51,67.43,67.34,67.24,67.17,67.09,67.01,66.88,66.67,66.33,65.98,65.64,65.33,64.99,64.63,64.31,64.01,63.72,63.49,63.20,62.88,62.55,62.24,61.89,61.56,61.24,60.87,60.54,60.22,59.92,59.65,59.44,59.21,59.15,59.26,59.39,59.49,59.63,59.77,59.91,60.19,60.61,61.00,61.21,60.82,60.39,60.10,60.01,60.16,60.39,60.57,60.80,61.19,61.89,62.58,63.33,64.13,64.95,65.80,66.65,67.35,67.73,67.81,67.87,67.75,67.41,67.03,66.62,66.36,66.12,65.55,65.04,64.71,65.05,66.34,67.37,68.22,69.32,71.07,74.23,77.91,80.22,81.14,81.05,80.40,79.05,77.25,75.09,72.11,69.77,68.93,69.45,70.58,71.86,73.23
105.69,108.43,109.07,107.45,104.72,101.52,98.21,95.19,94.60,96.05,98.69,101.46,104.55,107.70,110.90,114.25,118.17,121.38,123.17,123.65,123.34,123.18,121.98,119.73,116.48,112.13,109.11,109.51,113.65,120.18,125.63,130.55,135.03,139.10,142.38,145.35,146.17,144.35,142.42,140.44,138.45,136.48,134.56,135.04,136.37,138.08,140.18,146.43,152.51,157.65,161.45,163.55,165.77,168.36,171.10,173.64,174.14,174.60,174.95,174.98,173.82,173.21,172.87,172.54,171.81,169.40,165.58,161.33,157.44,153.07,148.02,142.86,138.14,134.83,131.71,129.76,128.69,127.84,126.91,126.05,125.18,124.27,123.43,122.52,121.64,120.74,119.67,115.39,111.75,109.28,108.15,107.36,107.22,107.09,106.82,106.82,106.67,107.97,109.64,109.85,109.13,108.12,106.68,104.80,103.00,101.81,100.79,99.80,98.79,97.77,96.75,95.33,93.18,91.06,89.98,89.43,89.13,88.89,88.45,87.85,87.16,86.46,85.62,84.77,83.89,82.97,82.12,81.27,80.47,79.82,79.51,79.27,78.89,78.49,78.17,77.72,77.32,76.91,76.48,76.17,75.93,75.75,75.57,75.34,75.03,74.31,73.46,72.67,71.59,70.87,70.29,69.87,69.71,69.55,69.49,69.42,69.26,68.95,68.64,68.37,68.16,68.08,68.01,67.89,67.75,67.68,67.60,67.52,67.36,67.04,66.66,66.33,66.02,65.70,65.32,65.00,64.69,64.36,63.98,63.75,63.46,63.12,62.74,62.43,62.12,61.81,61.50,61.19,60.81,60.48,60.14,59.78,59.62,59.41,59.37,59.50,59.58,59.73,59.88,60.06,60.29,60.67,61.12,61.45,61.53,61.14,60.75,60.45,60.33,60.48,60.71,60.89,61.16,61.64,62.33,63.03,63.73,64.44,65.21,66.06,66.91,67.66,68.18,68.26,68.28,68.12,67.73,67.35,67.02,66.84,66.62,66.00,65.39,65.13,65.56,66.87,68.10,69.03,70.75,73.92,79.31,81.39,82.51,83.08,83.29,83.04,82.23,80.87,78.88,75.50,71.65,69.46,69.11,69.90,71.25,72.69
104.51,106.72,106.16,104.73,102.15,97.99,93.48,92.40,93.53,95.87,98.85,101.86,104.95,108.10,111.28,114.35,116.69,117.26,117.22,116.83,116.16,116.85,117.12,115.99,112.95,109.76,108.54,110.39,115.19,121.44,126.65,131.20,135.37,139.43,142.11,144.17,144.39,142.51,140.48,138.27,136.18,134.37,133.05,134.41,136.09,137.89,140.00,145.78,151.39,156.03,159.43,161.65,163.60,165.89,168.23,170.10,170.80,171.26,171.53,171.58,171.03,170.83,170.92,170.90,170.01,168.51,165.65,162.06,158.32,153.68,148.38,142.94,137.88,134.31,131.18,129.34,128.38,127.53,126.65,125.79,124.92,124.04,123.15,122.26,121.37,120.33,118.82,115.39,112.28,109.98,108.78,108.39,108.36,108.43,108.48,108.48,110.01,112.16,113.79,113.51,112.62,111.78,110.94,110.03,108.70,107.57,106.21,104.59,102.97,101.18,99.50,97.67,95.45,93.06,91.32,90.37,90.07,89.84,89.32,88.68,87.98,87.23,86.38,85.53,84.67,83.80,82.95,82.14,81.42,80.79,80.15,79.72,79.33,78.98,78.67,78.25,77.82,77.37,76.93,76.57,76.24,75.93,75.60,75.18,74.73,74.12,73.43,72.75,72.04,71.45,70.91,70.46,70.26,70.15,70.11,70.04,69.83,69.53,69.22,68.94,68.74,68.66,68.58,68.43,68.27,68.19,68.11,67.94,67.68,67.37,67.03,66.68,66.35,66.03,65.69,65.34,65.01,64.69,64.35,64.03,63.71,63.39,63.06,62.75,62.44,62.13,61.82,61.51,61.17,60.82,60.44,60.02,59.77,59.61,59.62,59.77,59.89,60.09,60.26,60.44,60.68,61.01,61.44,61.79,61.91,61.52,61.14,60.86,60.74,60.80,61.03,61.21,61.52,62.08,62.78,63.47,64.17,64.87,65.60,66.39,67.22,68.01,68.63,68.71,68.66,68.46,68.11,67.67,67.50,67.35,67.07,66.45,65.79,65.61,66.14,67.45,68.73,70.63,73.29,76.68,80.61,82.56,84.02,85.04,85.41,85.60,85.27,84.29,82.52,79.54,75.74,72.07,69.58,69.89,71.18,72.61
103.23,104.85,103.47,102.00,98.74,94.24,90.14,90.43,92.77,95.73,98.93,102.09,105.01,107.97,110.80,113.20,114.17,113.32,112.42,111.69,110.86,111.64,112.55,112.21,109.81,107.76,108.27,111.46,116.80,122.61,127.59,131.87,135.81,139.78,141.92,143.03,142.63,140.74,138.52,136.11,133.91,132.31,131.82,133.79,135.78,137.71,139.86,145.06,150.23,154.41,157.38,159.54,161.24,163.24,165.30,166.95,168.07,168.65,168.90,168.95,168.57,168.15,167.86,167.49,166.56,166.04,164.67,162.19,158.48,154.00,148.59,142.94,137.64,133.76,130.71,128.99,128.12,127.27,126.42,125.57,124.72,123.86,122.95,122.11,121.26,120.24,118.75,116.03,113.49,111.44,110.16,110.38,110.76,111.47,112.37,112.77,114.90,116.91,117.88,116.96,115.82,115.02,114.65,114.56,113.73,112.62,110.99,108.92,106.72,104.34,102.06,99.74,97.24,94.60,92.79,91.87,91.64,91.37,90.63,89.74,88.84,88.03,87.18,86.31,85.46,84.63,83.84,83.10,82.48,81.90,81.05,80.53,80.05,79.60,79.18,78.81,78.39,77.94,77.51,77.12,76.74,76.34,75.89,75.35,74.81,74.27,73.69,73.07,72.61,72.08,71.56,71.12,70.87,70.79,70.76,70.67,70.44,70.15,69.83,69.54,69.33,69.24,69.16,69.00,68.82,68.70,68.58,68.34,68.02,67.69,67.38,67.03,66.68,66.36,66.05,65.67,65.31,65.00,64.76,64.37,64.03,63.71,63.40,63.07,62.76,62.45,62.14,61.83,61.52,61.16,60.75,60.30,60.03,59.90,59.92,60.06,60.21,60.45,60.66,60.85,61.08,61.37,61.78,62.13,62.29,61.91,61.54,61.29,61.16,61.13,61.35,61.54,61.89,62.53,63.23,63.92,64.62,65.31,66.01,66.76,67.56,68.35,69.05,69.15,69.03,68.79,68.47,68.08,68.02,67.87,67.52,66.90,66.21,66.10,66.67,67.87,69.13,71.61,74.84,78.37,81.30,83.33,85.23,86.75,87.50,88.04,88.05,87.42,86.03,83.46,79.80,75.41,71.60,70.97,71.44,72.58
101.79,102.68,101.13,99.27,94.00,90.19,89.13,89.76,92.44,95.63,98.93,102.08,104.55,107.03,109.00,110.13,110.21,110.08,109.94,109.66,108.87,108.46,108.61,108.42,107.28,106.32,108.39,112.77,118.50,123.58,128.35,132.51,136.32,140.09,141.79,141.94,140.93,139.03,136.47,133.87,131.64,130.36,131.01,133.17,135.37,137.49,139.68,144.13,148.95,152.81,155.39,157.16,158.68,160.39,162.33,164.47,166.28,167.16,167.54,167.60,166.62,165.03,163.13,161.41,160.68,161.20,162.12,161.40,157.51,153.82,148.51,142.83,137.53,133.41,130.46,128.86,128.05,127.20,126.35,125.50,124.65,123.80,122.94,122.15,121.40,120.67,119.92,117.62,115.70,114.05,112.65,113.86,115.15,117.19,119.78,121.22,122.10,122.44,121.93,120.22,118.73,117.77,117.52,117.88,117.49,116.24,114.47,112.25,109.56,106.96,104.26,101.37,98.25,95.36,94.40,94.22,94.18,93.81,92.62,91.15,89.77,88.86,88.01,87.11,86.25,85.48,84.84,84.20,83.68,83.18,82.33,81.90,81.20,80.39,79.69,79.38,79.00,78.60,78.21,77.82,77.44,77.01,76.53,75.99,75.45,74.91,74.31,73.65,73.19,72.66,72.19,71.81,71.51,71.48,71.43,71.31,71.08,70.84,70.49,70.18,69.96,69.82,69.73,69.60,69.43,69.21,69.00,68.72,68.38,68.01,67.70,67.39,67.04,66.68,66.37,65.99,65.56,65.25,65.21,64.82,64.44,64.09,63.77,63.40,63.08,62.77,62.46,62.15,61.84,61.48,61.06,60.63,60.46,60.30,60.28,60.38,60.53,60.82,61.07,61.30,61.53,61.77,62.12,62.48,62.68,62.29,61.96,61.73,61.58,61.45,61.67,61.89,62.29,62.98,63.67,64.37,65.06,65.76,66.46,67.16,67.91,68.69,69.44,69.58,69.41,69.11,68.82,68.63,68.60,68.40,67.96,67.35,66.65,66.61,67.13,68.05,69.16,71.53,74.76,78.37,81.30,83.69,86.01,88.07,89.55,90.29,90.42,90.12,89.33,87.11,83.67,79.72,75.99,73.73,72.20,72.61
99.65,100.60,98.69,96.44,91.90,88.86,88.32,89.54,92.26,95.45,98.74,101.76,104.16,106.22,107.91,109.09,109.22,109.17,108.88,108.35,107.58,106.88,106.67,106.30,105.47,106.61,109.55,114.00,119.37,124.28,128.89,132.72,136.06,139.35,140.93,140.82,139.54,137.47,134.84,132.22,130.38,129.66,130.35,132.53,134.77,136.97,139.24,143.12,147.33,150.86,153.41,155.15,156.57,158.34,160.48,162.88,164.69,165.55,166.02,166.21,164.80,162.96,160.84,158.77,157.30,158.09,159.60,159.65,156.58,152.71,148.06,143.51,139.48,136.29,131.50,129.02,128.20,127.35,126.46,125.60,124.73,123.86,123.13,122.47,121.84,121.22,120.60,119.45,118.62,118.08,117.86,119.00,121.12,123.73,126.28,127.54,127.91,127.35,125.81,123.26,121.56,120.54,120.30,120.67,120.36,119.26,117.46,114.94,111.67,108.43,104.65,101.01,98.24,96.48,96.53,96.91,96.90,96.27,94.80,92.97,91.16,89.74,88.81,87.94,87.17,86.52,85.91,85.42,85.00,84.52,83.71,83.41,82.80,81.96,81.08,80.45,79.82,79.30,78.91,78.53,78.14,77.69,77.17,76.63,76.09,75.52,74.91,74.27,73.77,73.23,72.82,72.51,72.20,72.18,72.10,71.95,71.72,71.48,71.17,70.85,70.60,70.45,70.36,70.21,69.99,69.67,69.36,69.05,68.71,68.33,68.02,67.68,67.33,66.98,66.59,66.16,65.84,65.67,65.65,65.27,64.88,64.49,64.11,63.76,63.45,63.14,62.82,62.47,62.16,61.80,61.43,61.10,60.91,60.71,60.63,60.69,60.85,61.14,61.43,61.69,61.92,62.15,62.47,62.83,63.11,62.73,62.40,62.18,62.02,61.82,62.00,62.27,62.73,63.43,64.12,64.82,65.51,66.21,66.90,67.60,68.32,69.05,69.77,69.92,69.77,69.50,69.26,69.18,69.17,68.92,68.44,67.95,67.34,67.01,67.22,68.08,69.08,71.31,74.54,78.28,81.29,83.82,86.33,88.62,90.39,91.40,91.75,91.57,90.89,89.34,86.52,83.07,79.52,76.60,74.19,73.47
97.39,98.51,96.20,93.64,90.39,88.12,87.60,89.31,91.99,95.18,98.46,101.37,103.64,105.38,106.96,108.39,108.78,108.62,108.04,107.22,106.44,105.67,105.20,104.73,104.32,107.05,110.24,114.66,120.09,125.04,129.40,132.78,135.61,138.49,139.91,139.58,138.10,135.90,133.35,130.90,129.52,129.28,129.89,132.05,134.26,136.45,138.67,141.84,145.42,148.68,151.32,153.14,154.49,156.38,158.80,161.47,163.12,163.98,164.53,164.76,163.18,161.28,159.19,156.99,154.80,155.17,156.56,157.22,155.62,151.43,147.65,144.37,141.62,139.34,132.75,129.32,128.37,127.51,126.58,125.73,124.90,124.10,123.50,122.95,122.41,121.88,121.39,121.35,121.59,122.17,123.09,124.21,126.90,129.70,131.86,132.78,132.91,131.83,129.54,126.18,124.30,123.28,123.04,123.31,122.90,121.81,119.91,117.11,113.27,109.28,104.50,100.34,98.24,97.82,98.77,99.58,99.56,98.64,96.88,94.80,92.68,90.87,89.80,88.87,88.15,87.62,87.05,86.68,86.33,85.86,85.14,84.95,84.48,83.72,82.73,81.82,80.89,80.14,79.62,79.23,78.83,78.35,77.81,77.27,76.72,76.12,75.50,74.89,74.35,73.83,73.45,73.19,72.90,72.87,72.76,72.57,72.34,72.11,71.84,71.53,71.24,71.10,71.00,70.82,70.52,70.12,69.71,69.36,69.02,68.65,68.33,67.96,67.60,67.23,66.77,66.36,66.18,66.14,66.10,65.71,65.33,64.91,64.47,64.14,63.82,63.51,63.18,62.81,62.49,62.13,61.81,61.58,61.36,61.13,61.00,61.01,61.17,61.46,61.77,62.07,62.32,62.55,62.82,63.19,63.53,63.15,62.85,62.63,62.45,62.22,62.34,62.66,63.18,63.87,64.57,65.26,65.96,66.65,67.33,68.03,68.72,69.40,70.07,70.25,70.13,69.91,69.73,69.73,69.72,69.46,69.02,68.64,68.09,67.48,67.35,68.09,69.01,71.01,74.15,78.02,81.20,83.85,86.48,88.90,90.84,92.10,92.76,92.73,92.01,90.97,88.86,85.95,82.58,79.28,76.40,74.71
95.17,96.35,93.64,91.03,88.87,87.37,86.97,88.73,91.37,94.66,98.08,100.97,102.75,104.35,105.93,107.42,108.10,107.64,106.91,106.13,105.36,104.59,103.88,103.75,104.60,106.83,108.95,113.75,120.86,126.16,129.93,132.70,135.14,137.90,138.82,138.05,136.34,134.21,131.96,130.23,129.20,129.03,129.95,132.02,134.13,136.11,137.87,139.86,142.87,146.03,148.86,150.89,152.16,154.14,156.86,160.06,161.51,162.61,163.21,163.16,162.02,160.11,157.89,155.56,153.27,151.70,152.01,153.39,154.53,150.30,147.53,145.23,142.98,140.85,133.80,129.83,128.48,127.57,126.64,125.86,125.26,124.81,124.26,123.71,123.17,122.76,122.77,123.27,124.28,125.51,126.72,128.58,131.17,133.56,135.31,136.23,136.45,135.44,132.96,128.87,126.89,125.91,125.68,125.82,125.01,123.36,121.16,118.20,113.88,109.07,103.89,100.00,98.94,99.61,100.96,101.92,101.94,100.72,98.63,96.40,94.32,92.66,91.34,90.10,89.19,88.72,88.35,87.98,87.60,87.19,86.66,86.48,86.14,85.52,84.59,83.72,82.59,81.38,80.32,79.93,79.49,78.99,78.45,77.91,77.31,76.69,76.08,75.47,74.93,74.49,74.10,73.78,73.60,73.53,73.37,73.14,72.91,72.68,72.48,72.21,71.89,71.80,71.66,71.40,71.02,70.57,70.06,69.65,69.29,68.97,68.59,68.21,67.80,67.36,66.90,66.72,66.69,66.68,66.55,66.16,65.78,65.35,64.91,64.53,64.16,63.83,63.51,63.19,62.82,62.48,62.19,61.97,61.80,61.58,61.40,61.33,61.49,61.78,62.09,62.42,62.77,63.00,63.20,63.51,63.85,63.53,63.27,63.08,62.90,62.67,62.69,63.05,63.63,64.32,65.02,65.71,66.41,67.09,67.72,68.41,69.07,69.70,70.33,70.61,70.51,70.34,70.24,70.24,70.19,70.07,69.86,69.54,68.89,68.21,67.87,68.15,69.08,70.53,73.34,77.32,80.84,83.71,86.44,88.92,90.90,92.26,93.52,93.86,92.95,91.76,90.37,88.03,84.83,81.33,78.45,76.56
93.17,94.27,91.65,89.33,87.54,86.47,86.48,88.32,90.64,93.82,97.34,100.50,102.08,103.64,105.22,106.73,107.57,106.68,105.71,104.91,104.14,103.37,102.87,103.22,104.76,106.74,108.53,113.68,121.70,127.49,130.61,132.97,135.15,137.57,137.52,136.33,134.61,132.75,130.75,129.36,128.78,129.10,130.31,132.16,134.05,135.83,137.44,138.85,140.76,142.83,144.96,147.22,149.07,151.45,154.39,157.74,160.02,161.43,161.98,161.69,160.69,158.81,156.57,154.18,151.83,149.99,149.90,151.40,153.61,149.88,147.41,145.17,142.85,140.87,134.35,130.27,128.51,127.55,126.93,126.43,125.99,125.56,125.02,124.48,124.22,124.27,124.60,125.27,126.55,128.21,130.07,132.46,135.01,137.20,138.77,139.52,139.75,139.08,137.06,133.18,130.53,129.05,128.42,128.13,126.76,124.58,121.90,118.53,113.81,108.86,104.03,100.93,100.93,102.00,103.21,104.11,104.22,102.39,99.95,98.08,96.83,95.99,95.31,94.67,94.09,93.56,92.74,91.21,89.71,88.59,88.23,88.06,87.85,87.37,86.47,85.27,83.78,82.26,80.98,80.59,80.14,79.65,79.11,78.50,77.89,77.27,76.65,76.04,75.50,75.11,74.74,74.42,74.30,74.18,74.00,73.76,73.53,73.30,73.10,72.84,72.53,72.45,72.25,71.91,71.47,70.97,70.47,70.00,69.57,69.19,68.77,68.38,67.95,67.53,67.23,67.20,67.25,67.22,67.00,66.61,66.20,65.77,65.35,64.96,64.58,64.20,63.84,63.53,63.14,62.86,62.62,62.39,62.20,62.01,61.81,61.69,61.81,62.10,62.43,62.78,63.13,63.39,63.60,63.88,64.18,63.91,63.70,63.50,63.31,63.12,63.04,63.41,64.02,64.68,65.37,66.04,66.70,67.36,68.02,68.68,69.31,69.94,70.59,70.96,70.92,70.78,70.70,70.63,70.53,70.40,70.23,69.99,69.41,68.77,68.29,68.21,69.03,70.03,72.48,76.37,80.10,83.05,85.92,88.60,90.83,92.33,93.83,94.72,94.61,93.37,92.20,90.13,87.11,83.56,80.15,77.99
91.25,92.22,89.90,87.98,86.24,85.54,86.17,88.12,90.04,92.99,96.54,99.95,101.50,103.05,104.64,106.18,107.13,105.82,104.56,103.67,102.86,102.10,102.02,102.91,104.84,106.72,108.53,114.06,122.73,128.85,131.32,133.34,135.33,137.25,136.15,134.64,133.02,131.43,129.66,128.46,128.39,129.33,130.81,132.42,134.04,135.62,137.13,138.25,138.99,139.73,140.86,143.16,145.68,148.54,151.71,155.12,158.46,160.17,160.64,160.20,159.20,157.40,155.21,152.84,150.46,149.00,148.87,150.23,152.61,149.73,147.26,144.70,142.06,140.10,134.65,130.73,128.60,127.61,127.39,127.21,126.88,126.33,125.78,125.29,125.41,126.02,126.59,127.34,128.71,130.74,133.34,136.14,138.69,140.77,142.23,142.72,142.91,142.67,141.37,138.16,134.83,132.74,131.48,130.52,128.40,125.62,122.33,118.38,113.33,108.63,104.61,102.57,103.56,104.71,105.58,106.32,106.51,104.16,101.56,100.14,99.80,99.96,100.15,100.33,100.24,99.66,98.33,95.62,92.86,90.82,90.36,89.96,89.73,89.29,88.24,86.60,84.74,82.98,81.62,81.22,80.77,80.30,79.77,79.08,78.46,77.84,77.23,76.62,76.09,75.73,75.38,75.07,74.99,74.84,74.63,74.40,74.17,73.94,73.71,73.44,73.18,73.09,72.80,72.39,71.91,71.37,70.90,70.39,69.88,69.42,68.94,68.52,68.10,67.74,67.68,67.74,67.82,67.76,67.44,67.06,66.61,66.18,65.80,65.41,65.02,64.59,64.17,63.86,63.48,63.25,63.07,62.84,62.60,62.43,62.24,62.07,62.13,62.42,62.78,63.14,63.45,63.76,64.02,64.28,64.51,64.29,64.13,63.93,63.72,63.56,63.40,63.75,64.35,64.97,65.67,66.30,66.93,67.56,68.25,68.88,69.51,70.16,70.87,71.34,71.37,71.27,71.19,71.05,70.88,70.67,70.44,70.27,69.83,69.25,68.69,68.32,68.97,69.59,71.69,75.40,79.24,82.18,85.17,88.10,90.68,92.30,93.87,95.34,96.37,95.36,94.24,92.28,89.41,85.87,81.76,79.25
89.17,90.28,88.19,86.37,84.64,84.74,86.64,88.74,90.64,93.29,96.34,99.19,100.73,102.36,104.05,105.69,106.84,105.61,104.07,102.70,101.59,100.92,101.37,102.72,104.67,106.80,108.69,115.03,124.75,129.84,131.72,133.41,135.05,136.29,135.04,133.67,132.14,130.48,128.76,127.98,128.40,129.74,131.32,132.88,134.45,135.77,136.66,137.43,138.21,139.02,139.89,140.80,142.66,145.49,149.13,153.26,156.11,157.71,158.32,158.10,157.15,155.68,153.76,151.53,149.30,147.66,147.79,149.04,150.49,149.29,146.97,144.23,141.39,138.53,134.66,131.52,129.45,128.51,128.39,128.16,127.73,127.09,126.49,126.40,126.77,127.48,128.30,129.53,131.50,134.06,136.99,139.94,142.48,144.42,145.60,145.70,145.85,145.79,144.97,142.70,140.45,138.50,136.49,134.04,130.45,126.51,122.17,117.36,112.00,108.17,105.82,105.26,106.62,107.78,108.64,109.18,109.17,107.81,106.33,104.63,103.39,103.60,103.50,103.24,103.06,103.04,102.74,102.19,100.72,98.46,96.22,93.96,92.74,91.51,89.19,87.40,85.50,83.70,82.25,81.80,81.34,80.85,80.29,79.65,79.04,78.42,77.80,77.20,76.77,76.35,76.01,75.76,75.63,75.48,75.27,75.04,74.81,74.58,74.35,74.10,73.87,73.74,73.31,72.84,72.37,71.88,71.37,70.87,70.39,69.91,69.28,68.72,68.35,68.21,68.25,68.32,68.36,68.26,67.89,67.50,67.06,66.63,66.24,65.86,65.42,65.00,64.61,64.24,63.91,63.70,63.51,63.28,63.05,62.84,62.64,62.50,62.46,62.74,63.10,63.46,63.77,64.08,64.37,64.64,64.84,64.72,64.57,64.37,64.16,64.01,63.80,64.00,64.48,65.10,65.80,66.43,67.08,67.74,68.38,69.05,69.73,70.46,71.32,71.89,72.06,72.08,72.10,72.06,71.78,71.45,71.11,70.79,70.38,69.76,69.15,68.80,69.17,69.64,71.57,75.04,78.68,81.52,84.44,87.43,90.29,91.91,93.56,95.19,96.67,97.38,96.66,94.69,91.72,88.23,83.84,80.54
86.65,87.89,86.12,84.48,83.70,84.68,87.12,89.37,91.26,93.59,96.13,98.46,100.09,101.79,103.54,105.24,106.53,105.29,103.60,101.98,100.58,100.07,100.88,102.50,104.49,106.73,108.97,116.11,126.55,130.55,132.08,133.55,134.79,135.22,133.94,132.63,131.19,129.55,127.83,127.68,128.58,130.13,131.76,133.12,134.39,135.43,136.13,136.83,137.65,138.50,139.25,139.59,140.68,142.89,146.31,150.87,153.66,155.27,155.95,155.86,155.05,153.82,152.20,150.32,148.49,146.84,146.70,147.48,148.42,147.96,146.10,143.59,140.78,137.81,134.94,132.42,130.52,129.54,129.47,129.13,128.56,127.88,127.45,127.64,128.18,129.06,130.43,132.10,134.48,137.51,141.04,144.19,146.64,148.38,149.35,149.27,149.32,149.31,148.79,147.24,145.46,143.26,140.50,136.99,132.16,127.23,122.09,116.67,110.97,108.18,107.19,107.76,109.57,111.23,112.34,112.90,112.88,112.15,111.40,109.60,107.57,106.78,106.19,105.85,105.83,106.15,106.50,106.94,106.22,104.09,100.86,97.45,94.78,92.32,89.47,87.78,86.04,84.33,82.88,82.39,81.89,81.36,80.78,80.19,79.60,78.99,78.38,77.78,77.40,76.97,76.64,76.42,76.27,76.09,75.89,75.68,75.45,75.22,74.99,74.75,74.52,74.28,73.81,73.31,72.82,72.36,71.85,71.37,70.89,70.39,69.78,69.16,68.78,68.68,68.81,68.89,68.89,68.72,68.34,67.95,67.51,67.08,66.69,66.27,65.84,65.42,65.02,64.66,64.43,64.22,64.00,63.76,63.50,63.27,63.06,62.89,62.79,63.06,63.42,63.78,64.09,64.40,64.71,64.99,65.21,65.16,65.02,64.82,64.61,64.46,64.23,64.28,64.63,65.23,65.93,66.56,67.20,67.87,68.51,69.18,69.86,70.60,71.45,72.31,72.81,73.04,73.12,73.17,72.88,72.51,72.12,71.73,71.21,70.39,69.63,69.26,69.41,69.89,71.74,74.92,78.12,80.72,83.60,86.67,89.70,91.48,93.33,95.29,97.29,98.76,98.57,97.24,94.80,91.10,86.35,82.26
83.77,85.17,83.78,82.39,83.27,85.21,87.60,90.00,91.89,93.89,95.91,97.76,99.54,101.31,103.09,104.81,106.20,104.88,103.15,101.45,99.75,99.48,100.50,102.27,104.29,106.53,109.32,117.25,128.17,131.04,132.42,133.75,134.55,134.07,132.84,131.55,130.16,128.65,126.88,127.52,128.89,130.52,132.14,133.17,133.97,134.72,135.57,136.42,137.27,138.12,138.88,139.26,139.51,140.64,143.31,148.06,151.15,152.85,153.54,153.53,152.91,151.84,150.55,149.20,147.96,146.43,145.60,145.62,146.37,145.91,144.78,142.83,140.24,137.76,135.43,133.38,131.77,130.69,130.62,130.10,129.37,128.69,128.61,128.98,129.61,130.72,132.88,134.97,137.61,141.07,145.40,148.80,151.07,152.56,153.37,153.29,153.22,153.14,152.79,151.78,150.00,147.24,143.72,139.49,133.62,127.82,122.07,116.26,110.16,108.56,108.69,110.11,112.44,114.98,116.53,117.29,117.42,117.03,116.71,114.95,112.22,109.60,108.36,108.21,108.58,109.07,109.76,110.27,109.88,108.15,104.52,100.54,96.08,92.01,89.23,87.84,86.39,84.88,83.51,82.97,82.43,81.84,81.24,80.70,80.16,79.57,78.95,78.36,77.97,77.58,77.28,77.06,76.91,76.68,76.50,76.32,76.09,75.86,75.62,75.39,75.14,74.75,74.30,73.79,73.27,72.81,72.34,71.88,71.39,70.85,70.39,69.80,69.34,69.15,69.38,69.47,69.40,69.17,68.78,68.40,67.95,67.53,67.13,66.66,66.27,65.84,65.42,65.11,65.02,64.79,64.51,64.27,63.96,63.71,63.48,63.27,63.11,63.38,63.74,64.10,64.41,64.72,65.03,65.33,65.60,65.60,65.47,65.27,65.06,64.90,64.67,64.60,64.80,65.36,66.05,66.69,67.31,67.94,68.63,69.26,69.92,70.62,71.33,72.64,73.62,74.13,74.22,74.37,74.13,73.78,73.40,73.01,72.25,71.12,70.13,69.70,69.70,70.30,72.13,74.99,77.54,79.82,82.66,85.86,88.93,91.02,93.16,95.58,98.19,99.66,100.09,99.90,98.47,94.38,89.18,84.29
82.01,82.46,81.39,81.08,82.70,84.98,87.38,89.63,91.34,93.17,95.37,98.07,99.75,101.43,103.13,104.73,105.58,104.27,102.60,100.97,99.37,99.05,100.25,102.59,105.54,107.43,110.11,118.24,129.29,131.01,132.25,133.35,133.82,133.05,131.97,130.82,129.44,127.82,126.49,127.66,129.25,130.71,131.84,132.75,133.55,134.34,135.19,136.04,136.88,137.73,138.50,138.94,139.19,139.84,141.64,145.38,148.47,150.20,150.97,151.07,150.70,149.99,149.08,148.01,146.87,145.62,144.63,144.04,143.88,143.42,142.68,141.44,139.77,138.24,136.26,134.49,133.19,132.61,132.38,132.24,131.53,130.13,129.86,130.73,131.89,133.36,135.62,138.09,141.83,146.18,150.37,153.47,155.56,157.11,158.20,158.37,158.15,157.61,156.61,154.91,152.25,148.88,144.77,139.93,134.45,128.75,123.36,118.32,113.40,112.15,112.80,114.64,116.93,118.94,119.80,120.06,120.00,119.77,119.55,118.61,116.69,113.62,111.45,110.95,111.26,111.70,111.90,111.35,110.07,107.82,104.04,99.62,94.69,90.60,88.65,87.21,85.98,84.97,84.20,83.61,83.02,82.42,81.82,81.28,80.69,80.11,79.55,79.00,78.61,78.22,77.92,77.70,77.55,77.32,77.11,76.89,76.66,76.48,76.26,76.01,75.72,75.38,74.89,74.39,73.89,73.38,72.92,72.42,71.92,71.42,70.91,70.39,69.93,69.64,69.77,70.08,69.95,69.55,69.17,68.73,68.31,67.89,67.45,67.04,66.61,66.18,65.85,65.74,65.66,65.46,65.19,64.91,64.60,64.35,64.10,63.81,63.51,63.72,64.03,64.35,64.67,65.02,65.35,65.65,65.93,65.97,65.85,65.68,65.49,65.29,65.11,64.95,65.04,65.54,66.14,66.79,67.43,68.07,68.76,69.34,69.90,70.51,71.27,72.63,73.83,74.77,75.36,75.47,75.39,75.12,74.78,74.54,73.69,72.56,71.63,71.29,71.24,71.10,72.23,74.68,76.93,79.04,81.74,84.87,88.05,90.97,93.70,96.41,98.97,100.10,100.56,100.55,99.87,98.04,93.04,88.02
79.98,79.97,79.32,80.04,81.99,84.31,86.62,88.66,90.26,92.13,94.70,98.29,100.12,101.77,103.36,104.76,104.92,103.59,101.99,100.38,98.82,98.53,99.96,102.96,107.01,108.97,111.54,118.89,128.89,130.86,132.02,132.89,133.11,132.23,131.29,130.20,128.75,127.06,126.28,127.81,129.49,130.77,131.56,132.37,133.17,133.97,134.80,135.65,136.50,137.35,138.13,138.59,138.88,139.28,140.41,142.94,145.93,147.59,148.44,148.83,148.70,148.28,147.65,146.81,145.75,144.67,143.62,142.73,142.11,141.60,141.03,140.23,139.22,138.30,136.87,135.66,134.86,134.55,134.31,134.46,133.94,132.45,132.12,133.04,134.33,136.00,138.60,142.12,146.60,151.23,155.21,158.34,160.43,162.05,163.21,163.18,162.53,161.41,159.72,157.29,153.85,149.89,145.32,140.20,135.16,129.94,125.14,120.90,117.25,116.48,117.38,119.16,121.02,122.40,122.61,122.43,122.21,121.89,121.68,121.11,119.74,117.01,114.63,113.75,113.52,113.25,112.70,111.26,109.08,106.15,102.37,97.60,92.92,89.44,88.07,86.90,85.98,85.34,84.90,84.31,83.69,83.07,82.47,81.91,81.29,80.76,80.22,79.66,79.23,78.87,78.58,78.36,78.19,77.96,77.74,77.52,77.30,77.12,76.89,76.62,76.33,76.02,75.53,75.03,74.53,73.99,73.52,73.00,72.49,72.02,71.48,71.00,70.55,70.23,70.35,70.69,70.48,69.98,69.55,69.08,68.68,68.26,67.81,67.42,66.97,66.55,66.29,66.37,66.32,66.13,65.86,65.55,65.26,65.00,64.70,64.34,63.93,64.07,64.33,64.64,64.95,65.31,65.64,65.96,66.25,66.35,66.23,66.08,65.91,65.70,65.54,65.34,65.34,65.75,66.27,66.91,67.56,68.19,68.86,69.36,69.82,70.38,71.23,72.62,73.96,75.18,76.18,76.52,76.64,76.47,76.13,75.93,75.20,74.22,73.44,73.21,73.04,72.43,72.74,74.27,76.32,78.33,80.85,83.93,87.47,90.93,94.01,96.89,99.45,100.40,100.95,101.12,100.91,100.37,96.62,91.82
77.59,77.80,77.69,79.34,81.08,83.06,85.15,86.89,88.52,90.68,93.85,98.37,100.69,102.40,103.85,104.95,104.22,102.85,101.29,99.67,98.05,97.91,99.62,103.38,108.79,111.34,113.79,119.11,126.50,130.55,131.71,132.36,132.44,131.66,130.87,129.71,128.11,126.39,126.30,127.98,129.57,130.67,131.31,132.02,132.82,133.63,134.42,135.27,136.12,136.97,137.74,138.21,138.59,139.06,139.75,140.83,143.57,145.02,145.99,146.88,147.00,146.75,146.29,145.61,144.60,143.52,142.53,141.76,141.27,140.66,140.00,139.29,138.56,137.84,137.18,136.92,136.84,136.53,136.44,136.78,136.70,135.91,135.74,136.11,136.97,138.65,141.89,147.36,152.09,156.17,159.91,163.48,165.82,167.49,168.43,167.61,166.17,164.33,161.92,158.70,154.61,150.08,145.23,140.26,135.71,131.48,127.55,124.17,121.90,121.76,122.55,123.67,124.56,125.20,124.81,124.30,123.93,123.21,122.87,122.09,120.91,119.56,117.92,116.64,115.22,113.38,111.75,109.62,106.54,102.74,99.16,94.13,90.67,88.61,87.46,86.98,86.53,86.09,85.61,85.07,84.46,83.84,83.22,82.61,81.99,81.53,81.02,80.35,79.82,79.52,79.29,79.06,78.83,78.60,78.41,78.23,78.00,77.77,77.49,77.21,76.96,76.66,76.21,75.70,75.16,74.62,74.16,73.64,73.13,72.66,72.12,71.64,71.21,70.95,71.17,71.29,70.99,70.46,69.93,69.47,69.06,68.64,68.19,67.80,67.35,66.93,66.72,67.01,67.01,66.80,66.50,66.19,65.95,65.66,65.29,64.84,64.38,64.42,64.65,64.96,65.27,65.58,65.89,66.23,66.58,66.73,66.62,66.46,66.31,66.15,65.99,65.78,65.74,66.01,66.48,67.07,67.69,68.31,68.93,69.29,69.66,70.24,71.23,72.62,73.96,75.29,76.59,77.51,77.89,77.81,77.44,77.15,76.79,76.17,75.67,75.55,75.19,74.46,73.78,73.74,75.69,77.69,80.01,83.06,87.28,90.89,94.01,96.91,99.52,100.52,101.24,101.58,101.49,100.95,99.83,95.71
75.18,76.13,77.14,79.00,80.77,82.77,84.90,86.60,88.19,90.69,94.43,99.46,101.17,102.70,103.89,104.44,103.33,101.99,100.50,98.91,97.28,97.33,98.99,102.78,108.57,111.67,114.34,118.20,123.52,129.47,130.83,131.40,131.54,131.14,130.45,129.03,127.21,125.62,126.26,128.09,129.65,130.67,131.33,132.02,132.74,133.46,134.19,134.96,135.76,136.58,137.37,137.87,138.35,138.84,139.36,139.98,141.65,142.85,143.93,144.98,145.31,145.14,144.77,144.23,143.44,142.37,141.56,140.97,140.46,139.37,138.69,138.22,137.91,137.77,137.77,137.99,138.30,138.46,138.68,139.10,139.41,139.47,139.70,139.85,140.97,143.35,147.01,151.80,156.45,161.13,165.96,169.59,172.82,174.43,173.99,171.83,169.16,166.36,163.21,159.33,154.56,149.99,145.51,141.13,137.37,133.68,130.17,127.30,126.07,126.47,127.15,127.74,127.97,127.70,126.98,126.10,125.16,124.09,123.35,122.46,121.37,120.13,117.86,115.65,113.53,111.34,107.94,104.93,102.02,98.99,95.52,91.93,89.81,88.72,88.05,87.70,87.29,86.85,86.37,85.78,85.17,84.58,83.99,83.37,82.84,82.41,81.91,81.27,80.73,80.34,80.02,79.76,79.53,79.29,79.11,78.92,78.64,78.37,78.07,77.81,77.60,77.29,76.85,76.34,75.80,75.26,74.80,74.28,73.77,73.30,72.81,72.30,71.90,71.72,72.00,71.78,71.37,70.85,70.31,69.85,69.41,68.99,68.57,68.14,67.68,67.38,67.34,67.65,67.65,67.44,67.13,66.83,66.55,66.22,65.79,65.29,64.83,64.78,64.97,65.28,65.59,65.89,66.23,66.60,66.95,67.11,67.00,66.85,66.69,66.54,66.38,66.20,66.13,66.26,66.72,67.24,67.80,68.35,68.84,69.21,69.58,70.19,71.29,72.63,73.96,75.30,76.66,77.84,78.68,79.05,79.03,78.80,78.50,78.19,77.96,77.85,77.38,76.65,75.78,75.08,75.43,77.16,79.11,81.91,86.49,90.54,93.73,96.51,99.02,100.32,101.15,101.83,102.16,101.58,100.82,98.14
73.40,75.04,76.94,78.89,80.79,82.88,85.07,86.89,88.47,91.38,95.54,100.45,101.61,102.94,103.83,103.86,102.57,101.28,99.79,98.13,96.41,96.81,98.48,102.14,107.87,111.51,114.41,117.24,120.99,127.79,129.34,129.98,130.28,130.38,129.75,128.23,126.36,124.90,126.15,128.12,129.67,130.68,131.37,132.06,132.70,133.36,134.06,134.75,135.49,136.28,137.03,137.50,137.98,138.43,138.84,139.21,139.97,140.92,142.01,143.09,143.57,143.50,143.21,142.78,142.20,141.22,140.50,139.94,139.32,137.87,137.18,137.04,137.29,137.84,138.47,139.08,139.68,140.32,140.89,141.38,141.95,142.64,143.35,143.67,145.13,147.90,151.49,155.41,160.22,165.62,171.13,174.83,178.38,179.74,178.36,175.27,171.61,167.95,164.12,159.78,154.69,150.26,146.24,142.51,139.46,136.21,133.03,130.55,129.95,130.62,130.96,130.88,130.39,129.18,127.96,126.75,125.55,124.25,123.28,122.39,121.36,119.96,116.93,113.91,111.11,108.39,103.93,100.61,98.13,95.93,92.85,90.70,89.61,89.16,88.83,88.51,88.07,87.60,87.11,86.51,85.89,85.31,84.74,84.16,83.74,83.32,82.83,82.23,81.71,81.23,80.84,80.54,80.30,80.06,79.83,79.58,79.26,78.93,78.64,78.41,78.23,77.93,77.49,76.98,76.44,75.90,75.44,74.93,74.42,73.95,73.48,72.97,72.61,72.49,72.70,72.22,71.73,71.24,70.72,70.25,69.79,69.35,68.94,68.48,68.02,67.85,67.98,68.28,68.29,68.08,67.77,67.44,67.12,66.73,66.26,65.74,65.27,65.12,65.27,65.58,65.90,66.21,66.58,66.97,67.32,67.49,67.38,67.23,67.07,66.92,66.77,66.61,66.50,66.52,67.00,67.47,67.97,68.45,68.84,69.21,69.59,70.23,71.41,72.72,74.04,75.40,76.80,78.14,79.34,80.16,80.51,80.39,80.12,80.01,79.97,79.85,79.38,78.71,77.84,76.83,75.85,76.95,78.43,80.95,85.54,90.09,93.32,95.94,98.33,100.01,100.98,101.94,102.66,102.32,101.53,100.01
73.06,75.09,77.14,79.13,81.36,83.60,85.80,88.01,89.67,93.11,97.35,100.84,101.99,103.14,103.70,103.36,102.17,100.94,99.31,97.34,95.27,96.43,98.39,101.76,106.77,110.95,113.96,116.60,119.72,125.00,126.67,127.60,128.32,129.04,128.36,127.22,125.70,124.37,125.91,127.97,129.60,130.68,131.37,132.01,132.67,133.36,134.06,134.75,135.46,136.17,136.79,137.01,137.29,137.61,137.92,138.18,138.64,139.37,140.26,141.18,141.71,141.81,141.61,141.22,140.79,140.05,139.18,138.30,137.41,136.00,135.33,135.61,136.74,138.07,139.32,140.25,141.06,142.05,142.97,143.56,144.12,144.88,146.13,147.45,149.20,151.38,153.78,157.41,163.01,168.98,173.76,177.71,179.99,180.70,179.81,176.97,173.02,168.82,164.49,160.10,155.55,151.49,147.91,144.79,142.14,139.24,136.41,134.15,133.35,133.68,133.17,132.00,130.53,128.38,126.18,124.78,124.15,122.91,122.15,121.48,120.51,118.81,115.19,111.82,108.21,104.14,100.52,98.24,96.41,94.64,92.59,91.24,90.48,90.03,89.66,89.29,88.80,88.30,87.82,87.27,86.66,86.05,85.48,84.99,84.71,84.27,83.74,83.20,82.72,82.25,81.84,81.49,81.26,80.97,80.60,80.20,79.83,79.46,79.23,79.03,78.81,78.56,78.13,77.62,77.08,76.54,76.08,75.60,75.11,74.59,74.12,73.65,73.36,73.25,73.11,72.60,72.11,71.64,71.16,70.70,70.24,69.78,69.33,68.86,68.40,68.34,68.61,68.92,68.93,68.72,68.39,68.01,67.64,67.21,66.71,66.19,65.72,65.44,65.52,65.85,66.22,66.53,66.90,67.29,67.65,67.87,67.77,67.61,67.46,67.30,67.15,66.99,66.85,66.78,67.30,67.83,68.30,68.71,69.10,69.42,69.79,70.44,71.66,72.97,74.33,75.75,77.20,78.64,79.90,80.98,81.69,81.66,81.49,81.38,81.29,81.14,80.92,80.42,79.72,78.84,77.72,77.48,78.28,80.49,84.46,89.51,92.69,95.11,97.43,99.56,100.76,101.79,102.70,103.30,102.41,101.14
72.91,75.28,77.66,79.75,82.05,84.36,86.61,88.74,91.27,95.04,98.79,100.98,102.07,103.12,103.46,102.82,101.77,100.56,98.77,96.55,94.36,96.38,98.75,102.01,106.55,110.62,113.43,115.86,118.49,122.20,124.17,125.49,126.41,127.09,126.43,125.46,124.50,124.05,125.75,127.87,129.56,130.67,131.33,131.98,132.64,133.31,134.01,134.70,135.34,135.86,136.15,135.98,136.20,136.47,136.74,137.01,137.40,138.07,138.75,139.31,139.81,139.96,139.60,138.92,138.31,137.59,136.96,136.24,135.22,133.97,134.13,135.26,137.03,138.90,140.31,141.29,142.05,142.84,143.73,144.42,145.16,146.16,147.73,149.19,151.13,153.51,155.93,159.60,165.11,170.78,175.06,178.90,180.68,181.14,180.50,178.33,174.35,169.92,165.39,160.99,156.91,153.27,150.01,147.08,144.50,141.63,138.97,136.74,135.09,134.03,132.69,130.94,128.68,126.21,123.96,122.69,122.36,121.56,120.89,119.87,118.37,116.30,112.81,109.64,106.11,102.01,99.27,97.46,95.90,94.34,92.78,91.98,91.48,91.12,90.77,90.35,89.67,89.03,88.53,88.03,87.42,86.85,86.36,86.00,85.73,85.25,84.70,84.20,83.74,83.28,82.85,82.48,82.18,81.80,81.37,80.92,80.50,80.04,79.81,79.63,79.43,79.16,78.75,78.26,77.73,77.23,76.76,76.27,75.77,75.27,74.81,74.31,74.01,73.85,73.51,73.02,72.54,72.08,71.61,71.15,70.68,70.24,69.80,69.30,68.86,68.87,69.22,69.56,69.57,69.33,68.96,68.54,68.11,67.66,67.16,66.63,66.17,65.78,65.83,66.15,66.50,66.84,67.22,67.60,67.97,68.24,68.15,68.00,67.84,67.69,67.53,67.35,67.22,67.22,67.76,68.30,68.77,69.15,69.54,69.89,70.24,70.80,71.82,73.21,74.63,76.05,77.49,78.96,80.20,81.43,82.49,82.92,82.79,82.66,82.55,82.43,82.27,81.82,81.22,80.46,79.34,78.55,78.69,80.28,83.80,88.76,91.92,94.28,96.48,98.61,100.10,101.35,102.47,103.50,103.15,102.12
72.96,75.67,78.43,80.51,82.76,85.03,87.22,89.13,92.44,96.46,99.81,101.03,102.03,102.99,103.15,102.29,101.37,100.13,98.14,95.73,93.66,96.50,99.27,102.54,106.74,110.41,112.95,115.17,117.42,119.76,121.91,123.48,124.45,124.89,124.38,123.65,123.38,123.98,125.75,127.87,129.55,130.65,131.28,131.97,132.61,133.26,133.95,134.61,135.12,135.39,135.32,134.79,134.98,135.23,135.49,135.81,136.19,136.83,137.30,137.44,137.88,137.95,137.35,136.30,135.41,134.68,134.42,134.03,133.04,132.13,133.26,135.25,137.52,139.67,141.02,141.91,142.49,142.91,143.63,144.38,145.35,146.67,148.49,149.94,152.14,155.02,157.80,161.69,166.82,171.90,175.79,179.40,181.00,181.38,180.90,179.55,175.89,171.48,166.85,162.45,158.69,155.37,152.32,149.40,146.72,143.71,140.97,138.47,135.80,133.18,131.06,128.86,126.00,123.41,121.41,120.34,120.10,119.73,119.01,117.53,115.49,113.30,110.30,107.52,104.38,100.79,98.86,97.32,95.85,94.45,93.28,92.88,92.60,92.33,92.03,91.58,90.71,89.88,89.30,88.78,88.20,87.69,87.31,87.08,86.76,86.25,85.70,85.22,84.76,84.30,83.88,83.49,83.04,82.58,82.11,81.64,81.16,80.63,80.37,80.21,80.03,79.74,79.36,78.88,78.37,77.91,77.43,76.92,76.42,75.95,75.49,74.97,74.61,74.37,73.90,73.44,72.98,72.51,72.06,71.60,71.13,70.70,70.28,69.75,69.36,69.41,69.79,70.19,70.22,69.95,69.51,69.03,68.57,68.10,67.60,67.08,66.62,66.15,66.16,66.46,66.78,67.16,67.55,67.94,68.31,68.62,68.53,68.38,68.22,68.07,67.91,67.70,67.59,67.73,68.28,68.82,69.27,69.64,70.01,70.41,70.77,71.24,71.98,73.42,74.88,76.32,77.72,79.18,80.42,81.79,83.15,84.13,84.06,83.91,83.79,83.70,83.54,83.10,82.57,81.94,80.86,79.85,79.39,80.28,83.38,87.94,91.06,93.41,95.47,97.46,99.18,100.69,102.04,103.31,103.76,103.07
73.65,76.81,79.79,81.38,83.36,85.17,86.75,88.50,90.76,95.12,99.43,101.03,101.98,102.71,102.70,101.85,100.98,99.45,97.12,94.72,93.63,96.78,99.82,103.24,107.38,110.42,112.78,114.93,117.03,119.02,120.56,121.55,122.14,122.54,122.67,122.98,123.64,124.74,126.46,128.28,129.66,130.60,131.27,131.97,132.61,133.26,133.93,134.34,134.53,134.53,134.31,133.83,133.80,133.98,134.29,134.66,134.99,135.51,135.75,135.57,135.86,135.49,134.61,133.43,132.29,131.83,131.86,131.85,131.39,131.46,132.89,135.08,137.49,139.15,140.09,140.67,141.01,141.19,141.55,142.17,143.34,145.17,147.23,149.43,152.41,155.85,158.63,163.04,167.87,172.41,176.10,179.62,181.15,181.56,181.28,180.62,178.57,174.84,170.18,165.77,161.66,158.11,154.90,151.85,148.82,145.47,141.68,137.72,134.31,131.27,128.47,125.69,122.73,119.95,118.05,116.90,116.27,115.55,114.40,112.85,111.30,110.29,108.28,105.87,103.10,100.27,98.84,97.42,95.98,94.77,94.44,94.27,94.03,93.76,93.50,93.15,92.27,91.26,90.34,89.53,89.03,88.65,88.33,88.10,87.73,87.27,86.76,86.25,85.78,85.32,84.93,84.50,83.70,83.22,82.72,82.20,81.68,81.19,80.87,80.65,80.49,80.30,79.89,79.42,78.94,78.48,77.96,77.47,76.99,76.53,76.06,75.58,75.15,74.75,74.29,73.82,73.36,72.91,72.51,72.04,71.58,71.12,70.67,70.19,69.89,69.96,70.32,70.76,70.94,70.62,70.05,69.48,69.02,68.51,68.01,67.53,67.06,66.60,66.54,66.79,67.16,67.55,67.93,68.32,68.69,69.00,68.92,68.76,68.61,68.45,68.24,68.02,67.97,68.25,68.85,69.35,69.73,70.00,70.27,70.75,71.28,71.78,72.23,73.52,74.94,76.40,77.84,79.25,80.70,82.25,83.81,85.14,85.27,85.19,85.07,84.98,84.77,84.39,83.96,83.41,82.33,81.32,80.54,80.88,83.43,87.10,90.01,92.34,94.30,96.20,97.78,99.41,101.07,102.53,103.98,104.17
73.71,76.89,79.63,81.03,82.89,84.52,85.92,87.71,89.56,94.03,98.83,100.95,101.82,102.36,102.24,101.45,100.63,98.71,96.00,93.62,93.53,96.85,100.22,103.88,107.94,110.60,112.70,114.63,116.53,118.42,119.82,120.61,121.09,121.65,122.25,123.03,124.09,125.46,127.16,128.59,129.68,130.49,131.16,131.85,132.48,133.06,133.61,133.80,133.84,133.66,133.29,132.83,132.63,132.75,133.09,133.47,133.78,134.04,134.01,133.69,133.74,132.96,132.08,131.23,130.38,130.19,130.35,130.52,130.47,131.05,132.51,134.44,136.44,137.76,138.55,138.99,139.24,139.50,139.82,140.49,141.80,143.82,146.13,148.64,152.00,155.89,159.24,163.77,168.32,172.47,175.94,179.15,180.83,181.48,181.45,181.18,180.18,177.34,173.20,168.82,164.76,160.93,157.37,154.04,150.69,146.63,142.05,137.38,133.46,130.05,126.87,123.80,120.72,117.47,115.05,113.49,112.66,112.02,111.09,109.88,108.75,108.18,106.74,104.60,102.20,100.00,98.88,97.61,96.41,95.56,95.56,95.51,95.39,95.20,94.94,94.66,93.82,92.77,91.73,90.89,90.34,89.91,89.55,89.20,88.75,88.30,87.80,87.27,86.77,86.26,85.87,85.57,85.06,84.51,83.85,83.12,82.38,81.76,81.38,81.27,81.42,81.60,80.88,80.07,79.36,78.86,78.35,77.87,77.41,76.95,76.52,76.11,75.64,75.13,74.63,74.17,73.70,73.26,72.84,72.37,71.93,71.49,71.02,70.56,70.40,70.54,70.89,71.30,71.59,71.29,70.66,70.00,69.44,68.92,68.44,67.97,67.51,67.02,66.91,67.12,67.50,67.89,68.28,68.66,69.04,69.38,69.30,69.13,68.94,68.76,68.53,68.40,68.49,68.87,69.46,69.83,70.11,70.34,70.57,71.03,71.59,72.16,72.63,73.66,74.98,76.40,77.77,79.13,80.62,82.29,84.06,85.76,86.38,86.49,86.37,86.25,86.02,85.72,85.38,84.89,83.83,82.85,81.93,81.67,82.79,85.87,88.60,90.91,92.78,94.49,96.02,97.76,99.67,101.48,103.36,104.43
73.36,76.27,78.48,79.87,81.71,83.41,84.96,86.90,88.78,93.19,98.12,100.81,101.59,101.96,101.78,101.08,100.31,97.90,94.78,92.47,93.36,96.77,100.51,104.47,108.44,110.90,112.69,114.32,116.00,117.93,119.50,120.34,120.89,121.74,122.67,123.54,124.66,126.16,127.83,128.81,129.62,130.35,130.96,131.65,132.24,132.71,133.07,133.07,133.07,132.80,132.28,131.81,131.48,131.54,131.87,132.26,132.55,132.47,132.17,131.81,131.58,130.46,129.75,129.52,129.29,129.36,129.54,129.78,130.06,130.85,132.17,133.56,134.81,135.87,136.67,137.09,137.39,137.95,138.43,139.30,140.69,142.69,145.19,147.71,151.14,155.37,159.63,164.02,168.32,172.20,175.40,178.18,180.13,181.18,181.44,181.38,181.04,179.21,175.94,171.65,167.88,163.76,159.73,156.02,152.38,147.43,142.28,137.38,133.13,129.38,126.01,122.83,119.61,115.74,112.38,110.20,109.32,109.00,108.69,108.06,107.27,106.65,105.50,103.59,101.56,99.90,98.98,97.87,97.05,96.64,96.64,96.64,96.69,96.64,96.34,96.11,95.36,94.37,93.36,92.67,91.97,91.41,90.92,90.38,89.83,89.33,88.82,88.28,87.74,87.14,86.76,86.67,86.83,86.21,85.34,84.32,83.25,82.40,81.95,82.06,82.68,83.36,82.18,80.79,79.68,79.13,78.66,78.20,77.73,77.28,76.89,76.57,76.10,75.50,74.96,74.49,74.02,73.56,73.10,72.63,72.22,71.80,71.34,70.88,70.89,71.14,71.51,71.82,72.20,71.95,71.32,70.56,69.86,69.35,68.88,68.42,67.96,67.43,67.26,67.43,67.82,68.21,68.59,68.98,69.37,69.78,69.71,69.49,69.25,69.02,68.79,68.82,69.11,69.59,70.14,70.30,70.45,70.67,70.89,71.26,71.79,72.43,73.12,73.82,75.00,76.32,77.56,78.88,80.31,82.06,84.06,86.14,87.42,87.79,87.69,87.53,87.30,87.07,86.80,86.36,85.36,84.43,83.51,82.62,81.81,84.41,86.96,89.20,91.01,92.47,94.01,95.86,97.98,100.22,102.18,104.12
73.14,75.44,77.20,78.54,80.92,83.66,86.34,88.48,90.78,94.51,98.34,100.56,101.33,101.67,101.48,100.84,100.17,96.51,92.90,91.07,92.95,96.62,100.55,104.73,108.99,111.20,112.95,114.62,116.34,118.01,119.48,120.49,121.29,122.19,123.11,124.02,125.17,126.59,127.73,128.58,129.36,130.08,130.65,131.24,131.66,131.96,132.17,132.23,132.24,132.00,131.50,130.99,130.47,130.43,130.69,130.97,130.97,130.77,130.49,130.22,130.09,129.57,129.15,128.92,128.84,129.01,129.29,129.64,130.10,131.49,132.98,134.12,134.84,135.41,136.16,137.05,138.04,139.04,139.96,141.24,142.74,144.34,145.76,147.35,149.97,153.74,158.40,162.67,166.85,170.54,173.41,175.98,178.04,179.51,180.36,180.64,180.55,179.23,176.69,173.18,169.76,165.67,161.40,157.28,153.55,149.15,144.37,139.54,135.24,131.11,127.45,124.00,120.49,116.43,112.26,109.57,108.65,108.13,107.75,107.05,106.12,105.24,104.24,102.69,101.18,100.10,99.23,98.41,97.94,97.78,97.73,97.73,97.78,97.79,97.69,97.50,96.88,96.10,95.35,94.71,94.02,93.40,92.82,92.23,91.44,90.59,89.81,89.17,88.58,88.09,87.76,87.65,87.91,87.71,87.32,86.62,85.55,84.65,84.04,83.99,84.47,84.76,83.39,81.80,80.41,79.51,79.04,78.58,78.12,77.66,77.27,76.99,76.58,76.00,75.41,74.89,74.38,73.88,73.42,72.95,72.51,72.08,71.68,71.32,71.46,71.75,72.09,72.45,72.84,72.53,71.85,71.13,70.44,69.81,69.27,68.81,68.40,67.96,67.69,67.67,68.01,68.40,68.82,69.24,69.73,70.83,70.65,70.08,69.50,69.27,69.14,69.31,69.87,70.81,71.40,71.39,71.26,71.20,71.23,71.54,72.04,72.67,73.31,73.96,74.81,75.87,77.12,78.43,79.70,81.95,84.72,86.65,88.31,88.95,88.99,88.88,88.64,88.41,88.17,87.78,86.82,86.08,85.42,84.66,83.63,83.61,85.07,87.05,88.89,90.25,91.94,93.93,96.13,98.37,100.71,102.78
73.20,75.21,76.88,78.43,81.95,85.51,88.37,90.33,92.85,96.00,98.86,100.42,101.12,101.37,101.17,100.53,99.54,95.27,91.44,89.93,92.75,96.60,100.69,105.07,109.54,111.51,113.22,114.94,116.68,118.32,119.69,120.78,121.71,122.63,123.56,124.45,125.50,126.70,127.52,128.30,129.05,129.72,130.21,130.64,130.93,131.14,131.31,131.41,131.40,131.19,130.81,130.33,129.75,129.50,129.54,129.72,129.64,129.39,129.13,128.94,128.86,128.69,128.54,128.48,128.62,128.92,129.29,129.91,130.96,132.94,134.56,135.60,136.06,136.30,136.84,137.87,139.23,140.67,142.02,143.55,145.10,146.50,147.23,148.06,149.67,152.48,157.07,160.71,164.41,167.85,170.70,173.32,175.36,176.94,178.09,178.74,179.09,178.50,176.84,174.08,171.02,167.03,162.61,158.21,154.38,150.35,145.98,141.46,137.25,132.85,128.84,125.09,121.38,117.11,112.43,109.38,108.36,107.60,107.00,106.23,105.32,104.41,103.58,102.43,101.36,100.60,99.75,99.13,98.85,98.86,98.87,98.92,98.99,99.05,99.09,99.01,98.57,97.99,97.39,96.75,96.06,95.38,94.70,93.97,92.92,91.89,90.97,90.23,89.47,89.01,88.72,88.62,88.93,88.98,88.88,88.52,87.77,87.10,86.49,86.19,86.22,86.04,84.60,82.92,81.34,80.12,79.45,78.95,78.50,78.05,77.71,77.44,77.04,76.48,75.89,75.32,74.77,74.25,73.76,73.28,72.81,72.37,71.99,71.80,72.04,72.36,72.71,73.09,73.41,73.04,72.34,71.65,70.98,70.29,69.70,69.23,68.85,68.46,68.16,68.07,68.29,68.58,68.97,69.36,69.91,71.59,72.12,71.51,70.33,69.63,69.83,70.28,71.12,72.37,72.76,72.59,72.31,72.08,71.96,71.97,72.33,72.92,73.53,74.15,74.81,75.66,76.74,77.94,79.13,81.36,84.28,86.72,88.98,89.93,90.11,90.07,89.91,89.69,89.47,89.17,88.45,87.91,87.42,86.76,85.64,84.39,84.73,85.76,86.89,88.21,89.91,91.86,93.97,96.21,98.95,101.30
73.54,75.64,77.63,79.67,84.98,89.12,91.12,92.49,95.01,97.68,99.72,100.42,100.97,101.07,100.83,100.16,98.38,94.21,90.42,89.08,92.78,96.71,100.95,105.51,110.10,111.82,113.52,115.25,117.04,118.88,120.18,121.23,122.16,123.08,124.01,124.83,125.62,126.43,127.21,127.98,128.68,129.24,129.64,129.82,130.04,130.27,130.49,130.64,130.56,130.40,130.20,129.87,129.35,128.79,128.43,128.51,128.58,128.37,128.13,127.98,127.90,127.82,127.92,128.24,128.67,129.12,129.58,130.63,132.73,135.30,137.02,138.07,138.58,138.67,138.85,139.63,141.02,142.91,144.65,146.26,147.80,149.21,149.70,149.96,150.31,151.64,155.63,158.07,160.89,164.02,167.21,170.12,172.00,173.38,174.52,175.57,176.52,176.93,176.35,174.27,171.61,167.77,163.32,158.78,154.85,150.96,147.05,143.12,139.16,134.58,130.18,126.08,122.26,117.80,112.92,109.69,108.50,107.44,106.47,105.65,104.93,104.22,103.58,102.87,102.15,101.43,100.58,100.04,99.81,99.86,100.08,100.23,100.33,100.43,100.57,100.63,100.45,100.06,99.49,98.80,98.11,97.37,96.55,95.57,94.28,93.23,92.34,91.47,90.42,89.91,89.64,89.58,89.89,89.98,90.00,89.97,89.90,89.78,89.34,88.69,87.92,87.20,85.82,84.17,82.47,80.95,79.90,79.30,78.88,78.44,78.20,77.91,77.48,76.94,76.40,75.79,75.22,74.68,74.15,73.61,73.13,72.67,72.29,72.34,72.61,72.96,73.35,73.73,73.91,73.49,72.79,72.10,71.48,70.80,70.18,69.68,69.29,68.91,68.70,68.65,68.67,68.76,69.02,69.34,69.91,72.04,74.18,73.89,71.80,70.11,70.90,71.79,72.92,74.31,74.20,73.93,73.63,73.34,73.12,72.58,72.65,73.17,73.79,74.41,75.03,75.70,76.45,77.40,78.59,80.22,82.62,86.29,89.40,90.74,91.04,91.11,91.09,90.91,90.71,90.53,90.26,89.94,89.53,88.89,87.88,86.93,86.11,85.40,85.04,86.35,87.94,89.63,91.48,93.72,96.88,99.68
74.36,76.53,78.78,82.57,87.39,90.89,92.71,94.02,95.60,97.72,99.61,100.35,100.76,100.74,100.49,99.72,96.70,92.60,89.34,88.66,92.89,96.79,101.21,105.91,110.38,112.08,113.78,115.54,117.38,119.27,120.45,121.42,122.28,123.12,123.91,124.62,125.35,126.12,126.89,127.70,128.31,128.70,128.95,129.11,129.32,129.53,129.70,129.68,129.55,129.40,129.22,128.96,128.48,127.94,127.51,127.42,127.54,127.38,127.20,127.19,127.52,127.84,128.23,128.69,129.20,129.92,131.16,132.98,135.38,137.87,139.53,140.56,141.08,141.16,141.30,141.68,142.70,144.81,146.90,148.53,149.84,150.85,151.32,151.56,151.62,152.03,153.86,156.25,158.59,160.79,162.88,165.82,167.82,169.56,171.31,173.11,174.24,175.10,175.17,173.66,171.79,168.41,163.95,159.00,155.01,151.06,147.22,143.48,139.67,134.96,130.48,126.34,122.53,118.32,113.80,110.56,109.00,108.05,107.25,106.55,105.88,105.19,104.53,103.84,103.15,102.50,102.23,102.24,102.44,102.81,103.36,104.17,104.69,104.97,105.11,105.05,104.56,103.70,102.58,101.53,100.36,99.20,98.06,96.87,95.65,94.63,93.65,92.56,91.39,90.79,90.52,90.52,90.74,90.78,90.80,90.80,90.79,90.67,90.40,89.97,89.36,88.63,87.07,85.41,83.78,82.19,80.75,79.85,79.28,78.88,78.65,78.36,77.93,77.39,76.85,76.28,75.70,75.13,74.59,74.05,73.50,73.00,72.69,72.94,73.25,73.60,73.97,74.31,74.43,73.99,73.30,72.61,71.99,71.35,70.73,70.17,69.69,69.46,69.36,69.34,69.34,69.42,69.57,69.96,70.90,73.42,76.03,76.56,75.55,74.94,74.77,74.50,74.73,75.76,75.51,75.25,74.83,74.27,73.77,73.08,72.98,73.37,73.99,74.65,75.28,75.91,76.58,77.38,78.24,79.38,81.40,85.32,89.03,90.67,91.24,91.75,92.11,92.04,91.87,91.69,91.42,91.11,90.76,90.30,89.66,89.05,88.37,87.60,86.86,86.91,87.15,88.10,89.67,91.37,94.54,97.71
75.00,77.25,79.71,84.58,88.77,91.57,93.07,94.23,94.97,96.60,98.46,99.62,100.35,100.28,99.72,98.47,94.64,90.79,88.20,88.29,93.00,96.89,101.36,106.10,110.52,112.21,113.79,115.54,117.50,119.54,120.60,121.48,122.28,123.03,123.72,124.38,125.06,125.80,126.59,127.37,127.87,128.10,128.25,128.42,128.60,128.75,128.82,128.68,128.53,128.38,128.22,127.97,127.55,127.05,126.62,126.40,126.58,126.60,126.66,126.90,127.52,128.14,128.71,129.34,130.24,131.44,133.33,135.67,138.15,140.45,142.06,143.09,143.59,143.67,143.80,143.86,144.48,146.48,148.75,150.38,151.53,152.33,152.84,153.12,153.08,152.90,153.00,154.81,156.62,158.17,159.42,162.00,164.04,166.20,168.66,171.17,172.45,173.62,174.13,173.04,171.73,168.71,164.30,159.07,154.96,150.89,147.05,143.39,139.59,134.73,130.28,126.29,122.63,118.77,114.75,111.59,109.69,108.87,108.21,107.59,106.95,106.25,105.56,104.86,104.25,103.85,104.16,104.66,105.24,105.91,106.78,108.13,109.11,109.69,109.93,109.71,108.79,107.30,105.50,104.08,102.55,101.04,99.57,98.15,96.99,95.94,94.84,93.60,92.36,91.65,91.37,91.41,91.53,91.54,91.54,91.55,91.56,91.40,91.22,90.94,90.48,89.77,88.13,86.47,84.91,83.36,81.74,80.57,79.79,79.33,79.10,78.82,78.40,77.86,77.30,76.76,76.18,75.59,75.03,74.49,73.88,73.39,73.18,73.56,73.88,74.23,74.59,74.91,74.95,74.49,73.82,73.16,72.56,71.96,71.35,70.75,70.23,70.11,70.11,70.13,70.15,70.23,70.48,71.17,72.55,75.18,77.90,79.10,79.14,79.34,78.40,77.14,76.53,77.10,76.69,76.33,75.77,75.01,74.32,73.57,73.33,73.58,74.20,74.88,75.53,76.16,76.79,77.52,78.18,78.96,80.53,84.09,88.00,90.11,91.19,92.04,92.73,92.97,92.97,92.81,92.48,92.17,91.85,91.51,91.12,90.75,90.30,89.67,88.85,88.08,87.35,87.50,88.45,89.54,92.18,95.33
75.19,77.56,80.11,84.54,88.28,90.49,91.32,92.04,92.33,93.57,95.51,97.62,99.58,99.54,98.12,95.67,91.94,88.69,87.00,87.96,93.12,97.02,101.29,105.90,110.46,112.09,113.35,115.03,117.24,119.57,120.58,121.35,122.07,122.77,123.47,124.16,124.82,125.49,126.33,126.95,127.27,127.40,127.55,127.77,127.86,127.84,127.73,127.65,127.51,127.38,127.25,126.96,126.57,126.12,125.73,125.50,125.79,126.23,126.83,127.54,128.16,128.78,129.35,130.24,132.18,134.22,136.40,138.68,141.01,143.00,144.63,145.69,146.15,146.23,146.31,146.23,146.50,147.82,149.94,151.49,152.70,153.69,154.35,154.65,154.67,154.41,153.93,153.93,155.06,156.57,157.75,159.30,161.18,163.79,167.04,170.08,171.56,172.85,173.49,172.59,171.28,168.40,164.13,158.91,154.56,150.32,146.42,142.69,138.65,133.58,129.36,125.79,122.53,119.11,115.76,112.83,110.66,109.95,109.26,108.61,107.97,107.28,106.58,105.89,105.51,105.69,106.44,107.23,108.03,108.92,110.09,111.64,113.06,114.15,114.72,114.30,112.84,110.55,107.88,106.16,104.60,102.91,101.15,99.44,98.27,97.04,95.79,94.56,93.32,92.49,92.16,92.22,92.24,92.24,92.24,92.27,92.32,92.17,91.91,91.55,91.05,90.29,88.81,87.21,85.67,84.31,82.94,81.61,80.51,79.78,79.55,79.31,78.91,78.36,77.75,77.20,76.66,76.09,75.48,74.94,74.29,73.86,73.82,74.20,74.52,74.84,75.17,75.55,75.44,74.97,74.37,73.81,73.26,72.70,72.12,71.53,71.06,70.95,71.00,71.11,71.18,71.25,72.01,73.39,75.29,77.48,79.84,81.36,81.99,82.09,81.00,79.40,78.31,78.36,77.65,76.95,76.22,75.46,74.77,74.06,73.72,73.84,74.46,75.09,75.76,76.41,77.06,77.89,78.65,79.28,80.25,82.48,85.86,88.80,90.83,91.74,92.62,93.52,93.98,93.89,93.51,93.20,92.85,92.47,92.08,91.76,91.43,91.01,90.48,89.96,89.18,88.51,88.23,88.68,89.83,92.26
74.81,77.11,79.40,82.53,85.45,87.33,88.19,88.81,89.04,89.86,91.24,92.99,95.16,95.72,94.84,92.67,89.35,86.26,85.79,88.25,93.15,96.97,100.86,104.78,108.45,110.12,111.26,112.61,114.74,118.56,120.20,121.18,121.86,122.52,123.21,123.91,124.57,125.22,126.03,126.41,126.60,126.70,126.90,126.94,126.90,126.80,126.65,126.57,126.43,126.34,126.25,125.98,125.61,125.27,125.14,125.41,125.95,126.63,127.38,128.14,128.84,129.69,130.85,132.42,134.55,136.85,139.15,141.40,143.58,145.59,147.21,148.21,148.60,148.68,148.66,148.48,148.50,149.21,150.84,152.26,153.58,154.81,155.70,156.13,156.25,156.06,155.52,155.13,155.40,156.01,156.65,158.12,159.97,162.90,166.73,169.94,171.46,172.75,173.36,172.40,171.08,168.10,163.68,158.32,153.84,149.61,145.38,141.05,136.57,131.84,128.03,124.84,121.83,118.90,116.05,113.61,111.82,111.13,110.40,109.71,109.04,108.35,107.58,107.07,106.98,107.38,108.11,109.13,110.33,111.71,113.33,115.20,116.92,118.30,119.16,118.69,117.32,114.74,111.19,108.22,106.36,104.57,102.70,100.77,99.26,97.94,96.72,95.52,94.28,93.33,92.94,93.00,93.00,93.00,93.00,93.01,93.04,92.85,92.39,91.80,91.14,90.44,89.21,87.77,86.26,84.87,83.48,82.07,80.94,80.32,80.05,79.78,79.37,78.82,78.24,77.70,77.14,76.54,75.92,75.27,74.58,74.28,74.51,74.89,75.21,75.52,75.84,76.19,76.08,75.65,75.09,74.55,74.01,73.47,72.89,72.31,71.88,71.85,71.94,72.08,72.21,72.67,73.84,75.41,77.16,78.97,81.35,83.17,84.20,84.43,83.21,81.39,79.77,78.93,78.16,77.42,76.68,75.96,75.26,74.57,74.11,74.09,74.71,75.41,76.13,76.87,77.61,78.42,79.17,80.20,81.62,83.52,86.01,88.42,90.28,91.28,92.24,93.36,94.29,94.79,94.52,94.18,93.84,93.48,93.09,92.78,92.47,92.11,91.68,91.22,90.53,89.80,89.23,89.15,89.52,90.95
74.15,76.29,78.23,80.09,82.09,83.63,84.61,85.21,85.48,85.96,86.73,87.82,89.69,90.77,90.59,88.97,86.27,83.65,84.63,88.61,93.12,96.74,100.16,103.24,105.86,107.65,108.77,109.85,111.91,117.26,119.73,121.00,121.67,122.29,122.97,123.67,124.33,124.96,125.64,125.82,125.89,125.98,126.16,126.02,125.87,125.71,125.58,125.49,125.35,125.28,125.25,125.01,124.71,124.54,124.74,125.54,126.36,127.20,128.01,128.75,129.60,130.81,132.62,134.83,136.98,139.39,141.74,143.98,146.10,148.09,149.62,150.54,150.89,150.98,150.87,150.63,150.49,150.71,151.81,153.10,154.48,155.86,156.95,157.59,157.87,157.82,157.40,156.97,156.48,156.12,156.11,157.52,159.32,162.47,166.77,170.07,171.61,172.85,173.37,172.27,170.96,167.75,163.08,157.57,152.94,148.56,143.92,139.02,134.13,129.94,126.57,123.67,120.90,118.48,116.19,114.38,113.16,112.45,111.69,110.95,110.22,109.45,108.60,108.32,108.53,109.10,109.80,111.07,112.68,114.53,116.64,118.98,120.95,122.43,123.33,122.76,121.50,118.84,114.78,110.56,108.16,106.15,104.19,102.08,100.16,98.74,97.56,96.39,95.16,94.14,93.71,93.77,93.78,93.78,93.78,93.77,93.73,93.37,92.68,91.87,91.08,90.45,89.42,88.15,86.73,85.29,83.83,82.37,81.31,80.88,80.56,80.24,79.82,79.29,78.74,78.19,77.59,76.95,76.30,75.53,74.87,74.75,75.21,75.59,75.91,76.22,76.53,76.83,76.77,76.39,75.85,75.31,74.77,74.23,73.66,73.10,72.72,72.78,72.92,73.08,73.27,74.01,75.43,77.01,78.51,80.16,82.69,84.83,86.20,86.65,85.36,83.33,81.14,79.33,78.56,77.85,77.15,76.44,75.75,75.05,74.49,74.36,74.97,75.74,76.51,77.30,78.12,78.88,79.57,80.95,82.88,84.72,86.43,88.13,89.62,90.77,91.81,93.02,94.34,95.47,95.50,95.17,94.82,94.49,94.11,93.80,93.50,93.16,92.78,92.35,91.87,91.36,90.87,90.42,90.31,90.76
73.05,74.91,76.60,78.12,79.25,80.11,80.75,81.25,81.56,82.09,82.75,83.38,84.21,84.88,84.49,82.87,81.32,80.80,83.60,88.62,92.94,96.03,98.80,101.15,103.08,105.32,106.62,107.87,110.22,116.07,119.30,120.87,121.54,122.16,122.80,123.48,124.14,124.71,125.00,125.11,125.16,125.15,125.09,124.93,124.78,124.65,124.55,124.41,124.26,124.24,124.28,123.99,124.04,124.24,124.72,125.67,126.68,127.62,128.52,129.43,130.63,132.39,134.47,136.76,139.20,141.72,144.10,146.42,148.69,150.24,151.40,152.18,152.63,152.83,152.76,152.58,152.44,152.56,153.42,154.53,155.72,156.88,158.03,159.00,159.63,159.85,159.62,159.02,158.30,157.60,157.07,157.49,158.99,162.18,166.69,170.23,171.80,172.96,173.34,172.14,170.83,167.20,162.20,156.70,151.72,146.39,141.32,136.50,131.51,128.11,125.00,122.18,119.72,117.89,116.58,115.64,114.94,114.18,113.41,112.62,111.71,110.60,109.75,109.61,110.11,111.13,112.22,113.89,115.70,117.70,120.25,123.50,125.71,126.81,126.89,125.82,124.11,121.69,118.45,113.98,110.38,107.67,105.50,103.30,101.08,99.44,98.13,96.97,95.73,94.88,94.52,94.54,94.60,94.61,94.61,94.57,94.41,93.40,92.48,91.69,91.00,90.27,89.23,88.10,86.90,85.61,84.15,82.72,81.73,81.38,81.01,80.65,80.25,79.79,79.19,78.59,77.94,77.22,76.43,75.65,75.29,75.41,75.91,76.30,76.62,76.93,77.22,77.47,77.46,77.13,76.62,76.08,75.54,75.00,74.45,73.94,73.61,73.76,73.97,74.19,74.40,74.65,75.84,77.33,78.90,81.04,83.90,86.36,88.07,88.81,87.72,85.39,82.50,79.78,79.01,78.29,77.57,76.83,76.13,75.44,74.85,74.66,75.23,76.00,76.73,77.45,78.18,78.89,79.49,80.50,81.97,83.77,85.47,87.17,88.79,90.27,91.45,92.77,94.15,95.45,96.37,96.17,95.82,95.46,95.14,94.83,94.52,94.20,93.89,93.66,93.66,93.70,93.63,93.23,93.02,92.90
71.79,73.39,74.98,76.21,76.99,77.59,78.13,78.66,78.98,79.43,79.91,80.28,80.58,80.92,80.67,79.71,78.93,79.41,82.74,87.88,92.29,95.01,97.45,99.59,101.47,103.64,105.33,107.01,109.48,114.57,118.71,120.68,121.33,121.95,122.57,123.22,123.78,124.17,124.32,124.41,124.43,124.36,124.21,124.02,123.86,123.72,123.61,123.42,123.36,123.50,123.71,123.50,123.77,124.19,124.84,125.84,126.92,127.94,128.95,130.05,131.72,133.76,135.90,138.16,140.77,143.35,145.84,148.22,150.43,151.92,153.05,153.85,154.37,154.67,154.66,154.54,154.44,154.49,155.13,156.10,157.20,158.38,159.95,161.17,161.91,162.17,161.98,161.16,160.04,158.93,158.13,157.82,158.92,162.01,166.62,170.29,171.86,172.99,173.32,172.05,170.74,166.65,161.29,155.78,150.39,144.51,139.20,134.52,129.95,127.02,124.33,121.84,119.66,118.45,117.70,117.19,116.72,115.95,115.15,114.25,113.20,112.00,111.05,111.16,112.02,113.35,114.74,116.47,118.79,121.67,124.92,127.27,128.76,129.37,129.15,128.23,126.31,123.87,120.90,116.38,112.25,109.11,106.69,104.39,101.94,100.02,98.56,97.43,96.32,95.63,95.34,95.36,95.43,95.44,95.42,95.20,94.60,93.37,92.29,91.42,90.73,89.99,88.96,87.88,86.76,85.56,84.22,83.02,82.20,81.85,81.47,81.05,80.65,80.22,79.60,78.89,78.17,77.41,76.60,75.82,75.76,76.08,76.58,77.00,77.32,77.63,77.90,78.07,78.07,77.80,77.35,76.81,76.27,75.72,75.18,74.74,74.69,74.87,75.09,75.32,75.55,75.56,76.36,77.58,79.13,81.51,85.04,87.83,89.51,90.20,89.39,87.33,84.28,80.76,79.44,78.59,77.84,77.08,76.39,75.72,75.19,74.99,75.32,76.09,76.78,77.45,78.10,78.74,79.26,80.01,81.16,82.93,84.67,86.38,88.05,89.64,90.94,92.34,93.75,95.14,96.57,96.96,96.83,96.47,96.16,95.85,95.54,95.26,95.10,95.49,96.04,96.50,96.67,96.29,95.90,95.34
70.47,71.83,73.35,74.34,75.03,75.61,76.18,76.80,77.13,77.44,77.73,77.97,78.06,78.14,78.19,78.16,77.99,78.83,81.92,86.64,91.31,93.79,96.09,98.33,100.51,102.39,104.54,106.73,109.19,112.87,117.93,120.39,121.08,121.69,122.31,122.91,123.31,123.46,123.61,123.71,123.69,123.59,123.44,123.22,123.04,122.88,122.72,122.55,122.67,123.04,123.47,123.38,123.75,124.29,125.01,126.01,127.08,128.16,129.28,130.60,132.76,134.93,137.02,139.21,141.91,144.56,147.21,149.65,151.71,153.34,154.62,155.53,156.12,156.50,156.55,156.52,156.47,156.47,156.92,157.80,158.92,160.25,162.43,163.78,164.49,164.65,164.41,163.38,161.78,160.21,159.22,158.36,159.02,161.89,166.52,170.24,171.83,172.98,173.32,172.01,170.68,166.17,160.47,154.94,149.14,143.00,137.60,133.09,129.17,126.54,124.32,122.30,120.41,119.83,119.38,119.00,118.56,117.76,116.89,115.85,114.69,113.53,112.43,112.82,114.04,115.59,117.21,118.93,121.92,125.97,129.80,130.41,130.75,130.87,130.63,130.15,128.24,125.70,122.69,118.19,113.93,110.51,107.80,105.40,102.77,100.55,98.91,97.86,96.93,96.38,96.17,96.18,96.26,96.27,96.17,95.68,94.52,93.29,92.12,91.13,90.36,89.66,88.63,87.56,86.45,85.29,84.18,83.33,82.74,82.36,81.97,81.52,81.10,80.66,80.00,79.15,78.34,77.56,76.77,76.05,76.26,76.76,77.22,77.69,78.02,78.33,78.57,78.65,78.65,78.44,78.05,77.51,76.97,76.43,75.90,75.54,75.86,76.04,76.24,76.47,76.69,76.61,76.96,77.81,79.30,81.85,86.16,89.22,90.67,91.14,90.61,89.09,86.20,81.99,79.86,78.80,78.03,77.28,76.58,75.97,75.56,75.35,75.35,76.09,76.74,77.35,77.96,78.50,78.98,79.52,80.43,82.19,83.97,85.69,87.35,88.94,90.33,91.78,93.23,94.70,96.43,97.61,97.83,97.49,97.18,96.87,96.58,96.34,96.37,97.54,98.62,99.40,99.72,99.36,98.76,97.90
69.63,70.57,71.67,72.41,73.01,73.67,74.38,74.95,75.33,75.66,75.97,76.31,76.55,76.71,76.80,76.92,77.44,78.46,80.72,84.39,89.51,92.19,94.66,97.20,99.90,102.07,104.13,106.14,108.23,110.62,115.88,119.26,120.82,121.44,122.00,122.37,122.61,122.75,122.85,122.98,122.94,122.77,122.67,122.50,122.34,122.16,122.01,122.53,123.26,123.99,124.47,124.29,124.20,124.42,124.98,125.88,126.80,127.84,129.09,130.67,132.88,135.10,137.29,139.59,142.30,145.18,148.04,150.64,152.80,154.53,156.06,157.18,157.84,158.23,158.41,158.49,158.51,158.52,158.71,159.98,161.72,163.59,165.91,166.80,167.15,167.18,166.85,165.90,164.11,161.98,160.11,159.15,159.29,161.59,165.85,169.77,171.48,172.84,173.39,172.13,170.71,166.52,161.03,155.31,149.41,143.79,138.85,134.60,130.82,128.25,126.36,124.84,123.44,123.25,122.71,121.94,120.98,119.73,118.55,117.41,116.28,115.06,113.77,114.16,115.43,116.92,118.44,121.44,125.28,128.97,130.59,131.05,131.39,131.51,131.26,130.64,129.54,127.53,124.31,119.62,115.55,111.92,108.78,106.23,103.60,101.14,99.37,98.49,97.57,97.10,96.96,97.00,97.03,97.08,96.41,95.31,94.21,93.08,91.96,90.91,89.97,89.22,88.27,87.24,86.13,84.98,84.34,84.06,83.85,83.51,83.12,82.67,82.25,81.72,80.68,79.56,78.60,77.70,76.79,76.61,76.92,77.40,77.87,78.39,78.73,79.00,79.20,79.22,79.22,79.08,78.77,78.28,77.74,77.20,76.74,76.51,76.88,77.19,77.42,77.62,77.84,77.71,77.68,78.22,79.75,83.24,87.57,90.23,91.26,91.77,91.01,89.61,86.96,82.84,80.05,78.90,78.18,77.47,76.77,76.39,76.13,75.94,75.79,76.08,76.57,77.16,77.77,78.31,78.78,79.33,80.19,81.75,83.47,85.14,86.72,88.18,89.57,91.02,92.60,94.39,96.46,98.07,98.65,98.51,98.20,97.95,97.77,97.69,97.85,99.06,99.99,100.71,101.14,101.07,100.53,99.82
68.92,69.60,70.35,70.81,71.26,71.85,72.55,73.06,73.51,73.93,74.37,74.85,75.29,75.67,75.97,76.26,76.91,77.95,79.55,82.19,86.65,89.73,92.66,95.69,98.90,101.50,103.55,105.44,107.29,109.04,113.49,117.70,120.52,121.11,121.52,121.75,121.90,122.05,122.12,122.25,122.18,121.98,121.87,121.72,121.67,121.77,122.10,123.00,124.04,124.95,125.48,125.25,124.97,124.88,125.05,125.55,126.50,127.59,128.86,130.42,132.53,134.79,137.07,139.45,142.18,145.23,148.33,151.19,153.58,155.66,157.47,158.73,159.46,160.00,160.38,160.65,160.80,160.83,161.34,163.16,165.23,166.94,168.70,169.23,169.40,169.39,169.11,168.31,166.66,164.50,162.26,160.93,160.31,161.68,165.10,168.97,170.91,172.49,173.27,172.39,170.85,167.15,162.34,157.16,151.67,146.34,141.57,137.43,133.79,130.99,128.95,127.61,126.88,126.86,126.26,125.19,123.73,122.09,120.51,119.08,117.75,116.43,115.12,115.52,116.75,118.20,120.30,124.14,127.91,130.64,131.26,131.68,132.03,132.13,131.83,131.11,130.42,128.85,125.86,121.04,116.99,113.14,109.66,106.96,104.38,101.88,100.01,99.04,98.19,97.84,97.77,97.84,97.86,97.82,96.71,95.09,93.69,92.58,91.49,90.48,89.58,88.81,87.90,86.90,85.90,85.05,84.85,84.90,84.90,84.65,84.24,83.81,83.36,82.70,81.34,79.98,78.92,78.02,77.10,77.20,77.61,78.10,78.58,79.09,79.56,79.92,80.13,80.16,80.11,79.92,79.56,79.05,78.48,77.91,77.57,77.54,77.93,78.34,78.61,78.80,79.02,78.79,78.60,79.06,80.69,84.32,88.42,90.84,91.77,92.41,91.39,90.01,87.54,83.56,80.29,78.97,78.29,77.72,77.18,76.87,76.64,76.43,76.23,76.23,76.53,77.02,77.60,78.09,78.56,79.12,79.94,81.28,82.94,84.53,86.02,87.41,88.83,90.28,92.15,94.42,96.61,98.52,99.36,99.42,99.26,99.08,98.99,98.98,99.17,100.25,101.08,101.81,102.39,102.65,102.14,101.62
68.35,68.91,69.36,69.53,69.76,70.15,70.69,71.15,71.68,72.26,72.90,73.58,74.27,75.00,75.65,76.14,76.39,77.29,78.40,80.02,82.80,86.45,90.13,93.83,97.54,100.68,102.80,104.62,106.39,108.09,110.79,115.73,120.19,120.72,120.89,121.05,121.20,121.34,121.42,121.50,121.41,121.20,121.05,120.89,121.04,121.69,122.94,123.94,125.00,125.93,126.51,126.27,126.04,125.64,125.22,125.04,126.19,127.40,128.61,129.87,131.74,134.05,136.39,138.83,141.60,144.75,148.11,151.31,154.07,156.75,158.84,160.20,160.99,161.82,162.45,162.97,163.30,163.39,164.74,167.26,169.39,170.30,170.82,171.10,171.25,171.29,171.20,170.60,169.41,167.70,165.61,163.63,162.03,162.12,164.28,167.85,170.15,171.94,172.97,172.78,171.08,168.04,164.34,160.40,155.80,150.54,145.67,141.49,138.00,134.70,132.05,130.61,130.71,130.64,130.03,128.73,126.80,124.81,122.76,120.83,119.11,117.65,116.48,116.89,118.01,119.42,122.76,127.03,129.85,131.06,131.82,132.30,132.67,132.74,132.34,131.57,130.91,129.70,127.32,122.45,118.27,114.18,110.45,107.60,105.12,102.75,100.81,99.50,98.80,98.60,98.60,98.68,98.75,98.48,97.06,95.00,92.98,91.83,90.73,89.85,89.19,88.42,87.52,86.54,85.74,85.48,85.69,85.86,85.92,85.80,85.34,84.94,84.43,83.61,82.00,80.39,79.30,78.50,77.68,77.83,78.32,78.87,79.33,79.80,80.52,81.06,81.36,81.44,81.29,80.94,80.42,79.81,79.19,78.58,78.38,78.63,79.01,79.47,79.79,80.02,80.23,79.85,79.69,80.32,82.07,85.11,88.74,91.08,92.20,93.04,91.74,90.30,87.95,84.17,80.55,79.01,78.34,78.04,77.79,77.42,77.09,76.83,76.68,76.53,76.61,76.94,77.46,77.85,78.30,78.89,79.69,80.78,82.38,83.86,85.25,86.65,88.11,89.58,91.86,94.79,96.88,98.95,99.96,100.21,100.35,100.26,100.24,100.24,100.35,101.13,101.91,102.72,103.50,104.10,103.61,103.32
67.84,68.36,68.71,68.91,69.29,69.86,70.60,71.34,72.11,72.85,73.56,74.25,75.00,75.83,76.61,77.24,77.57,78.03,78.47,79.10,80.35,82.21,85.83,90.46,95.32,99.62,101.90,103.65,105.37,107.07,109.08,111.88,115.17,118.49,119.96,120.40,120.50,120.64,120.72,120.72,120.56,120.36,120.39,120.74,121.73,123.08,124.48,125.20,126.06,126.91,127.53,127.30,127.11,126.71,126.16,125.61,125.97,126.87,127.97,129.10,130.34,132.31,134.54,137.02,139.99,143.33,146.88,150.29,153.26,156.25,158.96,160.90,162.08,163.16,164.17,165.10,165.95,166.74,167.89,169.33,170.55,171.26,171.77,172.28,172.66,172.86,172.88,172.43,171.55,170.35,168.94,167.07,165.27,164.61,165.43,167.48,169.71,171.55,172.80,173.34,171.78,169.64,166.88,163.56,160.22,155.80,151.20,146.87,143.20,140.26,137.86,136.05,134.84,133.64,132.48,130.87,128.72,126.38,124.14,122.10,120.29,118.68,117.80,118.23,119.44,121.15,124.22,128.10,130.65,131.76,132.58,133.19,133.49,133.34,132.66,131.84,131.18,130.07,127.87,122.95,118.63,114.50,110.77,107.82,105.76,103.72,101.94,100.63,99.98,99.75,99.66,99.57,99.36,98.80,97.23,95.12,93.04,91.28,90.16,89.41,88.80,87.93,87.17,86.66,86.41,86.41,86.64,86.82,86.94,86.95,86.49,86.12,85.43,84.32,82.98,81.08,79.72,78.79,78.07,78.27,78.82,79.63,80.61,81.59,82.43,82.98,83.25,83.32,83.08,82.66,82.05,81.26,80.12,79.51,79.44,79.79,80.27,80.78,81.18,81.46,81.63,81.29,81.52,82.30,83.75,86.58,89.47,91.58,92.83,93.44,92.03,90.49,88.14,84.52,81.07,79.48,78.84,78.66,78.43,78.06,77.69,77.37,77.12,76.97,77.04,77.28,77.62,77.92,78.23,78.73,79.45,80.34,81.84,83.34,84.79,86.18,87.50,88.83,90.71,93.27,96.25,99.06,100.49,100.93,101.13,101.29,101.37,101.43,101.59,102.18,102.92,103.73,104.55,105.26,105.41,105.34
67.35,67.86,68.26,68.65,69.17,69.91,70.82,71.77,72.71,73.58,74.35,75.07,75.84,76.73,77.60,78.37,78.89,79.18,79.24,79.22,79.44,79.97,83.18,87.93,93.11,97.99,100.69,102.58,104.23,105.81,107.27,108.65,110.88,114.95,116.98,118.03,118.73,119.37,119.62,119.64,119.48,119.40,119.88,121.05,122.75,124.55,126.04,126.64,127.30,128.00,128.56,128.36,128.19,127.77,127.14,126.42,126.15,126.51,127.28,128.26,129.07,130.65,132.65,135.07,138.01,141.31,144.90,148.46,151.72,154.94,158.18,160.68,162.27,163.43,164.44,165.61,166.95,168.42,169.73,170.50,171.08,171.66,172.12,172.69,173.20,173.62,173.91,173.99,173.60,172.84,171.81,170.10,168.40,167.36,167.22,167.94,169.90,171.82,173.38,174.44,173.06,171.58,169.56,166.87,164.50,160.75,156.62,152.49,148.63,145.48,142.93,140.67,138.37,136.24,134.43,132.40,130.00,127.54,125.28,123.20,121.32,119.60,119.09,119.69,121.06,122.99,125.68,129.01,131.34,132.53,133.44,134.07,134.06,133.55,132.73,131.90,131.20,130.05,127.79,122.95,118.69,114.70,111.13,108.23,106.48,104.75,103.21,102.01,101.43,101.19,101.02,100.75,100.23,99.32,97.57,95.36,93.18,90.98,89.79,89.11,88.58,87.85,87.29,87.10,87.19,87.37,87.60,87.78,87.93,88.03,87.62,87.24,86.46,85.24,83.83,81.80,80.20,79.10,78.46,78.67,79.32,80.51,82.13,83.54,84.42,84.93,85.16,85.22,84.88,84.39,83.69,82.75,81.39,80.79,80.74,81.08,81.62,82.16,82.60,82.89,83.04,82.92,83.49,84.37,85.57,88.01,90.26,92.17,93.50,93.91,92.35,90.67,88.31,84.90,81.70,80.09,79.48,79.38,79.08,78.70,78.30,77.91,77.57,77.43,77.51,77.69,77.90,78.12,78.36,78.73,79.26,79.97,81.37,82.84,84.28,85.62,86.86,88.09,89.61,91.72,95.14,98.83,100.71,101.30,101.68,102.12,102.43,102.64,102.86,103.32,103.99,104.77,105.59,106.36,106.97,107.19
66.90,67.44,68.11,68.89,69.53,70.36,71.41,72.40,73.40,74.34,75.20,75.97,76.74,77.62,78.54,79.45,80.31,80.86,81.00,80.88,80.85,80.99,83.27,86.86,90.97,95.51,98.99,101.38,102.89,104.18,105.21,106.57,108.09,109.50,110.79,112.94,115.26,117.20,117.89,118.10,118.07,118.28,119.60,122.03,124.19,126.04,127.59,128.33,128.83,129.26,129.60,129.50,129.29,128.80,128.13,127.50,126.93,126.46,126.56,127.36,128.07,129.17,130.82,132.99,135.53,138.44,141.80,145.43,149.11,152.48,156.06,159.05,161.09,162.05,162.46,163.58,165.35,167.40,169.50,170.40,170.87,171.38,171.65,171.93,172.41,173.12,173.95,175.18,175.55,175.08,173.93,172.42,171.22,170.37,169.86,169.64,171.06,173.13,175.15,176.35,175.23,173.99,172.42,170.44,168.51,165.12,161.73,158.38,154.32,150.00,146.64,143.78,140.89,138.28,135.71,133.05,130.36,128.15,126.09,124.07,122.14,120.37,120.35,121.34,122.98,124.99,127.23,129.84,131.94,133.39,134.45,134.91,134.23,133.13,132.42,131.64,130.87,129.44,126.81,122.21,118.33,114.77,111.59,108.99,107.34,105.89,104.67,103.74,103.26,103.04,102.82,102.40,101.54,100.18,98.18,95.79,93.37,91.07,89.70,88.98,88.66,88.42,88.15,88.03,88.10,88.32,88.56,88.74,88.89,89.00,88.75,88.23,87.55,86.51,84.46,82.56,80.78,79.44,78.84,79.00,79.86,81.61,84.02,85.68,86.47,86.88,87.06,87.07,86.63,86.08,85.30,84.24,83.18,82.61,82.40,82.55,83.09,83.63,84.03,84.30,84.46,84.84,85.60,86.52,87.58,89.32,91.10,92.87,94.23,94.49,92.74,90.82,88.44,85.38,82.47,80.88,80.29,80.24,79.73,79.34,78.91,78.46,78.02,77.93,78.02,78.18,78.34,78.51,78.78,78.96,79.16,79.72,81.02,82.36,83.67,84.92,86.16,87.39,88.64,90.24,93.32,98.08,100.42,101.10,101.88,102.67,103.39,103.88,104.13,104.60,105.15,105.83,106.61,107.38,108.13,108.73
66.83,67.56,68.34,69.19,70.21,71.37,72.58,73.66,74.75,75.71,76.45,76.91,77.64,78.52,79.77,81.37,82.66,83.38,83.59,83.48,83.36,83.24,84.13,86.18,89.37,93.08,96.51,99.15,100.90,102.06,103.04,104.56,106.14,107.14,109.39,111.47,113.35,114.96,116.02,116.72,117.30,118.10,119.65,123.05,125.73,127.79,129.52,131.99,134.01,135.18,135.47,135.24,133.40,131.42,129.72,128.58,127.92,127.26,127.03,127.37,127.78,128.27,129.27,130.73,132.35,134.99,138.26,141.84,145.44,148.80,152.08,155.04,157.46,158.91,159.56,160.54,161.84,163.28,164.99,166.22,167.60,169.27,169.83,170.35,170.96,171.72,172.69,173.94,174.99,175.77,176.15,174.80,174.03,173.93,174.30,174.40,175.32,176.57,177.75,178.38,177.70,176.71,175.33,173.53,171.51,168.60,165.35,161.95,158.50,153.90,149.66,145.92,142.63,139.52,136.48,133.32,130.23,128.19,126.25,124.35,122.71,121.66,122.14,123.11,124.60,126.54,128.62,130.82,132.69,134.17,135.46,135.11,133.92,132.60,131.79,131.05,129.56,127.23,124.12,120.49,117.36,114.20,111.43,109.85,108.59,107.38,106.31,105.48,105.09,104.86,104.57,104.00,102.79,101.07,98.94,96.56,94.14,91.90,90.56,89.76,89.31,89.15,89.00,88.96,89.07,89.39,90.02,90.55,91.01,91.37,91.06,90.14,89.02,87.66,85.66,83.65,81.68,80.11,79.32,79.31,80.92,83.48,86.29,87.91,88.60,88.96,89.09,88.93,88.35,87.74,86.96,85.93,84.92,84.41,84.20,84.24,84.58,85.10,85.47,85.72,85.92,86.34,87.17,88.19,89.32,90.74,92.09,93.63,94.91,95.02,93.03,90.92,88.55,85.80,83.18,81.94,81.48,81.28,80.46,79.73,79.17,78.76,78.47,78.47,78.58,78.72,78.84,79.00,79.21,79.34,79.43,79.69,80.61,81.75,82.98,84.22,85.45,86.66,87.84,89.16,91.16,95.32,98.56,100.51,101.28,102.05,103.00,103.83,104.45,105.20,105.94,106.75,107.57,108.30,108.99,109.77
66.95,67.81,68.64,69.48,70.88,72.39,73.83,75.09,76.27,77.24,77.89,78.11,78.76,79.74,81.38,83.60,85.29,86.11,86.35,86.24,86.06,85.74,85.48,86.17,88.41,91.20,94.30,96.95,98.88,100.03,101.13,102.87,104.70,105.88,109.12,110.94,112.20,113.45,114.85,115.99,117.10,118.31,119.78,124.30,127.71,130.25,132.49,136.24,139.41,141.15,141.38,140.84,137.62,134.33,131.60,129.79,128.95,128.23,127.83,127.82,127.98,128.01,128.37,129.03,129.67,131.80,134.57,137.74,141.11,144.40,147.37,150.20,152.81,154.67,155.64,156.54,157.42,158.21,159.45,160.97,163.09,165.68,166.75,167.76,168.70,169.67,170.87,172.11,173.70,175.57,177.47,176.93,176.72,177.30,178.50,179.01,179.49,179.88,180.13,180.14,179.82,179.10,177.87,176.09,173.84,171.27,168.05,164.50,161.49,156.82,151.92,147.44,143.86,140.28,136.79,133.25,129.91,128.03,126.20,124.51,123.30,123.09,123.96,124.90,126.19,127.97,129.96,131.91,133.60,135.03,136.27,135.11,133.54,132.07,131.06,129.78,127.36,124.37,121.26,118.64,116.16,113.61,111.54,110.87,109.98,108.98,108.01,107.24,106.93,106.69,106.28,105.52,104.11,102.02,99.73,97.38,95.09,93.37,92.25,91.47,90.92,90.64,90.42,90.37,90.58,91.17,92.19,93.12,93.90,94.38,93.81,92.44,90.76,88.94,86.98,84.84,82.71,80.92,79.82,79.86,82.23,85.50,88.59,90.14,90.80,91.17,91.30,91.01,90.29,89.60,88.76,87.67,86.66,86.21,86.03,86.00,86.12,86.58,86.91,87.14,87.37,87.77,88.68,89.90,91.25,92.37,93.28,94.49,95.59,95.58,93.38,91.06,88.69,86.24,83.92,83.07,82.72,82.29,81.17,80.11,79.41,79.05,78.93,79.01,79.14,79.28,79.39,79.57,79.75,79.89,79.97,80.01,80.54,81.40,82.43,83.50,84.72,85.89,87.05,88.20,89.28,92.33,96.13,99.29,100.24,101.12,102.22,103.31,104.25,105.24,106.17,107.10,108.01,108.81,109.56,110.49
67.42,68.11,68.89,69.68,71.31,73.14,74.93,76.59,77.84,78.87,79.62,80.02,80.47,81.91,83.94,86.20,88.13,88.90,89.07,88.90,88.62,88.25,87.77,87.85,88.97,90.93,93.38,95.51,97.15,98.60,100.04,102.07,104.22,105.88,109.12,110.87,112.31,114.07,115.82,117.05,118.10,119.05,119.93,126.19,130.86,134.61,138.22,140.93,143.19,144.38,144.33,143.20,140.32,137.09,133.98,131.38,129.94,129.13,128.85,128.97,129.19,129.23,129.18,129.09,128.94,129.71,130.74,132.55,135.54,138.68,141.69,144.44,146.75,148.31,149.34,150.43,151.49,152.33,153.63,155.16,156.95,158.95,160.86,162.75,164.53,166.28,168.21,170.10,171.87,173.81,176.11,178.29,179.04,179.78,180.85,181.26,181.46,181.47,181.34,181.10,180.73,180.31,179.32,177.46,174.86,172.19,169.08,165.58,161.97,157.31,152.36,147.79,144.09,140.12,136.12,132.40,129.30,127.62,125.95,124.69,124.14,124.62,125.60,126.67,127.88,129.30,131.25,133.18,134.91,136.17,136.52,134.98,133.25,131.65,130.24,126.69,123.23,120.65,119.00,117.03,114.67,113.36,112.84,112.27,111.53,110.64,109.78,109.10,108.79,108.54,107.90,106.85,105.69,103.11,100.50,98.12,96.18,96.19,95.77,95.34,94.99,94.22,93.51,93.22,93.61,94.99,96.12,97.39,98.28,98.33,97.08,95.26,93.05,90.64,88.29,86.12,83.92,81.89,80.29,81.13,83.96,87.50,90.77,92.31,93.14,93.69,93.94,93.76,92.89,92.02,90.91,89.46,88.45,88.00,87.84,87.82,87.79,88.11,88.35,88.54,88.78,89.23,90.40,92.08,93.87,94.55,94.92,95.62,96.35,96.28,93.94,91.34,88.88,86.77,84.75,84.24,83.86,83.09,81.82,80.57,79.76,79.41,79.44,79.52,79.65,79.83,80.04,80.32,80.60,80.83,81.03,81.22,81.52,81.90,82.30,82.73,83.90,85.06,86.22,87.37,88.45,89.99,93.07,96.47,98.40,100.02,101.19,102.18,103.16,104.10,104.98,105.91,106.97,108.22,109.46,110.62
68.16,68.69,69.38,70.29,71.94,73.85,75.82,77.66,79.20,80.56,81.72,82.65,83.17,84.79,86.90,89.08,90.81,91.53,91.66,91.46,91.22,90.80,90.23,90.03,90.72,92.76,95.11,97.24,99.06,100.91,102.73,104.66,106.28,107.14,109.43,111.51,113.50,115.43,117.11,118.27,119.98,122.29,124.72,130.33,134.95,139.08,143.16,145.42,146.88,147.45,147.05,145.50,142.45,139.09,135.88,133.24,131.55,131.01,131.09,131.44,131.95,132.09,131.87,131.32,130.42,129.90,129.75,130.37,132.04,134.24,137.18,139.86,141.87,143.10,143.98,145.20,146.57,147.73,149.25,150.89,152.65,154.58,157.08,159.16,161.06,163.01,165.31,167.76,170.08,172.60,175.62,178.87,180.56,181.78,182.77,182.71,182.44,182.10,181.74,181.40,180.98,180.56,179.46,177.32,174.75,172.16,169.04,165.40,161.51,156.91,152.08,147.55,143.72,139.59,135.35,131.65,128.86,127.31,126.00,125.35,125.44,126.20,127.10,128.18,129.71,131.71,133.34,134.96,136.42,137.22,136.31,134.43,132.55,130.32,127.30,123.29,120.50,118.66,117.47,116.28,115.02,114.59,114.56,113.99,113.26,112.35,111.46,110.77,110.42,110.20,109.65,108.68,107.43,104.78,102.02,99.69,98.30,99.12,99.43,99.43,99.11,98.08,96.94,96.40,96.79,98.38,100.05,101.27,101.85,101.56,99.82,97.64,95.02,92.10,89.26,87.01,84.81,82.82,81.39,83.23,86.11,89.41,92.53,94.28,95.42,96.18,96.55,96.50,95.63,94.76,93.62,92.10,91.30,90.70,90.41,90.37,90.29,90.66,91.15,91.67,92.18,92.85,93.98,95.32,96.54,96.81,96.92,97.26,97.49,96.83,94.19,91.43,89.00,87.20,85.82,85.50,85.20,84.49,83.21,81.90,81.10,80.78,80.80,81.29,81.78,81.94,81.70,81.66,81.86,82.10,82.33,82.56,82.76,82.98,83.22,83.51,84.19,84.87,85.67,86.65,87.87,88.90,91.01,93.77,96.38,98.54,99.93,101.00,102.02,102.92,103.74,104.66,105.76,107.15,108.87,110.36
69.08,69.55,70.18,71.22,72.72,74.54,76.56,78.51,80.40,82.18,83.85,85.39,86.17,87.89,89.98,92.00,93.41,94.08,94.20,93.99,93.85,93.40,92.80,92.51,93.04,95.42,97.92,100.31,102.56,104.80,106.93,108.58,109.36,108.98,110.07,112.56,115.14,117.11,118.72,119.93,122.60,126.69,131.32,135.43,139.48,143.57,147.59,149.61,150.36,150.32,149.55,147.71,144.32,140.76,137.57,135.19,133.59,133.52,134.05,134.67,135.53,135.78,135.48,134.59,133.02,131.36,130.36,129.98,130.14,131.19,133.81,136.28,137.94,138.91,139.69,141.19,143.09,144.73,146.42,148.13,149.94,151.96,154.71,156.61,158.32,160.21,162.67,165.58,168.52,171.77,175.57,179.17,181.73,183.42,184.17,183.47,182.72,182.11,181.63,181.23,180.66,180.05,178.66,176.21,173.87,171.39,168.24,164.44,160.44,155.97,151.34,146.90,142.91,138.82,134.57,131.04,128.59,127.14,126.28,126.27,126.90,127.75,128.65,129.83,131.83,134.67,135.85,137.01,137.99,138.11,135.87,133.68,131.59,128.56,123.70,120.16,118.67,117.66,116.58,116.18,116.28,116.48,116.46,115.84,115.06,114.07,113.09,112.33,111.95,111.75,111.38,110.63,109.17,106.67,103.89,101.69,100.94,102.15,103.17,103.58,103.18,102.00,100.55,99.92,100.37,101.91,104.06,105.01,105.04,104.38,102.24,99.74,96.76,93.42,90.04,87.71,85.50,83.69,82.76,85.52,88.32,91.25,94.15,96.18,97.71,98.75,99.30,99.44,98.59,97.79,96.74,95.32,94.76,93.98,93.52,93.44,93.47,94.05,94.95,95.95,96.84,97.79,98.56,99.03,99.15,99.06,99.00,99.04,98.77,97.45,94.51,91.62,89.24,87.67,87.00,86.80,86.61,86.14,84.98,83.77,83.13,82.95,82.94,83.84,84.67,84.72,83.84,83.39,83.38,83.52,83.73,83.96,84.12,84.32,84.61,84.98,85.07,85.14,85.43,86.09,87.41,88.39,89.55,91.37,94.40,96.89,98.54,99.76,100.83,101.70,102.48,103.38,104.49,105.92,108.02,109.85
70.45,71.42,72.39,73.14,73.98,75.26,77.03,79.07,81.25,83.20,84.98,86.69,88.16,90.35,92.53,94.33,95.94,96.64,96.78,96.64,96.59,96.20,95.71,95.42,95.66,97.30,100.04,103.00,105.75,107.99,109.81,111.14,111.65,111.03,112.11,114.17,116.49,118.73,121.42,124.27,127.58,131.47,136.05,140.11,144.21,147.98,151.00,152.42,152.69,152.26,151.23,149.49,146.06,142.49,139.29,136.94,136.77,137.34,138.21,139.09,140.05,140.15,139.57,138.37,136.61,134.66,133.33,132.76,132.99,133.80,134.83,135.85,136.85,138.17,139.95,142.99,146.39,148.81,149.76,151.02,152.56,154.27,155.53,156.86,158.39,160.26,162.68,165.53,168.48,171.86,175.92,179.86,183.03,184.16,183.22,181.88,181.19,180.76,180.39,179.88,178.48,177.13,175.36,173.00,171.11,168.46,165.40,161.99,158.14,154.09,149.68,145.20,140.97,137.46,134.04,131.14,129.00,127.64,127.31,127.52,128.11,128.96,130.90,133.11,135.59,138.07,138.86,139.38,139.25,138.11,135.33,132.92,130.23,126.67,121.98,119.82,118.78,118.19,117.82,117.97,118.27,118.44,118.31,117.69,116.81,115.79,114.70,113.68,113.35,113.11,112.67,111.87,110.51,108.34,105.87,104.10,104.03,105.68,106.96,107.41,106.86,105.53,104.40,104.76,106.24,107.79,108.73,108.88,108.19,106.64,104.11,101.21,97.99,94.47,90.65,88.24,85.95,84.31,84.03,86.59,89.56,92.83,96.09,98.27,100.24,101.91,103.14,103.78,102.75,101.88,100.96,99.84,99.14,98.40,97.91,97.90,98.77,100.10,101.55,102.93,104.06,105.21,104.29,102.65,101.24,100.99,100.63,100.26,99.82,99.09,96.26,93.14,90.44,88.71,88.24,88.03,87.90,87.67,87.10,86.61,86.87,87.48,87.84,87.90,87.78,87.23,86.28,85.87,85.37,85.09,85.07,85.30,85.46,85.63,85.92,86.40,86.59,86.60,86.42,86.30,87.02,88.08,89.17,90.73,93.31,95.36,96.92,98.21,99.38,100.40,101.16,102.03,103.23,105.01,106.89,108.93
72.37,73.53,74.54,75.16,75.65,76.43,77.66,79.39,81.68,83.89,85.95,87.87,89.93,92.57,95.02,96.90,98.44,99.29,99.77,99.98,99.95,99.68,99.22,98.89,99.04,100.88,103.75,106.58,108.98,110.86,112.38,113.59,114.21,113.98,115.42,117.85,120.64,123.42,126.31,129.52,132.92,136.60,140.80,144.85,148.90,152.26,154.32,155.10,154.86,153.96,152.55,150.74,147.57,144.17,141.11,138.94,140.12,141.36,142.70,144.09,144.87,144.47,143.39,141.82,139.94,137.91,136.59,136.14,136.60,137.13,137.09,137.10,137.50,138.44,141.25,145.23,149.28,152.04,153.10,154.35,155.68,156.91,157.36,158.33,159.65,161.35,163.58,166.14,168.99,172.40,176.56,180.60,183.97,184.47,182.07,179.76,178.40,177.42,176.57,175.64,174.06,172.60,170.99,169.10,167.48,165.01,162.16,159.00,155.32,151.37,146.98,142.81,139.49,136.55,133.63,131.18,129.39,128.30,128.33,128.91,130.00,131.68,134.35,136.69,138.78,140.57,141.16,141.24,140.46,138.65,135.67,132.62,129.37,125.75,121.79,120.82,120.21,119.90,119.93,120.45,120.71,120.72,120.40,119.58,118.49,117.33,116.13,115.03,114.77,114.51,113.96,112.99,111.54,109.62,107.45,106.11,106.71,108.68,110.12,110.66,110.18,108.90,108.09,108.79,110.45,111.77,112.01,111.57,110.40,108.45,105.63,102.47,98.99,95.21,91.11,88.60,86.31,84.93,85.34,87.73,90.85,94.39,97.95,100.72,103.35,105.42,106.81,107.44,106.76,106.19,105.64,105.00,104.39,103.85,103.59,103.82,104.80,106.04,107.19,108.19,108.98,109.77,107.85,105.19,103.12,102.78,102.27,101.73,101.20,100.68,98.35,95.34,92.39,90.18,89.43,89.17,89.07,88.97,88.80,88.97,89.66,90.47,90.85,90.54,90.01,89.29,88.47,87.89,87.10,86.58,86.43,86.61,86.76,86.94,87.26,87.81,88.10,87.88,87.36,86.87,87.26,87.99,88.87,90.13,92.11,93.82,95.27,96.55,97.75,98.88,99.70,100.60,101.83,103.65,105.53,107.65
74.73,75.82,76.65,77.27,77.64,77.95,78.42,79.51,81.79,84.33,86.80,88.98,91.52,94.58,97.45,99.67,100.91,102.01,103.09,103.86,103.78,103.71,103.21,102.78,103.02,105.80,108.70,110.87,112.24,113.47,114.71,115.95,116.98,117.63,119.72,123.15,126.99,130.51,132.90,135.50,138.55,141.99,145.55,149.62,153.56,156.44,157.59,157.67,156.90,155.48,153.60,151.59,148.89,145.82,142.99,141.13,143.60,145.51,147.47,149.53,149.92,148.75,146.99,145.00,143.07,141.14,140.08,139.99,140.80,141.03,140.30,139.68,139.49,139.50,143.36,147.82,151.84,154.61,156.46,158.03,159.18,159.81,159.96,160.76,161.85,163.26,165.19,167.27,169.92,173.30,177.45,181.39,184.62,184.44,180.76,177.21,174.62,172.52,170.74,169.13,167.89,166.81,165.78,164.64,163.18,161.13,158.60,155.60,152.12,147.99,143.47,139.90,138.37,135.97,133.34,131.18,129.78,129.08,129.34,130.40,132.41,135.57,138.73,140.50,141.53,142.35,142.89,142.68,141.61,139.62,136.69,132.67,128.93,125.59,122.80,122.87,122.66,122.52,122.72,123.49,123.52,123.27,122.66,121.50,120.12,118.73,117.43,116.38,116.22,115.94,115.24,114.02,112.32,110.62,108.72,107.81,109.08,111.25,112.77,113.45,113.21,112.13,111.65,112.19,113.34,114.27,114.21,113.34,111.87,109.90,106.89,103.56,99.81,95.69,91.44,88.82,86.59,85.56,86.68,88.92,92.19,95.92,99.76,103.46,106.90,109.21,110.35,110.58,110.66,110.68,110.68,110.65,110.34,110.09,110.28,110.88,111.42,111.90,112.08,112.08,112.09,112.09,109.71,106.87,104.84,104.45,103.93,103.39,102.83,102.21,100.69,98.06,94.92,91.98,90.59,90.23,90.16,90.11,90.19,90.96,91.72,92.24,92.39,92.08,91.54,90.99,90.46,89.54,88.61,88.02,87.81,87.89,88.04,88.25,88.62,89.22,89.61,89.03,88.26,87.74,87.97,88.07,88.61,89.58,90.83,92.30,93.60,94.80,95.97,97.21,98.12,99.09,100.31,101.93,103.99,106.08
76.98,78.11,78.75,79.32,79.68,80.02,80.53,81.61,83.67,85.99,88.57,91.51,95.58,98.21,100.14,101.83,103.36,104.59,106.07,107.51,108.17,108.16,107.98,107.77,107.73,108.89,110.91,112.98,114.83,116.56,117.75,119.16,121.01,123.47,126.88,130.11,133.14,135.95,138.39,140.87,143.69,147.11,151.45,155.70,158.77,160.49,160.84,159.93,158.52,156.78,154.72,152.22,149.47,146.64,144.32,143.24,145.71,147.95,149.93,151.48,151.52,150.58,149.38,147.95,146.07,144.75,144.78,145.65,146.72,146.81,145.66,144.21,142.83,141.60,144.46,148.53,152.86,156.66,158.91,160.74,162.12,163.06,163.65,164.40,165.37,166.56,167.90,169.58,172.28,175.65,179.28,182.87,184.96,183.87,179.74,175.50,172.09,169.15,166.77,165.15,163.92,162.67,161.39,160.04,158.52,156.84,154.67,151.80,147.93,143.73,140.65,138.62,137.30,135.25,133.56,132.37,131.71,131.50,132.86,134.76,137.03,139.66,142.14,143.35,143.95,144.44,144.84,143.83,142.26,140.12,136.84,132.21,128.48,126.18,125.59,126.65,127.42,127.84,127.87,127.47,126.66,125.65,124.49,123.23,121.45,119.94,118.72,117.84,117.64,117.27,116.31,114.82,113.27,111.67,110.21,109.78,111.19,113.36,115.14,116.10,116.03,115.00,114.66,115.06,115.91,116.64,116.00,114.67,112.84,110.61,107.65,104.25,100.50,96.41,91.96,89.33,87.23,86.34,87.49,89.29,92.92,97.25,101.59,105.59,108.62,110.52,111.47,111.80,111.84,112.08,112.44,112.77,112.41,112.35,112.69,113.34,113.93,114.36,114.43,114.31,114.21,112.44,109.70,107.42,106.34,106.15,105.66,105.12,104.47,103.50,101.60,99.06,96.42,94.11,92.33,91.27,90.85,91.04,91.90,92.79,93.45,93.81,93.85,93.50,93.09,92.63,92.05,91.08,90.10,89.47,89.21,89.23,89.34,89.69,90.26,90.97,91.60,90.23,89.02,88.70,88.93,89.02,89.30,89.92,91.01,92.48,93.53,94.23,94.72,95.66,96.77,97.88,99.02,100.35,102.21,104.26
79.13,80.39,80.97,81.51,81.90,82.27,82.81,83.96,85.82,88.08,90.90,94.51,98.85,101.03,102.42,103.85,105.52,106.88,108.58,110.38,111.54,111.62,111.66,111.56,111.25,111.18,112.40,114.25,116.37,118.42,120.29,122.57,125.61,129.65,133.53,136.25,138.93,141.98,144.39,146.75,149.54,152.93,157.02,160.87,163.25,164.24,164.02,162.36,160.31,158.05,155.58,152.70,149.92,147.36,145.52,145.05,147.43,149.76,151.79,153.19,153.10,152.36,151.53,150.50,148.82,148.10,148.72,149.93,150.95,150.97,149.73,147.92,145.87,143.66,145.53,149.09,153.60,158.40,161.07,163.19,164.82,166.05,167.03,167.95,168.98,170.10,171.12,172.57,175.16,178.27,181.28,184.57,185.34,183.32,178.96,174.16,169.99,166.18,163.14,161.49,160.32,158.81,157.09,155.32,153.94,152.58,150.76,148.11,144.08,140.68,138.78,137.68,136.60,135.13,134.43,134.19,134.24,134.44,136.62,139.19,141.67,143.78,145.50,146.20,146.42,146.56,146.53,145.02,143.09,140.69,137.02,131.92,128.49,127.36,128.71,130.70,132.13,132.73,132.39,131.13,129.53,127.87,126.23,124.68,122.64,121.09,120.08,119.57,119.26,118.68,117.57,116.00,114.45,112.84,111.71,111.65,113.19,115.35,117.33,118.50,118.60,117.74,117.53,117.79,118.30,118.71,117.48,115.71,113.54,111.06,108.08,104.68,100.98,96.96,92.40,89.74,87.79,87.06,88.15,89.83,93.88,98.66,103.21,107.34,109.91,111.55,112.50,113.01,113.13,113.57,114.19,114.74,114.42,114.59,115.09,115.77,116.39,116.72,116.65,116.34,115.91,113.11,110.25,108.36,107.82,107.77,107.37,106.86,106.05,104.55,102.41,100.02,97.74,95.83,93.89,92.31,91.75,92.33,93.65,94.65,95.23,95.45,95.38,94.99,94.66,94.26,93.67,92.65,91.71,90.98,90.51,90.34,90.44,91.01,91.83,92.71,93.61,92.10,91.06,91.33,91.96,92.14,92.30,92.58,93.04,93.89,94.58,94.89,94.85,95.41,96.25,97.14,98.05,99.04,100.62,102.55
81.15,82.66,83.33,83.87,84.34,84.76,85.34,86.63,88.32,90.72,93.97,98.10,101.07,102.78,104.15,105.69,107.32,108.79,110.48,112.22,113.58,113.76,113.90,113.77,113.17,112.41,112.94,114.41,116.52,118.67,122.16,126.25,130.95,136.28,139.46,141.32,144.24,148.80,151.06,153.31,156.33,159.67,162.13,164.82,166.76,167.60,167.11,165.01,162.32,159.30,156.11,152.98,150.22,147.95,146.54,146.45,148.64,150.77,152.85,154.62,154.68,154.08,153.37,152.52,151.23,151.10,151.62,152.37,152.94,153.01,152.08,150.55,148.49,145.64,146.57,149.47,153.96,159.75,162.86,165.32,167.23,168.71,169.98,171.36,172.70,173.94,175.02,176.47,178.74,181.25,183.50,186.54,185.78,182.82,178.51,173.31,168.49,163.75,159.93,158.24,157.21,155.33,152.91,150.45,149.47,148.38,146.88,144.57,140.68,139.25,138.14,137.19,136.40,135.82,136.16,136.84,137.55,138.05,140.70,143.70,146.32,147.93,148.82,149.06,148.96,148.71,147.89,146.28,144.16,141.36,137.24,131.88,129.12,129.33,132.27,135.09,136.77,137.05,136.02,134.38,132.04,129.87,127.87,125.78,123.63,122.15,121.53,121.66,121.15,120.22,119.06,117.68,115.93,114.17,113.20,113.41,115.04,117.21,119.30,120.59,120.83,120.32,120.23,120.34,120.47,120.38,118.56,116.37,113.89,111.18,108.10,104.76,101.18,97.28,92.72,90.02,88.26,87.70,88.61,90.58,95.15,100.17,104.53,108.56,110.66,112.20,113.41,114.22,114.58,115.20,115.93,116.54,116.37,116.85,117.52,118.20,118.82,118.97,118.73,118.11,117.06,114.21,111.55,109.83,109.30,109.29,109.07,108.62,107.57,105.28,103.11,100.92,98.85,96.99,95.20,93.34,92.95,94.12,95.43,96.53,97.09,97.19,96.98,96.59,96.26,95.88,95.33,94.25,93.48,92.59,91.68,91.12,91.31,92.17,93.33,94.46,95.65,94.86,94.81,96.17,97.75,98.10,98.37,98.32,97.49,96.91,97.09,97.19,96.83,96.90,96.83,97.02,97.51,98.10,99.28,100.98
