81.07,76.18,72.58,70.14,69.22,68.73,68.44,68.79,70.11,71.77,73.46,74.90,75.73,76.12,75.95,75.21,74.12,72.84,71.71,71.01,71.12,72.63,74.54,76.26,77.22,76.34,75.47,74.84,74.82,76.28,77.73,79.64,82.80,88.03,93.83,98.58,101.93,103.98,106.13,105.12,103.28,101.20,99.02,96.41,94.24,92.74,91.98,91.56,91.20,90.98,91.01,91.46,93.71,96.00,98.18,100.37,102.46,103.45,102.88,100.59,97.06,92.72,89.56,88.37,89.72,94.53,98.54,101.31,102.83,104.32,103.58,102.10,100.77,100.42,102.28,104.90,107.79,110.53,111.98,113.53,114.28,113.71,112.14,110.34,106.67,101.68,97.54,94.58,93.91,94.86,96.60,98.24,100.49,103.33,106.70,110.43,114.34,117.76,120.74,123.49,124.70,124.63,123.76,122.29,119.36,116.37,113.65,111.19,108.70,107.04,105.34,103.57,101.73,99.45,95.25,90.46,85.95,82.83,86.28,89.28,90.88,91.40,91.35,91.19,90.96,90.61,89.56,86.19,81.98,77.97,75.68,73.72,72.13,70.81,69.69,69.33,68.91,68.68,68.78,69.24,69.64,70.75,72.59,74.90,77.28,79.84,82.43,84.98,87.53,89.82,92.13,94.37,96.15,95.12,93.85,92.52,91.07,89.63,88.07,86.50,84.94,83.35,82.35,81.66,81.30,81.39,80.99,80.85,81.00,81.37,81.54,82.03,82.58,83.13,83.69,84.33,84.94,85.08,84.30,83.32,82.37,81.41,80.30,78.58,75.81,73.31,71.44,70.33,69.95,69.78,69.70,69.62,69.55,69.49,69.45,69.41,69.31,69.21,69.07,68.93,68.80,68.64,68.53,68.43,68.36,68.28,68.25,68.32,68.48,68.63,68.79,68.94,69.13,69.38,69.56,69.78,70.14,70.65,71.19,71.74,72.25,72.72,73.13,73.61,74.31,75.04,75.75,76.52,77.14,77.76,78.40,79.01,79.63,80.11,80.54,81.00,81.38,81.77,82.21,82.68,83.09,83.57,84.09,84.63,85.17,85.60,85.98,86.35,86.74,87.16,87.59,87.99,88.37,88.81,89.94,90.89
79.12,75.22,71.24,69.49,68.59,67.95,67.59,68.19,69.12,70.37,71.69,72.78,73.41,73.65,73.48,72.96,72.16,71.05,70.01,69.37,69.52,71.37,73.49,75.34,76.38,75.46,74.54,73.95,74.09,75.70,77.24,78.86,81.78,87.39,93.04,98.04,101.63,103.65,105.31,104.68,103.22,101.44,99.71,95.87,93.19,91.52,90.59,90.42,90.42,90.41,90.36,90.47,92.51,94.93,97.56,100.43,102.23,102.60,101.73,99.60,95.33,91.24,88.42,87.51,89.26,94.75,98.92,101.62,102.98,102.94,101.85,100.28,98.83,98.74,101.11,104.06,107.17,110.14,111.39,112.86,113.68,113.34,111.87,109.72,105.49,100.00,95.75,93.16,92.79,93.94,95.78,97.62,99.72,102.55,106.13,109.91,113.26,116.30,118.89,120.81,122.11,122.11,121.31,119.93,116.99,113.76,111.09,108.99,106.95,105.64,104.10,102.44,100.82,98.29,94.64,90.40,85.88,81.28,84.03,87.56,90.05,90.38,90.37,90.26,90.10,89.72,87.64,83.92,79.82,75.91,72.74,70.86,70.10,69.87,69.50,69.19,68.81,68.64,68.78,69.24,69.64,70.78,72.69,75.15,77.83,80.48,83.07,85.62,88.17,90.06,92.02,93.94,94.93,94.25,93.40,92.34,90.95,89.55,88.04,86.50,84.95,83.40,81.77,80.23,79.24,79.54,79.23,79.23,79.47,79.85,80.22,80.79,81.37,81.92,82.54,83.22,83.91,84.38,84.36,83.43,82.50,81.54,80.52,79.39,76.96,74.79,72.98,71.18,70.20,69.84,69.77,69.69,69.61,69.59,69.55,69.46,69.31,69.16,69.01,68.88,68.80,68.64,68.49,68.37,68.29,68.22,68.14,68.20,68.35,68.50,68.66,68.81,69.03,69.32,69.55,69.78,70.09,70.49,70.89,71.28,71.68,72.09,72.56,73.24,73.99,74.73,75.43,76.20,76.90,77.59,78.27,78.89,79.50,80.02,80.48,80.93,81.32,81.71,82.17,82.69,83.15,83.68,84.22,84.76,85.30,85.83,86.31,86.74,87.11,87.43,87.81,88.15,88.49,88.88,90.00,90.95
80.69,77.47,73.40,70.61,69.16,68.19,67.42,66.94,67.79,68.85,69.84,70.55,70.98,71.12,71.03,70.74,70.10,69.33,68.52,68.11,68.90,70.71,72.82,74.66,75.66,74.64,73.63,73.07,73.35,75.11,76.80,78.44,81.16,86.22,92.14,97.50,101.15,102.85,104.38,104.42,103.49,101.96,100.35,96.82,93.19,90.51,89.50,89.48,89.46,89.35,89.24,89.54,91.22,93.82,96.97,100.19,101.65,102.01,101.34,99.39,94.52,90.59,87.77,86.71,88.63,93.96,98.42,101.31,102.26,101.83,100.41,98.42,96.90,98.60,101.15,103.87,106.72,109.76,111.09,112.41,113.05,112.63,111.34,108.44,103.70,98.10,93.85,91.72,91.82,93.26,95.06,96.73,98.96,102.07,105.99,109.86,112.77,115.09,116.95,118.48,119.43,118.38,116.51,114.52,111.76,109.03,107.27,106.27,104.95,103.62,102.29,100.77,98.86,96.22,93.00,88.91,84.21,80.41,81.45,84.19,87.09,88.58,89.27,89.43,89.14,88.42,86.80,83.42,79.07,74.54,71.11,69.99,69.60,69.45,69.19,68.88,68.55,68.46,68.72,69.18,69.62,70.97,73.17,75.82,78.57,81.14,83.60,86.00,88.37,90.16,91.82,93.24,93.85,93.18,92.39,91.51,90.48,89.27,87.98,86.56,85.00,83.41,81.77,79.71,78.03,78.16,78.13,78.28,78.58,78.97,79.36,79.86,80.41,81.02,81.68,82.46,83.21,83.80,84.02,83.27,82.43,81.57,80.75,79.89,78.07,76.17,74.35,72.54,71.08,70.21,69.83,69.75,69.67,69.62,69.54,69.41,69.25,69.14,69.00,68.86,68.74,68.58,68.46,68.35,68.22,68.10,68.02,68.07,68.22,68.38,68.58,68.78,68.98,69.20,69.43,69.63,69.85,70.10,70.35,70.68,71.07,71.56,72.16,72.90,73.63,74.37,75.11,75.88,76.59,77.31,78.03,78.70,79.36,79.92,80.41,80.87,81.31,81.77,82.28,82.81,83.27,83.80,84.34,84.89,85.43,85.97,86.48,86.98,87.44,87.80,88.18,88.52,88.85,89.24,90.10,91.08
82.90,80.12,76.07,72.51,70.39,68.88,67.59,66.23,66.53,67.25,67.99,68.47,68.76,68.84,68.79,68.62,68.17,67.64,67.08,67.02,68.38,70.12,72.16,73.95,74.92,73.75,72.67,72.15,72.56,74.43,76.23,77.95,80.48,84.88,90.93,96.67,100.55,102.12,103.53,104.10,103.56,102.22,100.80,97.80,93.65,90.15,88.76,88.50,88.39,88.22,88.10,88.65,90.08,92.73,96.11,99.43,100.86,101.34,100.82,98.95,93.88,90.04,87.09,85.82,87.93,92.75,97.41,100.57,101.24,100.12,98.36,96.53,95.74,98.89,101.36,103.83,106.47,109.42,110.76,111.92,112.39,111.91,110.80,107.08,101.98,96.55,92.32,90.47,90.79,92.29,93.99,95.73,98.12,101.39,105.38,109.28,111.90,113.60,114.77,115.90,116.08,114.04,111.20,108.56,106.23,104.11,103.03,102.73,102.06,100.93,99.77,98.31,96.24,93.66,90.81,86.89,82.28,79.57,79.55,81.51,84.35,86.54,87.76,88.39,88.17,87.03,85.76,82.92,78.56,73.57,70.08,69.51,69.28,69.11,68.87,68.58,68.31,68.34,68.70,69.14,69.59,71.04,73.41,76.22,79.02,81.53,83.86,86.11,88.28,89.97,91.31,92.28,92.65,92.07,91.36,90.49,89.40,88.33,87.26,86.14,84.91,83.44,81.84,79.57,77.57,77.53,77.54,77.62,77.84,78.21,78.63,79.10,79.65,80.27,80.96,81.78,82.53,83.14,83.51,83.07,82.35,81.59,80.89,80.20,78.83,77.21,75.46,73.72,72.01,70.76,70.04,69.81,69.72,69.64,69.52,69.37,69.21,69.11,68.99,68.85,68.70,68.54,68.43,68.31,68.16,68.02,67.92,67.95,68.09,68.25,68.48,68.70,68.90,69.07,69.29,69.45,69.61,69.76,69.90,70.16,70.55,71.09,71.80,72.57,73.29,74.02,74.79,75.56,76.29,77.03,77.79,78.50,79.22,79.84,80.38,80.86,81.34,81.87,82.40,82.92,83.40,83.93,84.46,84.99,85.53,86.07,86.61,87.15,87.68,88.10,88.52,88.89,89.23,89.62,90.30,91.25
85.74,83.01,79.14,75.58,72.63,70.23,68.28,66.58,65.45,65.49,66.16,66.68,66.92,66.98,66.89,66.68,66.47,65.98,65.72,66.15,67.85,69.56,71.45,73.14,74.14,72.72,71.62,71.18,71.67,73.60,75.45,77.28,79.66,83.27,89.18,95.35,99.74,101.58,102.85,103.65,103.24,101.99,100.91,98.64,94.77,90.95,88.62,87.42,87.16,87.03,86.99,87.79,89.20,91.69,94.79,97.78,99.75,100.45,99.92,98.00,93.42,89.53,86.27,84.74,87.15,90.94,95.60,99.14,99.80,97.30,95.19,94.57,95.98,99.72,101.68,103.95,106.56,109.17,110.35,111.33,111.68,111.22,110.27,105.66,100.49,95.67,91.49,89.60,89.60,90.75,92.30,94.59,97.18,100.28,103.89,107.70,110.26,111.59,112.19,112.83,111.58,108.77,105.31,102.08,100.59,99.14,98.21,97.80,97.62,97.12,96.06,94.53,92.62,90.39,87.76,84.16,80.14,78.72,78.93,80.33,82.33,84.18,85.54,86.98,87.18,85.55,84.18,82.17,78.25,73.23,69.94,69.43,69.09,68.79,68.55,68.31,68.17,68.32,68.75,69.15,69.55,70.89,73.18,76.09,78.94,81.43,83.67,85.77,87.75,89.27,90.29,90.86,91.18,90.92,90.36,89.23,87.29,86.28,85.40,84.86,84.53,83.51,81.97,79.98,78.30,78.17,77.79,77.38,77.24,77.58,78.10,78.63,79.17,79.75,80.45,81.23,81.83,82.32,82.76,82.81,82.30,81.59,80.89,80.20,79.00,77.63,76.13,74.48,72.97,71.59,70.51,69.87,69.73,69.64,69.52,69.37,69.21,69.07,68.96,68.85,68.70,68.54,68.39,68.25,68.10,68.01,67.88,67.86,67.97,68.12,68.35,68.54,68.72,68.94,69.10,69.26,69.42,69.56,69.64,69.81,70.16,70.72,71.48,72.26,72.97,73.70,74.47,75.25,76.01,76.78,77.55,78.31,79.07,79.78,80.40,80.93,81.46,82.00,82.50,82.99,83.52,84.06,84.56,85.05,85.59,86.14,86.68,87.22,87.76,88.28,88.80,89.24,89.62,90.00,90.68,91.51
89.06,86.21,82.26,78.19,74.84,71.85,69.19,67.18,65.59,64.68,64.46,64.84,65.03,65.11,64.99,64.70,64.51,64.15,64.48,65.60,67.34,69.08,70.87,72.48,73.51,71.96,70.75,70.23,70.62,72.28,74.12,76.19,78.77,82.22,87.54,93.72,98.56,101.04,102.08,102.93,102.80,101.90,100.94,99.19,95.69,91.80,88.84,87.37,86.47,85.97,86.02,87.18,88.58,90.68,93.30,96.07,98.43,99.22,98.62,96.67,92.86,89.23,85.91,84.04,85.80,88.83,92.21,94.59,94.82,92.63,91.56,92.77,96.19,100.09,101.99,104.06,106.38,108.61,109.88,110.71,110.93,110.34,108.40,104.29,100.14,96.28,92.22,89.70,88.71,89.09,90.58,92.86,95.34,98.20,101.44,104.88,107.28,108.63,109.07,108.90,107.04,104.28,101.45,99.20,98.12,96.62,95.17,93.99,93.24,92.61,91.29,89.67,88.19,86.38,84.28,81.77,79.19,78.03,78.20,79.29,80.93,82.63,84.10,85.76,86.26,84.92,83.33,81.53,77.63,72.57,69.88,69.37,69.03,68.69,68.38,68.07,68.06,68.30,68.71,69.10,69.49,70.52,72.47,75.56,78.61,81.13,83.22,85.03,86.80,88.01,88.63,88.76,88.67,88.34,87.78,86.69,84.88,84.00,83.49,83.28,83.19,82.61,81.61,80.23,78.95,78.56,78.02,77.48,77.09,77.00,77.58,78.16,78.74,79.34,79.99,80.65,81.18,81.66,82.15,82.38,82.05,81.45,80.78,80.01,78.74,77.34,75.89,74.38,73.03,71.68,70.55,69.84,69.72,69.61,69.47,69.32,69.16,69.01,68.88,68.75,68.60,68.48,68.34,68.18,68.03,67.92,67.77,67.72,67.80,67.99,68.18,68.35,68.54,68.76,68.92,69.07,69.22,69.36,69.44,69.62,69.98,70.54,71.32,72.09,72.83,73.58,74.36,75.17,75.95,76.72,77.51,78.32,79.05,79.68,80.29,80.94,81.48,82.02,82.55,83.06,83.60,84.14,84.65,85.17,85.71,86.25,86.79,87.33,87.87,88.41,88.95,89.47,90.00,90.58,91.23,92.02
92.27,89.30,85.38,80.72,77.01,73.49,70.17,67.84,66.08,64.36,63.20,63.18,63.19,63.23,63.09,62.72,62.53,62.42,63.37,65.14,66.93,68.75,70.45,71.90,72.83,71.25,69.95,69.34,69.61,70.93,72.78,75.10,77.91,81.25,86.03,91.93,97.16,100.55,101.38,102.19,102.34,101.81,100.90,99.52,96.36,92.51,89.13,87.55,86.04,85.06,85.00,86.44,87.78,89.65,92.00,94.63,97.12,97.89,97.19,95.23,92.21,88.94,85.63,83.36,84.18,86.56,88.55,89.63,89.44,87.84,88.22,91.22,96.20,100.26,102.20,104.03,105.92,107.72,109.08,109.87,110.08,109.47,106.53,103.27,100.29,97.29,93.35,90.10,88.10,87.62,88.78,90.91,93.25,95.91,98.85,101.78,103.87,105.19,105.57,104.79,102.73,100.42,98.51,97.33,96.46,94.78,92.73,90.63,88.89,87.78,86.25,84.77,83.81,82.51,81.04,79.66,78.44,77.33,77.43,78.37,79.85,81.48,83.03,84.70,85.40,84.49,82.74,80.93,76.96,71.92,69.82,69.32,68.99,68.65,68.27,67.88,67.97,68.27,68.65,69.04,69.41,70.09,71.63,74.79,78.05,80.64,82.62,84.14,85.70,86.55,86.76,86.44,85.88,85.30,84.65,83.75,82.44,81.79,81.63,81.63,81.60,81.40,80.93,80.14,79.24,78.62,78.00,77.49,76.99,76.54,77.13,77.74,78.35,78.95,79.55,80.08,80.58,81.06,81.55,81.85,81.65,81.15,80.48,79.60,78.26,76.82,75.38,73.97,72.73,71.46,70.41,69.78,69.69,69.55,69.39,69.24,69.08,68.94,68.79,68.64,68.48,68.39,68.26,68.10,67.95,67.79,67.65,67.58,67.63,67.86,68.02,68.17,68.35,68.57,68.72,68.88,69.04,69.21,69.31,69.52,69.89,70.44,71.22,72.00,72.78,73.55,74.33,75.17,75.96,76.74,77.53,78.37,79.06,79.59,80.16,80.93,81.48,82.01,82.52,83.04,83.56,84.08,84.64,85.21,85.76,86.32,86.86,87.40,87.94,88.50,89.04,89.62,90.28,91.06,91.72,92.47
94.68,91.76,88.47,83.37,79.06,74.99,71.24,68.52,66.67,64.88,63.29,62.20,61.57,61.37,61.15,60.77,60.78,61.20,62.58,64.67,66.86,68.88,70.44,71.46,71.82,70.44,69.23,68.64,68.84,69.87,71.87,74.36,77.14,80.10,84.83,89.93,95.31,100.22,101.01,101.64,101.86,101.58,100.77,99.35,96.33,92.67,89.38,87.65,85.98,84.52,83.76,85.05,86.15,88.50,91.49,94.11,96.00,96.51,95.68,93.72,91.34,88.46,85.17,82.44,82.12,84.02,85.38,85.97,85.74,84.24,86.29,90.44,95.59,100.14,102.14,103.53,104.73,105.99,107.20,108.27,108.94,108.76,105.83,103.39,101.07,98.38,94.44,90.67,88.13,86.84,86.79,88.78,91.08,93.76,96.62,98.86,100.17,101.02,101.32,100.83,99.21,97.98,96.87,95.72,94.75,93.05,90.72,87.84,84.57,82.44,81.24,80.64,80.27,79.71,79.02,78.22,77.33,76.41,76.66,77.76,79.34,80.97,82.57,84.08,84.71,83.99,82.40,80.41,76.40,71.54,69.74,69.26,68.92,68.59,68.20,67.82,67.94,68.25,68.59,68.97,69.31,69.71,70.82,73.58,76.94,79.69,81.75,83.15,84.41,84.93,84.74,83.98,83.04,81.92,81.10,80.55,80.17,80.00,80.00,80.04,80.03,79.98,79.61,79.05,78.41,77.79,77.17,76.90,76.71,76.46,76.90,77.48,78.07,78.61,79.11,79.59,80.10,80.55,80.85,81.09,80.92,80.41,79.63,78.66,77.47,76.14,74.72,73.27,72.03,70.83,69.98,69.71,69.57,69.42,69.27,69.11,68.96,68.86,68.73,68.57,68.42,68.28,68.13,67.97,67.82,67.67,67.56,67.49,67.50,67.74,67.89,68.05,68.21,68.38,68.53,68.69,68.90,69.16,69.36,69.59,69.92,70.44,71.22,72.05,72.84,73.61,74.39,75.18,76.00,76.80,77.58,78.37,79.01,79.49,80.05,80.87,81.47,81.93,82.35,82.77,83.19,83.61,84.24,84.97,85.57,86.17,86.73,87.27,87.82,88.42,88.97,89.56,90.23,91.06,91.86,92.54
96.32,93.32,90.18,85.36,80.70,76.07,71.78,68.76,66.90,65.19,63.58,62.12,61.01,60.49,60.19,59.94,60.02,60.40,61.82,64.07,66.49,68.77,70.31,71.05,70.99,69.81,68.59,67.96,68.16,69.28,71.20,73.64,76.37,79.15,83.34,87.83,93.07,98.52,100.38,101.12,101.32,101.10,100.43,98.83,96.05,92.69,89.41,87.50,85.73,83.96,82.66,83.44,84.56,87.39,90.92,93.58,94.82,95.09,94.30,92.61,91.00,88.62,85.06,81.54,80.72,81.73,82.40,82.65,82.50,81.59,84.07,88.48,93.79,98.61,100.90,102.15,103.00,104.05,105.21,106.40,107.44,107.90,105.72,103.71,101.69,99.18,95.31,91.06,88.13,86.25,85.15,87.15,89.40,91.93,94.53,96.40,97.41,97.92,97.91,97.29,96.05,95.44,94.83,93.88,93.01,91.41,88.80,85.35,81.63,79.65,78.72,78.39,78.19,77.81,77.37,76.81,76.12,75.37,76.06,77.36,78.93,80.45,81.95,83.37,84.01,83.45,81.94,79.68,75.60,70.98,69.65,69.20,68.86,68.52,68.14,67.75,67.87,68.16,68.47,68.83,69.17,69.49,70.24,72.08,75.26,78.15,80.43,81.96,82.95,83.25,82.79,81.68,80.24,79.01,78.34,78.22,78.55,78.55,78.56,78.58,78.61,78.61,78.30,77.92,77.45,76.83,76.83,76.94,76.85,76.42,76.64,77.13,77.66,78.16,78.62,79.06,79.39,79.68,79.97,80.07,79.86,79.38,78.63,77.62,76.54,75.35,74.04,72.57,71.33,70.37,69.79,69.60,69.45,69.29,69.14,68.99,68.87,68.76,68.62,68.47,68.31,68.16,68.03,67.89,67.74,67.58,67.46,67.37,67.37,67.57,67.75,67.92,68.09,68.27,68.46,68.67,68.92,69.19,69.42,69.65,70.00,70.52,71.26,72.08,72.86,73.65,74.45,75.22,76.03,76.84,77.63,78.37,78.93,79.37,79.85,80.46,80.98,81.39,81.78,82.19,82.71,83.28,84.03,84.80,85.38,86.00,86.56,87.12,87.68,88.20,88.66,89.14,89.74,90.59,91.41,92.05
97.45,94.27,91.00,86.82,82.00,76.87,72.02,68.79,66.98,65.43,63.98,62.52,61.04,60.17,59.77,59.70,59.77,59.85,61.10,63.37,65.92,68.47,70.05,70.60,70.21,69.17,67.91,67.25,67.56,68.98,70.74,73.03,75.66,78.35,81.71,85.69,90.60,96.06,99.45,100.48,100.69,100.45,99.88,98.08,95.58,92.57,89.33,87.23,85.35,83.36,81.62,81.75,83.04,86.32,90.28,93.02,93.61,93.70,93.07,91.80,90.95,89.14,85.26,80.89,79.74,79.74,79.76,79.75,79.74,79.60,81.79,85.92,91.28,96.12,98.81,100.14,100.90,102.00,103.22,104.45,105.79,106.93,105.86,104.07,102.15,99.79,96.01,91.33,88.11,85.73,83.75,85.83,88.01,90.29,92.51,94.18,95.09,95.33,94.94,94.01,93.09,92.83,92.56,91.90,91.20,89.72,86.88,83.06,79.54,78.23,77.49,77.09,76.83,76.36,75.90,75.40,74.87,74.34,75.57,77.08,78.58,79.98,81.27,82.62,83.30,82.86,81.43,78.85,74.69,70.37,69.55,69.13,68.79,68.45,68.07,67.69,67.76,68.02,68.33,68.65,69.02,69.36,69.79,70.53,73.29,76.20,78.73,80.48,81.25,81.39,80.74,79.36,77.46,76.37,76.03,76.38,77.27,77.28,77.25,77.25,77.31,77.31,77.07,76.84,76.54,76.00,76.83,77.31,77.17,76.40,76.37,76.73,77.19,77.65,78.10,78.46,78.54,78.61,78.98,78.89,78.63,78.18,77.51,76.53,75.53,74.49,73.32,71.87,70.65,70.02,69.70,69.48,69.32,69.16,69.01,68.87,68.79,68.64,68.49,68.34,68.18,68.03,67.93,67.82,67.66,67.51,67.36,67.25,67.24,67.39,67.62,67.81,67.99,68.23,68.46,68.75,69.02,69.25,69.48,69.72,70.10,70.64,71.34,72.10,72.87,73.67,74.51,75.29,76.06,76.87,77.68,78.37,78.83,79.24,79.59,79.89,80.26,80.65,81.05,81.52,82.22,83.05,83.90,84.65,85.19,85.80,86.33,86.87,87.44,87.82,88.14,88.50,89.02,89.87,90.65,91.28
97.61,93.99,89.97,86.43,82.14,77.11,72.05,68.97,67.30,65.88,64.54,63.22,61.59,60.43,59.79,59.63,59.59,59.70,60.59,62.35,64.90,67.45,69.19,69.81,69.16,67.77,66.36,66.17,67.36,69.02,71.03,73.27,75.63,78.00,80.12,83.60,88.04,92.96,96.98,98.70,99.38,99.30,98.49,96.67,94.51,92.01,89.25,87.00,84.83,82.53,80.55,80.44,81.92,85.36,89.38,92.12,92.36,92.78,92.73,91.93,91.14,90.03,86.72,82.26,79.74,79.39,79.31,79.29,79.24,79.25,80.28,83.21,87.71,91.56,94.45,96.28,97.76,99.90,101.66,103.12,104.47,105.64,105.51,103.88,102.07,99.86,96.13,91.37,87.85,85.12,82.85,84.88,86.82,88.73,90.53,91.85,92.47,92.52,92.05,91.07,90.30,90.08,89.99,89.72,88.97,87.32,84.54,81.22,78.84,77.40,76.41,75.76,75.36,74.89,74.43,73.96,73.62,73.98,75.31,76.79,78.28,79.78,80.94,82.06,82.58,82.14,81.11,78.11,73.90,69.99,69.46,69.07,68.70,68.33,67.94,67.61,67.62,67.83,68.15,68.51,68.85,69.17,69.50,69.89,71.14,73.27,75.57,77.41,78.18,78.24,77.52,76.17,74.62,74.06,74.29,75.06,76.00,76.11,76.28,76.40,76.42,76.42,76.48,76.53,76.63,76.88,77.77,77.76,77.19,76.44,76.11,76.29,76.70,77.17,77.47,77.50,77.42,77.46,77.83,77.53,77.23,76.78,76.13,75.35,74.42,73.46,72.41,71.16,70.24,69.80,69.59,69.41,69.20,69.04,68.85,68.67,68.60,68.45,68.33,68.21,68.06,67.90,67.76,67.65,67.54,67.38,67.23,67.15,67.18,67.39,67.62,67.84,68.06,68.29,68.52,68.77,69.04,69.32,69.55,69.78,70.25,70.88,71.53,72.24,72.96,73.71,74.51,75.34,76.12,76.91,77.66,78.30,78.72,79.04,79.29,79.50,79.72,80.07,80.62,81.33,82.08,82.92,83.74,84.46,85.00,85.56,85.72,85.91,86.34,86.62,86.92,87.42,88.13,88.98,89.80,90.48
96.77,92.72,88.65,85.46,81.74,77.34,72.79,69.65,68.04,66.62,65.22,63.82,62.04,60.60,59.76,59.55,59.45,59.59,60.18,61.51,63.95,66.24,67.81,68.33,67.62,66.18,65.22,65.71,67.55,69.41,71.40,73.48,75.61,77.70,79.03,81.50,85.10,89.60,93.89,96.00,97.06,97.32,96.76,95.26,93.41,91.08,88.19,84.98,83.02,81.33,79.86,79.65,80.87,84.29,88.47,91.36,91.65,92.27,92.58,92.24,91.46,90.69,88.19,84.17,79.89,79.31,79.06,78.91,78.77,78.90,79.41,81.34,84.65,87.92,90.51,92.49,94.50,97.36,100.19,101.96,103.31,104.52,105.04,103.67,102.06,100.14,96.88,91.58,87.63,84.55,81.94,83.74,85.48,87.11,88.59,89.78,90.18,90.09,89.58,88.71,87.99,87.66,87.55,87.41,86.67,85.03,82.55,79.79,77.96,76.45,75.25,74.43,73.99,73.53,73.08,72.68,72.55,73.48,74.91,76.42,77.94,79.49,80.57,81.53,81.91,81.50,80.68,77.17,73.04,69.75,69.39,69.01,68.62,68.24,67.88,67.55,67.50,67.67,67.99,68.32,68.63,68.94,69.24,69.49,69.93,71.16,72.65,73.91,74.41,74.43,73.92,73.04,72.20,72.56,73.43,74.56,75.69,76.11,76.45,76.65,76.72,76.75,76.93,77.09,77.32,77.80,78.36,78.06,77.37,76.72,76.24,76.07,76.20,76.48,76.58,76.47,76.32,76.32,76.60,76.16,75.82,75.37,74.75,74.11,73.27,72.38,71.46,70.52,69.92,69.63,69.47,69.31,69.11,68.92,68.73,68.54,68.41,68.26,68.15,68.05,67.89,67.77,67.62,67.49,67.38,67.25,67.10,67.03,67.10,67.36,67.62,67.86,68.09,68.32,68.55,68.80,69.07,69.35,69.61,69.89,70.43,71.10,71.72,72.41,73.11,73.81,74.55,75.37,76.17,76.94,77.64,78.18,78.49,78.73,78.91,79.04,79.16,79.58,80.27,81.16,81.98,82.81,83.58,84.21,84.56,84.84,84.79,84.84,85.19,85.44,85.83,86.44,87.23,88.05,88.90,89.61
95.07,90.59,87.06,83.97,80.86,77.58,74.14,70.75,69.12,67.61,66.02,64.32,62.40,60.70,59.70,59.48,59.33,59.50,59.87,60.81,63.06,64.87,65.98,66.26,65.65,64.41,64.43,65.79,68.09,70.09,71.83,73.68,75.59,77.43,78.37,79.40,81.82,86.01,90.26,92.48,93.85,94.62,94.76,93.85,92.30,89.84,86.27,81.38,80.11,79.80,79.48,79.33,79.89,83.13,87.54,90.73,91.41,92.11,92.60,92.68,91.91,91.14,89.66,86.52,80.17,79.45,79.00,78.60,78.33,78.56,79.09,80.18,82.05,85.07,86.93,88.77,91.12,94.44,98.79,100.97,102.28,103.55,104.46,103.45,102.13,100.60,98.18,91.93,87.43,84.02,81.02,82.42,84.00,85.44,86.68,87.92,88.20,87.99,87.48,86.85,86.08,85.54,85.21,84.99,84.29,82.83,80.86,78.71,76.94,75.38,74.04,73.10,72.71,72.25,71.84,71.56,71.64,72.87,74.38,75.96,77.56,79.11,80.19,81.00,81.29,80.93,80.16,76.05,72.11,69.63,69.32,68.94,68.55,68.19,67.88,67.50,67.40,67.55,67.84,68.08,68.38,68.69,69.00,69.30,69.54,69.75,69.92,70.02,70.04,70.04,69.98,69.95,70.15,71.77,73.33,74.79,76.22,77.14,77.60,77.87,78.07,78.15,78.29,78.40,78.53,78.77,78.64,78.22,77.71,77.23,76.69,76.04,75.68,75.59,75.45,75.36,75.24,75.19,75.32,74.78,74.41,73.97,73.36,72.82,72.07,71.26,70.48,69.93,69.68,69.50,69.34,69.19,69.03,68.82,68.63,68.45,68.23,68.06,67.96,67.86,67.70,67.62,67.49,67.34,67.19,67.12,66.97,66.90,66.98,67.29,67.60,67.86,68.09,68.32,68.55,68.84,69.11,69.36,69.67,70.05,70.62,71.29,71.91,72.60,73.30,73.96,74.61,75.38,76.22,76.98,77.60,77.99,78.16,78.32,78.44,78.52,78.60,79.16,80.00,80.98,81.91,82.70,83.42,83.91,83.92,83.70,83.58,83.67,83.98,84.29,84.85,85.55,86.32,87.09,87.94,88.69
93.78,89.26,85.84,82.85,79.93,77.07,74.31,71.77,69.95,67.97,65.81,63.58,61.27,60.07,59.51,59.30,59.19,59.37,59.68,60.36,61.88,63.28,64.02,64.07,63.45,62.45,63.72,66.19,69.01,70.87,72.59,74.11,75.23,75.74,76.04,76.72,78.39,81.24,84.54,87.95,90.57,92.17,92.76,92.39,91.05,88.48,84.62,80.73,79.48,79.07,78.86,79.09,79.67,82.54,86.69,90.42,92.07,93.03,93.63,93.96,93.38,92.64,91.48,89.21,84.56,80.85,79.30,78.83,78.35,78.15,78.55,79.31,80.46,82.37,84.22,86.09,88.32,91.37,95.68,99.18,101.49,102.58,103.41,102.99,102.06,100.61,98.16,91.79,86.40,82.42,80.09,80.90,82.16,83.49,84.78,86.06,86.30,86.04,85.51,84.94,84.17,83.41,82.89,82.63,81.98,80.77,79.18,77.41,75.78,74.10,72.73,71.81,71.38,70.96,70.68,70.61,70.94,72.23,73.70,75.16,76.56,77.92,79.19,79.99,80.14,79.50,77.72,73.69,70.74,69.49,69.14,68.80,68.43,68.05,67.69,67.31,67.25,67.37,67.60,67.88,68.18,68.49,68.80,69.11,69.34,69.49,69.56,69.60,69.64,69.65,69.66,69.73,69.96,71.76,73.66,75.51,77.24,78.26,78.71,78.98,79.28,79.69,79.96,79.98,79.77,79.43,79.08,78.63,78.11,77.55,76.96,76.21,75.54,74.98,74.39,74.28,74.15,74.05,74.04,73.55,73.12,72.60,71.95,71.36,70.82,70.35,69.97,69.72,69.53,69.34,69.15,69.00,68.85,68.67,68.50,68.34,68.15,67.95,67.80,67.66,67.51,67.43,67.30,67.17,67.06,66.93,66.82,66.80,66.92,67.23,67.54,67.83,68.11,68.38,68.61,68.91,69.18,69.42,69.73,70.16,70.75,71.43,72.10,72.80,73.49,74.15,74.79,75.51,76.26,76.90,77.36,77.56,77.67,77.78,77.87,77.97,78.33,79.03,79.88,80.77,81.61,82.47,82.86,82.86,82.72,82.49,82.37,82.46,82.78,83.24,83.91,84.65,85.42,86.20,87.00,87.67
92.94,88.50,85.11,82.06,79.30,76.79,74.51,72.50,70.52,68.12,65.42,62.66,60.43,59.61,59.32,59.11,59.03,59.22,59.48,59.93,60.81,61.69,62.09,62.02,61.53,60.92,62.94,66.26,69.72,71.37,72.94,74.01,74.40,73.97,73.71,74.06,75.20,77.18,79.78,83.45,86.77,89.27,90.69,90.94,89.76,87.20,83.54,80.36,79.10,78.53,78.31,78.77,79.43,81.94,85.76,89.80,92.22,93.70,94.62,95.15,94.87,94.17,93.22,91.63,88.55,83.85,80.76,79.12,78.49,77.90,78.01,78.46,79.16,80.22,81.74,83.31,85.31,88.28,92.49,97.02,100.32,101.66,102.43,102.42,101.78,100.30,97.42,91.49,85.42,80.90,79.21,79.56,80.53,81.77,83.10,84.41,84.61,84.28,83.67,83.05,82.28,81.41,80.77,80.49,79.95,78.95,77.61,76.05,74.45,72.70,71.40,70.57,70.17,69.82,69.61,69.69,70.19,71.32,72.71,74.06,75.35,76.63,77.80,78.40,78.32,77.42,75.09,71.76,69.81,69.34,68.97,68.64,68.28,67.90,67.53,67.14,67.12,67.25,67.42,67.69,67.97,68.28,68.58,68.89,69.13,69.25,69.30,69.30,69.38,69.43,69.52,69.76,70.37,72.50,74.75,76.91,78.89,80.19,80.81,81.13,81.38,81.74,81.81,81.57,81.02,80.23,79.58,79.03,78.48,77.84,77.16,76.34,75.49,74.64,73.79,73.47,73.17,72.94,72.84,72.36,71.83,71.29,70.76,70.26,69.95,69.74,69.60,69.52,69.37,69.18,68.99,68.83,68.68,68.53,68.36,68.19,68.04,67.83,67.65,67.50,67.34,67.23,67.10,66.99,66.90,66.75,66.67,66.72,66.91,67.22,67.52,67.83,68.14,68.45,68.70,69.00,69.28,69.54,69.87,70.32,70.92,71.60,72.29,72.97,73.66,74.33,74.97,75.67,76.25,76.70,76.99,77.06,77.14,77.22,77.33,77.52,78.14,78.92,79.76,80.59,81.35,82.15,82.24,81.89,81.58,81.31,81.18,81.27,81.62,82.24,82.98,83.76,84.53,85.30,86.07,86.77
92.76,88.54,85.09,81.74,79.12,76.87,74.83,72.82,70.75,68.00,64.79,61.54,60.10,59.44,59.13,58.92,58.84,59.03,59.26,59.54,59.93,60.13,60.20,60.17,60.05,60.03,62.06,65.84,70.10,71.46,72.69,73.14,72.89,72.17,71.47,71.48,72.39,74.21,76.56,79.07,82.22,85.67,88.53,89.50,88.38,86.03,83.30,80.26,78.96,78.24,77.86,78.33,79.12,81.33,84.72,88.72,91.59,93.94,95.49,96.17,96.33,95.70,94.84,93.65,91.76,89.13,83.89,79.49,78.79,77.91,77.48,77.63,78.25,78.86,79.54,80.34,81.93,85.15,89.26,94.36,98.59,100.83,101.60,101.71,101.20,99.54,95.69,90.96,84.58,79.53,78.43,78.47,79.22,80.38,81.75,83.07,83.22,82.78,82.01,81.20,80.42,79.59,78.96,78.66,78.32,77.47,76.21,74.61,72.86,71.15,70.02,69.41,69.15,68.90,68.67,68.80,69.34,70.03,71.28,72.56,73.85,75.22,75.85,75.98,75.54,74.44,72.25,70.52,69.54,69.16,68.84,68.47,68.08,67.72,67.40,67.01,67.03,67.18,67.34,67.51,67.74,68.02,68.33,68.64,68.87,68.99,69.04,69.05,69.13,69.25,69.47,70.03,71.58,74.33,76.91,79.28,81.47,83.31,84.36,84.81,84.79,84.51,83.90,83.16,82.30,81.25,80.17,79.41,78.78,78.08,77.25,76.41,75.56,74.71,73.86,73.08,72.35,71.85,71.76,71.22,70.54,70.06,69.91,69.71,69.65,69.54,69.41,69.33,69.18,69.02,68.86,68.71,68.55,68.40,68.21,68.00,67.84,67.68,67.53,67.37,67.21,67.00,66.88,66.80,66.71,66.55,66.52,66.68,66.97,67.28,67.59,67.90,68.21,68.51,68.82,69.12,69.43,69.74,70.12,70.58,71.14,71.79,72.48,73.11,73.79,74.48,75.17,75.86,76.15,76.31,76.41,76.49,76.57,76.64,76.82,77.21,78.03,78.82,79.63,80.46,81.16,81.69,81.58,81.07,80.56,80.19,80.03,80.12,80.49,81.31,82.09,82.86,83.64,84.41,85.18,86.07
93.22,89.05,85.53,82.38,79.74,77.46,75.41,73.41,70.99,67.83,64.29,60.89,59.99,59.53,59.24,58.97,58.73,58.82,59.04,59.30,59.53,59.65,59.71,59.71,59.65,59.81,61.73,65.40,69.66,71.14,71.77,71.83,71.46,70.81,70.04,69.97,70.62,72.06,74.75,77.44,80.49,83.72,86.69,88.48,87.48,85.04,82.50,80.07,78.85,78.03,77.53,78.04,78.89,80.74,83.67,87.59,90.77,93.45,95.57,97.07,97.64,97.39,96.70,95.57,93.83,91.70,87.21,82.35,79.10,78.17,77.38,77.04,77.24,77.78,78.33,78.91,79.90,81.79,84.60,89.94,95.18,98.68,100.45,100.78,100.25,98.59,94.91,90.75,84.37,79.08,77.84,77.43,78.18,79.35,80.58,81.65,81.77,81.43,80.76,79.82,78.76,77.82,77.26,77.13,76.82,76.04,74.91,73.47,71.69,70.26,69.26,68.64,68.29,68.06,67.83,67.98,68.56,69.18,70.12,71.18,72.29,73.39,73.76,73.62,72.93,71.76,70.59,69.78,69.27,68.97,68.66,68.28,67.89,67.53,67.22,66.88,66.94,67.12,67.27,67.43,67.65,67.88,68.13,68.44,68.63,68.74,68.84,68.97,69.17,69.37,69.60,70.52,73.76,76.98,80.12,82.91,85.10,86.90,87.68,87.92,87.79,86.99,85.82,84.64,83.46,82.17,80.89,79.84,78.96,78.17,77.32,76.47,75.62,74.77,73.92,73.07,72.24,71.54,71.04,70.50,70.01,69.69,69.56,69.41,69.39,69.32,69.22,69.14,68.99,68.83,68.68,68.53,68.37,68.22,68.04,67.86,67.71,67.55,67.40,67.24,67.09,66.90,66.73,66.59,66.47,66.36,66.48,66.73,67.02,67.29,67.60,67.91,68.22,68.53,68.83,69.18,69.53,69.92,70.47,70.90,71.40,71.97,72.62,73.28,73.97,74.66,75.31,75.63,75.74,75.79,75.84,75.91,75.99,76.12,76.46,77.11,77.92,78.70,79.49,80.27,80.92,81.07,80.80,80.34,79.97,79.71,79.55,79.61,79.98,80.75,81.52,82.29,83.15,84.30,85.33,86.31
93.84,89.76,86.33,83.41,80.65,78.21,76.05,73.87,71.16,67.92,64.47,61.27,60.22,59.69,59.36,59.04,58.66,58.63,58.81,59.06,59.22,59.38,59.48,59.52,59.50,59.75,61.34,64.60,68.62,70.37,70.55,70.33,69.89,69.33,68.98,69.07,69.62,70.80,73.68,76.66,79.60,82.47,85.27,87.68,86.80,84.28,81.78,79.86,78.72,77.82,77.23,77.73,78.64,80.14,82.62,86.45,89.91,92.77,95.32,97.58,98.73,98.91,98.48,97.43,95.65,93.56,90.19,85.45,79.84,78.60,77.49,76.73,76.44,76.75,77.28,77.79,78.33,79.04,80.59,85.28,90.85,95.64,98.40,99.32,98.99,97.38,94.10,90.31,84.11,78.80,77.35,76.45,77.13,78.28,79.36,80.14,80.29,80.09,79.51,78.42,77.12,76.10,75.60,75.64,75.35,74.62,73.62,72.34,70.67,69.55,68.65,67.96,67.46,67.23,67.01,67.18,67.80,68.42,69.08,69.89,70.76,71.54,71.75,71.47,70.73,69.73,69.45,69.19,68.96,68.73,68.43,68.08,67.70,67.34,67.03,66.75,66.86,67.05,67.21,67.36,67.57,67.76,67.96,68.24,68.41,68.54,68.70,68.97,69.28,69.52,70.03,71.64,76.24,79.81,83.26,86.22,88.27,89.74,90.19,90.25,90.07,89.04,87.54,86.01,84.51,82.99,81.55,80.22,79.09,78.22,77.35,76.50,75.65,74.80,73.93,73.08,72.23,71.39,70.56,70.04,69.73,69.53,69.37,69.21,69.15,69.09,69.03,68.95,68.80,68.64,68.49,68.33,68.18,68.02,67.87,67.72,67.56,67.41,67.25,67.10,66.94,66.79,66.59,66.40,66.26,66.21,66.46,66.77,67.06,67.31,67.62,67.93,68.23,68.54,68.85,69.21,69.59,70.04,70.75,71.22,71.67,72.17,72.77,73.46,74.13,74.75,75.24,75.24,75.25,75.26,75.28,75.34,75.42,75.66,76.17,76.99,77.75,78.50,79.25,79.97,80.55,80.42,80.09,79.72,79.49,79.34,79.19,79.26,79.63,80.29,81.05,81.85,82.84,84.36,85.69,86.75
94.58,90.74,87.80,84.93,81.90,79.17,76.68,73.86,71.19,68.72,66.41,64.15,61.22,59.91,59.36,59.04,58.66,58.50,58.56,58.75,58.97,59.12,59.23,59.32,59.44,59.74,60.48,62.85,66.41,68.60,68.92,68.58,67.94,67.32,68.50,69.30,70.15,71.43,73.82,76.68,79.52,82.23,84.83,87.24,86.45,84.02,81.53,79.66,78.53,77.61,76.94,77.30,78.28,79.49,81.56,85.30,89.01,91.94,94.55,97.08,99.32,99.93,99.87,99.15,97.38,94.96,92.18,87.92,81.67,79.30,77.98,77.03,76.22,75.69,76.17,76.73,77.31,78.01,79.02,80.90,84.90,90.91,94.16,96.60,97.08,95.57,92.74,89.11,83.41,78.52,77.00,75.60,75.94,76.91,77.91,78.44,78.78,78.72,78.08,76.70,75.45,74.47,74.02,74.12,73.87,73.23,72.28,71.09,69.82,68.95,68.11,67.32,66.63,66.40,66.21,66.41,67.03,67.65,68.22,68.79,69.35,69.88,69.99,69.82,69.52,69.23,69.04,68.77,68.54,68.36,68.11,67.85,67.51,67.15,66.85,66.66,66.79,66.99,67.14,67.30,67.47,67.66,67.87,68.05,68.27,68.48,68.74,69.10,69.40,69.65,71.15,74.29,79.04,82.66,85.66,88.03,89.70,90.33,90.69,90.80,90.66,90.06,88.80,87.13,85.28,83.56,81.98,80.47,79.18,78.21,77.30,76.44,75.59,74.72,73.81,72.96,72.11,71.28,70.50,70.02,69.73,69.53,69.37,69.15,68.96,68.87,68.83,68.76,68.61,68.45,68.30,68.14,67.99,67.83,67.68,67.52,67.37,67.21,67.06,66.91,66.75,66.60,66.43,66.27,66.14,66.19,66.46,66.77,67.08,67.37,67.68,67.99,68.30,68.61,68.92,69.24,69.59,70.05,70.81,71.46,71.99,72.46,72.96,73.65,74.21,74.56,74.67,74.67,74.72,74.75,74.75,74.77,74.84,75.31,76.01,76.73,77.44,78.10,78.78,79.43,79.86,79.81,79.60,79.34,79.11,78.95,78.85,78.98,79.42,79.93,80.71,81.61,82.76,84.48,86.10,87.26
95.71,92.11,89.31,86.31,83.01,80.03,77.45,74.82,72.45,70.20,67.71,64.58,61.14,59.79,59.30,58.95,58.57,58.32,58.31,58.48,58.71,58.87,58.99,59.16,59.43,59.74,60.28,61.91,64.34,65.85,66.41,66.88,67.37,67.96,69.33,70.32,71.29,72.54,74.57,77.10,79.61,82.02,84.39,86.72,86.01,83.74,81.41,79.59,78.36,77.35,76.61,76.82,77.88,79.05,80.93,84.33,87.97,91.09,93.96,96.78,99.51,100.33,100.49,100.11,98.90,96.64,94.08,90.56,85.61,80.45,78.53,77.52,76.54,75.62,75.39,75.65,76.26,77.03,77.88,78.95,81.61,86.35,91.11,94.05,95.11,94.36,92.00,88.44,83.05,78.41,76.76,75.11,74.92,75.45,76.21,76.68,77.14,77.18,76.58,75.11,73.77,72.82,72.43,72.55,72.39,71.81,71.00,70.05,69.10,68.32,67.52,66.73,66.01,65.61,65.39,65.58,66.17,66.75,67.30,67.81,68.28,68.67,68.82,68.70,68.59,68.63,68.47,68.31,68.11,67.89,67.70,67.50,67.25,66.96,66.66,66.58,66.70,66.91,67.14,67.36,67.53,67.70,67.90,68.09,68.29,68.51,68.80,69.18,69.49,70.05,72.36,76.40,80.87,84.26,87.02,89.06,90.30,90.72,91.11,91.27,91.08,90.47,89.35,87.68,85.72,83.87,82.14,80.56,79.26,78.30,77.33,76.41,75.52,74.66,73.77,72.89,72.09,71.38,70.75,70.26,69.90,69.65,69.45,69.18,68.92,68.74,68.64,68.57,68.41,68.26,68.10,67.95,67.83,67.69,67.51,67.33,67.18,67.02,66.87,66.71,66.56,66.41,66.25,66.10,65.99,66.17,66.46,66.77,67.08,67.39,67.73,68.05,68.36,68.67,68.98,69.29,69.62,70.05,70.83,71.50,72.06,72.57,73.10,73.62,73.95,74.09,74.09,74.09,74.13,74.15,74.16,74.19,74.37,74.90,75.60,76.29,76.95,77.60,78.26,78.85,79.17,79.19,79.09,78.92,78.73,78.54,78.55,78.79,79.22,79.69,80.39,81.42,82.83,84.61,86.31,87.66
96.98,93.62,90.79,87.61,84.06,80.88,78.26,76.09,73.95,71.57,68.34,63.74,60.60,59.54,59.20,58.82,58.45,58.12,58.06,58.24,58.47,58.65,58.81,59.06,59.43,59.74,60.36,61.46,62.80,63.50,64.39,65.83,67.67,69.62,70.69,71.68,72.69,73.86,75.58,77.69,79.77,81.81,83.96,86.18,85.56,83.48,81.36,79.58,78.23,77.10,76.28,76.34,77.46,78.71,80.48,83.42,86.86,90.14,93.32,96.44,99.44,100.44,100.80,100.77,100.23,98.38,95.92,93.15,90.01,82.27,79.37,78.09,77.07,76.00,74.91,74.70,75.22,76.07,76.95,78.04,79.63,82.30,88.47,91.60,93.19,93.32,91.42,87.81,82.72,78.34,76.53,74.70,73.94,73.95,74.45,74.93,75.46,75.63,75.12,73.65,72.15,71.21,70.85,70.99,70.91,70.39,69.76,69.10,68.42,67.65,66.88,66.14,65.44,64.83,64.57,64.73,65.26,65.80,66.34,66.88,67.36,67.66,67.89,67.80,67.77,67.96,67.84,67.81,67.66,67.41,67.25,67.09,66.94,66.74,66.48,66.51,66.65,66.88,67.19,67.50,67.68,67.84,68.01,68.23,68.40,68.59,68.87,69.24,69.55,70.56,73.54,78.08,82.14,85.21,87.82,89.69,90.54,91.03,91.52,91.70,91.43,90.63,89.57,87.96,85.99,84.06,82.20,80.60,79.33,78.39,77.40,76.40,75.47,74.61,73.76,72.88,72.16,71.60,71.13,70.59,70.16,69.83,69.57,69.25,68.94,68.67,68.47,68.37,68.22,68.07,67.91,67.77,67.69,67.55,67.36,67.15,67.00,66.84,66.69,66.53,66.38,66.22,66.07,65.92,65.84,66.14,66.45,66.77,67.08,67.39,67.77,68.10,68.41,68.73,69.03,69.34,69.65,70.05,70.81,71.44,72.02,72.58,73.18,73.44,73.51,73.51,73.51,73.51,73.51,73.51,73.53,73.64,73.95,74.45,75.08,75.77,76.39,77.07,77.72,78.26,78.48,78.57,78.56,78.47,78.33,78.11,78.29,78.65,79.04,79.51,80.08,81.25,82.92,84.71,86.42,87.99
98.15,94.99,92.06,88.84,85.20,81.87,79.08,76.87,73.91,70.57,66.47,61.30,59.94,59.31,58.96,58.64,58.37,58.01,57.91,58.06,58.35,58.61,58.88,59.15,59.43,59.74,60.40,61.91,64.10,65.89,67.29,68.57,69.78,70.96,71.99,73.06,74.18,75.33,76.60,78.31,79.89,81.48,83.58,85.66,85.25,83.44,81.36,79.58,78.23,77.02,76.06,75.97,77.13,78.42,80.05,82.46,85.60,88.69,91.91,95.34,98.79,100.32,101.17,101.47,100.93,99.79,97.67,95.00,92.05,86.87,81.78,78.65,77.59,76.57,75.44,74.53,74.26,75.11,76.19,77.41,78.82,80.81,85.30,89.34,91.62,91.84,90.20,86.08,81.74,78.19,76.12,73.95,72.80,72.51,72.87,73.39,73.92,74.35,74.15,72.62,70.93,69.82,69.41,69.58,69.50,69.03,68.58,68.17,67.58,66.82,66.09,65.36,64.62,64.06,63.76,63.85,64.30,64.84,65.38,65.95,66.45,66.70,66.93,66.88,66.87,67.09,67.22,67.20,67.13,67.01,66.80,66.64,66.49,66.38,66.37,66.59,66.85,67.14,67.44,67.75,67.98,68.15,68.32,68.49,68.70,68.81,68.98,69.31,69.61,71.10,74.27,78.60,82.41,85.33,87.82,89.67,90.68,91.37,92.01,92.21,91.79,90.85,89.64,88.02,86.13,84.25,82.34,80.62,79.26,78.33,77.39,76.44,75.48,74.54,73.69,73.09,72.51,71.97,71.45,70.96,70.47,70.04,69.69,69.32,68.96,68.64,68.38,68.19,68.03,67.88,67.72,67.57,67.50,67.36,67.19,67.02,66.87,66.71,66.56,66.40,66.25,66.09,65.94,65.81,65.77,66.08,66.39,66.73,67.08,67.39,67.72,68.03,68.37,68.73,69.03,69.34,69.65,70.03,70.69,71.31,71.92,72.49,72.98,72.95,72.90,72.87,72.87,72.87,72.87,72.87,72.95,73.25,73.61,74.03,74.57,75.26,75.88,76.56,77.19,77.66,77.78,77.87,77.92,77.93,77.89,77.77,78.08,78.52,78.91,79.38,79.83,81.01,82.81,84.64,86.45,88.19
98.70,95.74,92.87,89.83,86.31,82.85,79.66,76.76,73.22,69.04,64.49,60.06,59.53,59.10,58.75,58.45,58.16,57.81,57.76,57.99,58.33,58.66,58.98,59.26,59.50,59.78,60.95,62.97,65.57,67.92,69.28,70.31,71.22,72.15,73.19,74.35,75.37,76.13,76.90,78.24,79.56,80.99,83.02,85.05,84.88,83.34,81.36,79.58,78.21,76.90,75.77,75.53,76.64,77.94,79.46,81.39,84.34,87.30,90.42,93.84,97.67,99.88,101.22,101.80,101.54,100.72,99.13,96.83,93.93,90.15,84.16,79.87,78.21,77.15,75.92,74.65,73.88,74.31,75.52,76.83,78.19,79.83,83.22,87.08,89.64,90.22,88.33,84.47,80.56,77.26,74.96,72.75,71.70,71.35,71.47,71.87,72.39,72.93,72.97,71.82,70.19,69.00,68.37,68.29,68.21,67.80,67.45,67.16,66.71,66.01,65.29,64.56,63.82,63.28,62.96,62.97,63.34,63.88,64.45,65.03,65.51,65.74,65.98,65.98,66.00,66.21,66.44,66.47,66.49,66.50,66.35,66.20,66.12,66.17,66.43,66.77,67.08,67.39,67.70,68.01,68.25,68.45,68.63,68.78,68.99,69.05,69.14,69.37,69.65,71.33,74.47,78.54,82.17,85.01,87.50,89.45,90.62,91.34,92.01,92.18,91.66,90.77,89.52,87.91,86.07,84.19,82.23,80.45,79.06,78.16,77.23,76.31,75.46,74.70,73.99,73.43,72.85,72.26,71.69,71.23,70.71,70.23,69.81,69.40,69.01,68.70,68.46,68.25,68.07,67.89,67.70,67.53,67.42,67.25,67.07,66.89,66.70,66.55,66.39,66.24,66.08,65.93,65.78,65.68,65.71,66.02,66.33,66.68,67.04,67.35,67.66,67.99,68.34,68.69,69.00,69.33,69.65,70.02,70.61,71.20,71.80,72.33,72.64,72.48,72.34,72.25,72.23,72.23,72.23,72.29,72.48,72.86,73.25,73.63,74.11,74.75,75.37,76.05,76.63,77.01,77.08,77.16,77.24,77.31,77.37,77.46,77.88,78.39,78.86,79.29,79.78,80.99,82.79,84.61,86.55,88.44
98.78,96.03,93.33,90.63,87.36,83.79,80.02,76.01,72.05,67.11,62.44,59.68,59.30,58.91,58.56,58.24,57.85,57.53,57.61,58.00,58.39,58.77,59.11,59.39,59.62,59.87,61.88,64.46,67.13,69.67,70.61,71.34,72.15,73.23,74.30,75.54,76.31,76.41,76.64,77.65,78.90,80.37,82.31,84.39,84.47,83.21,81.36,79.58,78.17,76.74,75.42,75.03,76.03,77.33,78.75,80.24,83.09,85.95,88.87,92.03,96.21,99.22,101.05,101.86,102.10,101.30,100.35,98.64,95.69,92.44,86.51,81.58,78.89,77.73,76.36,74.97,73.91,73.60,74.92,76.28,77.68,79.23,81.93,84.82,87.38,88.48,86.02,82.97,79.27,75.78,73.24,71.25,70.61,70.38,70.22,70.37,70.87,71.40,71.64,71.18,69.79,68.57,67.63,67.08,67.00,66.66,66.36,66.11,65.80,65.21,64.49,63.74,63.06,62.52,62.15,62.10,62.38,62.92,63.53,64.10,64.55,64.79,65.02,65.09,65.15,65.31,65.54,65.65,65.77,65.89,65.89,65.75,65.80,66.09,66.62,67.01,67.34,67.65,67.96,68.26,68.51,68.74,68.95,69.10,69.26,69.30,69.33,69.43,69.66,71.33,74.29,78.06,81.53,84.36,86.95,89.06,90.42,91.04,91.66,91.75,91.18,90.48,89.25,87.68,85.86,83.93,81.92,80.13,78.76,77.91,76.98,76.06,75.41,75.01,74.55,73.87,73.17,72.50,71.89,71.42,70.90,70.39,69.93,69.47,69.07,68.82,68.66,68.51,68.28,68.05,67.81,67.59,67.43,67.22,66.99,66.76,66.52,66.36,66.20,66.05,65.89,65.74,65.58,65.53,65.64,65.95,66.26,66.61,66.98,67.29,67.60,67.96,68.32,68.62,68.93,69.30,69.65,70.01,70.55,71.09,71.68,72.12,72.19,72.03,71.82,71.66,71.59,71.59,71.59,71.76,72.09,72.48,72.87,73.25,73.70,74.24,74.86,75.54,76.04,76.30,76.38,76.46,76.54,76.64,76.80,77.19,77.69,78.27,78.85,79.24,79.89,81.13,82.85,84.62,86.69,88.72
97.54,94.94,92.49,89.69,85.53,81.38,77.56,73.69,69.12,64.34,60.62,59.30,58.91,58.56,58.22,57.86,57.53,57.34,57.51,57.95,58.39,58.77,59.18,59.54,59.91,61.19,63.33,65.82,68.28,70.18,71.10,71.94,72.79,73.66,74.04,74.52,74.73,74.60,74.74,75.69,77.05,78.83,81.21,83.11,83.92,83.36,81.43,79.70,78.26,76.81,75.35,74.26,75.34,76.70,78.08,79.47,81.92,84.60,87.38,90.37,94.54,98.52,100.91,101.94,102.78,102.14,101.21,99.67,97.22,93.92,89.09,83.95,79.59,78.08,76.64,75.20,73.87,72.84,74.10,75.49,76.97,78.59,80.74,83.25,85.71,87.11,85.59,82.91,79.37,75.30,71.26,70.20,69.78,69.57,69.44,69.55,69.90,70.15,70.17,69.90,68.86,67.88,66.92,66.04,65.81,65.53,65.28,65.04,64.78,64.32,63.69,62.96,62.23,61.79,61.37,61.22,61.43,62.02,62.64,63.15,63.54,63.83,64.06,64.16,64.28,64.48,64.66,64.84,65.00,65.16,65.31,65.59,65.93,66.33,66.81,67.20,67.57,67.90,68.21,68.52,68.81,69.06,69.27,69.42,69.53,69.56,69.57,69.61,69.74,71.35,74.16,77.65,80.67,83.38,85.93,88.25,90.23,90.80,91.18,91.13,90.59,89.79,88.55,87.12,85.48,83.55,81.59,79.81,78.48,77.73,77.01,76.48,76.08,75.69,75.13,74.44,73.75,73.05,72.33,71.72,71.08,70.52,70.06,69.60,69.24,69.01,68.85,68.70,68.52,68.30,68.07,67.84,67.64,67.45,67.24,66.97,66.54,66.27,66.07,65.92,65.77,65.61,65.46,65.43,65.58,65.89,66.20,66.55,66.92,67.23,67.53,67.90,68.25,68.56,68.87,69.24,69.59,69.94,70.48,71.07,71.49,71.69,71.61,71.46,71.28,71.10,70.94,70.89,71.06,71.37,71.77,72.16,72.55,72.93,73.34,73.79,74.36,74.99,75.42,75.60,75.68,75.80,76.02,76.34,76.74,77.23,77.79,78.39,78.99,79.48,80.39,81.74,83.40,85.08,86.86,88.46
94.66,92.70,90.52,87.49,83.12,78.89,75.09,71.17,65.98,61.90,59.49,58.97,58.56,58.20,57.84,57.48,57.15,57.15,57.44,57.92,58.39,58.80,59.24,59.72,60.36,62.30,64.50,66.87,69.12,70.53,71.43,72.20,72.86,73.35,73.26,73.28,73.17,72.87,72.82,73.63,75.11,77.22,79.91,81.87,83.25,83.32,81.64,79.94,78.46,76.99,75.44,73.91,74.69,75.94,77.33,78.72,80.76,83.28,85.97,88.80,92.55,97.24,100.31,101.80,103.00,102.85,102.03,100.64,98.69,95.35,91.22,86.09,80.83,78.62,77.08,75.58,74.05,72.49,73.26,74.69,76.37,78.06,79.87,82.13,84.39,85.83,84.92,82.62,79.32,75.01,70.05,69.51,69.10,68.82,68.67,68.72,68.90,68.95,68.85,68.65,67.80,66.95,66.02,65.05,64.68,64.42,64.19,63.96,63.73,63.37,62.83,62.17,61.46,61.05,60.64,60.45,60.61,61.16,61.73,62.20,62.55,62.84,63.07,63.23,63.39,63.63,63.92,64.23,64.52,64.79,65.07,65.57,66.07,66.55,67.01,67.39,67.78,68.14,68.47,68.78,69.08,69.35,69.61,69.94,70.09,70.12,70.05,69.94,70.04,71.52,74.02,77.09,79.80,82.37,84.85,87.24,89.51,90.36,90.67,90.52,89.96,88.97,87.70,86.37,84.92,83.19,81.43,79.78,78.53,77.85,77.32,77.03,76.75,76.35,75.71,75.02,74.31,73.58,72.83,72.14,71.44,70.82,70.29,69.74,69.41,69.20,69.05,68.92,68.76,68.56,68.33,68.09,67.86,67.67,67.46,67.15,66.60,66.23,65.98,65.79,65.64,65.48,65.33,65.32,65.52,65.83,66.13,66.49,66.85,67.16,67.47,67.83,68.19,68.50,68.81,69.16,69.51,69.87,70.37,70.91,71.19,71.21,71.04,70.88,70.73,70.55,70.36,70.31,70.60,71.00,71.43,71.81,72.20,72.58,72.97,73.37,73.86,74.40,74.78,74.98,75.17,75.40,75.75,76.20,76.74,77.28,77.87,78.49,79.10,79.67,80.78,82.21,83.81,85.38,86.81,88.03
89.77,89.06,87.16,83.73,80.00,76.31,72.60,68.38,62.58,59.85,59.18,58.71,58.26,57.80,57.41,57.09,56.71,56.95,57.41,57.92,58.39,58.84,59.31,59.96,61.01,63.15,65.32,67.54,69.57,70.68,71.56,72.06,72.22,72.13,71.85,71.77,71.61,71.23,70.88,71.44,73.06,75.53,78.37,80.67,82.43,83.02,82.02,80.32,78.81,77.31,75.73,74.05,74.11,75.05,76.48,78.01,79.61,82.00,84.68,87.33,90.14,95.26,99.16,101.38,102.68,103.38,102.79,101.54,100.09,96.70,92.80,87.96,82.73,79.38,77.71,76.16,74.48,72.68,72.41,73.90,75.90,77.66,79.37,81.53,83.52,84.67,83.95,82.04,79.10,74.94,69.79,69.25,68.62,68.13,67.89,67.90,67.85,67.83,67.74,67.44,66.59,65.74,64.91,64.14,63.62,63.33,63.10,62.87,62.64,62.33,61.91,61.37,60.75,60.30,59.94,59.81,59.94,60.35,60.81,61.24,61.58,61.82,62.05,62.27,62.50,62.77,63.35,63.88,64.40,64.88,65.25,65.72,66.23,66.74,67.20,67.58,67.97,68.35,68.72,69.03,69.34,69.60,69.98,70.70,71.00,71.04,70.83,70.46,70.61,71.85,73.86,76.35,78.92,81.34,83.70,85.98,88.13,89.67,90.12,89.92,89.27,87.99,86.68,85.41,84.15,82.86,81.50,80.11,78.98,78.32,77.98,77.73,77.43,76.98,76.29,75.59,74.85,74.11,73.41,72.71,72.02,71.33,70.64,69.89,69.58,69.39,69.26,69.17,69.02,68.81,68.58,68.35,68.12,67.89,67.63,67.27,66.73,66.27,65.92,65.66,65.51,65.36,65.20,65.21,65.45,65.76,66.07,66.42,66.79,67.10,67.41,67.77,68.12,68.43,68.74,69.06,69.40,69.79,70.18,70.59,70.75,70.69,70.46,70.31,70.15,70.00,69.86,69.85,70.23,70.65,71.04,71.43,71.82,72.20,72.59,72.97,73.37,73.77,74.13,74.45,74.89,75.33,75.78,76.26,76.80,77.34,77.94,78.56,79.17,79.79,81.03,82.50,84.04,85.52,86.52,87.38
84.67,84.43,82.69,79.65,76.42,72.84,68.84,64.51,60.94,59.33,58.87,58.40,57.94,57.48,57.04,56.67,56.46,56.83,57.35,57.87,58.33,58.84,59.31,60.03,61.25,63.37,65.39,67.41,69.29,70.41,70.93,71.20,71.23,71.03,70.63,70.21,69.75,69.29,68.86,69.64,71.48,74.08,76.90,79.53,81.43,82.42,82.35,80.74,79.18,77.56,75.88,74.18,73.52,74.18,75.66,77.25,78.79,80.92,83.39,86.03,88.69,93.26,97.65,100.97,102.41,103.59,103.54,102.55,100.91,97.99,94.19,89.64,84.70,80.35,78.23,76.38,74.49,72.52,71.70,72.19,73.66,75.70,77.49,80.24,82.44,83.57,83.36,81.72,78.85,74.74,69.81,69.14,68.45,67.82,67.28,66.88,66.77,66.71,66.58,66.22,65.37,64.62,63.93,63.30,62.76,62.33,61.99,61.73,61.50,61.23,60.87,60.47,60.12,59.78,59.50,59.42,59.56,59.82,60.10,60.47,60.88,61.25,61.65,62.12,62.60,63.07,63.68,64.24,64.78,65.29,65.72,66.14,66.59,67.03,67.44,67.79,68.16,68.55,68.93,69.28,69.60,70.26,71.22,72.26,72.75,72.87,72.68,72.32,72.38,73.48,75.00,76.77,78.80,81.04,83.31,85.49,87.44,88.45,88.99,89.23,89.14,88.22,87.00,85.77,84.57,83.33,82.11,80.83,79.74,79.04,78.69,78.44,78.08,77.56,76.86,76.13,75.40,74.69,74.04,73.34,72.65,71.92,71.13,70.31,69.85,69.58,69.45,69.37,69.22,69.04,68.84,68.61,68.37,68.14,67.83,67.41,66.91,66.41,65.94,65.57,65.33,65.22,65.07,65.11,65.39,65.70,66.04,66.39,66.72,67.03,67.34,67.70,68.04,68.31,68.62,68.90,69.20,69.54,69.89,70.23,70.33,70.24,70.06,69.86,69.66,69.52,69.49,69.66,70.04,70.44,70.83,71.22,71.60,71.99,72.37,72.76,73.19,73.59,73.98,74.39,74.85,75.32,75.81,76.32,76.87,77.45,78.03,78.60,79.18,79.80,81.10,82.50,83.81,84.93,85.78,86.63
80.34,80.25,78.64,76.01,72.91,69.10,64.87,61.28,59.77,58.99,58.52,58.04,57.58,57.12,56.67,56.29,56.25,56.70,57.24,57.77,58.24,58.78,59.28,60.03,61.27,63.24,65.12,67.01,68.75,69.80,70.02,70.09,69.99,69.61,69.10,68.35,67.66,67.20,67.00,68.28,70.41,73.03,75.74,78.50,80.47,81.78,82.49,81.08,79.53,77.85,76.09,74.37,73.10,73.40,74.80,76.42,77.98,79.84,82.10,84.73,87.38,91.20,95.83,100.14,102.01,103.51,104.13,103.59,101.74,99.14,95.38,91.06,86.40,81.36,78.72,76.55,74.44,72.20,71.09,70.80,71.57,73.39,75.30,78.90,81.46,82.55,82.71,81.32,78.52,74.51,69.85,69.08,68.35,67.61,66.85,66.14,65.86,65.66,65.41,65.01,64.24,63.59,63.02,62.49,61.95,61.40,60.97,60.68,60.47,60.27,59.98,59.70,59.54,59.33,59.10,59.06,59.25,59.46,59.66,60.01,60.48,60.98,61.55,62.20,62.86,63.49,64.11,64.68,65.23,65.75,66.23,66.62,67.01,67.39,67.76,68.02,68.37,68.76,69.15,69.53,70.15,71.26,72.66,73.98,74.62,74.81,74.67,74.35,74.32,75.28,76.41,77.62,79.27,81.35,83.39,85.21,86.68,87.23,87.84,88.43,88.83,88.45,87.41,86.25,85.06,83.84,82.67,81.45,80.42,79.73,79.39,79.13,78.72,78.13,77.44,76.70,75.99,75.32,74.70,73.99,73.27,72.49,71.66,70.84,70.22,69.84,69.66,69.56,69.43,69.27,69.07,68.84,68.63,68.38,68.02,67.54,67.08,66.55,66.02,65.55,65.20,65.07,64.95,65.02,65.32,65.63,65.99,66.32,66.62,66.91,67.22,67.56,67.87,68.10,68.41,68.67,68.94,69.24,69.55,69.83,69.90,69.81,69.67,69.46,69.23,69.11,69.18,69.51,69.89,70.27,70.66,71.04,71.45,71.84,72.23,72.64,73.10,73.50,73.93,74.39,74.85,75.33,75.86,76.41,76.95,77.55,78.11,78.65,79.20,79.78,81.04,82.30,83.39,84.26,85.06,85.94
77.70,77.29,75.78,73.40,69.64,65.04,60.80,59.72,59.11,58.61,58.12,57.59,57.13,56.67,56.26,55.99,56.04,56.51,57.05,57.59,58.12,58.66,59.19,59.89,60.92,62.55,64.36,66.22,67.85,68.55,68.69,68.66,68.32,67.50,66.84,65.91,65.15,64.89,65.53,67.78,70.29,72.78,75.23,77.70,79.64,81.15,82.20,81.24,79.87,78.24,76.46,74.70,73.02,72.82,73.84,75.46,77.07,78.70,80.75,83.40,86.15,89.04,93.44,98.41,101.33,102.92,104.41,104.66,102.75,100.01,96.21,91.98,87.47,82.39,79.22,76.72,74.35,71.63,70.67,70.31,70.31,70.73,72.84,77.66,80.76,81.66,81.81,80.66,78.04,74.23,69.85,69.08,68.31,67.55,66.78,66.02,65.34,64.76,64.25,63.80,63.27,62.73,62.21,61.72,61.18,60.59,60.14,59.86,59.70,59.59,59.43,59.26,59.10,58.93,58.72,58.73,59.02,59.37,59.72,60.14,60.64,61.23,61.91,62.55,63.20,63.88,64.49,65.10,65.67,66.21,66.74,67.14,67.52,67.89,68.20,68.31,68.63,69.02,69.40,69.79,71.36,72.87,74.27,75.83,76.52,76.73,76.63,76.38,76.25,77.07,78.01,79.04,80.80,82.75,84.23,85.16,85.59,86.20,86.81,87.43,87.99,88.35,87.67,86.61,85.40,84.23,83.00,81.77,80.80,80.26,80.07,79.79,79.33,78.71,78.01,77.37,76.69,76.02,75.40,74.64,73.83,73.02,72.25,71.53,70.80,70.24,69.90,69.76,69.67,69.49,69.26,69.04,68.87,68.60,68.19,67.67,67.21,66.68,66.17,65.69,65.19,64.92,64.83,64.95,65.26,65.57,65.89,66.17,66.41,66.65,66.96,67.23,67.48,67.72,68.03,68.33,68.60,68.86,69.16,69.36,69.42,69.38,69.29,69.12,68.91,68.83,69.00,69.37,69.76,70.14,70.53,70.92,71.36,71.77,72.18,72.64,73.10,73.50,73.93,74.39,74.85,75.37,75.95,76.54,77.08,77.63,78.17,78.71,79.25,79.74,80.77,81.79,82.70,83.61,84.52,85.39
76.18,75.10,73.52,71.54,66.58,62.12,59.47,59.00,58.57,58.13,57.65,57.15,56.72,56.30,55.91,55.66,55.96,56.43,56.95,57.49,58.04,58.54,59.07,59.67,60.45,62.03,63.77,65.31,66.45,66.95,67.00,66.91,66.47,65.43,64.55,63.53,62.75,62.67,64.45,67.42,70.20,72.58,74.83,77.11,79.10,80.68,81.67,81.08,80.01,78.54,76.80,75.06,73.29,72.40,72.64,74.12,75.51,77.15,79.24,81.84,84.77,87.63,91.64,96.40,100.54,102.23,103.87,104.38,102.83,100.39,96.74,92.61,88.19,83.16,79.20,76.03,73.35,70.77,69.95,69.48,69.26,69.41,70.90,75.38,78.90,80.57,80.72,79.49,76.96,73.52,69.80,69.07,68.28,67.48,66.70,65.90,65.09,64.35,63.69,63.11,62.57,62.03,61.53,61.05,60.51,60.00,59.60,59.33,59.17,59.05,58.91,58.76,58.61,58.45,58.46,58.68,59.06,59.45,59.84,60.33,60.92,61.54,62.23,62.90,63.56,64.21,64.87,65.53,66.12,66.67,67.25,67.65,68.03,68.38,68.64,68.76,68.97,69.29,69.82,70.87,72.83,74.59,76.10,77.54,78.32,78.63,78.62,78.42,78.19,78.78,79.67,80.87,82.75,84.03,84.87,85.29,85.31,85.48,85.87,86.41,87.02,87.60,87.56,86.85,85.72,84.56,83.33,82.12,81.18,80.68,80.56,80.44,80.10,79.50,78.70,78.06,77.42,76.74,76.01,75.23,74.43,73.62,72.82,72.09,71.35,70.77,70.37,70.14,69.95,69.74,69.52,69.32,69.13,68.79,68.33,67.80,67.34,66.80,66.31,65.82,65.28,64.86,64.70,64.76,65.00,65.31,65.59,65.84,66.08,66.35,66.62,66.87,67.11,67.38,67.69,67.97,68.23,68.46,68.69,68.85,68.91,68.90,68.86,68.74,68.60,68.57,68.77,69.19,69.61,70.04,70.46,70.88,71.35,71.78,72.21,72.64,73.10,73.53,73.96,74.40,74.94,75.48,76.02,76.56,77.06,77.56,78.07,78.59,79.12,79.58,80.37,81.25,82.14,83.07,83.96,84.83
75.15,73.43,71.69,69.69,63.85,59.97,59.06,58.59,58.13,57.66,57.20,56.73,56.32,55.92,55.56,55.37,55.90,56.38,56.88,57.42,57.96,58.43,58.93,59.44,60.01,61.55,63.15,64.28,64.86,65.23,65.19,65.05,64.58,63.45,62.36,61.35,60.67,60.83,63.74,67.31,70.23,72.46,74.51,76.64,78.69,80.28,81.09,80.82,80.06,78.76,77.04,75.31,73.53,72.01,71.45,72.59,73.74,75.44,77.62,80.24,83.35,86.45,90.07,94.40,99.51,101.42,103.03,103.62,102.53,100.43,96.99,93.01,88.73,83.82,79.15,75.26,72.20,69.88,69.14,68.54,68.31,68.59,69.41,73.01,76.67,79.17,79.33,78.04,75.67,72.68,69.72,68.99,68.18,67.37,66.57,65.72,64.88,64.08,63.32,62.63,62.02,61.45,60.93,60.45,59.93,59.52,59.18,58.90,58.71,58.56,58.41,58.26,58.10,58.01,58.30,58.75,59.20,59.59,60.00,60.57,61.24,61.87,62.56,63.25,63.92,64.55,65.24,65.93,66.55,67.12,67.73,68.15,68.54,68.88,69.10,69.26,69.38,69.70,70.48,72.30,74.41,76.35,77.98,79.18,80.01,80.45,80.56,80.43,80.18,80.58,81.46,82.77,84.55,85.09,85.40,85.50,85.35,85.04,85.14,85.49,86.02,86.62,87.18,86.95,86.03,84.88,83.65,82.46,81.56,81.08,81.01,81.07,80.87,80.31,79.42,78.77,78.14,77.43,76.59,75.81,75.02,74.21,73.38,72.62,71.90,71.34,70.93,70.62,70.30,70.03,69.81,69.62,69.38,68.96,68.46,67.94,67.47,66.94,66.44,65.94,65.40,64.85,64.57,64.53,64.68,64.98,65.22,65.46,65.71,66.02,66.25,66.48,66.74,67.05,67.35,67.59,67.82,68.03,68.19,68.34,68.40,68.40,68.40,68.33,68.26,68.30,68.54,69.01,69.48,69.94,70.39,70.86,71.32,71.78,72.22,72.62,73.09,73.57,74.01,74.46,75.05,75.58,76.06,76.50,76.96,77.43,77.90,78.39,78.91,79.37,79.95,80.72,81.63,82.55,83.40,84.25
74.66,72.83,70.87,66.90,62.24,59.50,58.86,58.34,57.87,57.41,56.93,56.40,55.90,55.44,55.20,55.30,55.78,56.29,56.79,57.29,57.83,58.30,58.77,59.27,59.84,60.94,62.14,62.90,63.18,63.45,63.40,63.20,62.71,61.72,60.64,59.99,59.80,60.48,64.08,68.00,70.79,72.60,74.46,76.44,78.40,79.92,80.66,80.59,79.98,78.71,76.88,75.01,73.17,71.54,70.60,70.87,71.97,73.54,75.80,78.78,81.99,85.15,88.71,92.84,97.61,100.21,102.00,102.66,101.89,99.74,96.40,92.81,89.08,84.31,79.61,75.29,71.73,69.31,68.32,67.61,67.47,68.05,69.12,71.64,74.48,76.69,76.90,76.13,74.30,71.89,69.52,68.64,67.83,67.02,66.19,65.34,64.54,63.73,62.94,62.24,61.68,61.10,60.53,60.02,59.59,59.20,58.86,58.54,58.21,58.05,57.93,57.79,57.61,57.86,58.35,58.90,59.40,59.78,60.32,60.93,61.58,62.25,62.89,63.57,64.26,64.93,65.56,66.25,66.92,67.56,68.12,68.63,69.06,69.39,69.62,69.77,70.00,70.68,71.98,74.00,76.09,78.07,79.71,80.71,81.45,82.00,82.29,82.32,82.42,82.92,83.67,84.49,85.09,85.40,85.65,85.77,85.67,85.36,85.16,85.03,85.05,85.61,86.20,86.52,86.30,85.20,83.97,82.78,81.91,81.53,81.51,81.62,81.42,80.86,80.17,79.49,78.78,78.02,77.23,76.40,75.52,74.68,73.90,73.19,72.44,71.88,71.50,71.19,70.83,70.51,70.18,69.81,69.58,69.11,68.61,68.12,67.60,67.11,66.57,66.00,65.46,64.86,64.50,64.34,64.36,64.61,64.84,65.07,65.32,65.63,65.87,66.10,66.36,66.66,66.92,67.10,67.31,67.52,67.68,67.83,67.89,67.89,67.89,67.87,67.81,67.96,68.42,68.94,69.42,69.85,70.27,70.73,71.19,71.66,72.11,72.56,73.02,73.58,74.15,74.69,75.13,75.56,75.93,76.30,76.70,77.23,77.71,78.18,78.65,79.05,79.59,80.28,81.11,81.98,82.83,83.68
74.04,72.21,70.04,64.10,60.77,59.18,58.67,58.16,57.72,57.27,56.77,56.20,55.66,55.16,54.93,55.11,55.57,56.08,56.56,57.04,57.55,58.01,58.47,58.95,59.48,60.19,60.95,61.43,61.61,61.75,61.64,61.41,61.00,60.32,59.42,59.25,59.68,61.01,65.09,68.77,71.27,72.92,74.64,76.50,78.16,79.41,80.07,80.23,79.55,78.17,76.30,74.37,72.54,70.98,69.97,69.81,70.56,71.83,74.07,77.33,80.67,83.94,87.48,91.37,95.63,98.66,100.79,101.69,101.07,98.76,95.56,92.42,89.26,84.58,80.06,75.70,71.91,69.21,68.06,67.03,66.67,67.25,68.44,70.26,72.52,74.49,74.75,74.06,72.71,71.00,69.28,68.32,67.48,66.66,65.81,64.96,64.18,63.38,62.58,61.86,61.32,60.74,60.15,59.57,59.12,58.77,58.47,58.18,57.82,57.60,57.45,57.37,57.39,57.87,58.45,59.05,59.60,60.05,60.64,61.28,61.93,62.60,63.25,63.93,64.61,65.27,65.92,66.58,67.26,67.94,68.54,69.11,69.65,70.14,70.61,70.92,71.35,72.25,73.75,75.58,77.67,79.51,80.98,81.97,82.73,83.38,83.78,83.89,84.03,84.41,84.89,85.33,85.49,85.69,85.93,86.08,86.03,85.72,85.41,85.10,84.87,85.07,85.34,85.76,86.00,85.51,84.32,83.12,82.27,81.98,82.01,82.17,81.98,81.43,80.81,80.12,79.38,78.58,77.75,76.87,76.02,75.21,74.45,73.76,73.00,72.44,72.07,71.73,71.37,71.01,70.61,70.19,69.83,69.33,68.81,68.31,67.77,67.27,66.72,66.13,65.56,64.98,64.55,64.27,64.14,64.24,64.46,64.71,64.97,65.25,65.48,65.74,65.99,66.24,66.47,66.67,66.84,67.01,67.17,67.32,67.38,67.38,67.38,67.38,67.50,67.82,68.33,68.84,69.31,69.75,70.18,70.64,71.11,71.61,72.13,72.66,73.15,73.74,74.36,74.95,75.43,75.85,76.22,76.58,76.97,77.41,77.85,78.27,78.67,79.02,79.51,80.11,80.83,81.68,82.53,83.38
73.33,71.48,69.00,61.41,59.46,58.96,58.50,58.04,57.64,57.20,56.69,56.08,55.54,55.00,54.72,54.84,55.30,55.77,56.23,56.69,57.16,57.62,58.08,58.54,59.00,59.36,59.67,59.94,60.12,60.13,59.92,59.69,59.43,59.12,58.57,58.94,60.07,62.13,66.50,69.56,71.72,73.33,74.94,76.65,77.88,78.73,79.33,79.75,78.88,77.34,75.47,73.54,71.75,70.36,69.47,69.17,69.41,70.30,72.43,75.89,79.38,82.80,86.32,89.97,93.67,96.92,99.45,100.69,100.17,97.63,94.62,91.95,89.33,84.70,80.49,76.33,72.49,69.40,68.15,66.68,65.90,66.28,67.53,68.89,70.71,72.45,72.76,71.93,71.02,70.05,69.00,68.00,67.12,66.27,65.42,64.58,63.80,63.02,62.25,61.48,60.94,60.39,59.79,59.11,58.56,58.27,58.04,57.79,57.49,57.18,56.98,57.01,57.34,57.96,58.58,59.20,59.80,60.35,60.96,61.62,62.30,62.92,63.61,64.31,64.97,65.60,66.29,66.93,67.59,68.28,68.97,69.60,70.28,71.05,71.89,72.45,73.12,74.18,75.63,77.09,79.13,80.75,81.94,83.03,83.88,84.61,85.08,85.22,85.22,85.35,85.50,85.66,85.81,85.96,86.21,86.42,86.41,86.10,85.79,85.48,85.17,84.86,84.62,84.85,85.37,85.75,84.67,83.47,82.63,82.44,82.52,82.72,82.56,82.00,81.38,80.69,79.94,79.11,78.19,77.27,76.52,75.79,75.03,74.33,73.57,73.02,72.63,72.24,71.93,71.51,71.08,70.68,70.13,69.59,69.04,68.50,67.96,67.42,66.88,66.31,65.70,65.16,64.67,64.28,64.00,63.92,64.09,64.35,64.64,64.87,65.10,65.38,65.63,65.79,66.02,66.25,66.41,66.50,66.65,66.81,66.87,66.87,66.87,66.89,67.30,67.81,68.28,68.74,69.20,69.66,70.12,70.59,71.06,71.63,72.24,72.86,73.40,74.00,74.62,75.24,75.85,76.34,76.76,77.15,77.54,77.85,78.21,78.57,78.88,79.18,79.61,80.11,80.73,81.57,82.42,83.26
72.34,69.38,64.54,60.45,59.28,58.83,58.38,57.97,57.53,57.08,56.58,56.02,55.47,54.93,54.53,54.39,54.80,55.25,55.72,56.18,56.64,57.06,57.50,57.97,58.39,58.41,58.45,58.62,58.86,58.91,58.75,58.54,58.30,58.06,58.59,59.44,61.09,63.86,67.84,70.30,72.11,73.59,74.95,75.60,76.27,76.97,77.72,78.68,78.04,76.55,74.65,72.77,70.99,69.74,69.00,68.60,68.93,69.64,71.47,74.69,78.27,81.83,85.43,89.04,92.59,95.50,98.11,99.64,99.35,97.01,94.27,91.83,89.35,84.82,80.84,76.84,72.97,69.59,68.09,66.48,65.33,65.08,66.42,67.76,69.19,70.39,70.65,70.33,69.77,69.09,68.37,67.58,66.74,65.89,65.05,64.25,63.48,62.67,61.88,61.16,60.57,59.97,59.34,58.65,58.00,57.70,57.47,57.23,56.97,56.72,56.70,56.95,57.47,58.09,58.71,59.33,59.95,60.59,61.21,61.88,62.57,63.24,63.93,64.63,65.31,65.98,66.62,67.29,67.94,68.60,69.29,70.06,70.95,71.93,72.93,73.78,74.75,75.88,77.13,78.33,79.87,81.29,82.56,83.80,84.60,85.07,85.35,85.54,85.60,85.69,85.85,86.04,86.20,86.30,86.50,86.69,86.73,86.42,86.11,85.80,85.49,85.18,84.89,84.77,84.81,84.98,84.72,83.79,83.01,82.95,83.08,83.30,83.13,82.57,81.90,81.15,80.33,79.47,78.64,77.82,77.09,76.36,75.60,74.85,74.12,73.56,73.15,72.82,72.41,71.96,71.53,71.12,70.53,69.89,69.30,68.76,68.22,67.63,67.07,66.52,65.95,65.36,64.90,64.53,64.24,64.00,63.90,64.00,64.25,64.49,64.72,64.93,65.14,65.34,65.52,65.74,65.90,65.99,66.14,66.30,66.36,66.36,66.37,66.79,67.37,67.96,68.46,68.87,69.28,69.72,70.20,70.71,71.28,71.88,72.50,73.12,73.71,74.32,74.94,75.55,76.11,76.68,77.20,77.68,78.11,78.42,78.79,79.14,79.45,79.76,80.02,80.46,81.08,81.77,82.51,83.29
70.07,66.12,61.46,59.80,59.14,58.72,58.29,57.90,57.44,56.98,56.48,55.92,55.40,54.89,54.42,54.10,54.29,54.71,55.17,55.64,56.10,56.51,56.94,57.32,57.55,57.42,57.31,57.37,57.56,57.69,57.60,57.63,57.74,57.87,58.91,60.17,62.23,65.30,68.81,70.76,72.22,73.38,74.15,74.23,74.59,75.23,76.11,77.37,77.14,75.89,74.02,72.16,70.47,69.31,68.57,68.02,68.48,69.15,70.73,73.56,77.26,80.90,84.51,88.09,91.69,94.34,96.88,98.49,98.38,96.36,94.00,91.80,89.41,85.08,81.24,77.31,73.40,69.75,68.05,66.33,64.86,64.00,65.15,66.41,67.66,68.62,68.80,68.69,68.32,67.82,67.30,66.68,66.01,65.35,64.67,63.93,63.14,62.32,61.53,60.81,60.19,59.55,58.89,58.20,57.53,57.16,56.89,56.66,56.43,56.29,56.49,56.96,57.60,58.24,58.87,59.48,60.12,60.81,61.44,62.10,62.79,63.46,64.16,64.85,65.55,66.24,66.88,67.56,68.23,68.89,69.58,70.44,71.43,72.48,73.51,74.52,75.62,76.77,77.92,79.05,80.38,81.75,83.10,84.44,85.10,85.45,85.67,85.87,85.94,86.04,86.20,86.39,86.55,86.63,86.79,86.97,87.08,86.77,86.46,86.15,85.84,85.53,85.22,84.91,84.68,84.63,84.64,83.99,83.44,83.50,83.65,83.87,83.70,83.10,82.41,81.60,80.68,79.77,79.00,78.28,77.59,76.89,76.14,75.39,74.69,74.11,73.66,73.33,72.87,72.37,71.88,71.41,70.79,70.13,69.52,68.98,68.44,67.83,67.26,66.72,66.18,65.58,65.12,64.76,64.45,64.14,63.88,63.80,63.89,64.07,64.30,64.48,64.67,64.89,65.05,65.24,65.39,65.48,65.63,65.76,65.83,65.91,66.11,66.76,67.42,68.06,68.62,69.06,69.45,69.88,70.37,70.94,71.55,72.17,72.78,73.37,73.99,74.61,75.23,75.84,76.40,77.01,77.60,78.14,78.63,78.96,79.33,79.67,79.96,80.22,80.41,80.80,81.38,82.00,82.69,83.42
66.51,61.69,59.79,59.47,59.04,58.61,58.22,57.84,57.38,56.92,56.40,55.79,55.33,54.86,54.40,53.97,53.77,54.14,54.60,55.06,55.53,55.99,56.40,56.59,56.47,56.39,56.25,56.18,56.24,56.46,56.48,56.97,57.77,58.57,59.51,61.14,63.49,66.43,69.41,70.93,72.02,72.69,72.52,72.52,72.83,73.50,74.52,75.83,76.19,75.37,73.57,71.71,70.20,69.06,68.19,67.45,68.06,68.84,70.20,72.49,76.34,80.01,83.56,87.13,90.98,93.45,95.76,97.24,97.27,95.69,93.81,91.86,89.53,85.50,81.68,77.76,73.77,69.87,68.03,66.24,64.48,63.05,63.70,64.84,66.11,67.12,67.21,67.00,66.66,66.24,65.78,65.30,64.94,64.64,64.30,63.60,62.77,61.97,61.19,60.42,59.81,59.14,58.44,57.76,57.14,56.65,56.32,56.09,55.85,55.90,56.36,57.04,57.73,58.42,59.06,59.68,60.31,61.00,61.63,62.29,62.97,63.59,64.28,64.98,65.67,66.37,67.06,67.76,68.45,69.14,69.84,70.74,71.72,72.70,73.64,74.65,75.71,76.83,78.00,79.23,80.66,82.12,83.56,84.95,85.36,85.75,86.04,86.19,86.26,86.40,86.55,86.71,86.87,86.95,87.08,87.26,87.46,87.15,86.84,86.53,86.22,85.91,85.61,85.30,84.99,84.70,84.41,84.08,83.93,84.07,84.23,84.45,84.25,83.62,82.92,82.02,81.00,80.03,79.26,78.63,78.01,77.36,76.66,75.96,75.26,74.66,74.16,73.78,73.32,72.75,72.14,71.53,70.92,70.30,69.72,69.17,68.63,68.02,67.45,66.91,66.37,65.83,65.34,64.95,64.64,64.33,64.03,63.73,63.54,63.63,63.86,64.04,64.22,64.44,64.60,64.76,64.87,64.97,65.12,65.21,65.29,65.52,66.12,66.81,67.45,68.10,68.76,69.30,69.71,70.14,70.64,71.25,71.87,72.49,73.08,73.63,74.25,74.87,75.48,76.10,76.72,77.33,77.95,78.54,79.07,79.46,79.84,80.16,80.39,80.55,80.77,81.13,81.64,82.25,82.94,83.64
62.36,60.27,59.44,59.21,58.90,58.55,58.15,57.72,57.30,56.82,56.29,55.73,55.26,54.80,54.34,53.89,53.57,53.72,54.08,54.55,55.01,55.43,55.61,55.59,55.44,55.32,55.24,55.48,56.02,56.53,57.04,57.70,58.48,59.34,60.45,62.13,64.27,66.75,69.22,70.34,71.04,71.39,71.16,70.89,71.07,71.81,73.11,74.61,75.38,74.82,73.08,71.32,69.90,68.77,67.85,67.05,67.49,68.32,69.51,71.28,75.10,78.68,82.44,86.46,90.73,93.08,94.93,96.03,96.12,95.40,93.81,91.93,89.65,85.86,82.07,78.20,74.26,70.30,68.30,65.91,63.58,61.86,62.06,63.16,64.53,65.61,65.50,65.28,64.97,64.60,64.18,63.72,63.48,63.37,63.28,63.00,62.25,61.49,60.75,59.98,59.36,58.69,58.02,57.36,56.70,56.13,55.74,55.54,55.45,55.82,56.41,57.10,57.80,58.49,59.17,59.83,60.50,61.19,61.86,62.52,63.17,63.84,64.48,65.17,65.84,66.50,67.19,67.89,68.58,69.29,70.03,70.86,71.80,72.78,73.71,74.71,75.81,76.95,78.12,79.31,80.74,82.29,83.81,85.10,85.46,85.83,86.19,86.51,86.63,86.78,86.94,87.08,87.19,87.31,87.40,87.52,87.73,87.46,87.17,86.86,86.55,86.24,85.93,85.62,85.31,85.00,84.74,84.51,84.45,84.65,84.80,85.02,84.80,84.12,83.38,82.34,81.23,80.21,79.40,78.78,78.16,77.51,76.82,76.17,75.60,75.05,74.53,74.05,73.50,72.90,72.28,71.66,71.04,70.43,69.85,69.31,68.77,68.20,67.64,67.10,66.56,66.02,65.57,65.18,64.83,64.52,64.22,63.91,63.64,63.49,63.44,63.56,63.75,63.94,64.09,64.25,64.36,64.46,64.61,64.74,65.00,65.45,66.12,66.81,67.48,68.16,68.85,69.48,70.02,70.54,71.05,71.58,72.19,72.78,73.36,73.94,74.56,75.18,75.78,76.36,76.98,77.59,78.21,78.82,79.40,79.84,80.17,80.46,80.72,80.92,81.15,81.48,81.94,82.51,83.16,83.87
59.37,59.26,59.12,58.96,58.73,58.43,58.06,57.61,57.21,56.72,56.18,55.66,55.20,54.75,54.29,53.84,53.44,53.33,53.57,54.03,54.48,54.74,54.73,54.61,54.51,54.43,54.44,55.01,56.07,56.92,57.81,58.58,59.31,60.14,61.44,63.11,65.05,67.08,68.67,69.33,69.66,69.75,69.54,69.08,69.40,70.42,71.94,73.51,74.59,74.26,72.62,70.99,69.65,68.51,67.52,66.64,66.95,67.82,68.90,70.30,73.76,77.20,81.17,85.67,90.43,92.62,94.04,94.79,94.93,94.86,93.58,91.85,89.68,86.12,82.33,78.48,74.59,70.62,67.81,64.76,62.24,60.77,60.73,61.69,63.02,64.06,63.85,63.59,63.29,62.96,62.59,62.18,62.04,62.05,62.12,62.15,61.62,60.94,60.21,59.44,58.79,58.12,57.46,56.84,56.16,55.59,55.23,55.10,55.19,55.80,56.47,57.17,57.86,58.56,59.25,59.96,60.67,61.38,62.08,62.73,63.37,64.07,64.69,65.36,66.02,66.65,67.34,68.02,68.71,69.42,70.20,70.99,71.89,72.84,73.78,74.80,75.92,77.06,78.16,79.27,80.66,82.26,83.87,85.16,85.48,85.83,86.24,86.68,86.94,87.13,87.30,87.44,87.53,87.67,87.72,87.79,87.98,87.79,87.51,87.20,86.89,86.58,86.27,85.96,85.66,85.37,85.12,84.97,85.00,85.23,85.40,85.59,85.32,84.59,83.76,82.63,81.47,80.41,79.55,78.91,78.29,77.65,77.00,76.40,75.90,75.38,74.82,74.26,73.64,73.03,72.40,71.77,71.13,70.49,69.91,69.37,68.85,68.32,67.79,67.25,66.73,66.21,65.79,65.41,65.05,64.74,64.43,64.12,63.81,63.50,63.25,63.24,63.34,63.45,63.60,63.76,63.88,63.99,64.15,64.28,64.66,65.24,65.98,66.71,67.44,68.17,68.90,69.61,70.29,70.91,71.45,71.90,72.51,73.08,73.65,74.26,74.86,75.48,76.07,76.64,77.25,77.86,78.46,79.06,79.65,80.12,80.43,80.70,81.01,81.27,81.51,81.83,82.25,82.77,83.37,83.95
58.48,58.59,58.69,58.73,58.50,58.22,57.94,57.55,57.10,56.59,56.07,55.60,55.13,54.72,54.29,53.83,53.38,52.98,53.06,53.51,53.90,53.83,53.75,53.71,53.76,53.88,54.01,54.87,56.41,57.71,58.73,59.54,60.24,60.97,62.48,64.09,65.88,67.56,67.57,67.69,67.70,67.59,67.43,66.97,67.89,69.52,71.17,72.59,73.82,73.69,72.21,70.78,69.45,68.29,67.22,66.19,66.50,67.37,68.45,69.73,72.31,75.52,79.69,84.66,89.95,91.93,93.01,93.51,93.67,93.85,92.93,91.52,89.59,86.23,82.37,78.48,74.62,70.72,65.94,62.23,60.18,59.89,59.94,60.60,61.60,62.48,62.31,61.96,61.63,61.32,61.00,60.74,60.67,60.70,60.79,60.93,60.80,60.28,59.51,58.74,57.99,57.32,56.70,56.08,55.45,55.05,54.84,54.84,55.18,55.85,56.54,57.23,57.93,58.62,59.32,60.04,60.81,61.57,62.27,62.92,63.56,64.26,64.88,65.55,66.21,66.84,67.54,68.18,68.84,69.55,70.32,71.16,72.02,72.91,73.84,74.91,76.05,77.12,78.07,79.03,80.31,81.94,83.66,85.10,85.42,85.73,86.11,86.58,87.14,87.43,87.62,87.77,87.91,88.00,88.04,88.09,88.24,88.15,87.89,87.58,87.27,86.97,86.66,86.35,86.06,85.82,85.52,85.46,85.58,85.81,86.03,86.15,85.81,85.00,84.03,82.88,81.72,80.65,79.74,79.05,78.42,77.82,77.26,76.71,76.18,75.61,75.00,74.39,73.77,73.15,72.51,71.82,71.14,70.45,69.84,69.31,68.84,68.37,67.85,67.33,66.86,66.39,65.98,65.62,65.30,64.99,64.69,64.38,64.07,63.76,63.46,63.20,63.03,63.00,63.16,63.31,63.46,63.61,63.76,63.86,64.18,64.76,65.59,66.42,67.25,68.08,68.91,69.67,70.48,71.22,71.82,72.22,72.83,73.40,73.97,74.58,75.13,75.73,76.35,76.96,77.57,78.13,78.68,79.23,79.78,80.24,80.59,80.89,81.21,81.58,81.83,82.15,82.55,83.03,83.57,83.78
57.54,57.69,57.85,58.00,57.98,57.90,57.78,57.47,57.02,56.54,56.05,55.59,55.12,54.69,54.24,53.79,53.36,52.90,52.76,52.90,53.13,53.14,53.17,53.24,53.35,53.47,53.80,54.90,56.69,58.36,59.46,60.34,61.07,61.75,63.30,64.61,65.56,65.99,65.49,65.37,65.25,65.07,64.96,65.65,67.10,68.89,70.60,71.95,73.18,73.26,72.13,70.74,69.45,68.25,67.07,65.90,65.89,66.64,67.73,68.98,70.78,73.73,77.39,81.95,87.99,90.83,91.96,92.22,92.35,92.62,92.21,91.19,89.35,85.95,82.18,78.38,74.58,70.75,65.61,61.75,59.70,59.51,59.58,60.01,60.57,61.01,60.93,60.71,60.48,60.26,60.08,59.97,59.94,59.98,60.04,60.04,59.90,59.47,58.81,58.03,57.26,56.54,55.90,55.34,54.92,54.68,54.66,54.85,55.28,55.99,56.68,57.33,57.99,58.64,59.33,60.06,60.84,61.65,62.40,63.13,63.86,64.55,65.17,65.82,66.46,67.08,67.73,68.39,69.05,69.73,70.50,71.35,72.17,73.01,73.90,74.86,75.88,76.87,77.80,78.73,79.78,81.29,83.07,84.77,85.22,85.56,85.95,86.46,87.08,87.55,87.87,88.09,88.24,88.36,88.41,88.43,88.50,88.47,88.22,87.92,87.61,87.30,87.02,86.75,86.48,86.21,85.90,85.91,86.13,86.43,86.62,86.66,86.33,85.67,85.02,83.69,82.29,80.99,79.88,79.22,78.62,78.06,77.52,76.98,76.41,75.81,75.26,74.92,74.19,73.32,72.45,71.69,71.03,70.38,69.76,69.20,68.74,68.24,67.76,67.34,66.99,66.65,66.30,65.97,65.66,65.35,65.04,64.73,64.43,64.12,63.73,63.40,63.12,62.89,62.81,62.88,63.02,63.17,63.33,63.45,63.73,64.26,65.11,65.96,66.81,67.66,68.51,69.41,70.29,71.10,71.79,72.33,72.98,73.51,74.00,74.53,74.99,75.49,76.06,76.74,77.47,78.10,78.70,79.27,79.81,80.31,80.76,81.12,81.40,81.79,82.08,82.39,82.73,83.03,83.23,83.26
56.59,56.75,56.91,57.13,57.30,57.42,57.45,57.28,56.93,56.50,56.03,55.57,55.11,54.64,54.18,53.74,53.34,52.89,52.54,52.35,52.41,52.56,52.71,52.87,53.02,53.09,53.69,55.03,56.96,58.88,60.08,61.02,61.79,62.48,63.84,64.67,64.73,64.04,63.31,62.97,62.75,62.63,62.75,64.57,66.45,68.32,70.12,71.46,72.59,72.77,71.93,70.71,69.48,68.24,66.96,65.66,65.21,65.84,66.96,68.20,69.44,72.01,75.06,79.01,85.13,88.76,90.32,90.75,90.97,91.35,91.41,90.67,88.83,85.43,81.87,78.22,74.50,70.72,65.63,61.75,59.61,59.26,59.29,59.53,59.71,59.77,59.79,59.72,59.59,59.47,59.40,59.41,59.42,59.44,59.43,59.27,59.02,58.64,58.09,57.32,56.54,55.81,55.17,54.71,54.47,54.40,54.56,54.92,55.42,56.16,56.84,57.48,58.11,58.73,59.40,60.14,60.95,61.76,62.52,63.31,64.11,64.83,65.47,66.11,66.74,67.34,67.96,68.63,69.30,69.98,70.81,71.68,72.52,73.35,74.20,75.01,75.89,76.78,77.66,78.52,79.34,80.64,82.35,84.24,84.95,85.38,85.79,86.35,86.96,87.57,88.05,88.37,88.56,88.72,88.78,88.79,88.79,88.79,88.56,88.25,87.94,87.65,87.40,87.17,86.90,86.60,86.30,86.37,86.67,87.04,87.20,87.16,86.87,86.44,86.18,84.74,83.15,81.59,80.18,79.44,78.84,78.30,77.76,77.22,76.63,76.08,75.67,75.60,74.77,73.65,72.53,71.64,70.92,70.27,69.66,69.09,68.64,68.16,67.75,67.43,67.18,66.94,66.65,66.34,66.03,65.72,65.41,65.10,64.78,64.46,64.00,63.64,63.30,62.93,62.63,62.58,62.63,62.74,62.90,63.05,63.28,63.75,64.60,65.45,66.31,67.17,68.06,69.04,70.00,70.84,71.59,72.28,72.94,73.39,73.77,74.22,74.61,74.99,75.54,76.29,77.17,77.89,78.55,79.17,79.75,80.32,80.86,81.26,81.52,81.88,82.20,82.49,82.74,82.87,82.73,82.66
55.66,55.85,56.01,56.18,56.34,56.49,56.61,56.68,56.71,56.43,55.97,55.51,55.04,54.58,54.14,53.73,53.29,52.83,52.39,52.07,52.03,52.18,52.33,52.49,52.63,52.71,53.70,55.31,57.27,59.14,60.52,61.44,62.19,63.10,63.67,63.60,63.15,62.48,61.60,60.87,60.53,60.74,61.70,63.64,65.66,67.71,69.74,71.24,72.09,71.97,71.11,70.57,69.46,68.18,66.83,65.52,64.48,65.05,66.26,67.50,68.73,70.64,73.30,76.67,80.56,83.96,86.80,88.71,89.45,90.13,90.41,89.59,87.49,84.44,81.40,78.00,74.33,70.59,65.55,61.69,59.51,59.04,58.88,59.00,59.13,59.22,59.34,59.27,59.15,59.02,58.95,59.01,59.07,59.03,58.85,58.63,58.30,57.88,57.32,56.55,55.78,55.18,54.75,54.45,54.16,54.24,54.52,54.95,55.60,56.31,57.04,57.76,58.43,59.05,59.68,60.46,61.37,62.04,62.69,63.38,64.14,64.95,65.69,66.43,67.10,67.66,68.28,68.91,69.60,70.42,71.50,72.48,73.48,74.44,75.28,75.94,76.67,77.41,78.13,78.69,79.34,80.26,81.53,83.22,84.62,85.26,85.68,86.28,86.84,87.44,88.03,88.53,88.87,89.04,89.13,89.17,89.17,89.17,88.94,88.63,88.33,88.09,87.85,87.59,87.29,86.98,86.73,86.85,87.18,87.55,87.77,87.70,87.51,87.31,87.25,86.14,84.68,82.96,81.06,79.77,79.04,78.49,77.95,77.41,76.91,76.62,76.51,76.43,75.60,74.44,73.20,72.05,70.88,70.10,69.51,69.04,68.64,68.38,68.13,67.86,67.57,67.27,66.97,66.66,66.35,66.04,65.73,65.39,65.02,64.65,64.19,63.83,63.51,63.19,62.88,62.64,62.45,62.36,62.51,62.67,62.84,63.24,64.09,64.94,65.83,66.77,67.73,68.61,69.63,70.50,71.20,71.90,72.42,72.68,72.92,73.32,73.71,74.10,74.69,75.55,76.58,77.31,78.04,78.77,79.50,80.22,80.72,81.09,81.38,81.64,81.94,82.19,82.33,82.37,82.22,82.09
54.65,54.83,54.99,55.14,55.30,55.47,55.67,55.96,56.22,56.19,55.91,55.44,54.98,54.52,54.09,53.69,53.22,52.76,52.32,51.94,51.73,51.81,51.95,52.10,52.25,52.33,53.42,55.10,57.10,59.05,60.43,61.34,62.02,62.74,62.82,62.37,61.73,61.09,60.33,59.61,59.41,59.90,61.10,63.14,65.22,67.32,69.41,71.02,71.67,71.27,70.21,69.73,68.85,67.76,66.52,65.18,63.91,64.40,65.60,66.84,68.07,69.57,71.80,74.64,77.61,80.70,83.87,86.33,87.47,88.37,88.85,88.17,86.18,83.45,80.60,77.40,73.94,70.42,65.53,61.69,59.49,59.00,58.67,58.58,58.62,58.73,58.85,58.82,58.70,58.58,58.55,58.63,58.63,58.52,58.32,58.08,57.66,57.16,56.57,55.83,55.19,54.72,54.38,54.12,53.91,54.14,54.50,54.96,55.62,56.34,57.10,57.86,58.59,59.37,60.16,61.06,62.02,62.64,63.29,63.93,64.58,65.30,65.97,66.69,67.38,67.99,68.64,69.26,70.10,71.20,72.49,73.54,74.61,75.60,76.40,76.95,77.61,78.29,78.93,79.42,80.02,80.78,81.77,83.06,84.32,85.03,85.56,86.17,86.71,87.32,87.93,88.52,89.01,89.34,89.51,89.56,89.56,89.52,89.31,89.05,88.80,88.54,88.27,87.98,87.67,87.36,87.19,87.38,87.72,88.07,88.37,88.30,88.18,88.11,88.11,87.48,86.19,84.36,82.18,80.19,79.27,78.73,78.21,77.80,77.52,77.38,77.34,77.26,76.40,75.24,73.95,72.64,71.19,70.19,69.56,69.21,68.92,68.73,68.51,68.26,67.95,67.64,67.33,67.02,66.71,66.37,65.99,65.61,65.23,64.84,64.41,64.06,63.75,63.45,63.14,62.67,62.28,62.09,62.18,62.27,62.39,62.77,63.62,64.50,65.35,66.23,67.20,68.11,69.09,69.97,70.73,71.43,71.87,72.02,72.14,72.43,72.82,73.23,73.87,74.79,75.88,76.73,77.50,78.29,79.20,80.04,80.50,80.82,81.12,81.39,81.66,81.83,81.89,81.86,81.74,81.58
53.59,53.75,53.90,54.07,54.24,54.45,54.74,55.20,55.59,55.83,55.81,55.38,54.92,54.45,54.02,53.62,53.16,52.70,52.28,51.89,51.50,51.47,51.56,51.72,51.87,51.94,52.95,54.58,56.61,58.69,60.02,60.93,61.53,61.90,61.68,61.12,60.46,59.84,59.28,58.78,58.88,59.60,60.77,62.89,65.00,67.08,69.12,70.80,71.30,70.67,69.34,68.55,67.91,67.12,66.07,64.72,63.42,63.82,64.96,66.19,67.42,68.65,70.43,72.77,75.45,78.22,81.23,83.78,85.26,86.34,87.01,86.54,84.83,82.41,79.63,76.61,73.44,70.20,65.49,61.69,59.50,59.04,58.58,58.25,58.16,58.27,58.34,58.35,58.26,58.16,58.16,58.23,58.12,57.97,57.80,57.57,57.06,56.47,55.83,55.14,54.69,54.34,54.03,53.76,53.71,54.08,54.50,54.95,55.56,56.33,57.12,57.94,58.77,59.78,60.80,61.82,62.79,63.44,64.10,64.70,65.25,65.79,66.33,66.97,67.66,68.34,69.03,69.71,70.75,72.13,73.59,74.72,75.82,76.79,77.54,78.00,78.66,79.34,79.97,80.53,81.14,81.83,82.61,83.45,84.22,84.90,85.51,86.07,86.59,87.19,87.81,88.42,89.05,89.60,89.90,90.02,90.06,89.95,89.74,89.51,89.30,88.99,88.68,88.37,88.06,87.75,87.68,87.92,88.28,88.60,88.98,88.96,88.91,88.91,88.91,88.78,87.70,85.84,83.51,80.82,79.62,79.01,78.53,78.31,78.28,78.25,78.17,78.09,77.18,76.05,74.75,73.35,71.75,70.50,69.79,69.55,69.38,69.14,68.90,68.64,68.32,68.02,67.70,67.39,67.06,66.67,66.22,65.81,65.42,65.03,64.65,64.32,64.01,63.69,63.36,62.68,62.13,61.89,61.88,61.88,61.96,62.32,63.15,64.06,64.83,65.63,66.56,67.54,68.42,69.32,70.20,70.92,71.32,71.39,71.39,71.55,71.93,72.37,73.07,74.03,75.11,76.12,76.95,77.78,78.85,79.77,80.22,80.50,80.81,81.12,81.36,81.46,81.43,81.36,81.28,81.10
52.50,52.66,52.82,53.09,53.44,53.79,54.16,54.62,54.97,55.26,55.41,55.31,54.85,54.39,53.93,53.50,53.09,52.63,52.21,51.83,51.44,51.16,51.18,51.33,51.48,51.50,52.07,53.45,55.51,57.54,59.00,60.03,60.69,61.01,60.89,60.42,59.78,59.05,58.35,58.20,58.66,59.63,60.89,62.97,65.03,67.04,68.98,70.52,71.10,70.59,69.16,67.43,66.70,65.99,65.17,64.21,62.95,63.23,64.25,65.48,66.66,67.84,69.17,70.85,73.22,75.93,78.77,81.32,83.22,84.30,85.00,84.56,82.95,81.02,78.51,75.70,72.73,69.69,65.03,61.49,59.50,59.05,58.64,58.27,57.98,57.81,57.83,57.89,57.84,57.78,57.77,57.68,57.55,57.39,57.22,56.99,56.48,55.90,55.27,54.63,54.28,53.96,53.67,53.47,53.67,54.04,54.46,54.95,55.56,56.33,57.35,58.54,59.79,60.91,62.02,62.92,63.60,64.49,64.97,65.53,66.15,66.69,67.23,67.80,68.39,68.97,69.56,70.71,71.90,73.07,74.43,75.78,77.00,77.97,78.62,79.09,79.89,80.79,81.66,82.42,83.06,83.61,84.19,84.99,85.71,85.99,86.10,86.24,86.51,87.06,87.68,88.31,88.98,89.58,90.40,91.18,91.58,91.23,90.76,90.27,89.81,89.44,89.13,88.82,88.51,88.20,88.23,88.46,88.81,89.17,89.50,89.79,89.93,89.93,89.93,89.89,89.25,87.82,85.50,82.96,80.81,79.50,79.12,78.99,79.07,79.11,79.05,78.92,78.01,76.88,75.60,74.27,72.92,71.68,70.82,70.35,70.03,69.65,69.32,69.01,68.64,68.34,67.99,67.62,67.25,66.81,66.39,66.00,65.61,65.22,64.89,64.57,64.25,63.86,63.28,62.55,62.01,61.75,61.69,61.69,61.68,61.88,62.51,63.27,64.11,64.95,65.77,66.61,67.46,68.44,69.49,70.40,70.81,70.81,70.71,70.78,71.11,71.54,72.26,73.26,74.34,75.35,76.30,77.24,78.21,79.08,79.77,80.25,80.55,80.81,81.04,81.09,80.99,80.91,80.83,80.65
51.45,51.68,51.95,52.32,52.74,53.16,53.58,54.02,54.34,54.65,54.91,55.05,54.75,54.32,53.86,53.41,53.02,52.59,52.17,51.76,51.38,50.99,50.88,50.95,51.09,51.09,51.33,52.44,54.35,56.20,57.70,58.83,59.54,59.84,59.76,59.35,58.72,58.01,57.56,57.91,58.69,59.81,61.26,63.24,65.25,67.24,69.15,70.45,70.93,70.46,69.04,66.85,65.69,64.84,64.10,63.33,62.30,62.54,63.47,64.67,65.83,66.97,68.07,69.35,71.22,73.73,76.41,79.00,81.22,82.46,83.20,82.82,81.36,79.72,77.52,75.00,72.21,69.18,64.54,61.28,59.52,59.09,58.70,58.31,57.94,57.64,57.50,57.47,57.41,57.34,57.28,57.12,56.97,56.82,56.65,56.42,55.98,55.38,54.72,54.16,53.74,53.44,53.28,53.31,53.70,54.09,54.49,55.01,55.89,56.92,58.18,59.54,60.89,62.08,63.24,64.11,64.70,65.52,66.03,66.55,67.10,67.62,68.10,68.63,69.34,70.30,71.16,72.38,73.50,74.51,75.69,77.04,78.27,79.28,80.00,80.62,81.51,82.52,83.54,84.33,84.95,85.35,85.75,86.52,86.98,87.01,86.89,86.82,86.84,87.15,87.63,88.22,88.91,89.56,90.65,91.85,92.74,92.46,91.93,91.29,90.66,90.27,89.79,89.36,89.00,88.72,88.71,88.92,89.32,89.88,90.59,91.23,91.55,91.57,91.57,91.48,90.90,89.67,87.65,85.04,82.42,80.65,80.04,79.94,80.05,80.21,80.27,80.07,79.21,78.09,76.83,75.55,74.29,73.13,72.26,71.64,71.04,70.37,69.81,69.35,68.96,68.60,68.22,67.83,67.44,66.97,66.57,66.19,65.80,65.42,65.10,64.80,64.41,63.87,63.18,62.42,61.86,61.59,61.54,61.51,61.47,61.54,61.90,62.49,63.29,64.12,64.89,65.66,66.52,67.54,68.64,69.68,70.11,70.15,70.04,70.04,70.27,70.72,71.48,72.49,73.54,74.55,75.44,76.21,76.84,77.69,78.56,79.37,80.04,80.43,80.66,80.70,80.60,80.50,80.14,79.07
50.44,50.80,51.26,51.72,52.12,52.55,53.00,53.38,53.70,54.01,54.32,54.61,54.60,54.26,53.80,53.34,52.96,52.57,52.14,51.70,51.31,50.93,50.65,50.57,50.71,50.71,50.71,51.53,53.14,54.69,56.17,57.35,58.13,58.43,58.35,57.94,57.33,56.75,56.89,57.88,58.95,60.13,61.82,63.67,65.63,67.64,69.57,70.58,70.80,70.27,68.96,66.72,64.85,63.66,62.89,62.12,61.49,61.77,62.62,63.78,64.94,66.03,67.11,68.22,69.39,71.59,74.14,76.79,79.26,80.80,81.56,81.28,80.04,78.49,76.66,74.48,71.84,68.66,64.03,61.05,59.54,59.15,58.76,58.38,58.03,57.70,57.32,57.09,56.96,56.86,56.70,56.55,56.39,56.24,56.07,55.84,55.54,54.91,54.18,53.71,53.10,52.81,52.87,53.27,53.80,54.22,54.56,55.13,56.50,58.03,59.52,60.88,62.04,63.28,64.45,65.39,66.05,66.52,67.25,67.75,68.11,68.57,68.96,69.46,70.50,72.22,73.67,74.64,75.50,76.37,77.30,78.45,79.61,80.69,81.61,82.53,83.45,84.49,85.57,86.26,86.83,87.06,87.28,88.05,88.07,87.97,87.85,87.75,87.53,87.43,87.64,88.16,88.85,89.55,90.68,92.12,93.58,93.65,93.21,92.52,91.81,91.42,90.64,89.98,89.52,89.29,89.14,89.30,89.82,90.72,92.17,93.20,93.69,93.75,93.75,93.47,92.63,91.40,89.94,87.09,84.40,82.37,81.25,81.09,81.20,81.53,81.78,81.47,80.71,79.62,78.39,77.14,75.83,74.82,74.05,73.35,72.36,71.29,70.36,69.67,69.28,68.82,68.41,68.03,67.63,67.16,66.77,66.38,65.99,65.61,65.30,64.99,64.51,63.74,63.05,62.29,61.71,61.40,61.40,61.33,61.30,61.31,61.32,61.71,62.38,63.16,63.93,64.70,65.60,66.62,67.70,68.78,69.27,69.42,69.39,69.32,69.40,69.90,70.71,71.71,72.72,73.72,74.41,74.76,74.86,75.71,76.72,77.96,79.31,80.00,80.24,80.31,80.27,80.12,79.24,76.52
50.09,50.31,50.68,51.09,51.52,51.97,52.41,52.75,53.06,53.37,53.68,53.98,54.18,54.06,53.73,53.28,52.89,52.51,52.11,51.69,51.25,50.86,50.52,50.30,50.26,50.26,50.26,50.71,51.74,53.29,54.63,55.79,56.57,56.77,56.55,56.24,56.20,56.65,57.62,58.71,59.76,60.89,62.34,64.04,65.89,67.82,69.69,70.45,70.58,70.07,68.83,66.54,64.34,62.80,61.81,61.10,60.82,61.01,61.72,62.88,63.99,65.07,66.15,67.25,68.41,69.73,72.03,74.79,77.41,79.00,79.59,79.46,78.73,77.33,75.48,73.48,71.12,68.03,63.15,60.55,59.43,59.09,58.70,58.32,57.97,57.64,57.26,56.93,56.70,56.52,56.32,56.16,55.97,55.79,55.62,55.39,55.05,54.43,53.65,52.95,52.43,52.51,52.96,53.58,54.12,54.49,55.17,56.31,57.94,59.40,60.77,62.03,63.19,64.43,65.61,66.62,67.40,67.91,68.48,69.04,69.68,70.53,71.40,72.37,73.72,75.46,76.49,77.14,77.80,78.56,79.34,80.30,81.42,82.56,83.58,84.56,85.50,86.49,87.49,88.24,88.80,88.98,88.96,89.16,89.06,88.93,88.79,88.64,88.36,88.25,88.20,88.32,88.92,89.65,90.96,92.59,94.19,94.79,94.56,94.14,93.87,93.73,93.06,92.37,91.67,90.81,90.12,90.29,91.11,92.37,93.89,95.12,95.78,95.91,95.86,95.17,94.11,92.72,91.01,88.63,86.32,84.43,83.22,83.17,83.25,83.50,83.65,83.20,82.48,81.37,80.03,78.62,77.35,76.40,75.48,74.49,73.39,72.27,71.07,70.05,69.47,69.01,68.60,68.22,67.82,67.36,66.96,66.57,66.20,65.86,65.50,65.02,64.38,63.61,62.87,62.10,61.55,61.27,61.22,61.19,61.18,61.16,61.12,61.31,61.82,62.49,63.21,63.94,64.79,65.81,66.93,68.01,68.36,68.46,68.47,68.52,68.88,69.33,69.93,70.71,71.82,72.87,73.22,73.02,72.63,73.33,74.45,75.81,77.21,78.19,78.48,78.40,77.70,75.76,73.87,72.15
49.89,49.99,50.22,50.51,50.93,51.39,51.80,52.11,52.42,52.73,53.04,53.35,53.66,53.76,53.61,53.24,52.86,52.45,52.06,51.66,51.21,50.83,50.44,50.13,49.97,49.97,49.97,50.14,50.67,51.93,53.08,54.19,54.99,55.12,55.11,55.24,55.83,57.00,58.47,59.59,60.63,61.71,62.94,64.51,66.23,68.03,69.72,70.30,70.36,69.84,68.60,66.34,63.96,62.08,60.83,60.29,60.23,60.35,60.91,61.95,63.03,64.10,65.12,66.11,67.04,67.90,70.11,72.93,75.53,77.11,77.67,77.72,77.32,76.15,74.41,72.60,70.32,66.97,62.21,60.09,59.34,59.00,58.61,58.24,57.90,57.55,57.17,56.80,56.51,56.26,56.04,55.86,55.66,55.46,55.28,55.02,54.53,53.88,53.12,52.29,51.97,52.40,53.14,53.87,54.43,55.05,56.12,57.64,59.38,60.81,62.09,63.29,64.45,65.64,66.81,67.92,68.93,69.77,70.55,71.42,72.43,73.64,74.76,75.91,77.25,78.72,79.45,79.92,80.41,80.98,81.54,82.29,83.31,84.44,85.54,86.56,87.55,88.53,89.49,90.24,90.83,91.01,90.91,90.77,90.56,90.33,90.07,89.75,89.26,89.01,88.75,88.62,89.10,89.87,91.28,93.05,94.76,95.91,96.05,95.99,96.07,96.09,95.64,95.07,94.25,92.85,91.68,91.74,92.68,94.14,95.64,97.02,97.85,98.04,97.80,96.78,95.47,93.89,92.07,90.09,88.08,86.36,85.24,85.26,85.33,85.52,85.57,85.03,84.28,83.14,81.72,80.16,78.76,77.75,76.71,75.55,74.39,73.20,71.81,70.50,69.64,69.20,68.79,68.41,68.01,67.55,67.15,66.78,66.42,66.09,65.61,64.97,64.24,63.48,62.71,61.94,61.38,61.11,61.05,61.05,61.04,61.00,60.95,61.03,61.40,61.97,62.66,63.34,64.11,65.06,66.14,67.24,67.45,67.56,67.70,67.96,68.50,68.91,69.34,69.92,70.86,71.89,72.02,71.50,70.86,71.32,72.36,73.71,75.12,76.18,76.25,75.80,74.66,72.17,70.18,69.26
49.86,49.91,49.94,49.98,50.36,50.79,51.16,51.47,51.78,52.09,52.40,52.71,53.02,53.30,53.40,53.24,52.86,52.41,51.99,51.61,51.21,50.83,50.44,50.11,49.91,49.91,49.91,49.93,50.08,50.65,51.51,52.56,53.37,53.47,54.21,55.26,56.53,57.96,59.43,60.51,61.55,62.62,63.65,65.12,66.71,68.28,69.65,70.13,70.17,69.57,68.25,66.14,63.77,61.53,59.98,59.78,59.77,59.84,60.21,60.99,62.07,63.10,63.99,64.70,65.09,66.11,68.45,71.24,73.60,75.09,75.86,76.08,75.79,74.96,73.52,71.89,69.44,65.31,61.20,59.69,59.25,58.87,58.48,58.16,57.81,57.43,57.04,56.72,56.41,56.14,55.91,55.68,55.50,55.31,55.07,54.77,53.96,53.23,52.56,51.78,51.80,52.54,53.44,54.13,54.74,56.03,57.54,59.15,60.79,62.26,63.53,64.69,65.85,66.94,68.09,69.33,70.72,72.31,73.82,75.34,76.87,78.37,79.39,80.27,81.12,81.97,82.60,83.09,83.45,83.71,83.92,84.47,85.29,86.31,87.46,88.53,89.60,90.64,91.59,92.30,92.92,93.21,93.22,93.14,92.78,92.36,91.85,91.18,90.24,89.66,89.26,89.09,89.43,90.23,91.66,93.46,95.29,96.99,97.74,98.14,98.45,98.52,98.41,98.15,97.40,95.61,94.04,93.84,94.64,96.04,97.45,98.89,99.86,100.13,99.49,98.26,96.66,94.88,93.17,91.43,89.59,88.12,87.30,87.37,87.44,87.57,87.55,87.01,86.11,84.93,83.48,81.78,79.99,78.78,77.67,76.51,75.35,74.07,72.58,71.06,69.77,69.37,68.99,68.60,68.20,67.74,67.34,66.99,66.66,66.28,65.56,64.80,64.06,63.35,62.58,61.81,61.23,60.93,60.92,60.92,60.88,60.83,60.82,60.90,61.16,61.65,62.34,62.96,63.60,64.37,65.32,66.47,66.54,66.73,67.14,67.77,68.31,68.68,69.04,69.43,69.83,70.71,70.81,70.32,69.77,69.83,70.55,71.73,73.11,73.92,73.37,72.29,71.01,69.81,69.06,68.55
49.82,49.85,49.85,49.89,50.07,50.31,50.59,50.94,51.25,51.59,51.92,52.23,52.54,52.85,53.04,53.05,52.78,52.42,52.01,51.61,51.26,50.88,50.49,50.15,49.90,49.90,49.90,49.90,49.97,50.31,51.00,51.88,52.80,53.55,54.74,56.08,57.49,58.89,60.15,61.19,62.26,63.39,64.51,65.77,67.02,68.13,68.99,69.45,69.49,68.90,67.61,65.56,63.50,61.51,60.03,59.59,59.46,59.49,59.72,60.21,61.00,61.72,62.17,62.43,62.78,64.23,66.54,69.22,71.73,73.12,73.97,74.30,74.13,73.52,72.33,70.46,67.46,62.86,60.43,59.49,59.15,58.80,58.41,58.05,57.68,57.31,56.96,56.65,56.32,56.01,55.78,55.55,55.37,55.16,54.82,54.18,53.28,52.51,51.85,51.16,51.61,52.54,53.61,54.61,55.73,57.24,58.84,60.47,62.14,63.73,65.10,66.33,67.53,68.78,70.34,72.05,73.81,75.56,77.30,79.03,80.62,81.96,82.84,83.64,84.40,85.13,85.83,86.34,86.66,86.85,87.04,87.37,87.81,88.47,89.43,90.56,91.68,92.75,93.70,94.40,94.99,95.37,95.52,95.45,95.15,94.73,94.14,93.33,92.20,91.21,90.33,89.72,89.82,90.61,92.29,94.30,96.03,97.80,98.72,99.29,99.77,100.10,100.18,100.03,99.42,98.03,96.28,95.80,96.41,97.79,99.14,100.48,101.52,101.93,101.07,99.67,98.00,96.27,94.69,93.12,91.56,90.28,89.51,89.63,89.71,89.67,89.43,88.93,88.02,86.77,85.26,83.54,81.60,79.95,78.58,77.42,76.26,74.88,73.35,71.76,70.27,69.63,69.18,68.77,68.35,67.92,67.57,67.20,66.76,66.21,65.44,64.67,63.91,63.18,62.45,61.68,61.10,60.78,60.74,60.74,60.72,60.69,60.69,60.73,60.90,61.31,61.96,62.58,63.20,63.90,64.69,65.55,65.87,66.31,66.88,67.53,68.11,68.48,68.83,69.20,69.51,69.96,69.99,69.67,69.22,69.14,69.63,70.42,71.23,71.59,71.15,70.40,69.54,68.79,68.28,67.82
49.78,49.79,49.81,49.87,49.89,49.96,50.13,50.46,50.79,51.14,51.49,51.80,52.11,52.41,52.65,52.77,52.61,52.34,51.97,51.59,51.29,50.92,50.53,50.17,49.90,49.88,49.88,49.89,49.94,50.15,50.80,51.61,52.61,53.89,55.37,56.86,58.32,59.68,60.76,61.78,62.83,63.92,65.02,65.98,66.83,67.51,67.99,68.42,68.47,67.99,66.86,64.78,62.88,61.25,60.04,59.42,59.18,59.17,59.31,59.57,60.04,60.44,60.52,60.46,60.78,62.25,64.14,66.36,68.78,70.65,71.93,72.50,72.41,71.93,70.71,68.35,64.92,60.70,59.76,59.27,58.96,58.65,58.27,57.90,57.54,57.21,56.90,56.58,56.22,55.89,55.65,55.42,55.25,54.95,54.41,53.44,52.56,51.78,51.12,50.56,51.40,52.53,53.78,55.09,56.59,58.26,60.01,61.78,63.48,65.18,66.66,68.02,69.38,70.91,72.91,75.05,77.13,78.95,80.81,82.60,84.16,85.29,86.07,86.85,87.62,88.37,89.15,89.62,89.82,89.83,89.90,90.02,90.16,90.54,91.40,92.60,93.78,94.87,95.81,96.50,97.06,97.56,97.86,97.80,97.58,97.17,96.51,95.58,94.38,93.18,92.00,91.02,90.75,91.16,92.86,95.08,96.86,98.64,99.63,100.30,100.89,101.43,101.68,101.56,101.03,100.02,98.35,97.71,98.16,99.51,100.81,102.06,103.15,103.67,102.60,101.08,99.44,97.84,96.42,95.05,93.81,92.70,91.87,92.00,91.99,91.73,91.27,90.76,89.82,88.56,87.04,85.28,83.26,81.25,79.60,78.33,77.15,75.69,74.11,72.49,70.89,69.91,69.37,68.95,68.50,68.11,67.78,67.35,66.78,66.07,65.31,64.54,63.77,63.00,62.30,61.55,60.97,60.65,60.57,60.56,60.56,60.55,60.56,60.56,60.67,61.01,61.62,62.25,62.87,63.52,64.19,64.80,65.36,66.00,66.66,67.28,67.89,68.28,68.63,68.98,69.25,69.32,69.28,69.12,68.79,68.58,68.90,69.36,69.66,69.64,69.41,69.03,68.55,68.01,67.54,67.20
49.72,49.74,49.80,49.82,49.87,49.91,49.96,50.10,50.45,50.79,51.11,51.42,51.73,51.99,52.22,52.39,52.23,52.00,51.74,51.47,51.23,50.90,50.50,50.12,49.89,49.83,49.82,49.85,49.92,50.03,50.94,51.93,52.95,54.08,55.61,57.19,58.72,60.13,61.21,62.22,63.14,63.92,64.52,65.04,65.45,65.87,66.38,66.72,66.78,66.64,65.98,63.66,61.37,60.09,59.54,59.17,58.87,58.85,58.99,59.22,59.45,59.55,59.60,59.64,59.71,60.03,60.61,61.54,63.05,66.89,69.52,70.71,70.61,70.08,68.15,64.85,61.45,59.69,59.24,58.89,58.58,58.27,57.94,57.62,57.37,57.14,56.83,56.47,56.13,55.81,55.52,55.29,55.12,54.59,53.62,52.50,51.77,51.05,50.41,50.05,51.14,52.54,54.04,55.45,56.81,58.70,60.90,63.12,64.82,66.52,68.13,69.76,71.52,73.54,75.81,78.14,80.42,82.38,84.31,86.03,87.46,88.49,89.26,90.08,90.96,91.89,92.66,92.97,92.79,92.25,91.73,91.72,91.79,92.22,93.32,94.67,95.93,97.02,97.92,98.61,99.17,99.81,100.31,100.29,100.13,99.62,98.81,97.77,96.66,95.84,94.98,94.00,93.04,92.11,93.22,95.53,97.89,99.66,100.73,101.43,101.98,102.52,102.89,102.75,102.11,101.11,100.02,99.57,99.97,101.23,102.48,103.72,104.86,105.41,104.09,102.50,101.03,99.69,98.48,97.46,96.59,95.59,94.54,94.57,94.21,93.66,93.02,92.36,91.32,90.20,88.79,86.94,84.87,82.85,80.95,79.27,78.05,76.49,74.88,73.26,71.64,70.22,69.56,69.14,68.69,68.30,67.93,67.36,66.64,65.88,65.17,64.42,63.64,62.87,62.11,61.39,60.85,60.52,60.44,60.44,60.40,60.37,60.44,60.44,60.50,60.79,61.37,62.05,62.68,63.30,63.93,64.55,65.15,65.78,66.40,67.02,67.64,68.06,68.41,68.70,68.81,68.78,68.68,68.54,68.40,68.00,68.23,68.61,68.82,68.69,68.57,68.27,67.78,67.24,66.78,66.85
49.70,49.72,49.76,49.79,49.83,49.85,49.87,49.95,50.15,50.42,50.73,51.04,51.34,51.60,51.84,52.04,51.81,51.61,51.40,51.18,51.02,50.72,50.33,50.00,49.85,49.81,49.80,49.84,49.91,49.95,50.97,52.10,53.25,54.41,55.85,57.27,58.63,59.89,60.97,61.80,62.45,62.96,63.42,63.78,64.00,64.28,64.73,65.01,65.09,65.14,64.88,63.30,61.21,60.00,59.47,59.09,58.71,58.54,58.58,58.80,58.95,58.98,59.02,59.07,59.04,59.00,59.12,59.49,60.28,62.81,64.56,65.38,65.39,65.13,63.95,61.88,59.81,58.98,58.60,58.28,57.97,57.66,57.39,57.14,56.97,56.82,56.58,56.31,56.01,55.70,55.39,55.16,54.47,53.51,52.40,51.31,50.79,50.37,50.03,49.90,51.17,52.66,54.20,55.66,57.08,58.58,60.59,63.14,66.00,67.94,69.85,71.84,73.91,76.07,78.52,81.07,83.58,85.80,87.58,89.16,90.50,91.50,92.56,93.47,94.45,95.59,96.40,96.67,96.31,95.49,94.72,94.14,93.72,93.94,95.24,96.60,98.00,99.30,100.43,101.38,102.09,102.79,103.29,103.29,103.00,102.47,101.62,100.45,99.44,98.69,97.86,96.83,95.53,93.98,94.04,95.59,98.19,100.18,101.55,102.48,103.10,103.61,104.07,104.00,103.43,102.60,101.89,101.85,102.44,103.55,104.79,106.02,106.97,107.20,105.88,104.57,103.35,102.24,101.27,100.45,99.64,98.59,97.38,96.92,96.15,95.40,94.65,93.74,92.66,91.46,90.04,88.33,86.24,84.22,82.21,80.33,78.92,77.25,75.60,73.98,72.36,70.78,69.89,69.33,68.88,68.45,67.91,67.25,66.51,65.73,65.00,64.24,63.48,62.74,61.97,61.23,60.67,60.35,60.31,60.28,60.24,60.22,60.26,60.30,60.36,60.64,61.20,61.86,62.48,63.10,63.72,64.34,64.92,65.53,66.15,66.77,67.42,67.84,68.12,68.28,68.29,68.19,68.07,67.95,67.84,67.52,67.66,67.90,67.98,67.83,67.71,67.43,66.98,66.47,66.45,66.80
49.70,49.70,49.71,49.78,49.79,49.79,49.81,49.88,49.89,50.07,50.36,50.65,50.96,51.22,51.49,51.71,51.41,51.22,51.01,50.82,50.74,50.45,50.12,49.87,49.80,49.79,49.79,49.83,49.89,49.90,50.94,52.18,53.44,54.61,55.88,57.06,58.18,59.27,60.36,60.99,61.36,61.65,62.09,62.40,62.54,62.72,63.08,63.30,63.43,63.59,63.66,63.08,61.43,60.24,59.54,59.08,58.62,58.26,58.16,58.35,58.50,58.53,58.57,58.59,58.52,58.44,58.46,58.59,58.82,59.12,59.36,59.56,59.69,59.78,59.74,59.44,58.96,58.41,57.94,57.58,57.27,56.97,56.75,56.59,56.48,56.39,56.24,56.09,55.84,55.55,55.24,54.84,53.48,52.10,51.07,50.16,49.87,49.79,49.86,50.03,51.41,52.90,54.41,55.89,57.42,58.39,60.06,62.89,67.16,69.41,71.66,73.98,76.29,78.54,81.16,83.92,86.63,89.02,90.60,92.01,93.30,94.35,95.75,96.83,97.96,99.29,100.10,100.35,99.86,98.83,97.88,96.66,95.68,95.63,97.05,98.44,100.08,101.70,103.15,104.40,105.34,106.06,106.49,106.49,106.01,105.48,104.65,103.42,102.48,101.67,100.76,99.60,98.04,96.18,95.09,95.57,98.15,100.40,102.14,103.41,104.25,104.72,105.26,105.30,104.90,104.30,103.85,104.25,105.10,106.11,107.37,108.60,109.28,109.15,107.97,106.99,106.00,105.09,104.38,103.71,102.81,101.64,100.29,99.20,97.99,97.03,96.17,95.00,93.88,92.52,91.04,89.49,87.41,85.39,83.36,81.39,79.79,78.05,76.36,74.72,73.09,71.45,70.29,69.52,69.05,68.55,67.82,67.09,66.37,65.61,64.83,64.06,63.31,62.61,61.84,61.07,60.49,60.18,60.17,60.11,60.08,60.08,60.08,60.16,60.24,60.51,61.06,61.67,62.29,62.91,63.53,64.14,64.69,65.28,65.90,66.52,67.21,67.59,67.77,67.80,67.72,67.57,67.46,67.36,67.21,67.06,67.11,67.19,67.15,66.99,66.84,66.57,66.20,65.83,66.33,66.87
