52.11,50.54,49.76,49.53,49.36,49.25,49.17,49.09,49.02,49.00,49.03,49.11,49.19,49.32,49.48,49.63,49.78,49.91,50.31,50.93,51.55,52.23,52.91,53.58,54.30,55.30,56.48,57.75,59.07,60.45,61.90,63.14,64.42,66.11,67.95,69.47,70.86,72.28,73.82,74.80,75.38,75.50,75.04,71.87,69.32,67.44,66.09,65.09,65.69,67.00,68.51,69.75,70.84,72.48,74.54,76.70,78.12,78.86,79.17,79.08,77.95,76.59,74.91,72.99,71.13,69.48,68.21,67.84,68.69,69.77,70.74,71.49,71.84,71.32,70.66,70.07,69.64,69.42,69.07,68.78,68.57,68.42,68.35,68.20,68.05,67.93,67.92,68.42,68.89,69.29,69.59,69.75,69.96,70.30,70.82,71.66,72.36,73.01,73.60,74.14,74.60,74.59,74.42,74.40,75.11,75.56,75.91,76.30,76.91,77.38,77.79,78.15,78.47,78.85,79.36,79.98,80.73,81.73,82.99,84.52,86.04,87.19,88.27,88.93,89.44,90.18,92.34,94.82,97.38,100.12,103.52,106.64,109.99,113.56,117.21,119.88,122.25,122.90,121.48,119.17,117.32,115.49,113.59,111.59,111.46,111.90,112.36,112.46,112.07,110.89,109.63,108.48,107.32,106.51,106.66,107.40,108.16,108.64,108.96,109.35,109.96,111.01,113.93,117.43,120.99,124.13,124.31,124.44,125.65,128.45,130.51,131.96,133.11,134.24,135.87,137.36,139.36,142.63,147.62,146.99,144.77,141.47,137.53,133.76,130.41,127.73,125.99,125.53,124.50,123.25,121.93,120.59,118.52,116.32,114.18,112.39,111.53,110.53,109.24,107.96,107.10,108.17,110.13,114.30,120.11,121.45,120.36,119.43,119.39,120.46,121.69,122.56,123.07,123.12,121.39,118.65,115.50,112.74,112.01,112.09,112.63,113.42,114.24,114.24,114.01,113.57,113.06,113.15,113.75,114.90,116.49,118.24,119.62,120.06,119.29,117.14,113.56,109.62,104.64,99.16,95.83,92.23,90.20,90.27,92.75,99.31,103.47,106.30,108.31,108.68,107.52,105.80,103.93,102.22,100.51,99.30
50.45,49.73,49.32,49.14,48.98,48.86,48.80,48.77,48.88,49.00,49.13,49.30,49.38,49.51,49.65,49.76,49.91,51.01,51.91,52.53,53.15,53.64,53.78,53.97,54.54,55.45,56.53,57.65,58.76,59.90,61.19,62.52,63.89,65.34,66.83,68.36,69.86,71.31,72.81,74.41,75.50,75.91,75.55,73.62,71.00,68.80,67.83,66.92,66.77,67.01,67.63,68.97,70.03,71.62,73.71,76.07,78.23,79.43,79.95,79.99,79.39,78.00,76.30,74.38,72.16,70.17,68.92,68.55,69.07,69.99,71.08,72.15,72.96,72.93,72.59,72.38,72.32,72.28,71.00,69.99,69.40,69.25,69.12,68.97,68.76,68.54,68.44,68.51,68.63,68.85,69.15,69.35,69.58,69.82,70.11,70.55,71.08,71.61,72.11,72.60,73.07,73.44,73.98,74.82,75.82,76.49,77.04,77.54,78.00,78.42,78.85,79.24,79.55,79.94,80.52,81.24,82.06,82.96,83.95,85.09,86.23,87.13,88.06,89.02,89.95,90.94,93.11,95.71,98.39,101.22,104.67,108.03,111.69,115.48,119.08,120.81,122.25,122.30,120.75,118.64,116.64,114.67,112.70,110.69,109.98,109.86,110.00,110.10,109.71,108.84,107.85,106.83,105.78,106.34,107.23,108.21,109.14,110.07,111.16,112.68,114.68,116.86,119.25,122.53,126.06,128.61,128.16,127.68,128.04,129.65,130.86,131.95,132.98,134.13,135.80,137.71,139.69,142.40,146.33,145.20,143.14,140.64,137.83,134.30,131.83,130.00,128.79,128.28,126.38,124.28,122.10,119.98,118.31,116.39,114.89,113.89,112.89,111.69,110.42,109.30,108.62,109.50,112.10,116.05,120.54,122.62,122.05,121.60,121.85,122.83,124.06,124.79,124.99,124.53,122.16,119.25,116.62,114.96,115.42,115.74,116.40,117.17,117.69,117.54,117.31,116.96,116.62,117.00,117.56,118.54,119.76,120.82,121.66,121.45,120.06,117.41,113.13,108.78,104.05,99.24,95.66,92.04,91.53,94.04,98.73,103.26,106.72,108.90,109.80,109.83,108.69,107.05,105.16,103.25,101.30,99.45
49.38,49.10,48.87,48.74,48.63,48.59,48.61,48.69,48.90,49.10,49.29,49.49,49.60,49.82,50.17,50.62,51.20,52.68,53.82,54.50,55.05,55.26,55.05,54.85,55.06,55.82,56.74,57.63,58.45,59.29,60.36,61.64,63.01,64.32,65.64,67.12,68.66,70.18,71.74,73.86,75.40,76.13,76.11,75.00,72.92,70.91,69.82,68.78,68.08,67.68,67.72,68.61,69.48,70.99,73.10,75.59,78.19,79.70,80.42,80.57,80.40,79.25,77.66,75.72,73.35,71.15,69.74,69.16,69.36,70.28,71.52,72.86,74.03,74.40,74.49,74.71,75.05,75.38,74.38,73.44,72.84,72.61,71.96,70.86,69.87,69.22,69.02,68.81,68.74,68.84,69.09,69.28,69.46,69.62,69.84,70.42,71.15,71.77,72.21,72.41,72.61,73.10,74.04,75.46,76.80,77.73,78.40,78.91,79.37,79.78,80.24,80.68,81.04,81.42,82.03,82.75,83.54,84.36,85.21,86.14,87.12,88.10,89.19,90.44,91.69,92.87,94.52,96.63,99.12,102.04,105.54,108.96,112.81,116.73,120.15,121.37,121.97,121.50,119.86,117.38,115.26,113.22,111.19,109.16,108.37,108.01,107.94,107.97,107.54,106.85,106.18,105.67,105.46,106.79,108.19,109.63,111.23,113.03,114.89,117.04,119.51,122.03,124.07,126.99,130.15,132.06,131.17,130.31,130.01,130.51,131.14,131.95,132.87,133.96,135.47,137.67,139.82,142.09,144.59,143.29,141.38,139.32,137.17,134.24,132.34,130.99,130.03,129.32,126.92,124.39,121.89,119.61,118.24,116.92,116.04,115.48,114.47,113.21,112.07,111.17,110.64,111.20,113.91,117.50,121.08,123.88,124.07,124.06,124.44,125.29,126.42,127.01,126.94,126.05,123.11,120.01,117.90,117.31,118.55,119.41,120.36,121.25,121.79,121.82,121.67,121.48,121.39,121.84,122.10,122.60,123.21,123.53,123.22,122.21,120.19,116.95,112.18,107.65,103.15,98.74,94.89,92.93,94.24,98.18,103.52,106.62,109.08,110.53,110.87,110.57,109.50,107.90,105.94,103.89,101.80,99.38
48.93,48.65,48.43,48.35,48.33,48.43,48.65,48.86,49.10,49.32,49.53,49.69,49.84,50.26,51.07,52.28,53.75,54.99,56.07,56.89,57.29,57.11,56.74,56.27,55.88,56.43,57.12,57.69,58.12,58.62,59.39,60.46,61.73,63.04,64.36,65.74,67.23,68.87,70.62,73.15,75.06,76.16,76.72,75.97,75.09,73.85,72.09,70.65,69.64,69.07,68.86,68.71,69.21,70.60,72.73,75.28,77.97,79.65,80.52,80.80,80.93,80.32,78.98,77.01,74.69,72.45,70.70,69.67,69.56,70.63,72.05,73.62,75.04,75.71,76.36,77.06,77.84,78.72,79.35,79.37,79.15,78.74,77.05,73.97,71.43,69.96,69.66,69.36,69.26,69.31,69.47,69.56,69.64,69.73,70.03,71.36,72.70,73.65,74.03,73.69,73.35,73.64,74.65,76.34,78.08,79.32,80.02,80.41,81.02,81.49,82.00,82.50,82.96,83.34,83.91,84.53,85.19,85.97,86.81,87.71,88.78,90.21,91.79,93.33,94.80,96.07,96.63,97.58,99.56,102.57,106.12,109.39,113.32,117.25,120.34,121.51,121.38,120.48,118.80,115.33,113.13,111.08,109.00,106.92,106.62,106.38,106.22,106.11,105.57,104.91,104.62,105.02,106.49,107.89,109.55,111.71,114.55,117.68,120.28,122.50,124.48,126.45,128.33,130.76,133.16,134.38,133.28,132.29,131.50,130.99,131.32,131.96,132.78,133.75,134.87,137.21,139.75,141.71,142.36,141.26,139.48,137.46,135.47,133.53,131.85,130.57,129.55,128.50,126.00,123.50,121.27,119.50,118.33,117.95,117.66,117.18,116.31,115.11,114.23,113.64,113.18,113.30,115.57,118.63,121.76,125.25,126.42,126.84,127.15,127.85,128.79,129.21,128.92,127.67,124.23,120.96,119.39,119.81,121.40,123.09,124.54,125.70,126.59,127.16,127.20,127.23,127.50,127.75,127.44,127.13,126.85,126.37,124.28,122.26,119.62,115.72,110.64,106.20,101.90,97.59,93.45,95.01,98.45,102.72,107.03,109.34,110.47,111.08,111.47,110.87,109.92,108.33,106.24,104.08,102.00,99.09
48.45,48.25,48.18,48.38,48.52,48.71,48.94,49.17,49.36,49.58,49.96,50.66,51.44,52.31,53.36,54.67,56.40,57.79,58.77,59.32,59.48,58.87,58.25,57.57,56.88,57.47,58.21,58.80,59.15,59.34,60.18,61.49,63.09,64.80,66.16,67.24,68.23,69.27,70.60,72.63,74.50,75.95,76.88,76.74,76.16,75.25,74.12,73.06,71.82,70.79,70.05,69.46,70.13,71.57,73.50,75.65,77.99,79.53,80.43,80.88,81.03,80.78,79.98,78.58,76.48,74.29,72.44,71.26,71.01,71.68,73.03,74.57,75.95,76.64,77.18,77.52,78.01,79.07,80.07,80.63,80.81,80.58,79.43,77.30,74.89,72.76,71.68,70.43,70.15,70.44,70.87,71.36,71.53,71.86,72.58,73.74,74.87,75.68,76.01,75.67,75.28,74.98,75.11,75.96,77.87,79.35,80.24,80.70,81.23,81.78,82.32,82.89,83.49,84.14,84.81,85.47,86.17,87.03,87.92,88.73,89.84,91.85,94.01,96.00,97.71,99.02,99.30,99.81,101.13,103.39,106.49,109.72,113.52,117.28,120.27,120.84,120.24,118.74,116.46,113.40,111.02,108.85,106.87,105.14,104.90,104.66,104.42,104.19,104.14,104.52,105.20,106.22,107.76,109.49,111.73,114.58,118.05,121.25,124.00,126.34,128.38,130.49,132.61,134.62,136.09,136.35,134.99,133.80,132.71,131.73,131.45,132.03,132.87,133.74,134.60,136.73,138.29,138.96,138.65,137.44,135.53,133.59,131.97,130.75,129.88,129.21,128.61,127.89,126.31,124.70,123.21,121.88,120.00,119.48,119.25,118.91,118.37,117.61,116.98,116.48,116.02,115.87,117.09,119.35,122.43,126.21,127.69,128.53,129.36,130.68,131.71,132.06,131.47,129.75,126.50,123.65,122.53,123.32,125.08,126.93,128.46,129.52,130.04,130.25,130.10,129.93,129.91,129.78,129.52,129.00,127.93,125.81,123.59,121.53,118.73,114.45,109.39,104.72,100.36,96.62,94.57,97.46,101.52,105.69,109.19,110.62,111.44,111.78,111.68,110.92,109.88,108.23,106.08,103.87,101.69,98.53
48.08,48.06,48.17,48.56,48.82,49.05,49.28,49.49,49.87,50.30,50.91,51.90,53.11,54.35,55.63,57.03,58.85,60.34,61.24,61.59,61.57,60.60,59.64,58.66,57.80,58.42,59.35,60.22,60.81,60.92,61.84,63.27,65.04,66.91,68.16,68.96,69.53,70.07,70.99,72.51,74.14,75.66,76.78,77.21,77.02,76.49,75.84,75.07,73.82,72.61,71.62,70.95,71.74,73.06,74.65,76.35,78.17,79.47,80.36,80.90,81.05,81.01,80.66,79.81,78.23,76.20,74.38,73.15,72.77,72.93,74.10,75.55,76.84,77.50,77.84,77.85,78.02,78.98,80.02,80.93,81.47,81.50,80.91,79.65,77.53,75.07,73.48,71.73,71.42,72.00,72.81,73.65,74.12,74.83,75.91,76.88,77.71,78.21,78.29,77.84,77.36,76.65,76.07,76.00,77.32,78.60,79.57,80.23,80.78,81.41,81.98,82.56,83.21,84.01,84.77,85.51,86.29,87.30,88.30,89.16,90.42,92.85,95.51,97.96,100.03,101.54,101.88,102.27,103.17,104.76,107.14,110.22,113.80,117.24,119.79,119.62,118.49,116.49,113.83,111.04,108.59,106.47,104.73,103.41,103.17,103.15,103.19,103.22,103.74,104.89,106.23,107.65,109.17,111.28,114.02,117.37,121.26,124.56,127.35,129.74,131.87,134.20,136.41,137.90,138.45,137.94,136.37,134.95,133.58,132.22,131.42,131.81,132.59,133.43,134.11,135.42,135.77,135.34,134.53,133.44,131.74,130.08,128.83,128.11,127.87,127.82,127.82,127.70,127.10,126.39,125.71,124.98,122.77,122.07,121.69,121.27,120.89,120.44,119.96,119.48,119.00,118.70,119.24,120.94,123.82,127.38,129.10,130.39,131.75,133.57,134.72,135.00,134.13,131.95,128.96,126.64,125.93,126.95,128.96,130.66,131.73,132.20,132.24,132.25,131.97,131.62,131.29,130.90,130.64,129.82,128.05,124.91,122.56,120.34,117.39,113.05,107.94,103.11,98.88,95.96,96.30,100.18,104.48,108.23,110.76,111.64,112.27,112.34,111.74,110.87,109.69,107.95,105.77,103.53,101.30,98.16
47.90,48.22,48.55,48.94,49.20,49.43,49.65,49.82,50.83,51.88,52.79,53.49,54.66,56.07,57.59,59.19,60.91,62.30,63.18,63.55,63.49,62.33,60.80,59.37,58.50,59.12,60.45,62.03,63.43,63.83,64.78,66.09,67.61,69.14,70.00,70.54,70.93,71.32,71.99,73.09,74.20,75.25,76.27,77.17,77.71,77.68,76.99,76.22,75.36,74.54,73.89,73.71,74.42,75.29,76.31,77.56,78.58,79.55,80.34,80.83,80.99,80.95,80.75,80.38,79.78,78.13,76.56,75.41,74.90,74.42,75.25,76.52,77.71,78.27,78.38,78.27,78.23,78.59,79.28,80.27,81.11,81.48,81.18,80.13,78.29,76.12,74.63,73.35,73.34,74.24,75.57,76.61,77.73,79.00,80.31,81.18,81.68,81.64,81.11,80.27,79.49,78.80,78.00,77.05,76.39,76.67,77.50,78.56,79.36,80.05,80.64,81.16,81.67,82.32,83.16,84.02,84.92,86.18,87.38,88.59,90.19,92.72,95.73,98.66,101.27,103.33,104.21,104.90,105.86,107.12,108.37,111.05,114.31,117.17,118.59,117.48,115.67,113.45,110.91,107.88,105.57,103.81,102.55,101.68,101.44,102.04,103.03,104.05,105.16,106.38,107.70,109.15,110.82,113.36,116.35,119.85,123.90,127.59,130.30,132.57,134.79,137.36,139.31,140.06,139.76,138.91,137.18,135.51,133.84,132.19,131.10,131.03,131.62,132.53,133.16,132.55,131.54,130.53,129.89,129.44,128.60,127.62,126.68,126.11,126.06,126.54,127.39,128.25,128.54,128.62,128.78,128.99,127.33,126.54,125.74,124.81,124.23,123.76,123.25,122.72,122.20,121.89,122.62,124.24,126.54,129.01,130.94,132.76,134.59,136.50,137.80,138.04,136.88,134.28,131.59,129.87,129.51,130.62,133.07,134.15,133.81,132.86,132.38,132.63,132.42,131.96,131.42,131.03,130.56,129.17,126.85,124.01,121.24,118.41,115.24,111.43,106.08,101.27,97.54,95.88,98.73,103.36,107.42,110.25,111.46,112.45,112.93,112.64,111.61,110.69,109.29,107.44,105.26,103.02,100.84,98.17
48.21,48.59,48.94,49.32,49.59,50.07,50.81,51.54,52.74,53.85,54.76,55.38,56.31,57.49,58.92,60.58,62.43,64.09,65.15,65.57,65.46,64.33,62.60,60.76,59.42,60.19,61.73,63.52,65.26,66.54,67.57,68.59,69.62,70.62,71.35,71.86,72.27,72.67,73.13,73.66,74.28,74.95,75.53,76.52,77.49,78.09,78.00,77.39,76.83,76.29,75.82,75.67,76.17,76.82,77.63,78.66,79.28,79.87,80.37,80.72,80.87,80.87,80.74,80.54,80.31,79.38,78.41,77.56,76.91,76.33,76.62,77.50,78.55,78.82,78.89,78.76,78.53,78.30,78.77,79.51,80.27,80.86,80.94,80.11,78.82,77.33,76.02,75.07,75.06,75.91,77.46,79.08,80.88,82.78,84.62,86.05,86.55,86.62,86.30,85.61,84.56,83.25,81.74,80.12,78.58,77.95,77.92,78.22,78.53,78.80,79.27,79.82,80.33,80.83,81.65,82.65,83.78,85.09,86.44,87.81,89.38,91.39,94.67,98.39,101.66,103.95,105.69,107.11,108.30,109.30,110.15,112.40,114.73,116.21,116.03,114.67,112.36,109.62,106.77,103.95,102.38,101.44,101.06,101.30,101.99,103.14,104.43,105.63,106.78,107.97,109.41,111.11,112.97,115.18,118.03,121.72,126.31,129.86,132.43,134.71,137.01,139.25,140.32,140.61,140.07,138.53,136.72,135.06,133.46,131.83,130.13,129.77,130.22,131.00,131.27,130.34,129.27,128.27,127.43,126.97,126.27,125.43,124.58,124.16,124.46,125.50,127.00,128.51,129.38,129.81,130.15,130.52,129.68,129.17,128.57,127.88,127.49,127.07,126.62,126.17,125.76,125.88,126.67,127.92,129.45,131.15,132.78,134.43,136.25,138.53,139.31,139.45,138.77,137.19,135.22,134.11,133.93,134.24,133.65,132.47,131.02,129.99,130.17,131.17,131.36,131.11,130.59,129.47,128.06,125.99,123.48,121.09,118.51,115.79,112.65,108.77,103.29,99.23,97.27,97.95,102.04,106.48,109.58,111.40,112.37,113.41,113.39,112.64,111.45,110.33,108.63,106.65,104.51,102.35,99.97,97.32
48.66,49.02,49.35,49.86,50.28,51.11,52.36,53.67,54.91,55.93,56.74,57.36,58.12,59.14,60.51,62.22,64.11,65.95,67.11,67.56,67.43,66.40,64.62,62.53,60.77,61.70,63.35,65.19,67.03,68.91,69.95,70.70,71.28,71.78,72.33,72.75,73.15,73.53,73.78,73.84,74.11,74.52,74.74,75.70,77.00,78.20,78.91,78.52,78.24,77.95,77.64,77.42,77.69,78.16,78.79,79.58,79.91,80.14,80.34,80.53,80.67,80.71,80.66,80.56,80.50,80.25,79.89,79.38,78.72,78.24,78.07,78.50,79.31,79.31,79.37,79.26,78.89,78.20,78.38,78.79,79.39,80.11,80.51,79.92,79.14,78.29,77.18,76.62,76.64,77.38,78.95,81.28,83.77,86.20,88.44,90.31,90.87,91.22,91.32,90.90,89.73,87.97,85.98,83.99,81.99,80.60,79.64,79.04,78.75,78.40,78.53,78.94,79.38,79.72,80.54,81.72,83.13,84.53,85.90,87.24,88.58,90.00,93.56,97.98,101.79,104.21,106.68,108.82,110.28,111.14,111.85,113.51,114.67,114.68,113.10,111.30,108.52,105.51,102.71,100.45,99.80,99.80,100.38,101.68,103.32,104.88,106.26,107.45,108.77,110.16,111.78,113.60,115.39,117.09,119.72,123.52,128.48,131.70,134.18,136.52,138.85,140.48,140.67,140.55,139.80,137.58,135.61,134.04,132.66,131.24,129.24,128.60,128.85,129.44,129.38,128.53,127.67,126.75,125.69,125.00,124.24,123.37,122.51,122.24,122.93,124.47,126.52,128.48,129.71,130.34,130.72,131.09,131.06,130.98,130.77,130.49,130.37,130.06,129.70,129.37,129.15,129.62,130.41,131.31,132.23,133.35,134.45,135.67,137.28,139.72,140.09,140.19,140.06,139.62,138.17,137.34,137.01,136.30,132.66,129.40,127.10,126.11,126.75,128.21,128.68,128.63,128.17,126.50,124.40,122.00,119.57,117.59,115.33,112.84,109.75,105.71,100.58,97.77,97.94,100.94,105.60,109.30,111.34,112.35,113.34,114.27,113.70,112.51,111.25,109.90,107.92,105.83,103.74,101.64,98.96,96.14
49.11,49.47,49.85,50.96,52.09,53.30,54.59,55.84,57.08,58.01,58.72,59.35,60.41,61.87,63.64,65.53,66.88,68.21,69.05,69.37,69.34,68.47,66.79,64.89,63.45,64.38,66.00,67.76,69.33,70.27,71.05,71.73,72.24,72.53,72.38,72.37,72.44,72.53,72.54,72.64,72.99,73.51,74.02,74.95,76.39,78.07,79.58,79.53,79.52,79.47,79.37,79.20,79.26,79.45,79.69,79.89,79.98,80.04,80.09,80.14,80.17,80.33,80.42,80.45,80.50,80.43,80.30,80.12,79.89,79.71,79.56,79.62,79.82,79.82,79.84,79.71,79.33,78.64,78.23,78.32,78.80,79.48,79.92,79.59,78.95,78.16,77.30,77.45,77.95,78.74,79.89,83.02,86.14,88.74,90.63,91.85,92.34,92.95,93.43,93.20,92.33,91.43,90.25,88.66,86.71,84.97,83.62,82.68,82.09,80.89,80.03,79.61,79.62,79.77,80.69,82.18,84.03,85.82,86.85,87.60,88.38,89.55,93.56,98.07,101.88,104.33,106.81,109.14,110.88,111.99,112.74,113.20,112.99,112.03,110.26,106.58,103.30,101.13,100.12,99.19,99.53,100.50,101.87,103.47,105.21,106.73,108.07,109.41,111.82,114.34,116.26,117.47,118.27,119.59,122.09,125.67,129.99,132.77,135.36,137.86,140.03,140.62,140.54,139.88,138.44,135.92,133.46,131.97,131.00,130.13,129.21,128.28,128.01,128.31,128.35,127.56,126.52,125.42,124.40,123.36,122.48,121.49,120.49,120.43,121.39,123.25,125.60,127.71,128.85,129.58,130.12,130.63,131.20,131.75,131.98,131.93,132.02,131.95,131.72,131.51,131.57,131.75,132.39,133.29,134.32,135.29,135.53,136.12,137.25,138.86,139.82,140.12,140.07,139.76,137.66,136.00,134.57,132.84,129.50,126.40,123.85,122.09,121.36,121.73,121.73,121.47,121.00,120.17,119.03,117.56,115.83,114.01,111.94,109.39,106.15,102.21,99.06,98.62,100.86,105.11,109.18,111.09,112.39,113.42,114.35,114.59,113.62,112.24,110.91,109.35,107.30,105.19,103.09,100.94,97.88,94.67
49.73,50.39,51.24,52.62,54.04,55.40,56.71,57.98,59.18,60.35,61.40,62.26,63.42,65.03,66.69,68.07,68.78,69.48,69.94,70.13,70.13,69.62,68.61,67.35,66.21,67.04,68.29,69.58,70.67,71.29,71.59,71.84,71.99,71.95,71.57,71.41,71.35,71.31,71.27,71.45,71.88,72.56,73.43,74.51,76.30,78.28,79.89,79.97,80.02,80.04,80.02,79.90,79.88,79.84,79.63,79.11,78.79,78.58,78.35,78.04,77.82,78.33,79.27,80.20,80.41,80.48,80.45,80.38,80.34,80.29,80.21,80.18,80.22,80.25,80.25,80.13,79.81,79.21,78.56,78.24,78.34,78.84,79.27,79.07,78.56,77.93,77.45,77.80,78.47,79.38,80.64,84.07,87.47,90.13,91.90,93.23,93.98,94.82,95.51,95.55,94.87,94.41,93.69,92.43,90.69,89.13,87.86,86.96,86.46,85.37,83.99,82.82,82.30,81.70,81.96,83.36,85.71,87.80,88.76,89.22,89.65,90.57,93.83,98.04,101.78,104.23,106.47,108.65,110.34,111.43,111.97,111.53,109.88,107.58,105.21,102.37,100.04,98.91,99.00,99.18,100.37,102.06,103.95,105.71,107.36,108.99,110.65,112.49,115.37,118.03,119.86,120.81,121.28,122.82,125.21,128.42,132.23,133.95,136.18,138.07,139.10,138.81,137.84,136.41,134.68,132.86,131.14,130.23,129.71,129.21,128.70,127.90,127.46,127.42,127.34,126.64,125.56,124.35,123.24,122.05,120.90,119.69,118.56,118.40,119.21,120.91,123.14,125.27,126.53,127.48,128.39,129.46,130.58,131.38,131.83,132.03,132.25,132.50,132.71,132.93,133.25,133.52,133.82,134.29,134.84,134.70,134.37,134.48,135.17,136.38,137.57,137.92,137.72,137.16,135.23,133.46,131.68,129.65,126.89,123.88,121.25,119.20,117.86,117.73,117.37,116.83,116.22,115.64,114.81,113.67,112.26,110.71,108.91,106.50,103.56,100.35,99.14,100.72,104.11,108.28,111.14,112.51,113.61,114.55,115.24,114.62,113.38,111.97,110.60,108.81,106.69,104.53,102.39,100.16,96.81,93.34
50.51,51.61,53.08,54.55,56.03,57.42,58.73,60.05,61.21,62.75,64.34,65.54,66.69,68.22,69.45,70.02,70.10,70.17,70.24,70.30,70.31,70.24,70.12,69.67,68.86,69.53,70.27,70.89,71.40,71.96,71.73,71.39,71.03,70.63,70.22,70.08,70.02,69.97,70.04,70.34,70.89,71.74,72.98,74.28,76.43,78.60,79.99,80.08,80.09,80.08,80.04,79.92,79.86,79.58,78.90,77.66,76.86,76.35,75.79,75.07,74.61,75.61,77.64,79.74,80.21,80.40,80.40,80.36,80.36,80.37,80.38,80.43,80.51,80.61,80.63,80.54,80.29,79.83,79.15,78.41,78.03,78.22,78.59,78.46,78.09,77.70,77.65,77.90,78.54,79.62,81.21,84.70,88.16,90.82,92.60,94.35,95.59,96.70,97.54,97.85,97.34,97.09,96.64,95.69,94.28,93.15,92.18,91.45,91.20,90.65,89.02,87.23,86.14,84.57,83.82,84.90,87.67,89.98,91.12,91.55,91.79,92.49,94.42,98.06,101.57,103.80,105.70,107.54,109.02,109.94,110.02,108.83,105.95,102.41,99.41,98.69,98.02,98.01,98.82,100.00,101.91,104.14,106.39,108.28,109.80,111.58,113.66,116.09,119.04,121.35,122.93,123.86,124.39,126.42,128.71,131.46,134.83,135.11,136.57,137.36,136.81,135.83,133.85,131.71,129.98,129.30,128.84,128.70,128.62,128.38,127.93,127.47,127.08,126.75,126.48,125.91,124.87,123.58,122.33,120.99,119.47,117.96,116.68,116.27,116.72,118.01,119.89,121.96,123.47,124.71,126.08,127.83,129.45,130.29,130.84,131.27,131.59,132.21,132.97,133.72,134.26,134.79,134.76,134.68,134.52,132.81,132.06,131.79,132.04,133.07,134.21,134.48,134.05,133.13,131.78,130.30,128.59,126.64,124.55,121.61,119.03,116.95,115.40,115.04,114.38,113.56,112.74,112.11,111.27,110.17,108.89,107.63,106.15,104.08,101.73,99.63,100.29,103.56,107.45,110.80,112.27,113.72,114.91,115.69,115.92,114.46,113.05,111.68,110.27,108.25,106.05,103.86,101.66,99.31,95.73,92.12
51.99,53.19,54.62,56.20,57.77,59.19,60.46,61.77,62.89,64.38,66.10,67.77,68.77,69.47,69.91,70.14,70.17,70.19,70.24,70.31,70.37,70.45,70.41,70.21,69.92,70.35,70.88,71.16,71.14,71.06,70.72,70.10,69.38,68.83,68.23,68.25,68.40,68.55,69.41,70.12,70.96,72.01,73.30,74.51,76.20,78.09,79.81,79.99,80.03,79.87,79.51,79.00,78.37,77.56,76.50,75.16,74.07,73.37,72.74,72.19,72.67,74.19,76.13,78.05,79.40,79.82,79.89,79.86,79.92,80.09,80.20,80.32,80.49,80.78,80.91,80.89,80.68,80.21,79.73,79.04,78.38,77.94,78.05,77.92,77.84,77.91,78.21,77.96,78.42,79.49,81.09,84.62,87.98,90.57,92.30,93.87,95.96,97.88,99.21,99.51,99.30,99.24,99.08,98.65,97.88,96.90,95.82,94.85,94.35,93.45,92.03,90.33,88.62,86.86,85.72,86.24,88.42,90.63,92.97,94.27,94.90,95.75,96.79,99.30,101.20,101.46,103.02,104.51,105.88,106.49,104.89,103.12,101.27,99.43,97.78,97.65,98.10,98.98,100.34,102.61,104.79,107.00,109.25,111.53,113.59,115.27,116.99,119.09,121.40,123.55,125.31,126.71,127.98,129.93,131.94,134.30,137.10,135.36,134.43,133.40,132.06,131.38,130.42,129.42,128.55,128.01,127.66,127.58,127.61,127.56,127.20,126.85,126.78,126.97,127.09,126.83,125.86,124.52,123.19,120.71,118.57,116.63,114.97,114.21,114.40,115.38,116.97,118.84,120.63,122.23,123.80,125.46,127.03,128.01,128.69,129.18,129.60,130.50,131.32,131.99,132.53,133.02,133.55,134.04,134.00,131.41,130.11,129.48,129.39,129.83,129.94,129.91,129.70,129.27,128.36,127.21,125.77,124.01,121.87,119.56,117.33,115.23,113.28,112.38,111.49,110.60,109.72,109.00,108.60,107.91,106.78,105.28,104.31,103.24,102.25,101.71,103.65,107.01,110.01,112.08,113.55,114.87,116.02,116.41,115.28,113.87,112.47,111.04,109.49,107.37,105.24,103.15,100.92,98.17,94.53,91.17
53.50,54.80,56.19,57.82,59.33,60.70,61.95,63.29,64.52,66.00,67.63,69.19,69.83,70.04,70.09,70.11,69.92,69.72,69.82,70.11,70.29,70.47,70.53,70.53,70.55,70.73,70.95,70.94,70.59,69.92,69.27,68.39,67.45,66.72,66.78,67.38,68.05,68.63,69.71,70.48,71.39,72.50,73.79,74.75,76.08,77.69,79.29,79.27,79.26,78.89,78.11,77.18,76.30,75.30,74.12,72.74,71.63,70.93,70.56,70.60,71.84,73.70,75.44,76.99,78.56,78.92,78.86,78.69,78.72,79.08,79.46,79.85,80.24,80.65,80.93,81.06,80.98,80.56,80.18,79.59,78.83,78.06,77.98,77.97,78.09,78.36,78.75,78.23,78.47,79.38,80.85,84.25,87.49,90.00,91.73,93.41,95.65,97.95,99.74,100.33,100.44,100.58,100.64,100.53,100.14,99.48,98.65,97.81,97.25,96.15,94.68,92.92,90.97,89.09,87.66,87.58,89.03,91.30,94.29,96.40,97.79,99.08,99.73,101.49,102.46,101.74,102.22,102.65,103.21,103.24,101.16,99.34,98.10,97.41,97.23,97.80,99.25,101.05,103.08,105.80,108.15,110.40,112.74,115.39,117.20,118.70,120.20,121.92,123.88,125.92,127.99,130.00,131.70,132.48,133.15,134.07,135.35,133.35,131.77,130.31,128.98,128.46,128.04,127.61,127.17,126.73,126.47,126.45,126.53,126.65,126.83,126.79,127.00,127.48,127.84,127.85,126.87,125.23,123.35,120.29,117.76,115.51,113.50,112.21,112.13,112.75,113.96,115.74,117.69,119.54,121.32,123.02,124.46,125.41,126.06,126.59,127.26,128.26,129.11,129.83,130.47,131.17,132.46,133.60,133.72,130.39,128.71,127.68,127.13,127.15,126.78,126.43,126.14,125.89,125.20,124.30,123.04,121.35,119.16,117.16,115.19,113.31,111.61,110.76,110.25,109.78,109.18,108.48,107.81,106.98,106.07,105.31,105.14,104.85,104.57,104.63,106.95,109.72,111.92,113.39,114.86,116.16,116.82,116.45,114.67,113.18,111.76,110.15,108.22,106.13,104.09,102.08,99.92,97.19,93.65,90.55
55.04,56.45,57.79,59.41,60.73,61.98,63.24,64.63,66.08,67.60,68.95,69.88,69.97,70.00,70.00,69.93,69.40,68.81,69.01,69.72,70.10,70.33,70.51,70.65,70.78,70.72,70.53,70.27,69.78,68.56,67.42,66.31,65.26,64.33,65.82,67.38,68.84,70.06,70.84,71.36,72.13,73.19,74.43,75.01,76.08,77.37,78.49,77.97,77.85,77.22,75.91,74.54,73.70,72.83,71.76,70.37,69.52,68.99,69.15,70.16,72.00,74.04,75.50,76.51,77.68,77.74,77.35,76.91,76.82,77.42,78.21,79.04,79.80,80.27,80.72,81.08,81.20,80.88,80.50,80.05,79.39,78.55,78.33,78.54,78.80,79.03,79.27,78.70,78.69,79.29,80.51,83.61,86.71,89.14,90.91,92.98,94.74,97.04,99.26,100.40,100.85,101.20,101.40,101.44,101.20,101.01,100.76,100.39,99.93,98.74,97.01,95.07,93.20,91.27,89.65,88.92,89.51,91.98,95.12,98.02,100.48,102.46,103.16,104.52,105.18,104.35,103.11,101.86,100.96,100.18,98.69,97.28,96.27,96.25,97.65,99.02,101.36,104.10,106.89,109.52,111.95,114.29,116.80,119.80,120.63,121.90,123.28,124.59,126.45,128.43,130.94,133.67,135.52,134.16,132.55,131.09,129.98,129.31,128.65,128.01,127.39,126.92,126.59,126.23,125.84,125.46,125.29,125.30,125.40,125.65,126.77,127.23,127.69,128.27,128.73,128.97,127.90,125.74,122.90,119.74,117.04,114.56,112.24,110.26,109.92,110.12,110.89,112.67,114.67,116.67,118.65,120.51,121.75,122.50,123.01,123.54,124.61,125.55,126.43,127.27,128.12,129.26,131.47,133.35,133.63,129.71,127.82,126.33,125.21,124.99,124.61,123.92,123.29,122.95,122.26,121.55,120.40,118.65,116.41,114.45,112.66,111.21,110.34,110.09,110.50,110.89,110.86,110.32,108.70,107.25,106.62,107.48,108.37,108.66,108.51,108.30,110.17,111.77,113.27,114.73,116.20,117.60,117.34,115.87,114.10,112.40,110.93,109.02,106.51,104.57,102.64,100.70,98.67,96.34,93.06,90.23
56.12,57.71,59.25,60.68,61.96,63.19,64.45,65.79,66.16,66.55,67.02,67.48,66.70,66.35,65.89,65.08,64.25,63.56,64.25,66.15,68.43,69.79,70.32,70.42,70.42,70.30,69.33,68.30,67.39,66.34,65.15,64.28,64.25,65.53,67.17,68.73,70.02,70.97,71.74,72.21,72.90,73.82,74.77,75.19,75.88,76.71,77.41,76.87,76.53,75.49,73.66,71.89,71.19,70.60,69.89,68.93,68.18,68.45,69.42,70.87,72.63,74.43,75.75,76.57,77.06,76.63,75.90,75.25,74.99,75.23,75.80,76.50,77.30,78.29,79.32,80.17,80.68,80.65,80.36,79.91,79.24,78.47,78.38,78.78,79.23,79.73,80.43,79.88,79.62,79.86,80.76,83.04,85.58,87.78,89.47,90.94,92.11,94.09,96.60,98.99,100.21,100.92,101.39,101.78,102.07,101.96,101.70,101.36,100.95,100.25,99.25,97.92,96.24,94.36,92.52,91.51,91.76,93.61,96.52,100.01,103.32,105.42,106.83,107.82,107.76,106.29,103.84,101.46,99.79,98.66,97.24,96.78,96.97,97.86,99.52,102.24,105.35,108.20,110.59,112.74,114.81,117.05,119.29,121.21,122.14,123.57,125.28,127.07,128.74,129.91,131.09,132.09,131.99,131.07,130.08,129.11,128.17,127.56,126.97,126.38,125.80,125.38,125.18,124.86,124.47,124.18,124.11,124.28,124.76,125.61,126.77,127.71,128.43,129.01,129.61,130.09,128.84,126.16,122.70,119.48,116.76,114.26,111.90,109.99,109.16,109.01,109.50,110.66,112.47,114.41,116.37,118.18,119.23,119.55,119.87,120.45,121.44,122.33,123.22,124.22,125.46,127.10,130.09,132.46,132.77,129.31,127.52,126.01,124.53,123.16,122.42,121.65,120.87,120.13,119.39,118.42,117.26,116.09,115.37,115.10,114.73,114.37,114.23,114.10,114.36,114.60,114.50,113.53,110.85,108.71,107.93,109.09,110.39,111.11,111.17,110.75,112.17,113.63,115.10,116.55,117.92,118.33,117.29,115.38,113.46,111.71,109.71,107.32,104.66,102.68,100.82,98.75,96.59,94.75,92.18,89.86
57.15,58.76,60.35,61.64,62.91,63.97,64.85,65.71,65.27,64.85,64.62,64.56,63.35,62.77,62.07,60.96,60.13,59.87,61.13,63.74,67.02,69.05,69.84,69.81,69.36,68.80,67.32,65.78,64.54,63.73,63.07,63.09,64.25,66.95,68.57,69.98,71.08,71.89,72.66,73.14,73.73,74.41,75.00,75.25,75.63,76.04,76.27,75.40,74.52,73.15,71.30,69.58,69.07,68.69,68.24,67.59,67.26,68.25,69.84,71.56,73.30,74.83,76.00,76.67,76.63,75.85,74.80,73.86,73.32,73.09,73.29,73.80,74.63,75.96,77.40,78.64,79.50,79.81,79.86,79.55,79.02,78.47,78.61,79.18,79.89,80.73,81.83,81.69,81.46,81.48,82.05,83.36,84.90,86.48,87.94,89.04,90.02,91.72,94.14,97.09,98.96,100.24,101.11,101.75,102.43,102.58,102.52,102.32,101.95,101.57,101.03,100.16,98.83,97.33,95.57,94.49,94.51,95.70,98.32,102.17,105.99,107.96,109.34,109.89,109.06,106.63,103.27,100.58,98.71,97.55,96.71,97.09,98.32,100.14,102.39,106.00,109.60,112.41,114.28,115.96,117.55,119.38,121.19,122.44,123.51,125.03,126.81,128.62,129.77,130.24,130.42,130.21,129.10,128.50,127.95,127.33,126.56,125.90,125.33,124.77,124.21,123.84,123.71,123.43,123.10,122.94,123.08,123.53,124.39,125.61,126.77,128.02,129.04,129.81,130.64,131.10,129.70,126.71,122.76,119.43,116.71,114.25,111.91,109.95,108.81,108.24,108.29,109.10,110.60,112.35,114.16,115.82,116.53,116.46,116.61,117.25,118.22,119.10,120.13,121.46,123.18,125.59,129.22,131.85,132.08,129.01,127.28,125.76,124.08,121.99,120.84,120.02,119.34,118.69,118.19,117.40,116.61,116.08,116.33,117.00,117.47,117.80,118.10,118.08,118.22,118.29,118.05,116.77,113.38,110.46,109.17,110.58,112.19,113.37,113.73,113.21,114.07,115.44,116.93,118.35,119.56,119.00,117.35,115.14,113.02,111.05,108.50,105.66,102.85,100.82,99.03,97.19,95.41,94.12,92.05,90.24
58.13,59.51,60.92,62.16,63.46,64.10,64.04,63.76,63.00,62.34,61.73,61.05,60.09,59.50,58.92,58.21,57.83,58.77,60.70,63.29,66.08,68.04,68.91,68.64,67.29,65.69,64.11,62.50,61.08,60.57,61.28,63.14,65.74,68.48,69.90,71.01,71.96,72.85,73.62,74.18,74.62,74.93,75.08,75.12,75.31,75.39,75.06,73.34,71.47,69.91,68.76,67.78,67.52,67.25,66.86,66.32,66.94,68.51,70.37,72.15,73.99,75.24,76.22,76.78,76.45,75.56,74.22,72.87,71.87,71.05,70.69,70.95,71.83,73.21,74.79,76.23,77.39,78.09,78.83,78.90,78.72,78.64,79.12,79.83,80.88,82.19,83.54,84.40,84.62,84.66,84.92,85.04,84.94,85.30,86.29,87.44,88.86,90.35,92.13,94.53,96.85,99.00,100.49,101.19,102.02,102.77,103.24,103.35,103.04,102.66,102.12,101.44,100.67,100.06,98.85,98.01,97.90,98.40,100.68,104.55,108.40,109.88,110.08,110.06,108.44,104.60,100.74,98.93,97.70,96.97,97.52,98.54,100.51,103.30,106.68,110.44,114.15,116.72,117.98,119.21,120.14,121.14,122.29,123.59,124.81,126.27,127.69,128.77,128.94,128.90,128.65,128.21,127.59,126.98,126.41,125.79,125.02,124.27,123.67,123.13,122.62,122.30,122.13,121.92,121.75,121.79,122.27,123.20,124.39,125.61,126.77,128.10,129.44,130.71,131.89,131.92,130.43,127.45,123.20,119.68,116.98,114.63,112.38,110.18,109.01,107.88,107.23,108.14,109.21,110.55,112.02,113.41,113.58,113.16,113.18,113.88,114.95,115.88,117.27,119.16,121.49,125.08,129.14,131.70,131.66,128.84,127.11,125.57,123.89,121.80,120.17,119.35,119.15,119.32,119.51,119.62,119.73,119.92,120.22,120.58,120.96,121.31,121.62,121.75,121.85,121.78,121.36,119.98,116.41,112.58,110.25,111.91,113.73,115.39,116.21,115.77,115.90,117.18,118.72,120.09,121.06,119.63,117.60,115.31,112.88,110.42,107.34,104.11,101.11,99.04,97.33,96.25,95.63,94.98,93.09,91.78
58.83,60.11,61.30,62.21,62.78,62.83,62.40,61.90,60.96,59.93,59.09,58.71,57.87,57.37,56.97,56.67,56.98,58.21,59.88,61.75,63.55,64.64,64.88,64.36,63.24,62.33,61.50,60.68,60.00,59.95,61.90,64.51,67.27,69.69,70.83,71.82,72.74,73.60,74.05,73.87,73.87,74.16,74.60,74.50,74.34,73.88,72.88,71.03,68.93,67.55,66.95,66.10,65.80,65.62,65.53,65.59,67.02,68.87,70.76,72.52,74.42,75.52,76.40,76.85,76.21,75.30,73.75,72.10,70.80,69.33,68.48,68.60,69.63,70.90,72.60,74.25,75.61,76.43,77.61,77.95,78.13,78.60,79.47,80.67,82.10,83.61,85.00,86.22,87.10,87.63,87.82,87.42,86.94,86.96,87.65,88.77,89.94,91.19,92.66,94.48,96.83,98.73,99.98,100.63,101.52,102.41,103.14,103.68,104.03,103.77,103.23,102.68,102.33,102.28,101.67,101.36,101.73,102.77,104.93,107.45,109.56,110.25,110.17,109.03,106.21,101.88,99.59,98.33,97.72,97.75,98.60,100.74,103.78,107.23,110.65,114.60,117.50,119.27,120.14,120.97,121.60,122.32,123.27,124.58,125.54,126.30,126.84,127.15,127.15,127.09,126.84,126.42,126.05,125.49,124.93,124.33,123.59,122.69,122.00,121.43,120.98,120.75,120.62,120.54,120.66,121.27,122.34,123.61,124.97,126.32,127.60,129.00,130.41,131.80,133.16,133.12,131.31,128.09,124.06,120.30,117.65,115.37,113.10,110.90,109.31,107.82,106.77,106.88,107.90,109.04,110.17,111.13,111.08,110.71,110.67,111.12,111.88,113.05,115.48,118.71,122.06,125.89,129.76,131.88,131.41,128.84,127.07,125.44,123.87,122.44,121.58,121.25,121.35,121.77,122.12,122.38,122.69,123.12,123.67,124.04,124.41,124.79,125.14,125.33,125.38,125.14,124.42,122.70,119.56,115.89,113.22,114.14,115.91,117.73,118.74,118.35,117.85,118.92,120.58,122.13,122.48,120.30,117.79,115.24,112.65,109.93,106.87,103.78,100.98,99.22,98.30,97.90,97.82,97.82,97.04,96.52
59.34,60.50,61.42,61.90,61.76,61.10,60.17,59.59,58.52,57.28,56.43,56.52,55.84,55.47,55.31,55.42,56.28,57.58,58.89,60.07,60.99,61.32,61.06,60.47,59.80,59.67,59.55,59.50,59.61,60.10,63.04,66.16,68.84,70.64,71.61,72.55,73.44,74.15,74.03,73.11,72.64,72.80,73.47,73.46,73.07,72.13,70.55,68.62,66.43,65.25,65.05,64.34,64.16,64.24,64.59,65.29,67.29,69.27,71.13,72.84,74.72,75.74,76.53,76.85,75.97,74.88,73.14,71.15,69.31,67.30,66.21,66.33,67.47,68.65,70.51,72.35,73.88,74.85,76.32,76.93,77.49,78.47,79.71,81.41,83.19,84.89,86.34,87.77,89.08,89.98,90.17,89.57,89.10,89.07,89.57,90.63,91.50,92.56,93.81,95.20,97.21,98.55,99.42,100.06,101.03,101.96,102.85,103.73,104.66,104.66,104.36,104.09,104.12,104.43,104.42,104.69,105.52,106.90,108.68,109.82,110.28,110.30,110.13,107.87,104.04,99.66,98.87,98.11,98.04,98.74,99.92,103.17,107.00,110.78,114.03,117.93,119.86,120.80,121.30,121.86,122.37,123.01,123.89,125.11,125.68,125.79,125.60,125.30,125.22,125.19,125.00,124.67,124.43,123.97,123.44,122.86,122.18,121.16,120.34,119.71,119.26,119.14,119.24,119.48,120.03,121.17,122.71,124.22,125.71,127.18,128.63,130.10,131.53,132.94,134.39,134.36,132.21,128.75,124.99,121.22,118.58,116.33,114.07,111.90,109.73,107.91,106.54,105.70,106.63,107.59,108.46,109.09,108.95,108.70,108.65,108.91,109.43,110.88,114.52,119.18,123.22,127.03,130.64,132.30,131.35,128.90,127.21,125.71,124.46,123.78,123.72,123.82,124.12,124.61,124.98,125.26,125.64,126.20,126.95,127.32,127.66,128.02,128.38,128.58,128.56,128.19,127.27,125.24,122.51,119.19,116.42,116.40,118.18,120.17,121.44,121.33,120.62,121.51,123.07,124.42,123.85,121.03,118.13,115.39,112.70,109.92,107.06,104.31,101.89,100.50,100.26,100.32,100.53,100.95,101.15,101.24
59.49,60.41,60.93,60.85,60.45,58.92,56.75,56.02,54.85,53.91,53.57,54.11,53.77,53.60,53.74,54.27,55.19,56.45,57.63,58.58,59.21,59.53,59.51,59.31,59.10,59.08,59.10,59.29,59.81,60.93,64.30,67.87,70.49,71.10,72.21,73.19,73.95,74.26,73.10,71.86,70.97,70.59,70.86,71.56,71.35,70.22,68.29,66.12,63.80,62.59,62.53,62.31,62.80,63.63,64.68,65.86,67.81,69.71,71.49,73.13,74.81,75.85,76.55,76.69,75.72,74.01,72.08,69.64,66.54,64.24,63.58,63.98,65.06,66.34,68.47,70.43,72.10,73.51,74.98,75.91,76.87,78.19,79.72,81.76,83.87,85.83,87.48,89.06,90.10,90.70,90.96,90.70,90.66,90.86,91.35,92.30,93.16,94.13,95.28,96.67,97.54,98.10,98.67,99.50,100.62,101.58,102.50,103.41,104.34,104.94,105.51,106.00,106.36,106.67,107.22,108.05,109.01,109.50,110.09,110.42,110.47,110.30,110.08,107.05,102.85,99.11,98.57,98.38,98.65,99.60,101.71,105.81,109.53,112.85,115.98,119.13,120.21,120.46,120.61,121.21,121.86,122.68,123.60,124.48,124.56,124.48,124.22,123.79,123.42,123.30,123.13,122.88,122.65,122.36,121.91,121.36,120.77,119.70,118.73,117.91,117.36,117.33,118.13,119.25,120.54,121.87,123.41,124.99,126.56,128.10,129.74,131.29,132.75,134.14,135.55,135.46,133.11,129.48,125.84,122.72,120.03,117.67,115.54,113.37,110.44,108.20,106.57,104.89,105.41,106.15,106.94,107.63,107.53,107.37,107.45,107.87,108.58,110.27,115.26,121.15,124.75,128.36,131.84,133.19,131.70,129.06,127.80,127.04,126.61,126.57,126.68,126.86,127.13,127.48,127.80,128.15,128.65,129.32,130.03,130.16,130.35,130.61,130.87,130.97,130.85,130.49,129.69,127.55,124.81,121.81,119.25,118.29,120.32,122.70,124.60,125.42,125.49,126.40,127.21,127.19,125.09,121.89,118.93,116.24,113.60,111.12,108.66,106.50,104.81,103.72,103.43,103.43,103.56,103.84,104.12,104.18
57.33,57.84,57.50,56.43,55.68,54.49,53.05,52.60,51.94,51.51,51.59,52.38,52.77,53.13,53.59,54.20,54.78,55.60,56.46,57.26,57.87,58.36,58.53,58.61,58.78,58.99,59.18,59.48,60.23,62.24,65.83,69.70,72.21,71.66,72.20,73.40,74.07,73.55,71.91,70.04,68.57,67.75,67.80,68.69,68.23,66.74,64.69,63.01,61.59,60.97,61.21,61.86,62.84,64.01,65.31,66.66,68.35,70.13,71.87,73.47,74.99,76.07,76.57,76.38,75.37,72.89,69.88,66.53,63.10,61.79,61.49,61.83,62.66,64.11,66.37,68.82,71.00,72.44,73.80,74.92,76.20,77.84,79.54,81.66,83.91,86.16,88.24,89.72,90.61,91.14,91.57,91.73,92.02,92.42,92.96,93.72,94.31,94.93,95.62,96.38,96.64,97.01,97.81,99.17,100.39,101.35,102.26,103.11,103.72,104.32,104.97,105.62,106.22,106.85,107.70,108.70,109.65,109.99,110.14,110.19,110.10,109.76,109.15,106.30,102.66,99.60,99.31,99.26,99.77,101.14,103.89,107.67,110.91,113.78,116.56,118.91,119.49,119.48,119.58,120.37,121.23,122.17,123.03,123.53,123.32,123.17,122.91,122.45,121.99,121.70,121.40,121.09,120.86,120.62,120.26,119.77,119.14,118.16,117.17,116.46,116.30,117.14,118.46,119.95,121.44,122.80,124.34,125.94,127.53,129.09,130.86,132.56,134.12,135.53,136.93,137.18,134.89,131.09,127.22,124.28,121.68,119.36,117.16,114.51,111.04,108.52,106.71,104.61,104.33,104.68,105.37,106.08,106.10,106.26,106.85,107.82,108.77,112.16,117.33,122.60,126.15,129.67,132.74,133.79,132.37,130.43,129.63,129.24,129.16,129.42,129.68,130.04,130.42,130.76,131.11,131.24,131.62,132.24,132.59,132.34,132.32,132.43,132.46,132.46,132.47,132.22,131.45,129.70,127.49,124.99,122.78,121.86,123.80,126.13,128.10,129.19,129.43,130.00,130.10,129.30,127.13,123.80,120.54,117.61,115.13,112.77,110.69,109.05,107.90,107.11,106.82,106.76,106.83,106.99,107.19,106.96
54.18,54.27,53.13,51.21,50.21,49.79,49.73,49.69,49.72,49.90,50.40,51.38,52.55,53.45,54.19,54.75,54.91,55.19,55.70,56.36,57.01,57.65,57.97,58.25,58.71,59.18,59.67,60.15,61.09,63.86,67.50,71.42,73.66,72.10,72.12,73.47,73.92,72.49,70.50,67.85,65.78,64.64,64.56,65.35,64.58,62.85,60.96,60.04,59.81,59.95,60.53,62.11,63.55,64.87,66.15,67.52,68.91,70.59,72.31,73.91,75.26,76.33,76.56,75.94,74.79,71.25,67.03,62.96,59.89,59.89,59.89,60.03,60.54,62.03,64.34,67.30,70.05,71.43,72.66,73.87,75.38,77.29,79.11,81.18,83.46,85.90,88.45,89.79,90.65,91.28,91.89,92.42,92.95,93.52,94.10,94.62,94.86,95.07,95.23,95.24,95.17,95.64,96.93,98.95,100.27,101.20,102.04,102.73,102.93,103.28,103.71,104.28,105.04,106.04,107.05,108.06,109.00,109.51,109.56,109.52,109.35,108.87,107.80,105.60,102.93,100.59,100.52,100.44,101.10,102.83,105.91,108.99,111.65,114.09,116.50,118.01,118.28,118.24,118.46,119.50,120.59,121.60,122.32,122.43,122.05,121.87,121.60,121.07,120.54,120.03,119.61,119.30,119.07,118.85,118.58,118.14,117.43,116.59,115.64,115.22,115.73,117.60,119.35,120.99,122.50,123.83,125.37,126.96,128.55,130.13,131.98,133.87,135.55,137.00,138.34,138.99,136.92,133.06,128.85,125.91,123.42,121.16,118.81,115.57,111.66,108.85,106.88,104.57,103.35,103.28,103.84,104.52,104.76,105.39,106.60,108.23,109.58,114.98,119.81,123.83,127.37,130.88,133.40,134.12,133.08,132.29,132.00,131.87,131.92,132.27,132.77,133.38,133.93,134.28,134.63,134.47,134.60,134.99,134.74,133.98,133.63,133.50,133.25,133.18,133.39,133.34,132.75,131.70,130.19,128.28,126.55,126.14,127.83,129.88,131.68,132.71,132.84,132.87,132.30,131.02,129.36,126.11,122.56,119.32,116.93,114.64,112.87,111.65,110.91,110.34,110.05,109.94,109.95,110.00,110.04,109.43
50.96,50.88,50.43,49.75,49.39,49.26,49.34,49.61,49.88,50.65,51.79,53.11,54.32,55.06,55.70,56.35,56.56,56.81,57.19,57.61,57.91,58.16,58.42,58.76,59.22,59.69,61.23,62.71,64.03,66.16,69.38,72.24,73.34,71.44,73.24,73.77,73.15,71.46,68.48,64.80,62.42,61.51,61.43,61.51,61.11,60.46,59.79,59.52,59.62,59.96,60.70,62.53,64.71,66.07,67.00,68.23,69.62,71.33,73.12,74.76,75.81,76.51,76.34,75.17,72.98,67.13,63.09,60.79,59.83,59.83,59.83,59.89,60.10,60.60,62.89,65.63,68.23,70.15,71.28,72.32,73.69,75.60,77.71,79.63,81.56,83.65,86.15,87.77,89.22,90.31,90.86,91.35,91.79,92.26,92.73,93.04,93.13,93.20,93.27,93.39,93.36,94.24,96.17,98.89,100.26,101.15,101.66,101.84,101.79,101.99,102.37,102.88,103.50,104.45,105.49,106.60,107.72,108.58,108.58,108.27,107.78,107.21,106.24,104.89,103.37,102.00,101.98,101.87,102.30,103.58,106.01,109.01,111.47,113.66,115.88,116.60,116.83,117.08,117.68,119.02,120.18,121.02,121.40,121.22,120.89,120.62,120.06,119.04,118.07,117.19,117.09,117.51,117.28,117.15,116.98,116.58,115.77,114.98,114.15,114.40,116.01,117.97,119.90,121.77,123.49,124.91,126.46,128.02,129.57,131.15,133.00,135.13,136.98,138.40,139.46,139.85,138.24,134.96,130.71,127.71,125.14,122.75,120.29,117.10,112.64,109.25,106.89,104.63,102.64,102.28,102.70,103.17,104.00,105.34,106.95,108.89,111.57,117.04,121.49,124.90,127.82,131.64,133.36,133.66,133.30,133.99,134.59,134.84,134.87,135.03,136.28,137.38,138.05,138.16,138.26,138.13,137.82,137.17,135.69,134.05,132.77,131.91,131.46,131.44,131.70,132.24,132.93,133.16,132.06,130.78,129.98,130.51,131.72,133.40,134.85,135.51,135.49,134.64,133.44,132.09,130.67,128.25,125.08,121.71,118.78,116.69,114.87,113.61,112.93,112.17,111.80,111.67,111.62,111.41,111.26,110.45
49.06,48.98,48.97,48.99,49.06,49.21,49.50,50.17,50.92,52.09,53.48,54.83,56.07,56.76,57.32,57.92,58.18,58.47,58.73,58.91,58.89,58.88,58.99,59.41,60.30,61.82,64.03,65.87,67.21,68.81,71.34,72.65,72.83,72.41,73.46,73.15,72.10,70.31,65.77,62.22,60.26,59.63,59.55,59.38,59.36,59.41,59.45,59.48,59.66,60.61,62.34,64.16,66.43,67.70,68.42,69.45,70.84,72.54,74.20,75.55,76.40,76.49,75.78,73.86,69.95,63.93,60.82,59.82,59.80,59.83,59.84,60.01,60.40,60.90,62.52,64.37,66.33,68.40,69.68,70.77,72.07,73.82,75.80,77.57,79.30,81.08,82.92,84.30,85.90,87.36,88.34,89.51,90.19,90.68,91.07,91.31,91.33,91.33,91.36,91.46,91.66,92.49,94.50,97.54,98.65,99.39,99.80,99.96,99.97,100.17,100.79,101.50,102.00,102.90,103.98,105.20,106.46,107.58,107.35,106.78,106.13,105.54,104.48,103.53,102.73,102.12,102.12,102.11,102.82,104.37,106.50,109.16,111.40,113.32,115.03,115.36,115.55,115.97,116.82,118.23,119.35,120.08,120.28,119.71,119.17,118.42,117.41,116.15,115.02,114.41,114.74,115.56,115.44,115.52,115.42,114.99,114.14,113.34,113.05,113.96,116.09,118.13,120.19,122.27,124.27,125.99,127.52,129.05,130.60,132.17,134.06,136.27,138.18,139.52,140.14,140.24,138.61,135.43,131.24,128.49,125.98,123.70,121.49,118.69,113.69,109.70,106.93,104.55,102.12,101.45,101.72,102.27,103.84,105.64,107.46,109.64,113.37,118.42,122.20,124.99,127.55,130.84,131.84,131.89,132.01,133.44,134.75,135.71,136.41,137.17,138.54,139.57,140.09,140.09,140.09,139.93,139.10,137.49,135.20,133.21,131.45,130.05,129.19,129.10,129.55,130.57,132.01,133.01,132.91,132.69,132.84,133.90,135.13,136.59,137.70,137.95,137.39,136.05,134.57,133.15,131.72,129.84,127.06,123.80,120.67,118.55,116.80,115.56,114.79,113.97,113.55,113.30,112.99,112.26,111.62,110.44
48.15,48.20,48.44,48.75,49.11,49.50,50.06,51.22,52.60,54.03,55.40,56.57,57.80,58.53,59.04,59.48,59.79,60.17,60.34,60.25,59.95,59.79,59.69,60.20,61.83,65.15,67.73,69.46,70.56,71.71,73.34,72.77,72.20,74.55,73.00,71.84,70.83,69.05,62.58,60.02,58.98,58.68,58.60,58.53,58.87,59.37,59.75,59.84,59.93,61.79,65.07,66.68,68.57,69.65,70.27,71.05,72.44,74.10,75.47,76.30,76.98,76.31,74.95,72.13,66.03,61.43,59.80,59.73,59.81,59.89,59.92,60.34,61.26,62.50,62.98,63.45,64.41,66.32,67.93,69.21,70.50,71.98,73.52,75.13,76.79,78.27,79.04,79.81,81.23,82.98,84.72,87.11,88.26,88.85,89.21,89.44,89.47,89.47,89.47,89.47,90.01,90.49,92.17,95.21,95.83,96.32,96.83,97.31,97.62,97.93,98.99,100.09,100.52,101.38,102.53,103.84,105.22,106.53,105.94,105.14,104.43,103.88,102.57,101.69,101.26,101.26,101.26,101.47,102.84,105.16,107.25,109.42,111.43,113.03,114.00,114.23,114.40,114.91,115.90,117.21,118.18,118.88,118.98,117.98,117.05,115.53,113.94,112.65,111.57,111.68,112.51,113.49,113.58,113.94,113.89,113.39,112.54,111.70,112.24,113.81,116.03,118.11,120.27,122.57,124.90,127.07,128.55,130.07,131.62,133.20,135.13,137.31,139.19,140.42,140.49,140.27,138.24,134.81,130.79,128.47,126.15,124.15,122.45,120.28,114.75,110.17,106.98,104.35,101.73,100.73,100.86,101.72,104.11,106.20,108.10,110.46,115.02,119.29,122.19,124.37,126.76,128.91,129.25,129.18,129.62,131.24,133.12,135.01,136.89,138.82,139.86,140.41,140.60,140.60,140.60,140.35,138.97,136.43,133.65,131.70,129.79,128.00,126.56,126.33,127.05,128.47,130.26,131.66,132.99,134.14,135.22,136.54,138.15,139.51,140.26,140.08,138.70,137.19,135.68,134.18,132.56,131.01,128.63,125.65,122.58,120.26,118.67,117.49,116.51,115.73,115.28,114.84,114.13,112.66,111.34,109.67
48.68,48.92,49.20,49.40,49.60,50.29,51.54,53.05,54.49,55.95,57.38,58.75,60.23,61.13,61.85,62.54,62.80,63.17,63.31,63.25,63.14,62.79,62.86,63.63,65.31,68.23,70.22,71.59,72.47,72.98,72.62,72.72,73.07,73.19,71.25,69.88,68.40,66.05,60.96,59.16,58.49,58.41,58.78,59.06,59.94,61.52,63.66,64.64,66.00,67.62,69.21,70.14,71.16,71.86,72.46,73.28,74.27,75.33,76.20,76.68,76.37,75.42,73.08,68.88,62.28,60.35,59.77,59.79,59.91,60.54,61.41,62.53,63.83,65.12,65.64,65.84,66.02,66.50,67.02,68.00,69.18,70.41,71.71,73.52,75.14,76.36,77.18,77.91,78.93,80.20,81.71,83.95,85.33,86.08,86.40,86.69,86.72,86.81,86.88,86.78,87.02,87.60,88.60,89.92,90.69,91.17,91.65,92.10,92.26,92.51,93.94,95.98,97.98,100.17,101.60,102.83,104.13,105.44,105.12,104.26,103.23,102.29,101.12,99.41,98.26,98.27,98.32,99.62,101.65,104.09,106.53,108.99,110.82,112.05,112.78,113.01,113.19,113.45,113.95,115.06,116.01,116.40,116.13,115.23,114.10,112.49,110.87,109.62,108.94,109.25,110.25,111.48,112.01,112.36,112.32,111.86,111.03,110.63,111.39,113.06,115.35,117.58,119.93,122.45,125.05,127.51,129.39,131.07,132.66,134.28,136.11,137.87,139.36,140.35,140.43,138.80,135.85,132.13,128.29,125.87,123.68,121.96,120.57,118.26,113.59,109.36,106.00,103.27,100.93,100.00,100.34,101.79,104.29,106.63,109.03,111.91,116.37,119.86,122.36,124.34,126.42,127.83,127.69,127.50,128.14,129.71,131.51,133.35,135.26,137.34,139.30,140.18,140.42,140.47,140.42,140.04,138.34,135.37,132.39,129.84,127.47,125.37,123.68,123.15,123.90,125.51,127.60,129.64,131.24,132.77,134.33,135.89,137.56,138.84,139.48,139.28,138.18,136.90,135.49,134.00,132.43,130.88,128.92,126.56,123.92,121.66,119.90,118.59,117.60,116.38,115.40,114.42,113.33,112.01,110.65,108.57
49.70,50.24,50.68,50.95,51.01,51.75,53.23,54.89,56.39,57.98,59.68,61.50,63.32,64.34,65.10,65.80,66.01,66.28,66.37,66.33,66.33,66.22,66.56,67.40,68.77,70.75,72.22,73.19,73.59,73.32,72.51,72.99,73.36,71.67,69.47,67.74,65.85,63.32,59.75,58.44,58.14,58.44,59.10,60.38,62.34,64.79,67.44,68.80,70.55,71.85,72.54,73.10,73.61,73.95,74.34,75.06,75.72,76.23,76.53,76.49,75.44,73.72,70.20,65.22,60.07,59.74,59.77,59.99,60.50,61.69,63.19,64.78,66.34,67.70,68.32,68.39,68.11,67.71,67.46,67.96,68.78,69.65,70.72,72.21,73.47,74.43,75.30,76.13,77.04,78.13,79.48,81.42,82.69,83.38,83.64,83.88,84.03,84.20,84.27,84.10,84.06,84.63,85.31,85.86,86.73,87.28,87.80,88.35,88.87,89.58,91.65,94.53,97.51,99.82,101.14,102.22,103.40,104.60,104.32,103.42,102.23,101.12,99.51,96.94,94.99,94.62,94.83,97.18,100.06,102.90,105.42,107.91,109.70,110.86,111.57,111.80,111.97,112.08,112.24,112.94,113.66,113.75,113.25,112.42,111.23,109.66,108.11,106.94,106.34,106.75,107.91,109.46,110.63,110.94,110.77,110.21,109.41,109.56,110.67,112.49,114.77,117.06,119.47,122.11,124.89,127.58,129.83,131.55,133.02,134.45,136.01,137.49,138.78,139.65,139.71,136.97,133.39,129.45,125.56,123.02,121.09,119.70,118.50,116.06,112.08,108.27,104.97,102.10,100.11,99.37,99.93,101.76,104.46,107.04,109.77,112.97,117.22,120.23,122.49,124.35,126.16,126.58,126.03,125.80,126.55,128.05,129.71,131.40,133.18,135.19,137.48,138.98,139.85,140.28,140.23,139.46,137.41,134.25,131.10,128.17,125.45,123.09,121.28,120.66,121.30,122.81,124.91,127.35,129.32,131.24,133.12,134.82,136.52,137.71,138.28,138.17,137.22,136.10,134.85,133.49,132.01,130.41,128.58,126.53,124.27,122.21,120.37,118.89,117.72,116.20,114.96,113.74,112.49,111.26,109.58,107.18
51.35,52.29,53.07,53.58,53.58,54.04,55.20,56.75,58.29,60.14,62.37,64.97,67.23,68.29,68.87,69.31,69.47,69.52,69.53,69.53,69.53,70.19,70.91,71.61,72.21,72.56,73.62,74.14,73.72,72.51,73.14,73.66,72.94,69.94,67.64,65.38,63.14,60.94,59.04,57.91,57.97,58.85,59.61,62.70,66.37,69.44,71.06,72.17,73.22,74.11,74.85,75.46,75.88,75.89,75.84,76.27,76.68,76.73,76.39,75.60,74.10,71.03,66.09,61.07,59.77,59.70,59.80,60.37,61.69,63.48,65.30,67.09,68.79,70.25,71.01,71.14,70.80,70.20,69.55,69.38,69.51,69.88,70.75,71.27,71.79,72.46,73.38,74.49,75.67,76.91,78.24,79.68,80.42,80.78,80.93,81.03,81.42,81.64,81.64,81.41,81.13,81.55,82.36,83.31,84.23,84.95,85.59,86.41,87.92,89.70,92.77,96.38,99.60,100.53,101.26,102.09,103.10,104.05,103.58,102.62,101.49,100.48,97.69,94.21,91.39,90.18,90.69,94.02,97.99,101.57,103.84,106.04,107.94,109.42,110.35,110.59,110.76,110.84,110.85,110.85,111.10,110.92,110.32,109.54,108.45,107.08,105.74,104.67,103.77,104.16,105.48,107.42,109.48,109.71,109.24,108.42,107.65,108.49,110.11,112.13,114.31,116.56,118.88,121.50,124.35,127.19,129.78,131.41,132.52,133.51,134.57,135.96,137.27,138.17,138.18,134.71,130.83,126.78,122.55,119.87,118.37,117.36,116.18,113.64,110.11,106.85,103.89,100.83,99.27,98.86,99.65,101.60,104.65,107.41,110.29,113.53,117.44,120.33,122.58,124.42,125.99,125.14,124.28,124.07,124.81,126.21,127.69,129.10,130.53,132.20,134.09,136.56,138.78,140.03,140.02,138.52,136.10,133.07,129.77,126.74,123.80,121.25,119.50,119.02,119.37,120.45,122.17,124.71,127.20,129.49,131.52,133.22,134.92,136.01,136.58,136.70,135.70,134.68,133.65,132.56,131.22,129.51,127.48,125.34,123.38,121.71,119.92,118.19,116.62,115.00,113.83,112.73,111.60,110.36,108.03,105.42
54.61,55.49,56.20,56.39,56.34,56.59,57.38,58.84,60.78,63.04,65.52,68.05,69.41,70.29,70.91,71.32,71.16,71.18,71.05,70.65,69.87,70.09,70.45,71.05,71.93,72.65,73.61,73.96,73.55,72.72,73.67,73.58,72.03,69.00,66.33,63.86,61.64,59.74,58.35,57.88,58.34,59.79,62.26,66.26,69.38,71.60,73.07,74.24,75.22,76.20,77.18,77.93,77.88,77.35,76.72,76.46,76.45,76.18,75.47,74.12,71.62,67.54,63.29,60.08,59.66,59.77,60.43,61.67,63.41,65.27,67.16,69.21,71.27,72.69,73.78,74.08,73.83,73.43,72.65,72.34,72.31,72.49,73.21,73.19,73.19,73.34,73.53,73.69,74.55,75.80,77.06,78.23,78.86,79.13,79.22,79.38,79.77,79.96,79.96,79.86,79.85,80.28,81.13,82.32,83.64,84.84,86.09,87.55,89.48,92.03,95.27,98.32,100.29,101.02,101.60,102.17,102.73,103.05,102.70,101.95,101.01,100.18,96.34,92.60,89.91,88.87,89.41,91.54,94.86,98.68,101.58,103.58,105.20,106.46,107.40,107.90,108.30,108.54,108.59,108.47,108.39,108.05,107.35,106.28,105.32,104.38,103.41,102.42,101.40,101.88,103.48,105.84,108.30,108.31,107.62,106.69,105.96,107.94,109.98,112.08,114.24,116.40,118.50,120.89,123.50,126.14,128.33,129.88,130.96,131.80,132.68,133.89,135.05,135.93,136.28,133.31,129.71,125.86,121.98,119.45,117.25,115.42,113.78,111.37,108.28,105.40,102.77,100.16,98.62,98.36,99.33,101.42,104.60,107.64,110.78,114.11,117.71,120.33,122.37,123.86,124.72,123.54,122.51,122.16,122.73,124.03,125.51,126.89,128.16,129.43,130.97,133.28,135.68,137.50,138.03,136.65,134.58,132.13,129.03,125.89,122.79,120.26,118.89,118.16,118.29,119.04,120.31,122.34,124.81,127.29,129.60,131.61,133.32,134.29,134.83,135.18,134.35,133.42,132.44,131.35,129.90,128.00,125.85,123.69,121.81,120.01,118.42,116.96,115.53,113.90,112.59,111.45,110.23,108.48,106.04,103.44
57.79,58.55,59.24,59.25,59.20,59.32,59.84,61.07,63.20,65.71,68.23,70.33,70.99,71.55,71.97,72.16,71.70,71.25,70.74,70.03,68.96,68.83,68.98,69.57,70.67,71.89,73.07,73.63,73.49,73.04,74.05,73.31,71.07,68.16,65.23,62.58,60.41,58.80,57.72,57.95,58.93,61.03,65.14,69.26,71.68,73.20,74.63,75.88,76.95,78.01,79.04,79.71,79.14,78.08,76.94,76.15,75.76,75.23,74.21,72.36,68.69,64.27,61.12,59.64,59.64,60.09,61.36,63.18,65.22,67.08,69.12,71.46,73.85,75.32,76.51,76.91,76.79,76.63,75.92,75.60,75.46,75.43,75.81,75.44,75.09,74.84,74.37,73.75,74.12,75.03,75.95,76.81,77.38,77.66,77.76,78.02,78.42,78.68,78.82,78.98,79.25,79.81,80.79,82.22,83.84,85.39,87.06,88.95,91.18,94.19,97.34,99.73,100.59,101.19,101.62,101.94,102.15,102.01,101.79,101.24,100.39,99.33,94.94,91.32,88.92,88.04,88.59,89.66,92.11,95.65,98.91,100.76,102.13,103.19,104.07,104.78,105.36,105.74,105.91,105.85,105.59,105.14,104.38,103.12,102.29,101.72,101.12,100.29,99.31,100.07,101.99,104.63,107.28,107.02,106.07,104.97,104.25,107.10,109.65,111.95,114.04,116.04,117.97,120.08,122.37,124.75,126.55,128.03,129.15,129.93,130.75,131.83,132.86,133.72,134.34,132.13,129.01,125.52,122.18,119.79,117.05,114.40,112.01,109.60,106.94,104.41,102.05,99.80,98.11,97.85,98.89,101.05,104.33,107.59,110.91,114.30,117.68,120.15,122.00,123.14,123.42,122.10,120.81,120.15,120.46,121.81,123.34,124.72,125.94,127.03,128.37,130.37,132.64,134.73,135.77,134.86,133.29,131.36,128.60,125.39,122.21,119.73,118.64,117.60,117.36,117.77,118.73,120.27,122.48,124.97,127.51,129.82,131.64,132.60,133.14,133.62,133.02,132.20,131.18,129.89,128.10,126.08,123.92,121.81,119.96,118.03,116.53,115.25,114.01,112.51,111.13,109.87,108.46,106.33,103.93,101.42
60.34,60.99,61.89,62.20,62.20,62.35,62.80,63.54,65.31,67.69,69.87,70.97,71.78,71.80,71.45,70.98,70.26,68.39,66.96,66.27,66.18,66.28,66.72,67.44,68.39,69.81,71.81,73.25,73.76,73.36,74.15,72.86,70.14,67.33,64.40,61.61,59.43,58.07,57.24,58.13,59.85,62.77,67.92,70.74,72.77,74.32,75.65,76.95,78.27,79.29,79.89,80.02,78.90,77.39,75.95,75.06,74.42,73.71,72.47,70.13,65.13,61.70,59.92,59.51,59.76,60.92,62.74,64.90,67.08,68.93,71.35,74.05,76.65,78.37,79.14,79.43,79.49,79.58,79.31,79.08,78.79,78.40,78.04,77.59,77.21,76.82,76.11,75.43,75.11,75.00,74.96,75.38,75.88,76.28,76.56,76.93,77.42,77.98,78.59,79.24,79.60,80.50,81.87,83.56,85.19,86.69,88.23,90.02,92.44,95.37,98.11,99.98,100.45,100.75,100.88,101.00,101.14,101.05,100.83,100.43,99.42,97.23,93.33,90.40,88.40,87.34,87.95,88.85,90.44,92.73,95.55,97.33,98.65,99.64,100.43,101.19,101.74,102.19,102.57,102.81,102.62,102.17,101.42,100.30,99.58,99.21,98.89,98.40,97.78,99.20,101.48,104.08,106.59,105.99,104.67,103.28,102.47,105.51,108.82,111.54,113.42,115.18,117.03,118.87,120.75,122.83,124.43,125.93,127.11,127.90,128.86,129.93,130.94,131.80,132.42,131.17,128.77,125.91,123.33,120.94,118.38,115.23,111.58,108.87,106.59,104.42,102.23,99.93,97.86,97.33,98.21,100.30,103.67,106.99,110.31,113.65,116.98,119.63,121.37,122.24,122.33,121.02,119.25,117.99,117.89,119.58,121.20,122.64,123.97,125.36,126.80,128.50,130.31,132.07,133.46,133.48,132.55,130.90,128.68,125.47,122.37,119.97,118.82,117.44,116.53,116.51,117.48,118.77,120.36,122.54,125.13,127.63,129.80,131.01,131.62,131.98,131.68,131.04,129.83,127.95,125.43,123.42,121.48,119.58,117.72,115.79,114.08,112.67,111.57,110.47,109.23,107.72,105.92,103.89,101.69,99.38
62.22,62.94,63.93,64.80,65.18,65.64,66.23,66.63,67.74,69.33,70.75,71.25,71.47,71.13,70.13,68.51,66.73,64.46,63.13,62.87,63.36,64.21,65.42,66.69,67.82,69.21,71.90,73.53,73.71,73.74,73.73,71.88,68.96,66.21,63.39,60.82,58.78,57.49,57.32,58.53,61.04,64.74,69.40,71.59,73.47,75.05,76.29,77.56,78.90,79.76,79.97,79.56,77.93,75.96,74.06,72.67,72.24,71.53,69.81,66.68,62.36,60.33,59.58,59.70,60.30,62.05,64.17,66.44,68.72,70.98,73.62,76.31,78.64,79.67,80.13,80.38,80.56,80.78,80.81,80.76,80.62,80.36,79.96,79.54,79.14,78.68,77.98,77.32,76.77,76.34,76.05,76.06,76.37,76.72,77.06,77.52,77.95,78.47,79.10,79.83,80.74,81.96,83.42,85.03,86.51,88.01,89.59,91.43,93.87,96.39,97.96,98.76,99.08,99.57,99.69,99.48,98.98,98.24,97.75,97.53,96.88,94.78,91.67,89.45,87.82,86.66,87.01,87.90,89.09,90.55,92.32,93.85,95.02,95.80,96.24,96.60,96.96,97.41,98.13,99.55,100.18,100.15,99.57,98.60,97.72,97.31,97.07,96.79,96.73,98.62,101.04,103.49,105.85,105.16,103.65,101.99,100.86,103.50,107.02,110.07,112.09,113.64,115.26,117.02,118.84,120.58,122.35,123.89,125.10,126.01,127.17,128.38,129.38,130.09,130.56,130.02,128.45,126.34,124.20,122.03,119.74,116.53,112.37,109.14,106.86,104.70,102.47,100.15,97.91,96.82,97.30,99.51,102.73,106.03,109.20,112.31,115.78,118.96,120.81,121.49,121.39,120.03,117.93,115.98,114.98,116.35,118.28,120.35,122.30,123.84,126.39,128.73,130.80,132.58,134.01,134.16,133.36,131.78,129.62,126.61,123.61,121.03,119.21,117.78,116.49,115.80,115.95,117.12,118.44,120.23,122.43,124.79,126.93,128.45,129.43,129.94,129.63,128.73,127.22,125.16,122.68,120.69,118.78,116.89,115.00,113.11,111.43,110.01,108.84,107.80,106.56,105.10,103.39,101.46,99.48,97.31
63.67,64.61,65.75,67.13,67.88,68.61,69.32,69.49,69.97,70.63,71.17,71.22,70.57,69.71,68.03,65.40,62.78,60.69,59.88,60.24,61.24,62.93,64.92,66.79,68.24,69.66,72.55,73.95,73.63,74.04,72.97,70.67,67.79,65.11,62.41,60.13,58.25,56.99,57.55,58.97,62.24,66.65,70.34,72.14,73.91,75.44,76.55,77.75,78.97,79.63,79.52,78.62,76.55,74.19,71.86,69.85,69.66,68.94,66.78,63.10,60.22,59.54,59.57,60.04,61.10,63.30,65.59,67.91,70.26,72.94,75.71,78.23,80.07,80.31,80.52,80.72,80.95,81.22,81.38,81.48,81.53,81.53,81.38,81.14,80.84,80.45,79.85,79.25,78.63,78.11,77.77,77.46,77.57,77.84,78.20,78.74,79.09,79.50,80.05,80.79,82.22,83.67,85.15,86.62,87.91,89.38,91.05,92.93,95.02,96.72,97.00,96.77,97.08,97.90,98.10,97.55,96.32,94.75,93.91,93.88,93.80,92.35,90.14,88.54,87.18,85.95,86.02,86.90,87.87,88.73,89.51,90.68,91.61,92.14,92.17,92.08,92.27,92.80,93.90,96.48,97.94,98.43,98.11,97.23,96.15,95.63,95.38,95.24,95.90,98.16,100.62,102.92,105.12,104.38,102.75,100.86,99.42,101.48,104.93,108.12,110.30,111.74,113.19,114.95,116.81,118.34,120.33,121.94,123.23,124.32,125.64,127.00,127.97,128.51,128.80,128.78,128.02,126.62,124.76,122.86,120.91,117.85,113.56,109.72,107.30,105.04,102.72,100.41,98.06,96.30,96.30,98.70,101.69,104.92,107.91,110.76,114.30,117.98,120.02,120.64,120.36,118.83,116.45,113.95,112.13,112.89,115.07,117.87,120.66,122.62,126.40,129.63,132.27,134.33,135.70,135.71,134.80,133.17,130.92,128.19,125.33,122.52,119.94,118.39,116.83,115.44,114.58,115.41,116.59,118.00,119.67,121.73,123.70,125.48,126.84,127.55,127.18,125.95,124.18,122.09,119.93,118.00,116.08,114.15,112.21,110.35,108.77,107.36,106.05,104.92,103.67,102.35,100.89,99.08,97.31,95.46
64.18,65.78,67.40,68.73,69.40,69.88,70.30,70.57,70.87,70.94,70.77,70.36,68.72,66.40,63.79,61.30,59.97,59.12,59.24,60.32,62.11,64.25,66.56,68.69,70.46,72.48,73.70,74.05,73.83,73.94,71.45,69.17,67.00,64.47,61.77,59.63,57.84,56.62,57.67,59.29,63.15,68.01,70.75,72.28,73.74,74.94,75.77,76.77,77.60,78.04,77.87,76.73,74.46,72.05,69.57,66.97,66.58,65.52,63.45,60.67,59.66,59.53,59.81,60.59,62.34,64.68,66.97,69.27,71.66,74.18,77.00,79.12,80.21,80.50,80.58,80.63,80.69,80.77,80.59,80.55,80.63,80.82,81.06,81.46,81.85,82.00,81.50,81.00,80.39,79.78,79.31,79.00,79.10,79.40,79.80,80.34,80.78,81.23,81.85,82.84,84.07,85.43,86.94,88.53,89.72,90.96,92.65,94.34,94.79,94.40,93.83,93.58,94.09,95.15,95.45,94.73,93.03,90.91,89.79,89.95,90.61,90.49,89.22,87.79,86.34,85.11,85.13,85.92,86.74,87.45,88.23,88.85,89.35,89.58,89.42,89.22,89.62,90.58,92.14,94.47,95.81,96.65,96.79,95.76,94.68,94.03,93.65,93.62,95.32,97.77,100.24,102.49,104.49,103.56,101.79,99.87,98.50,100.02,102.92,105.64,107.53,109.27,111.02,112.84,114.73,116.61,118.56,120.29,121.83,123.24,124.55,125.83,126.71,127.14,127.33,127.44,127.21,126.29,124.38,122.69,121.18,118.67,114.73,110.20,107.60,105.30,102.98,100.66,98.17,95.76,95.27,97.79,100.63,103.76,106.59,109.19,112.29,115.84,118.19,119.16,118.81,116.54,114.03,111.72,110.02,109.89,111.73,114.88,118.76,122.50,126.57,130.49,134.05,137.00,138.28,138.07,136.81,134.82,132.52,130.19,127.56,124.74,121.91,119.52,117.61,115.85,114.20,113.70,114.76,115.97,117.17,118.69,120.39,122.06,123.44,124.30,124.03,122.78,121.01,119.04,117.33,115.58,113.72,111.77,109.78,107.87,106.28,104.82,103.40,102.02,100.85,99.73,98.52,96.96,95.25,94.62
63.39,65.46,67.66,69.41,70.08,70.42,70.66,70.75,70.80,70.35,69.44,68.19,65.96,63.29,60.80,58.93,58.36,58.68,59.78,61.57,63.87,66.22,68.50,70.61,72.43,73.93,74.17,74.13,73.86,72.50,69.98,67.98,66.11,63.64,61.18,59.19,57.47,56.30,57.76,59.64,63.82,68.83,71.04,72.40,73.35,73.96,74.38,75.15,75.85,76.19,75.94,74.70,72.55,70.02,67.25,64.36,63.40,62.48,61.19,59.62,59.46,59.62,60.30,61.60,63.61,65.84,68.14,70.49,72.86,75.30,77.95,79.67,80.23,80.42,80.41,80.36,80.16,79.63,78.98,78.62,78.59,78.89,79.46,80.37,81.27,81.93,82.05,82.09,81.85,81.38,80.81,80.59,80.89,81.30,81.75,82.44,82.93,83.40,83.99,84.88,86.07,87.30,88.58,89.91,91.01,92.11,93.23,93.94,93.26,91.82,90.79,90.56,91.36,92.46,92.78,91.99,90.15,88.05,87.15,87.64,88.85,89.64,88.56,87.16,85.65,84.34,84.15,84.80,85.56,86.24,86.92,87.29,87.62,87.79,87.71,87.48,88.09,89.18,90.61,92.45,93.93,95.19,95.64,94.37,93.23,92.42,92.10,92.53,94.89,97.52,99.95,102.08,103.98,102.77,101.01,99.22,97.87,98.93,101.22,103.59,105.55,107.46,109.38,111.29,113.23,115.24,117.15,118.95,120.61,122.11,123.39,124.61,125.40,125.75,125.91,126.06,126.08,125.58,124.20,122.67,121.32,118.99,115.21,110.42,107.75,105.42,103.07,100.72,98.15,95.50,94.64,96.74,99.58,102.53,105.24,107.74,110.52,113.69,116.09,117.23,116.71,114.19,111.71,109.55,108.04,108.20,110.05,113.38,117.68,122.02,126.11,130.31,134.50,138.32,139.49,139.41,138.31,136.40,134.12,131.89,129.34,126.50,123.48,120.65,118.41,116.34,114.30,112.67,112.81,113.43,114.30,115.55,117.19,118.82,120.19,121.04,120.78,119.58,117.92,116.11,114.59,113.05,111.33,109.43,107.39,105.43,103.80,102.35,100.99,99.67,98.55,97.57,96.71,96.01,95.36,95.65
61.88,64.28,67.11,69.52,70.25,70.51,70.64,70.41,70.12,69.16,67.51,65.24,62.72,60.38,58.61,57.63,57.56,58.95,61.03,63.51,66.15,68.53,70.60,72.48,74.16,74.52,74.25,74.20,73.78,70.41,68.61,67.02,65.17,62.73,60.65,58.79,57.12,56.05,57.83,60.02,64.35,69.30,71.22,72.45,72.78,72.68,72.62,73.14,73.87,74.20,73.84,72.61,70.72,68.03,64.92,61.98,60.34,59.83,59.65,59.40,59.49,59.78,60.94,62.84,64.85,66.86,69.17,71.57,73.88,76.26,78.64,79.97,80.15,80.14,80.04,79.88,79.36,78.05,76.86,76.07,75.84,76.22,77.08,78.39,79.67,80.83,81.88,82.69,83.04,82.88,82.27,82.21,82.76,83.32,83.79,84.68,85.19,85.66,86.17,86.80,88.03,89.11,90.05,90.92,91.89,92.86,93.09,92.43,90.90,89.06,87.83,87.66,88.81,89.83,90.10,89.28,87.49,85.73,85.38,86.31,87.93,89.36,88.05,86.57,85.03,83.60,83.12,83.60,84.33,85.04,85.58,85.90,86.21,86.47,86.61,86.41,87.23,88.29,89.27,90.51,92.27,93.93,94.58,93.05,91.80,90.83,90.69,91.79,94.57,97.35,99.74,101.70,103.51,102.02,100.35,98.78,97.40,98.06,99.73,101.85,104.05,106.05,108.07,110.08,112.08,114.09,115.94,117.79,119.49,120.94,122.18,123.36,124.08,124.35,124.50,124.67,124.78,124.66,124.11,122.73,121.35,118.98,115.22,110.45,107.78,105.42,103.03,100.64,98.02,95.39,94.24,95.62,98.55,101.31,103.91,106.40,108.95,111.63,113.90,115.03,114.28,111.82,109.47,107.45,106.19,107.34,109.48,112.90,117.20,121.43,125.39,129.60,134.17,138.76,139.87,140.10,139.40,137.81,135.55,133.24,130.70,127.88,124.75,121.75,119.18,116.87,114.64,112.09,110.89,110.70,111.30,112.42,114.06,115.69,117.02,117.76,117.44,116.36,114.87,113.24,111.78,110.45,108.89,107.07,104.99,103.01,101.36,99.98,98.81,97.78,96.75,95.88,95.45,95.93,96.85,97.86
61.15,63.73,66.94,69.49,70.25,70.41,70.39,70.21,69.07,67.21,64.87,62.38,60.25,58.52,57.33,56.93,58.14,60.01,62.52,65.42,68.25,70.20,72.13,73.70,74.57,74.48,74.47,74.25,73.31,70.43,68.41,66.52,64.55,62.35,60.42,58.60,56.99,56.06,57.89,60.37,64.67,69.32,71.10,71.75,71.65,71.17,70.67,70.79,71.63,72.14,71.90,70.87,68.51,65.57,62.67,60.53,59.82,59.53,59.40,59.30,59.59,60.16,61.48,63.41,65.42,67.53,69.74,71.95,74.06,76.19,78.20,79.26,79.29,79.13,78.48,77.86,77.06,75.74,74.06,73.06,72.75,73.12,74.23,75.61,77.24,79.02,80.76,81.93,82.85,83.39,83.44,83.67,83.80,83.91,84.06,84.36,84.85,85.37,85.96,86.74,87.92,89.05,90.07,90.93,91.41,91.67,91.43,90.35,87.89,85.90,85.05,85.30,86.46,87.62,87.47,86.20,84.22,82.75,83.43,84.93,86.81,88.78,87.38,85.87,84.32,82.86,82.03,82.45,83.13,83.74,84.18,84.50,84.80,85.11,85.42,85.61,86.49,87.61,88.75,89.94,91.57,92.88,93.23,91.89,90.55,89.59,89.83,91.73,94.56,97.35,99.71,101.49,102.66,101.44,99.93,98.38,96.93,96.94,98.56,100.72,102.83,104.84,106.89,108.92,110.92,112.87,114.68,116.41,118.06,119.61,121.00,122.13,122.75,122.95,123.16,123.51,123.73,123.74,123.48,122.24,120.97,118.51,114.50,110.03,107.36,105.00,102.66,100.32,97.70,95.00,93.68,94.78,97.66,100.57,103.34,105.95,108.50,110.95,112.40,112.71,111.92,109.66,107.47,105.75,105.08,107.36,110.59,114.45,118.61,122.59,126.58,130.25,134.09,138.23,139.89,140.15,139.18,137.17,134.56,132.17,129.88,127.54,124.94,122.14,119.48,116.93,114.44,111.89,110.45,109.80,109.78,110.21,111.20,112.66,113.89,114.30,113.78,112.84,111.68,110.38,109.02,107.70,106.00,104.03,102.06,100.63,99.38,98.46,97.96,97.83,97.56,97.49,97.73,98.35,99.61,101.06
62.29,64.45,67.07,69.09,69.97,70.25,70.06,69.36,67.46,65.01,62.41,60.05,58.17,56.93,56.48,56.98,58.81,61.16,63.99,67.02,69.76,71.42,73.15,74.43,74.81,74.60,74.65,74.25,73.09,70.88,68.94,66.76,64.36,61.87,60.06,58.28,56.77,56.03,57.88,60.48,64.58,68.92,70.75,70.90,70.25,69.27,68.41,68.60,69.54,70.03,69.66,68.49,66.00,63.28,60.96,59.67,59.41,59.25,59.18,59.25,59.61,60.17,61.55,63.61,65.74,67.99,70.17,72.25,74.23,76.09,77.50,78.11,77.96,77.68,76.57,75.63,74.71,73.47,71.59,70.41,70.04,70.49,71.58,72.96,74.87,77.26,79.91,81.31,82.55,83.43,83.75,83.84,83.48,83.13,82.99,82.96,83.44,84.04,84.75,85.62,86.78,88.03,89.20,90.14,90.45,90.21,89.22,87.30,84.22,82.63,82.35,83.03,84.29,85.55,84.97,83.38,81.50,80.63,81.97,83.84,85.93,88.17,86.96,85.36,83.64,82.04,81.04,81.32,81.88,82.39,82.81,83.17,83.54,83.92,84.29,84.79,85.81,87.05,88.34,89.55,91.03,91.94,91.89,90.55,89.04,88.62,89.57,91.92,94.70,97.42,99.67,101.21,101.84,100.83,99.44,97.90,96.42,95.82,97.40,99.64,101.78,103.78,105.82,107.80,109.70,111.54,113.29,114.95,116.57,118.19,119.70,120.85,121.49,121.76,122.06,122.47,122.69,122.74,122.65,121.64,120.19,117.52,113.52,109.51,106.83,104.37,101.95,99.59,97.06,94.40,92.96,93.79,96.73,99.84,102.81,105.50,107.88,109.71,110.39,110.02,108.80,106.58,104.70,103.90,104.72,107.87,112.03,116.31,120.41,124.07,127.84,131.17,134.52,138.11,139.89,140.11,138.90,136.56,133.81,131.24,128.91,126.67,124.38,121.82,119.33,116.80,114.18,111.58,110.09,109.21,108.76,108.57,109.01,109.90,110.68,110.90,110.33,109.62,108.72,107.61,106.30,104.94,103.29,101.57,100.14,99.38,98.74,98.41,98.49,98.99,99.43,100.02,100.79,101.66,103.14,104.80
65.33,66.46,67.53,68.31,69.42,70.02,69.64,67.86,65.27,62.58,60.15,58.26,56.48,55.59,56.05,57.81,59.59,62.39,65.43,68.33,70.67,72.17,73.66,74.67,74.89,74.88,74.77,74.20,73.13,71.76,70.21,67.74,64.60,61.30,59.59,57.83,56.45,55.97,57.82,60.33,64.09,68.09,70.16,69.90,68.57,66.96,65.83,66.57,67.58,67.88,67.14,65.47,63.20,61.16,59.78,59.41,59.11,58.96,59.01,59.24,59.55,59.82,61.15,63.41,65.79,68.25,70.46,72.49,74.40,75.96,76.54,76.52,76.15,75.77,74.30,73.20,72.33,71.23,69.45,68.12,67.72,68.34,69.13,70.43,72.55,75.55,79.34,80.85,82.14,83.01,83.20,82.70,81.78,80.99,80.55,80.48,80.95,81.66,82.52,83.45,84.61,86.03,87.43,88.56,89.01,88.48,86.46,83.27,79.89,79.26,79.73,80.86,82.31,83.62,82.60,80.84,79.36,79.37,81.00,83.06,85.29,87.53,86.82,85.05,82.96,81.15,80.14,80.23,80.59,81.00,81.46,81.92,82.42,82.88,83.21,83.97,85.19,86.61,88.04,89.35,90.67,91.12,90.55,89.02,87.26,87.93,89.93,92.35,94.98,97.56,99.60,100.86,101.04,100.18,98.86,97.34,95.88,94.69,96.23,98.62,100.88,102.89,104.84,106.69,108.43,110.07,111.77,113.42,115.04,116.66,118.28,119.52,120.31,120.77,121.22,121.55,121.67,121.67,121.64,120.93,119.00,116.01,112.28,108.91,106.19,103.53,100.90,98.44,96.11,93.57,92.08,92.66,95.74,99.12,102.31,105.05,107.08,107.89,107.88,106.93,104.89,102.58,101.14,101.90,105.12,108.87,113.79,118.50,122.60,125.87,129.15,132.35,135.48,138.40,139.89,139.97,138.56,136.00,133.29,130.46,127.77,125.28,123.04,120.78,118.74,116.48,113.85,111.15,109.81,108.94,108.24,107.50,107.50,107.41,107.41,107.59,107.12,106.69,105.99,104.93,103.61,102.17,100.78,99.71,99.26,99.28,99.47,99.83,100.39,101.29,102.37,103.50,104.65,105.86,107.46,109.08
68.42,68.92,68.92,68.19,68.22,68.14,67.52,65.94,63.34,60.72,58.40,56.59,54.86,55.10,56.50,58.51,60.61,63.41,66.29,68.97,71.15,72.69,73.33,73.59,73.89,73.99,74.14,73.88,73.14,72.15,70.95,68.52,65.11,61.25,59.13,57.27,56.11,56.07,57.88,60.07,63.16,66.44,68.34,66.89,65.40,64.25,63.71,64.66,65.43,65.37,64.37,62.81,61.23,60.06,59.35,59.04,58.73,58.79,59.06,59.41,59.68,60.34,61.85,64.03,66.33,68.62,70.62,72.42,74.09,75.31,75.30,74.88,74.39,73.87,72.28,70.74,69.24,67.57,66.48,65.64,65.61,66.57,67.66,69.04,71.40,74.91,79.56,80.81,81.87,82.41,82.03,81.39,80.09,78.66,77.52,77.45,78.28,79.26,80.24,81.22,82.56,83.98,85.29,86.27,86.41,85.72,83.81,80.97,78.08,77.46,78.06,79.31,80.66,81.56,80.80,79.42,78.31,79.03,80.83,82.92,85.09,87.19,86.65,85.01,82.95,81.08,80.03,79.87,80.04,80.37,80.83,81.30,81.69,81.98,82.18,82.91,84.14,85.56,87.03,88.48,89.61,89.75,88.87,87.19,86.23,87.65,90.08,92.48,94.97,97.13,98.92,100.15,100.44,99.52,98.20,96.71,95.24,93.82,95.11,97.36,99.64,101.69,103.60,105.37,107.02,108.60,110.25,111.88,113.49,115.06,116.59,117.78,118.73,119.49,120.13,120.39,120.50,120.54,120.56,119.91,118.07,115.26,111.72,108.03,104.93,102.13,99.56,97.23,94.91,92.47,90.92,91.19,94.69,98.65,101.85,103.92,104.96,104.69,103.91,102.79,101.44,100.09,99.82,101.49,105.25,109.73,114.76,119.18,122.77,125.65,128.26,130.84,133.52,136.38,139.04,139.21,137.75,135.28,132.76,129.98,127.00,124.12,121.70,119.60,117.65,115.61,113.37,111.21,110.28,109.65,109.09,108.50,108.39,107.83,107.27,107.05,106.40,105.64,105.03,104.56,103.85,103.41,102.68,101.98,101.83,102.14,102.64,103.33,104.17,105.14,106.15,107.40,108.86,110.42,112.04,113.54
70.39,70.62,70.17,68.41,67.38,66.48,65.41,63.92,61.46,58.97,56.74,54.93,53.85,55.04,57.08,59.24,61.79,64.62,67.31,69.68,71.58,72.68,72.55,72.29,72.73,73.01,73.55,73.73,73.40,72.76,71.54,69.02,65.46,61.38,58.95,57.00,55.90,55.96,57.76,59.75,62.35,65.01,66.55,64.16,62.56,61.79,61.75,62.79,63.25,62.93,61.91,60.72,59.76,59.20,58.89,58.59,58.50,58.76,59.18,59.63,60.24,61.46,63.13,65.08,67.04,69.11,70.89,72.46,73.86,74.39,73.91,73.23,72.62,71.88,69.93,67.83,65.79,63.92,63.71,63.91,64.73,66.13,67.44,68.87,71.35,75.06,79.80,80.82,81.58,81.78,81.02,80.04,78.18,76.10,74.45,74.50,75.62,76.77,77.87,78.98,80.47,81.86,83.02,83.80,83.72,82.90,81.18,78.79,76.34,75.77,76.45,77.73,78.95,79.53,79.00,77.97,77.16,78.32,80.48,82.65,84.68,86.62,86.65,85.26,83.29,81.41,80.11,79.68,79.65,79.85,80.26,80.65,80.92,81.07,81.18,81.84,83.08,84.53,86.03,87.59,88.32,88.07,86.99,85.36,85.34,87.42,90.15,92.47,94.72,96.54,98.08,99.27,99.78,98.87,97.55,96.07,94.60,93.05,93.88,95.80,98.06,100.33,102.25,103.98,105.58,107.13,108.75,110.36,111.92,113.40,114.84,115.99,117.02,117.94,118.60,118.69,118.75,118.82,118.89,118.33,117.02,114.68,111.29,107.38,103.76,100.76,98.28,96.06,93.78,91.55,90.11,90.19,93.61,97.74,100.76,102.18,102.40,101.43,100.30,99.31,98.70,98.33,99.01,101.29,105.26,109.97,114.79,118.95,122.25,124.71,126.83,128.93,131.25,134.00,137.40,138.00,136.82,134.54,132.14,129.38,126.24,123.11,120.50,118.55,116.72,115.08,113.64,112.31,111.81,111.53,111.28,110.91,110.71,110.06,109.32,108.82,107.99,106.84,106.12,105.91,105.51,105.61,105.41,105.11,105.11,105.49,106.06,106.91,108.02,109.03,109.97,111.25,112.92,114.86,116.19,117.27
70.46,70.98,71.05,69.14,67.26,65.37,63.50,61.77,59.65,57.37,55.15,53.26,53.86,55.64,57.79,60.04,63.23,66.20,68.66,70.57,71.98,71.82,71.10,70.76,71.42,72.04,73.12,73.90,74.11,73.81,71.95,69.06,65.51,61.76,59.23,57.25,55.90,55.46,57.30,59.34,61.80,64.08,64.98,62.19,60.48,59.84,60.01,60.96,61.05,60.64,60.01,59.56,59.03,58.63,58.32,58.02,58.52,58.99,59.39,59.90,61.55,63.51,65.28,66.74,67.97,69.77,71.33,72.70,73.83,73.08,72.31,71.59,70.83,69.74,67.01,64.16,61.80,60.48,61.35,63.49,65.91,67.92,69.23,70.62,73.05,76.44,79.99,80.85,81.22,81.11,80.40,78.62,75.85,73.17,71.38,71.78,72.98,74.15,75.33,76.74,78.28,79.61,80.60,81.12,81.04,80.09,78.57,76.62,74.40,74.08,74.82,76.02,77.09,77.57,77.13,76.29,75.69,76.85,79.71,82.06,83.86,85.59,86.96,86.00,84.12,82.30,80.41,79.71,79.46,79.43,79.70,79.89,80.02,80.11,80.22,80.78,82.07,83.60,85.14,86.76,86.71,85.95,84.80,83.56,84.57,87.25,90.14,92.23,94.09,95.71,97.06,98.13,98.99,98.24,96.94,95.43,93.96,92.41,92.47,93.75,95.97,98.73,100.76,102.51,104.11,105.66,107.28,108.86,110.33,111.67,113.00,114.13,115.14,115.95,116.32,116.12,116.03,116.09,116.21,115.79,115.74,114.32,110.98,107.18,102.81,99.50,97.14,94.97,92.79,90.96,89.91,90.03,92.47,96.05,98.57,99.47,99.24,98.24,97.47,97.08,97.13,97.65,98.82,101.27,105.10,109.17,113.31,117.35,120.79,122.81,124.77,126.69,128.79,131.29,134.50,136.07,135.73,133.77,131.38,128.57,125.47,122.34,119.55,117.74,116.10,115.21,115.21,115.13,115.06,115.30,115.63,115.50,115.22,115.03,114.74,114.17,113.20,111.67,110.50,109.89,109.24,108.97,109.03,109.20,109.20,109.33,109.58,110.38,111.79,112.80,113.74,114.97,116.68,119.06,119.56,119.72
69.83,70.75,70.71,68.77,66.59,64.41,62.26,60.00,57.58,55.36,53.59,52.54,54.18,56.30,58.68,61.41,65.33,68.00,69.79,70.82,71.26,70.25,69.04,68.92,70.63,71.76,73.13,74.16,74.64,74.52,72.08,69.01,65.67,62.30,59.63,57.50,55.86,55.06,57.00,59.03,61.28,63.19,63.60,61.18,59.67,59.04,59.08,59.69,59.73,59.45,59.01,58.67,58.32,58.05,57.94,58.12,58.69,59.22,60.10,61.68,64.57,66.51,67.84,68.73,69.45,70.61,71.93,72.96,73.25,72.13,70.97,69.61,68.03,66.39,63.63,61.48,60.15,59.61,61.13,64.37,67.63,69.89,71.44,72.93,75.11,77.76,79.93,80.63,80.76,80.36,79.37,76.96,73.94,71.10,69.13,69.28,70.39,71.65,72.99,74.45,76.04,77.57,78.63,78.94,78.43,77.15,75.54,73.78,72.10,72.19,73.03,74.19,75.24,75.78,75.32,74.47,73.95,75.30,78.32,80.82,82.71,84.37,85.95,86.18,85.30,83.59,81.46,80.18,79.47,79.20,79.24,79.31,79.39,79.49,79.66,80.04,81.15,82.65,84.30,85.88,85.23,84.05,82.80,81.72,83.28,86.35,89.49,91.70,93.24,94.62,95.81,96.83,97.80,97.42,96.23,94.67,93.16,91.62,91.19,91.90,93.64,96.10,98.62,100.84,102.70,104.24,105.82,107.27,108.61,109.89,111.20,112.27,113.11,113.69,113.88,113.57,113.39,113.39,113.54,113.63,114.15,113.42,110.76,106.89,102.30,98.93,96.66,94.50,92.26,90.65,89.82,89.85,91.02,93.55,95.30,95.79,95.68,95.73,96.01,96.55,97.34,98.28,99.43,101.34,104.24,107.74,111.41,114.98,118.17,120.62,122.95,125.10,127.29,129.74,132.35,134.31,134.46,132.79,130.64,127.70,124.59,121.63,119.12,118.06,117.42,117.36,117.81,118.12,118.30,118.60,118.93,118.97,118.67,118.54,118.38,117.98,117.37,116.10,114.64,113.23,111.98,111.08,110.92,111.13,111.13,111.29,111.50,112.11,113.24,114.56,115.66,116.87,118.30,119.97,120.16,120.12
68.83,70.40,70.16,68.14,65.72,63.36,61.01,58.10,55.33,53.25,52.15,52.33,54.64,56.97,59.58,62.74,67.09,69.25,70.14,70.13,69.55,67.91,66.78,67.35,70.18,71.79,73.37,74.51,75.08,75.01,72.05,68.86,65.72,62.64,59.89,57.64,55.78,54.70,56.70,58.69,60.71,62.26,62.35,60.48,59.23,58.55,58.32,58.61,58.68,58.54,58.23,57.85,57.70,57.62,57.78,58.40,58.94,59.74,61.42,64.29,68.11,69.48,70.13,70.55,70.91,71.52,72.59,73.21,72.63,71.36,69.67,67.57,65.21,63.09,60.72,59.50,59.25,59.45,61.66,65.66,69.42,71.79,73.62,75.25,76.97,78.59,79.46,80.00,80.01,79.37,78.00,75.29,72.25,69.41,67.26,66.85,67.82,69.17,70.67,72.20,73.84,75.58,76.76,76.94,75.95,74.39,72.64,70.98,69.76,70.33,71.33,72.47,73.52,74.03,73.45,72.60,72.24,73.85,76.76,79.36,81.43,83.04,84.53,85.76,86.00,84.84,82.67,80.82,79.64,79.12,78.93,78.85,78.86,78.97,79.19,79.48,80.38,81.77,83.47,84.87,83.76,82.31,81.03,80.11,81.81,85.01,88.37,90.86,92.23,93.42,94.48,95.48,96.52,96.61,95.58,93.96,92.38,90.81,89.99,90.15,91.33,93.26,96.17,98.89,101.14,102.83,104.32,105.63,106.86,108.11,109.38,110.35,111.01,111.36,111.41,111.06,110.83,110.83,111.08,111.66,112.46,112.30,110.51,106.67,102.10,98.76,96.49,94.30,91.98,90.48,89.76,89.68,89.85,91.30,92.54,93.16,93.54,94.64,95.83,97.08,98.42,99.60,100.73,102.12,104.00,106.73,109.85,112.92,115.91,118.92,121.70,124.11,126.43,128.85,130.92,133.02,133.40,131.92,130.06,127.15,124.09,121.35,119.35,119.03,119.35,119.94,120.52,120.93,121.23,121.46,121.59,121.63,121.29,121.07,120.87,120.59,120.33,119.36,117.76,115.76,114.06,112.68,112.24,112.33,112.31,112.46,112.62,112.95,113.63,115.13,116.37,117.51,118.54,119.36,119.30,119.20
67.18,70.12,69.94,67.51,64.63,61.92,59.23,55.49,52.74,51.15,51.12,52.97,55.28,57.65,60.33,63.49,67.30,68.58,68.23,66.91,65.55,63.69,64.36,66.91,70.40,72.25,73.95,75.06,75.40,75.03,71.73,68.44,65.34,62.26,59.66,57.48,55.59,54.38,56.33,58.22,59.96,61.19,61.33,60.03,59.00,58.18,57.48,57.67,57.76,57.67,57.41,57.08,57.34,57.70,58.17,58.79,59.33,61.19,64.31,68.36,71.98,71.62,71.29,71.61,71.88,72.48,73.28,73.44,72.30,70.88,68.32,65.61,63.14,60.87,59.63,58.98,58.94,59.59,62.93,67.25,70.97,73.29,75.37,77.16,77.92,77.86,77.84,78.29,78.38,77.66,75.87,73.74,70.96,68.24,65.98,64.48,65.28,66.67,68.32,70.09,71.83,73.60,74.82,75.05,73.82,72.25,70.48,68.76,67.65,68.73,69.98,71.20,72.22,72.29,71.37,70.66,70.88,72.73,75.11,77.67,80.01,81.57,82.81,83.86,84.89,85.64,83.77,81.69,80.16,79.34,79.00,78.64,78.47,78.50,78.69,79.23,79.96,81.15,82.66,83.47,82.24,80.89,79.85,79.28,80.15,82.82,86.19,89.29,90.91,92.10,93.09,94.04,95.23,96.02,95.20,93.46,91.73,90.07,88.89,88.58,89.25,90.54,93.23,96.25,99.13,101.41,102.67,103.87,105.09,106.36,107.43,108.29,108.83,109.04,108.99,108.63,108.47,108.64,109.23,110.02,110.68,110.89,110.13,106.74,102.57,99.26,96.78,94.50,92.12,90.54,89.72,89.56,89.78,90.49,92.20,94.57,96.24,97.50,98.62,99.70,100.85,102.13,103.61,105.03,106.27,107.53,109.67,112.46,115.67,118.97,122.05,124.56,126.84,129.17,131.19,133.08,133.19,131.53,129.97,127.62,124.86,122.45,121.28,121.20,121.66,122.30,122.85,123.01,123.19,123.24,123.07,122.61,122.06,121.58,121.12,120.65,120.23,119.24,117.83,116.20,114.79,113.62,113.05,112.88,112.75,112.56,112.40,112.33,112.48,113.43,114.70,115.59,116.06,116.44,115.99,115.65
63.08,65.41,65.57,64.29,62.12,59.53,56.54,52.72,50.97,50.18,50.69,52.96,55.38,57.90,60.49,62.94,64.40,64.45,63.73,62.67,61.85,61.15,63.52,67.31,70.86,72.86,74.46,75.36,75.40,74.44,70.95,67.57,64.40,61.24,59.06,57.07,55.27,54.08,55.84,57.57,59.07,60.10,60.22,59.40,58.54,57.68,56.85,56.84,56.87,56.86,56.84,56.96,57.51,58.11,58.70,59.27,60.58,63.25,66.62,70.09,72.54,72.40,72.31,72.66,72.92,73.14,73.33,73.02,71.85,70.45,67.02,63.72,61.34,59.73,58.84,58.64,59.06,60.03,64.17,68.48,72.02,74.40,76.69,77.45,77.04,76.02,75.35,75.78,76.19,75.77,73.97,72.07,69.53,66.89,64.43,62.27,62.90,64.42,66.33,68.28,70.13,71.90,73.07,73.27,72.26,70.66,68.63,66.76,66.28,67.59,68.99,70.24,71.18,70.94,69.93,69.40,69.95,71.81,74.07,76.38,78.46,79.97,81.00,82.09,83.51,85.08,84.47,82.64,80.88,79.64,79.12,78.62,78.27,78.09,78.14,78.69,79.38,80.44,81.74,82.30,81.19,79.99,79.06,78.53,79.17,81.03,83.79,86.99,88.92,90.38,91.56,92.65,94.02,95.27,94.73,93.07,91.27,89.64,88.26,87.55,87.71,88.79,91.03,93.95,97.03,99.57,100.85,102.04,103.21,104.37,105.38,106.14,106.57,106.68,106.57,106.23,106.27,106.81,107.91,109.13,109.74,109.90,109.38,106.83,103.21,100.18,97.73,95.21,92.62,90.77,89.74,89.52,89.75,91.11,93.53,96.54,98.79,100.30,101.61,102.81,103.93,105.21,106.60,107.77,108.60,109.27,110.79,113.19,116.23,119.43,123.11,125.90,128.10,130.06,131.74,133.20,133.02,131.29,129.89,128.39,126.30,124.40,123.76,123.76,124.02,124.12,123.86,123.57,123.32,123.05,122.67,122.02,121.50,121.05,120.47,119.60,118.80,117.65,116.48,115.35,114.00,112.95,112.36,112.08,111.86,111.58,111.32,111.07,110.93,111.34,112.09,112.56,112.74,112.90,112.41,112.08
58.08,58.96,59.46,59.80,58.73,56.51,53.47,50.16,49.74,49.79,50.54,52.54,55.07,57.75,60.12,61.55,60.23,59.07,58.48,58.46,58.79,59.89,63.71,68.18,71.47,73.56,74.95,75.56,75.22,73.49,69.90,66.43,63.17,59.97,58.29,56.56,54.90,53.80,55.34,56.83,58.13,58.99,59.08,58.64,57.94,57.11,56.32,56.11,56.10,56.22,56.51,57.20,57.96,58.70,59.38,60.03,62.36,65.56,68.57,70.68,71.69,72.57,73.19,73.56,73.80,73.50,72.98,72.26,71.31,69.85,65.67,61.91,59.78,59.06,58.25,58.44,59.44,60.76,65.44,69.53,72.81,75.27,77.65,76.90,75.33,73.72,72.49,72.92,73.73,73.78,72.21,70.38,68.05,65.47,62.81,60.34,60.77,62.39,64.55,66.62,68.56,70.29,71.35,71.47,70.81,69.15,66.85,64.87,65.22,66.60,68.05,69.31,70.13,69.67,68.78,68.52,69.33,71.08,73.39,75.38,77.02,78.50,79.36,80.57,82.16,83.97,84.93,83.58,81.69,80.04,79.31,78.75,78.20,77.77,77.60,78.00,78.70,79.69,80.77,81.20,80.36,79.35,78.46,77.83,78.51,79.53,81.45,84.44,86.70,88.51,90.00,91.36,92.90,94.44,94.20,92.73,90.92,89.35,87.82,86.73,86.42,87.54,89.29,91.90,94.91,97.50,98.93,100.13,101.22,102.25,103.26,103.95,104.28,104.31,104.14,103.89,104.22,105.22,106.85,108.55,109.16,109.07,108.44,106.89,103.92,101.31,98.99,96.24,93.38,91.13,89.79,89.51,89.75,92.33,95.58,98.71,101.18,102.96,104.61,106.08,107.25,108.45,109.57,110.43,111.00,111.54,112.64,114.59,117.24,120.20,124.51,127.60,129.70,131.20,132.44,133.31,132.81,131.10,129.81,129.18,127.83,126.46,126.13,126.04,125.91,125.22,123.94,123.18,122.40,121.79,121.25,120.54,120.09,119.76,119.11,117.82,116.61,115.29,114.37,113.74,112.41,111.45,110.86,110.51,110.18,109.92,109.63,109.33,109.06,109.01,109.07,109.11,109.14,109.23,108.89,108.67
55.25,55.52,55.14,55.14,53.68,52.15,50.92,49.78,49.60,49.69,50.19,51.32,53.60,55.92,57.70,58.51,57.78,56.87,57.17,58.44,59.66,62.46,66.04,69.55,72.30,74.39,75.63,75.80,74.72,72.11,68.48,64.84,61.61,59.14,57.66,56.16,54.69,53.66,55.10,56.16,57.12,57.86,57.99,57.65,57.15,56.49,55.76,55.75,56.13,56.62,57.15,57.84,58.56,59.36,60.59,62.65,65.03,67.67,69.83,71.13,72.14,73.10,73.52,73.40,72.99,72.58,72.03,71.35,70.45,67.71,63.62,60.50,58.97,58.06,58.02,58.68,60.18,62.68,67.06,70.54,73.38,75.74,77.34,75.96,73.93,71.91,70.09,70.30,71.20,71.64,70.69,69.05,66.73,64.15,61.67,59.94,60.01,61.17,62.98,64.96,66.95,68.38,69.16,69.19,68.13,66.28,64.35,63.09,63.73,64.99,66.30,67.37,67.96,67.49,67.59,68.27,69.47,70.98,73.26,75.25,76.93,78.56,79.53,80.56,81.93,83.69,84.94,84.13,82.57,80.93,79.91,79.23,78.62,78.00,77.38,77.24,77.96,78.96,79.83,79.96,79.47,78.73,77.91,77.13,77.81,78.82,80.41,82.67,85.13,86.97,88.77,90.58,92.07,93.61,93.55,92.37,90.78,89.02,87.06,85.57,85.07,86.54,88.29,90.54,93.01,95.20,96.82,97.78,98.71,100.02,101.08,101.69,101.98,101.97,101.65,101.85,102.74,104.15,105.83,107.58,108.17,108.01,107.39,106.54,104.60,102.49,100.28,97.77,94.87,91.93,89.89,89.39,89.73,92.96,96.90,100.49,102.91,104.82,106.89,108.79,110.05,110.96,111.99,113.01,113.88,114.42,115.27,116.67,118.82,121.92,125.91,128.81,130.78,132.10,133.33,133.16,132.15,130.77,129.73,128.94,127.51,126.06,125.47,124.65,123.77,122.77,121.71,121.00,120.19,119.47,118.78,117.92,117.09,116.34,115.47,114.39,113.43,112.43,111.69,111.16,110.38,109.46,108.61,107.89,107.37,106.86,106.54,106.28,106.09,106.28,106.38,106.48,106.62,106.86,106.76,106.59
52.51,52.49,51.93,51.77,50.68,49.85,49.56,49.44,49.45,49.58,49.87,50.43,51.86,53.50,54.80,55.51,55.67,55.86,57.05,59.02,61.02,64.44,67.79,70.79,73.26,75.18,75.98,75.48,73.65,70.44,66.73,63.17,60.24,58.42,57.03,55.65,54.33,53.37,54.38,55.21,56.02,56.67,56.80,56.58,56.23,55.83,55.49,55.81,56.45,57.14,57.82,58.48,59.37,60.80,62.87,65.58,67.63,69.55,70.96,71.74,72.64,73.46,73.56,72.99,72.21,71.66,70.92,69.86,68.28,65.01,61.59,59.21,58.09,57.49,58.06,59.19,61.23,64.73,68.60,71.48,73.93,76.13,76.83,75.06,72.79,70.54,68.35,67.64,68.24,68.93,68.57,67.65,65.55,63.10,60.86,59.63,59.49,60.20,61.57,63.37,65.08,66.21,66.68,66.40,65.11,63.41,62.13,61.69,62.49,63.45,64.50,65.44,66.09,66.62,67.65,68.93,70.35,71.74,73.77,75.73,77.52,79.19,80.09,80.97,82.16,83.76,84.77,84.47,83.35,81.87,80.73,79.86,79.14,78.39,77.47,76.76,77.16,77.96,78.67,78.67,78.47,78.01,77.31,76.46,77.14,78.21,79.64,81.45,83.97,86.02,88.13,90.20,91.53,92.98,92.98,91.95,90.53,88.38,86.10,84.34,83.70,85.41,87.17,89.13,91.20,93.18,94.62,95.28,95.97,97.24,98.16,98.91,99.30,99.38,99.51,100.62,102.15,103.92,105.73,106.94,106.94,106.42,105.77,105.28,104.36,102.94,101.12,99.05,96.05,92.80,90.31,89.37,89.70,93.06,97.20,101.03,103.67,105.93,108.30,110.44,111.93,113.08,114.22,115.37,116.47,117.23,117.90,119.00,120.84,123.79,127.41,129.87,131.49,132.66,133.71,133.04,131.83,130.60,129.62,128.20,126.38,124.70,123.81,122.62,121.48,120.44,119.55,118.82,117.79,116.85,115.98,114.89,113.80,112.93,112.14,111.30,110.50,109.69,109.03,108.57,108.24,107.72,107.11,106.51,106.06,105.57,105.10,104.65,104.25,104.02,103.84,103.91,104.18,104.49,104.58,104.49
49.85,49.79,49.62,49.47,49.36,49.27,49.19,49.11,49.31,49.45,49.58,49.81,49.91,50.58,51.50,52.55,53.84,55.85,57.91,60.10,62.79,65.95,69.07,71.92,74.32,75.95,76.05,74.72,72.11,68.56,64.73,61.43,59.03,57.78,56.39,55.05,53.84,52.95,53.27,54.04,54.85,55.44,55.52,55.45,55.21,55.13,55.46,56.23,57.00,57.77,58.51,59.13,60.37,62.88,66.01,68.77,70.17,71.24,71.98,72.48,73.18,73.69,73.36,72.38,71.45,70.75,69.70,67.89,65.03,61.86,59.57,58.00,57.15,57.29,58.33,59.90,62.52,66.90,70.07,72.37,74.47,76.46,76.16,74.19,71.87,69.54,67.14,64.92,64.91,65.74,65.96,66.17,64.49,62.28,60.34,59.41,59.17,59.43,60.28,61.83,63.00,63.83,63.96,63.19,61.80,60.53,60.14,60.62,61.47,61.96,62.68,63.53,64.47,66.83,68.74,70.36,71.82,73.21,74.81,76.70,78.65,80.28,80.98,81.73,82.79,84.13,84.45,84.62,84.04,82.84,81.75,80.60,79.74,78.92,77.83,76.52,76.33,76.74,77.32,77.32,77.39,77.19,76.67,75.82,76.50,77.67,79.10,80.67,83.15,85.55,87.98,90.14,91.23,92.53,92.47,91.49,90.19,87.49,84.97,83.06,82.32,84.17,85.96,87.69,89.46,91.40,92.35,92.65,93.04,94.02,94.64,95.69,96.29,96.58,97.65,100.05,102.30,104.38,106.39,106.57,105.54,104.39,103.68,103.29,103.35,102.79,101.60,100.12,97.00,93.73,91.00,89.42,89.65,92.72,96.66,100.55,103.63,106.43,108.97,111.19,113.04,114.88,116.27,117.54,118.83,119.98,120.55,121.53,123.23,125.78,129.01,130.81,131.90,132.95,133.65,132.95,131.79,130.58,129.50,127.04,124.57,122.55,121.32,120.08,119.07,118.20,117.43,116.66,115.24,114.00,112.90,111.51,110.27,109.55,109.05,108.49,107.80,107.04,106.38,105.96,106.03,106.17,106.22,106.16,106.00,105.76,105.03,104.18,103.35,102.13,101.42,101.39,101.82,102.13,102.36,102.39
48.92,48.98,48.96,48.86,48.93,49.07,49.22,49.34,49.56,49.70,49.95,50.59,51.74,53.24,54.59,55.54,56.22,57.55,59.25,61.42,64.32,67.39,70.27,72.91,75.19,76.42,75.78,73.61,70.26,66.42,62.60,59.95,58.25,57.02,55.82,54.61,53.54,52.81,53.07,53.50,53.92,54.30,54.67,54.94,55.17,55.54,56.16,56.98,57.72,58.45,59.27,60.52,62.92,65.93,68.74,70.39,71.49,72.43,73.13,73.53,73.55,73.33,72.74,71.87,70.94,69.49,67.60,65.23,62.45,60.06,58.23,57.08,56.77,57.70,58.93,61.47,65.09,69.19,71.48,73.44,75.28,76.73,75.60,73.40,71.06,68.72,66.13,63.64,62.46,62.37,63.00,63.87,63.12,61.59,59.92,59.14,58.78,58.95,59.54,60.36,60.93,61.32,61.37,61.03,60.41,59.85,59.74,60.07,60.53,60.99,62.12,63.87,66.13,68.53,70.38,71.96,73.40,74.69,76.14,77.81,79.48,80.86,81.61,82.37,82.91,83.12,83.33,83.61,83.69,83.41,82.57,81.52,80.51,79.44,78.21,76.80,75.83,75.56,75.86,75.91,75.99,75.96,75.75,75.24,75.68,76.82,78.41,80.29,82.81,85.35,87.88,90.06,91.04,91.92,91.71,90.66,89.14,85.56,82.92,81.31,80.92,82.44,84.01,85.63,87.25,88.80,89.59,89.87,90.14,90.76,91.43,92.76,94.43,96.35,98.65,100.91,103.03,104.86,106.17,105.11,103.82,102.59,101.65,101.41,101.47,101.29,100.65,99.38,96.68,93.95,91.45,89.53,89.57,91.55,94.61,98.19,101.48,104.66,107.98,110.82,112.48,113.94,115.92,118.00,119.94,121.59,122.81,124.14,125.74,127.66,130.95,132.35,132.82,133.30,133.56,132.83,131.77,130.50,128.69,125.70,122.91,120.78,119.64,118.30,117.20,116.22,115.28,114.22,112.75,111.58,110.74,109.99,109.42,109.18,109.08,108.93,108.87,108.75,108.79,109.03,109.30,109.69,109.90,109.88,109.57,108.85,108.02,107.15,106.22,104.94,103.36,101.81,100.64,100.41,100.53,100.24
48.54,48.64,48.71,48.71,48.90,49.16,49.50,50.04,50.81,51.53,52.31,53.32,54.85,56.50,57.78,58.46,58.73,59.52,60.87,62.88,65.72,68.71,71.46,73.91,75.94,76.49,75.06,72.18,68.32,64.24,60.86,58.79,57.51,56.28,55.16,54.01,53.13,52.76,53.18,53.54,53.83,54.14,54.66,55.11,55.60,56.19,56.91,57.72,58.46,59.37,60.67,62.67,65.68,68.69,71.04,72.04,72.78,73.22,73.49,73.59,73.25,72.69,72.03,71.23,70.22,68.11,65.60,62.92,60.33,58.52,57.03,56.40,56.83,58.24,60.12,63.55,67.63,70.89,72.63,74.20,75.61,76.58,75.43,72.98,70.39,67.84,65.04,62.36,60.65,60.11,60.76,61.77,61.66,60.77,59.49,58.79,58.41,58.48,58.84,59.21,59.44,59.56,59.58,59.52,59.43,59.37,59.46,59.67,59.91,60.28,61.87,64.47,67.67,70.05,71.88,73.42,74.79,75.96,77.25,78.63,79.95,80.98,81.80,82.49,82.63,82.09,82.02,82.39,82.96,83.41,83.15,82.20,81.13,79.98,78.72,77.25,75.84,74.97,74.75,74.70,74.73,74.77,74.72,74.47,74.84,76.07,77.84,79.91,82.43,85.01,87.51,89.63,90.68,91.26,90.99,89.79,87.56,83.46,81.05,79.98,80.10,81.49,83.06,84.63,86.09,87.28,88.02,88.53,88.98,89.49,90.00,91.42,93.64,96.48,99.45,101.63,103.68,105.13,105.34,103.61,102.08,100.63,99.35,98.80,98.72,98.73,98.47,97.45,95.24,93.12,91.16,89.53,89.39,90.46,92.67,95.82,99.39,102.72,106.45,109.76,111.66,112.91,115.17,117.70,120.04,121.93,123.46,124.93,126.47,128.18,131.23,132.48,132.86,133.23,133.47,132.89,131.92,130.58,128.44,125.18,122.24,120.04,118.83,117.59,116.40,115.28,114.19,112.95,111.72,110.81,110.26,109.99,110.03,110.29,110.97,112.12,112.56,112.77,113.08,113.52,113.74,114.06,114.18,113.99,113.45,112.61,111.89,111.02,109.83,108.12,105.81,103.18,100.82,99.85,99.52,98.84
48.85,48.89,48.98,49.18,49.41,49.65,50.10,51.39,53.44,55.55,57.41,58.74,59.67,60.48,60.97,61.13,61.30,61.83,62.85,64.50,66.95,69.88,72.61,74.93,76.55,76.01,73.73,70.33,66.24,62.01,59.65,58.05,56.81,55.57,54.35,53.18,52.58,52.82,53.68,54.37,54.90,55.34,55.81,56.21,56.66,57.16,57.74,58.44,59.20,60.65,62.96,65.84,68.67,71.03,72.76,73.75,74.05,73.48,72.74,72.26,72.02,71.69,71.19,70.41,69.20,66.57,63.78,61.11,58.81,57.30,55.99,56.04,57.48,58.94,62.15,66.32,70.09,71.79,73.42,74.51,75.28,75.83,75.82,73.06,69.91,66.89,63.83,61.05,59.73,59.40,59.51,59.97,60.09,59.75,59.04,58.34,58.05,58.01,58.19,58.50,58.73,58.86,58.90,58.90,58.96,59.13,59.30,59.48,59.71,59.90,62.03,65.37,68.95,71.27,73.17,74.69,75.91,76.94,78.04,79.08,79.94,80.47,81.38,81.90,81.81,81.07,80.45,80.89,81.71,82.63,83.40,82.52,81.55,80.54,79.42,77.96,76.55,75.22,74.13,73.78,73.68,73.62,73.55,73.45,73.96,75.48,77.46,79.52,82.00,84.48,86.78,88.74,90.09,90.50,90.35,88.86,85.26,81.16,79.45,79.26,80.06,81.66,83.51,85.12,86.39,87.28,88.12,89.20,90.25,90.98,91.05,92.26,94.34,97.03,99.90,102.12,104.23,105.14,103.68,102.05,100.29,98.45,96.65,95.16,94.78,94.73,94.60,93.93,92.25,90.84,89.87,89.39,89.11,89.51,90.90,93.48,97.43,100.63,104.21,107.74,110.51,111.81,113.94,116.38,118.75,120.54,121.88,123.19,124.72,126.83,129.17,130.65,131.65,132.57,133.41,133.19,132.30,130.88,128.99,125.80,122.94,120.71,119.22,118.32,117.09,115.79,114.57,113.34,112.73,112.31,112.06,112.09,112.62,113.37,115.37,119.05,119.78,119.90,119.87,119.83,119.66,119.50,119.15,118.55,117.68,117.23,116.90,116.07,114.37,111.73,108.89,105.81,102.87,100.85,99.63,98.49
50.23,50.10,50.03,50.56,52.06,53.69,55.16,56.55,58.10,59.58,60.90,61.98,62.75,63.19,63.40,63.48,63.59,63.93,64.71,66.10,68.28,71.03,73.56,75.52,76.57,75.66,72.71,68.75,64.44,60.61,58.67,57.15,55.85,54.65,53.41,52.82,52.94,53.71,54.68,55.45,56.06,56.56,57.02,57.41,57.79,58.18,58.62,59.27,60.61,62.55,64.97,67.65,70.30,72.70,74.53,75.47,75.15,73.55,71.89,70.91,70.59,70.32,69.77,68.81,67.32,64.80,62.18,59.76,57.76,56.13,55.75,56.55,58.30,60.45,64.49,68.26,71.08,72.46,73.53,73.79,73.81,74.10,75.27,73.62,70.50,66.75,63.45,60.72,59.40,58.97,58.83,59.09,59.14,58.92,58.44,57.83,57.71,57.83,58.10,58.46,58.64,58.84,59.02,59.14,59.26,59.40,59.51,59.60,59.75,60.34,62.87,66.47,70.06,72.42,74.21,75.62,76.79,77.84,78.47,79.15,79.79,80.13,81.01,81.43,81.25,80.44,79.32,80.10,81.22,82.22,83.06,82.57,81.77,80.83,79.87,78.65,77.30,75.91,74.60,73.66,73.18,72.96,72.87,72.76,72.95,74.53,76.71,78.90,81.25,83.49,85.62,87.50,88.80,88.32,87.43,85.59,82.25,79.59,78.82,79.40,80.98,83.23,85.57,87.50,88.96,90.07,90.80,91.78,92.85,93.78,93.91,94.67,96.14,98.22,100.61,102.79,104.01,103.90,102.23,100.49,98.53,96.42,94.25,92.42,91.67,91.44,91.39,91.11,90.35,89.65,89.13,88.86,88.93,89.35,90.39,92.36,95.78,98.79,102.02,105.29,108.28,110.10,112.40,114.80,117.05,119.00,120.16,121.32,122.80,124.83,127.27,129.36,130.97,132.06,133.20,133.27,132.62,131.42,129.82,126.96,124.35,122.27,120.85,119.50,118.09,116.78,115.75,115.48,115.36,115.20,115.07,115.23,116.00,117.47,119.99,123.52,124.50,124.75,124.76,124.68,124.41,124.17,123.65,122.77,121.51,120.92,120.55,119.81,118.39,116.62,113.56,110.42,107.48,104.64,103.09,101.41
52.49,52.27,52.16,53.03,55.56,58.15,60.20,61.49,62.38,63.14,63.87,64.67,65.28,65.57,65.70,65.78,65.84,66.02,66.62,67.79,69.65,72.17,74.36,75.87,76.40,75.38,71.78,67.25,62.78,59.51,57.82,56.32,54.92,53.70,52.63,52.71,53.52,54.72,55.74,56.57,57.23,57.76,58.23,58.80,59.18,59.48,59.82,60.46,62.20,64.39,66.74,69.13,71.68,74.20,76.22,77.20,76.24,73.80,71.32,69.67,69.05,68.73,68.06,66.91,65.28,62.95,60.59,58.44,56.69,55.27,55.87,57.31,59.26,62.15,66.65,69.83,71.67,72.74,73.10,72.67,72.14,72.15,73.96,73.84,71.15,66.87,63.50,60.76,59.34,58.71,58.33,58.35,58.30,58.12,57.82,57.51,57.64,57.95,58.33,58.70,58.87,59.28,59.77,60.20,60.38,60.44,60.41,60.40,60.67,61.73,64.38,67.85,71.21,73.53,75.15,76.45,77.55,78.40,78.49,78.83,79.35,79.69,80.60,80.99,80.77,79.89,78.33,79.48,80.87,81.84,82.58,82.54,81.92,81.04,80.23,79.32,78.05,76.66,75.27,73.88,72.98,72.49,72.27,72.10,72.01,73.49,75.75,78.15,80.51,82.55,84.51,86.24,87.11,85.85,84.30,82.29,79.60,78.38,78.54,79.86,82.12,84.95,87.64,89.79,91.42,92.75,93.53,94.51,95.62,96.68,96.93,97.29,98.20,99.70,101.58,103.23,103.39,102.38,100.73,98.83,96.74,94.45,92.11,90.31,89.34,88.93,88.87,88.88,88.81,88.67,88.53,88.49,88.92,89.50,90.41,91.92,94.52,97.26,100.05,102.94,105.94,108.32,110.85,113.25,115.41,117.45,118.51,119.59,121.02,123.02,125.68,128.34,130.48,131.79,133.19,133.67,133.34,132.32,130.76,128.28,125.94,124.00,122.62,120.82,119.25,118.11,117.63,118.37,118.64,118.65,118.62,118.87,119.88,121.94,124.60,127.27,128.27,128.57,128.60,128.50,128.24,127.99,127.43,126.39,124.72,123.82,123.18,122.41,121.32,120.38,117.48,114.50,111.63,108.29,106.41,104.31
56.45,56.37,56.60,57.82,60.22,62.17,63.32,64.27,64.90,65.57,66.25,66.90,67.21,67.68,68.00,68.07,68.08,68.18,68.70,69.70,71.07,73.29,74.89,75.81,76.03,75.21,70.95,65.85,61.33,58.81,57.23,55.72,54.20,52.75,52.28,52.98,54.27,55.69,56.76,57.68,58.38,58.92,59.45,60.64,61.16,61.41,61.81,62.49,63.94,65.83,68.02,70.41,73.00,75.57,77.72,78.98,77.38,74.58,71.47,68.73,67.26,66.72,65.88,64.60,63.22,60.99,58.93,57.03,55.37,55.19,56.52,58.32,60.47,64.00,68.26,70.86,71.93,72.15,71.62,71.01,70.41,70.09,71.20,73.06,71.51,67.28,64.25,61.30,59.66,58.78,58.04,57.62,57.47,57.31,57.20,57.68,58.25,58.72,59.09,59.41,59.63,60.54,61.76,62.90,63.18,63.13,62.84,62.73,63.70,65.12,67.26,69.83,72.47,74.55,75.96,77.15,78.12,78.18,77.65,77.69,78.25,78.99,80.09,80.58,80.36,79.41,77.49,78.99,80.54,81.37,82.02,82.38,81.95,81.16,80.50,79.94,78.76,77.37,75.97,74.58,73.30,72.28,71.61,71.40,71.25,72.38,74.47,77.17,79.92,81.91,83.73,85.07,84.71,83.22,81.61,79.91,78.10,77.72,78.72,80.73,83.42,86.40,89.03,91.07,92.65,94.02,95.34,96.83,98.24,99.31,99.61,99.78,100.44,101.65,103.08,103.02,102.13,100.70,99.00,96.95,94.82,92.58,90.43,89.38,88.55,87.99,87.73,87.80,87.72,87.71,88.00,88.70,89.28,90.08,91.22,92.64,94.11,96.38,98.63,101.01,103.78,106.66,109.39,111.87,114.04,115.94,117.11,118.22,119.68,121.92,124.79,127.74,130.28,132.07,133.77,134.93,135.08,134.06,131.91,129.77,127.69,125.79,124.22,122.32,120.68,120.12,120.92,122.35,122.82,122.93,122.98,123.28,124.67,126.93,129.09,130.29,130.75,130.82,130.68,130.45,130.33,130.06,129.66,128.68,126.57,125.23,123.89,122.74,121.83,120.84,118.92,116.46,113.60,110.45,107.97,105.82
60.42,60.31,60.44,60.96,62.05,62.97,63.55,64.08,64.42,64.85,65.25,65.51,65.71,66.16,66.64,67.10,67.89,68.83,69.88,71.03,72.30,74.05,75.21,75.75,75.67,74.54,70.11,64.85,60.31,58.35,56.77,55.23,53.68,52.17,52.12,53.32,54.97,56.53,57.75,58.82,60.05,61.42,62.68,64.82,65.22,64.70,64.25,64.91,65.99,67.54,69.57,71.97,74.64,77.14,79.00,79.70,78.03,75.14,71.83,68.73,66.53,65.07,63.79,62.53,61.22,59.23,57.31,55.66,54.52,55.61,57.41,59.63,62.32,66.00,69.29,71.00,71.42,71.20,70.14,69.04,68.28,68.29,70.15,72.59,71.42,67.39,64.50,61.59,59.81,58.74,57.86,57.14,57.00,57.14,57.49,58.19,58.88,59.84,60.96,62.06,63.05,64.42,65.75,66.69,66.89,66.94,66.86,66.92,67.75,68.82,70.18,71.89,73.90,75.37,76.57,77.53,78.07,77.52,76.71,76.59,77.16,78.19,79.39,80.06,79.74,78.28,76.48,78.44,80.25,81.09,81.63,82.07,81.84,81.26,80.72,80.25,79.30,78.07,76.68,75.33,73.97,72.76,71.79,71.16,70.72,71.26,73.02,75.98,78.95,81.13,82.64,83.28,82.48,81.12,79.62,78.15,76.95,77.76,79.34,81.63,84.47,87.45,89.93,91.93,93.58,95.11,96.65,98.23,99.57,100.46,100.91,101.09,101.44,101.97,102.28,101.33,100.06,98.60,97.00,94.98,92.86,90.83,89.16,88.45,87.72,87.05,86.66,86.85,87.23,87.67,88.31,89.20,90.10,91.34,92.79,94.27,95.39,96.88,98.44,100.45,103.38,106.53,109.23,111.58,113.61,115.07,116.30,117.67,119.47,122.03,125.20,128.30,131.04,133.21,134.95,136.38,136.70,135.84,134.49,132.19,129.85,127.80,126.29,124.90,124.13,124.41,125.77,127.11,127.61,127.76,127.83,128.06,129.21,130.76,132.00,132.34,132.18,131.89,131.54,131.18,130.88,130.54,129.76,128.06,124.94,123.44,122.19,121.21,120.41,119.19,117.50,115.30,112.75,110.27,108.00,106.07
