59.94,60.17,60.23,60.11,57.12,53.16,49.80,49.62,49.46,49.30,49.14,48.94,48.78,48.76,48.85,49.05,49.20,49.32,49.45,49.59,49.70,49.65,49.57,49.43,49.12,48.22,47.83,47.32,46.53,45.59,44.74,43.75,42.62,41.36,40.27,39.73,39.36,38.98,38.66,38.31,37.99,37.75,37.68,37.44,37.10,36.68,36.23,35.84,35.49,34.99,34.09,32.18,31.46,31.19,31.10,30.99,30.83,30.70,30.63,30.63,30.67,30.68,30.74,30.87,31.04,31.34,31.60,31.86,32.16,32.39,32.62,32.84,33.04,33.28,33.47,33.68,33.90,34.10,34.29,34.45,34.61,34.76,34.91,35.12,35.39,35.70,36.01,36.31,36.60,36.82,36.98,37.13,37.52,37.99,38.44,38.86,39.50,40.57,42.01,43.64,45.18,46.78,48.37,49.93,51.70,53.50,55.27,57.00,58.73,60.12,61.25,62.20,63.03,63.69,64.19,64.61,64.92,64.96,65.26,65.39,65.21,64.67,64.45,64.37,64.24,63.94,63.74,63.55,63.42,63.37,63.41,63.56,63.81,64.07,64.24,64.33,64.32,64.41,64.66,64.96,65.40,65.92,66.51,67.11,68.25,69.41,70.49,71.43,72.05,72.14,71.99,71.58,70.60,69.36,68.08,66.75,65.35,63.81,62.92,62.40,62.10,62.06,62.37,62.77,63.22,63.72,63.94,64.07,64.07,63.93,63.36,62.66,61.82,60.84,59.72,58.78,57.85,56.91,55.95,54.98,54.30,53.87,53.46,51.95,50.64,49.65,48.99,48.60,48.32,47.97,47.52,46.98,46.48,45.86,45.29,44.84,44.51,44.27,44.01,43.79,43.68,43.92,44.12,44.27,44.37,44.29,43.98,43.63,43.28,42.93,42.58,42.31,42.02,41.64,41.21,40.78,40.41,40.14,39.99,39.85,39.71,39.60,39.49,39.58,39.66,39.78,39.94,40.14,40.36,40.59,40.85,41.16,41.46,41.77,42.10,42.49,42.87,43.28,43.65,43.92,44.07,44.23,44.43,44.64,44.79,45.01,45.19,45.38,45.60,45.75,45.77,45.74,45.71,45.70,45.77,45.80
59.18,59.35,59.48,58.93,55.69,52.21,49.75,49.59,49.44,49.28,49.11,48.90,48.80,48.88,49.05,49.26,49.40,49.47,49.56,49.63,49.60,49.45,49.29,49.01,48.52,47.51,46.85,46.29,45.64,44.64,43.74,42.80,41.76,40.63,39.85,39.42,39.04,38.59,38.20,37.82,37.53,37.38,37.38,37.31,37.06,36.70,36.29,35.90,35.57,35.10,34.27,32.58,31.58,31.10,30.93,30.84,30.68,30.53,30.40,30.33,30.39,30.43,30.53,30.72,30.97,31.26,31.52,31.79,32.08,32.33,32.56,32.79,33.02,33.26,33.43,33.63,33.85,34.08,34.24,34.39,34.54,34.67,34.76,34.90,35.10,35.38,35.69,35.98,36.22,36.42,36.57,36.76,37.15,37.58,38.00,38.45,39.12,40.02,41.24,42.83,44.37,45.96,47.52,49.02,50.66,52.37,54.07,55.73,57.33,58.85,60.05,61.01,61.86,62.45,62.88,63.21,63.43,63.43,63.65,63.59,63.23,62.69,62.23,61.98,61.75,61.41,61.19,61.04,60.93,60.89,60.97,61.06,61.29,61.59,61.88,62.05,62.13,62.26,62.50,62.79,63.15,63.61,64.12,64.57,65.55,66.65,67.64,68.40,69.00,69.14,69.13,68.93,68.18,67.16,65.98,64.68,63.28,61.62,60.62,60.01,59.69,59.67,60.04,60.48,60.90,61.28,61.43,61.52,61.58,61.55,61.12,60.47,59.78,59.09,58.35,57.69,56.92,56.07,55.19,54.20,53.27,52.63,52.16,50.82,49.76,48.97,48.39,47.92,47.59,47.21,46.76,46.22,45.71,45.17,44.75,44.47,44.22,43.99,43.72,43.50,43.43,43.64,43.82,43.97,44.09,44.01,43.69,43.34,43.00,42.63,42.25,41.94,41.66,41.34,40.90,40.45,40.08,39.84,39.75,39.67,39.56,39.45,39.42,39.59,39.75,39.91,40.09,40.31,40.55,40.79,41.04,41.35,41.66,41.91,42.20,42.57,42.94,43.30,43.59,43.79,43.94,44.11,44.31,44.51,44.66,44.80,44.95,45.13,45.34,45.48,45.44,45.36,45.29,45.22,45.28,45.30
57.30,57.04,57.19,55.35,52.33,50.31,49.68,49.53,49.37,49.22,49.06,48.90,49.01,49.10,49.22,49.38,49.47,49.49,49.48,49.42,49.29,49.13,48.93,48.55,47.88,46.87,45.94,45.30,44.81,43.81,42.82,41.87,40.88,39.80,39.27,38.91,38.53,38.08,37.69,37.30,37.07,37.00,37.00,36.92,36.81,36.63,36.35,35.97,35.59,35.10,34.33,32.94,31.97,31.24,30.79,30.65,30.49,30.34,30.19,30.07,30.08,30.19,30.37,30.61,30.90,31.15,31.43,31.71,31.95,32.25,32.50,32.73,32.96,33.19,33.41,33.60,33.79,34.02,34.17,34.33,34.45,34.55,34.69,34.79,34.89,35.06,35.37,35.61,35.81,35.97,36.13,36.42,36.79,37.13,37.46,38.11,38.80,39.50,40.44,41.93,43.48,45.03,46.58,48.10,49.54,51.10,52.68,54.25,55.80,57.23,58.58,59.75,60.64,61.13,61.54,61.80,61.89,61.89,61.94,61.71,61.25,60.71,60.25,59.83,59.49,59.24,59.07,58.97,58.88,58.84,58.92,58.83,58.99,59.28,59.52,59.74,59.94,60.15,60.38,60.63,60.94,61.35,61.80,62.20,62.89,63.87,64.83,65.58,66.13,66.34,66.43,66.38,65.99,65.08,63.90,62.57,61.19,59.93,58.98,58.35,58.02,57.95,58.23,58.57,58.85,58.99,59.08,59.16,59.23,59.26,58.92,58.30,57.76,57.37,56.98,56.26,55.64,55.04,54.30,53.36,52.47,51.64,50.82,49.86,49.08,48.40,47.81,47.28,46.90,46.47,45.99,45.46,45.05,44.73,44.46,44.20,43.91,43.67,43.43,43.24,43.17,43.34,43.50,43.65,43.77,43.69,43.41,43.06,42.70,42.38,41.99,41.62,41.28,40.97,40.57,40.17,39.88,39.70,39.56,39.48,39.39,39.37,39.49,39.71,39.88,40.06,40.27,40.44,40.72,40.98,41.23,41.54,41.85,42.11,42.37,42.69,43.01,43.28,43.50,43.66,43.82,44.03,44.22,44.38,44.53,44.62,44.76,44.92,45.08,45.17,45.12,45.04,44.98,44.97,44.98,44.98
55.75,55.20,54.96,52.54,50.69,49.76,49.57,49.42,49.33,49.25,49.14,49.00,49.12,49.23,49.33,49.40,49.36,49.29,49.20,49.09,49.01,48.93,48.65,48.08,47.19,46.23,45.23,44.44,43.81,42.92,41.92,40.97,40.02,39.06,38.53,38.26,37.99,37.57,37.18,36.79,36.62,36.62,36.62,36.54,36.49,36.42,36.27,35.89,35.53,35.03,34.28,33.11,32.19,31.38,30.78,30.55,30.40,30.24,30.09,29.95,29.95,30.08,30.28,30.53,30.84,31.07,31.36,31.64,31.87,32.18,32.43,32.66,32.90,33.13,33.36,33.57,33.76,33.95,34.07,34.22,34.34,34.42,34.58,34.67,34.75,34.85,35.05,35.21,35.37,35.52,35.69,36.04,36.33,36.65,37.08,37.70,38.25,38.87,39.71,40.99,42.43,43.89,45.36,46.83,48.25,49.72,51.23,52.75,54.23,55.59,56.85,57.95,58.86,59.43,59.86,60.11,60.16,60.13,60.09,59.80,59.33,58.82,58.36,57.92,57.58,57.36,57.28,57.20,57.12,57.07,57.11,56.90,56.97,57.21,57.44,57.59,57.89,58.22,58.51,58.74,59.01,59.35,59.73,60.08,60.55,61.24,62.00,62.72,63.30,63.59,63.76,63.79,63.52,62.81,61.80,60.64,59.52,58.66,57.78,57.02,56.48,56.33,56.55,56.84,57.05,56.98,57.01,57.08,57.11,57.05,56.71,56.11,55.70,55.53,55.33,54.78,54.27,53.76,53.17,52.39,51.56,50.67,49.79,49.12,48.49,47.85,47.23,46.69,46.22,45.76,45.33,44.94,44.63,44.38,44.15,43.91,43.63,43.40,43.14,42.94,42.87,43.02,43.18,43.33,43.46,43.42,43.12,42.77,42.42,42.07,41.72,41.35,40.98,40.63,40.28,39.96,39.73,39.57,39.42,39.34,39.35,39.46,39.65,39.84,40.03,40.24,40.46,40.62,40.90,41.17,41.42,41.73,42.04,42.27,42.48,42.72,42.99,43.21,43.38,43.53,43.69,43.91,44.08,44.21,44.36,44.47,44.62,44.76,44.87,44.99,44.97,44.91,44.85,44.85,44.85,44.85
54.32,53.55,52.84,50.38,49.83,49.68,49.48,49.36,49.35,49.36,49.32,49.16,49.20,49.31,49.39,49.37,49.22,49.08,48.95,48.85,48.85,48.83,48.44,47.67,46.58,45.62,44.60,43.66,42.82,42.03,41.04,40.07,39.17,38.33,37.72,37.55,37.39,37.04,36.67,36.30,36.17,36.23,36.23,36.17,36.14,36.14,36.11,35.74,35.40,34.92,34.19,33.22,32.37,31.52,30.82,30.47,30.33,30.18,30.03,29.90,29.89,30.02,30.22,30.48,30.78,31.01,31.29,31.57,31.81,32.11,32.36,32.60,32.83,33.07,33.30,33.53,33.73,33.88,33.96,34.09,34.21,34.30,34.44,34.54,34.62,34.70,34.77,34.85,34.97,35.12,35.28,35.62,35.81,36.13,36.66,37.18,37.59,38.17,38.99,40.03,41.29,42.64,44.02,45.42,46.88,48.28,49.74,51.23,52.61,53.90,55.01,55.98,56.86,57.53,57.98,58.23,58.29,58.21,58.15,57.87,57.43,56.97,56.51,56.10,55.78,55.59,55.59,55.54,55.46,55.40,55.39,55.10,55.07,55.23,55.44,55.51,55.88,56.32,56.70,56.94,57.17,57.45,57.76,58.07,58.37,58.77,59.31,59.99,60.58,60.93,61.15,61.22,60.99,60.52,59.72,58.78,57.95,57.42,56.64,55.79,55.06,54.77,54.91,55.15,55.28,55.05,55.05,55.08,55.05,54.88,54.51,53.95,53.65,53.63,53.55,53.23,52.82,52.38,51.93,51.34,50.57,49.71,48.86,48.39,47.88,47.27,46.64,46.10,45.58,45.11,44.75,44.52,44.29,44.06,43.83,43.59,43.36,43.13,42.86,42.63,42.56,42.71,42.87,43.02,43.14,43.15,42.83,42.48,42.16,41.78,41.47,41.11,40.72,40.35,40.03,39.78,39.59,39.44,39.29,39.23,39.35,39.58,39.82,39.98,40.19,40.42,40.65,40.81,41.09,41.35,41.60,41.89,42.18,42.38,42.54,42.71,42.93,43.10,43.25,43.41,43.56,43.78,43.92,44.03,44.18,44.33,44.49,44.61,44.70,44.85,44.88,44.85,44.80,44.79,44.79,44.79
52.91,52.01,51.12,50.04,49.76,49.67,49.58,49.60,49.65,49.71,49.68,49.47,49.32,49.30,49.32,49.31,49.21,49.17,49.13,49.10,49.10,48.99,48.47,47.57,46.37,45.21,44.04,43.00,42.10,41.27,40.18,39.18,38.27,37.43,36.87,36.68,36.60,36.48,36.15,35.87,35.79,35.85,35.85,35.83,35.82,35.82,35.80,35.47,35.11,34.67,34.10,33.33,32.54,31.71,30.94,30.35,30.25,30.11,29.98,29.89,29.83,29.95,30.18,30.46,30.71,30.95,31.19,31.46,31.74,31.99,32.27,32.54,32.78,33.07,33.26,33.46,33.65,33.75,33.89,33.99,34.08,34.16,34.26,34.39,34.49,34.57,34.65,34.72,34.81,34.91,35.00,35.10,35.20,35.45,35.87,36.30,36.74,37.40,38.22,39.07,40.04,41.26,42.62,44.01,45.42,46.77,48.15,49.56,50.89,52.04,53.09,54.01,54.74,55.27,55.68,55.95,56.05,55.97,56.00,55.85,55.52,55.12,54.65,54.24,53.97,53.87,53.87,53.85,53.80,53.73,53.67,53.32,53.22,53.28,53.39,53.41,53.81,54.32,54.79,55.08,55.32,55.59,55.90,56.21,56.46,56.78,57.24,57.86,58.30,58.54,58.72,58.80,58.63,58.38,57.77,56.93,56.10,55.67,55.13,54.54,53.92,53.28,53.29,53.35,53.30,53.07,53.07,53.00,52.88,52.71,52.44,51.99,51.71,51.65,51.57,51.48,51.22,50.88,50.53,50.08,49.47,48.71,47.90,47.44,47.01,46.53,46.00,45.46,45.03,44.70,44.43,44.20,43.97,43.74,43.51,43.28,43.04,42.81,42.57,42.37,42.30,42.46,42.61,42.74,42.83,42.89,42.57,42.23,41.91,41.58,41.28,40.91,40.55,40.22,39.85,39.59,39.40,39.25,39.16,39.24,39.42,39.65,39.88,40.09,40.32,40.55,40.78,40.99,41.24,41.48,41.70,41.89,42.08,42.25,42.43,42.64,42.81,42.97,43.12,43.28,43.43,43.61,43.76,43.90,44.05,44.21,44.36,44.48,44.57,44.72,44.80,44.81,44.79,44.73,44.72,44.72
51.82,51.06,50.31,49.92,49.78,49.73,49.78,50.10,50.62,50.91,50.71,49.86,49.54,49.43,49.42,49.41,49.36,49.36,49.36,49.35,49.32,49.17,48.49,47.46,46.25,45.02,43.78,42.65,41.62,40.49,39.34,38.27,37.30,36.46,36.01,35.83,35.79,35.76,35.58,35.43,35.41,35.46,35.46,35.49,35.50,35.48,35.40,35.06,34.66,34.23,33.77,33.16,32.52,31.80,31.04,30.30,30.16,30.03,29.93,29.85,29.77,29.94,30.19,30.46,30.69,30.92,31.15,31.41,31.72,31.95,32.22,32.47,32.72,33.03,33.23,33.40,33.55,33.62,33.78,33.88,33.95,34.03,34.11,34.25,34.36,34.44,34.52,34.59,34.67,34.75,34.82,34.82,34.88,35.03,35.27,35.50,35.91,36.56,37.35,38.15,39.00,40.01,41.14,42.36,43.72,45.07,46.41,47.71,48.93,50.02,51.04,51.90,52.55,52.99,53.36,53.64,53.78,53.73,53.80,53.74,53.55,53.22,52.79,52.43,52.22,52.18,52.18,52.16,52.12,52.05,51.91,51.57,51.40,51.38,51.42,51.42,51.79,52.31,52.85,53.25,53.50,53.78,54.08,54.36,54.56,54.80,55.18,55.74,56.07,56.25,56.38,56.42,56.30,56.14,55.71,55.05,54.25,53.86,53.44,52.97,52.44,51.82,51.65,51.51,51.31,51.05,50.99,50.86,50.71,50.54,50.28,50.00,49.88,49.91,49.86,49.83,49.66,49.40,49.08,48.73,48.25,47.62,46.91,46.47,46.08,45.70,45.32,44.90,44.60,44.35,44.10,43.84,43.61,43.38,43.15,42.92,42.68,42.45,42.22,42.05,42.01,42.16,42.32,42.45,42.55,42.63,42.37,42.05,41.73,41.39,41.08,40.74,40.40,40.09,39.70,39.41,39.22,39.12,39.14,39.31,39.50,39.70,39.91,40.17,40.41,40.63,40.83,41.03,41.23,41.45,41.66,41.82,41.97,42.14,42.34,42.53,42.69,42.84,43.00,43.15,43.31,43.46,43.61,43.77,43.92,44.08,44.23,44.35,44.44,44.60,44.69,44.74,44.75,44.70,44.67,44.66
51.00,50.55,50.14,50.00,49.93,49.96,50.19,50.87,52.05,52.65,52.19,50.38,49.87,49.66,49.61,49.61,49.61,49.61,49.61,49.59,49.51,49.35,48.52,47.36,46.20,44.98,43.73,42.51,41.25,39.70,38.50,37.34,36.28,35.44,35.13,34.98,34.92,34.92,34.92,34.93,34.97,35.04,35.05,35.13,35.15,35.10,34.93,34.54,34.10,33.68,33.28,32.82,32.36,31.80,31.12,30.30,30.06,29.94,29.86,29.79,29.71,29.96,30.23,30.46,30.69,30.92,31.16,31.42,31.72,31.95,32.18,32.42,32.66,32.96,33.20,33.34,33.42,33.50,33.65,33.75,33.83,33.90,33.98,34.12,34.23,34.31,34.39,34.47,34.54,34.62,34.69,34.69,34.75,34.79,34.79,34.79,35.13,35.68,36.41,37.26,38.10,38.84,39.63,40.60,41.90,43.25,44.55,45.74,46.82,47.91,48.89,49.70,50.30,50.71,51.05,51.32,51.52,51.52,51.58,51.61,51.55,51.32,50.94,50.67,50.54,50.53,50.53,50.47,50.44,50.39,50.16,49.86,49.65,49.54,49.54,49.54,49.82,50.31,50.91,51.44,51.71,51.99,52.28,52.50,52.66,52.81,53.12,53.62,53.84,54.01,54.09,54.07,53.99,53.84,53.59,53.14,52.39,52.00,51.61,51.19,50.73,50.34,49.96,49.62,49.31,49.00,48.84,48.68,48.53,48.36,48.04,47.99,48.12,48.32,48.33,48.25,48.13,47.92,47.62,47.31,46.95,46.46,45.89,45.51,45.13,44.84,44.61,44.38,44.22,44.02,43.76,43.46,43.23,43.00,42.76,42.53,42.30,42.07,41.84,41.69,41.69,41.84,42.00,42.15,42.30,42.38,42.19,41.92,41.59,41.21,40.89,40.58,40.27,39.96,39.57,39.25,39.06,39.03,39.19,39.41,39.59,39.75,39.91,40.21,40.46,40.66,40.82,40.97,41.12,41.32,41.53,41.69,41.84,42.05,42.25,42.41,42.56,42.71,42.87,43.02,43.18,43.33,43.49,43.64,43.80,43.95,44.11,44.23,44.31,44.47,44.56,44.64,44.69,44.70,44.63,44.60
51.32,51.10,51.26,51.47,51.82,52.39,53.06,53.45,54.52,54.90,54.22,52.33,50.78,50.05,49.80,49.80,49.80,49.80,49.80,49.78,49.70,49.40,48.48,47.37,46.42,45.44,43.97,42.31,40.60,38.95,37.55,36.28,35.19,34.35,33.94,33.58,33.37,33.32,33.32,33.41,33.56,33.76,34.02,34.15,34.19,34.16,34.03,33.70,33.39,33.04,32.65,32.24,31.83,31.35,30.83,30.30,30.01,29.84,29.76,29.74,29.76,30.03,30.29,30.53,30.76,30.99,31.22,31.46,31.72,32.00,32.25,32.48,32.71,32.91,33.09,33.21,33.29,33.37,33.47,33.59,33.70,33.78,33.85,33.95,34.07,34.18,34.26,34.34,34.42,34.49,34.57,34.57,34.63,34.67,34.67,34.67,34.82,35.09,35.57,36.36,37.11,37.86,38.61,39.41,40.36,41.29,42.32,43.44,44.52,45.65,46.62,47.37,47.90,48.75,49.19,49.51,49.80,49.85,49.88,49.86,49.79,49.66,49.38,49.27,49.24,49.19,49.19,49.17,49.16,49.13,49.00,48.75,48.53,48.39,48.39,48.28,48.43,48.77,49.23,49.67,49.93,50.20,50.46,50.59,50.74,50.90,51.12,51.43,51.56,51.71,51.79,51.76,51.63,51.52,51.36,51.05,50.53,50.04,49.55,49.05,48.54,48.05,47.70,47.41,47.14,46.83,46.62,46.41,46.23,46.04,45.58,45.65,46.11,46.69,46.85,46.74,46.56,46.36,46.15,45.84,45.55,45.25,44.95,44.67,44.39,44.19,44.05,43.87,43.66,43.51,43.35,43.14,42.86,42.61,42.38,42.15,41.92,41.69,41.49,41.38,41.43,41.54,41.68,41.83,41.98,42.11,41.93,41.69,41.41,41.08,40.72,40.39,40.06,39.70,39.37,39.10,39.00,39.10,39.25,39.43,39.59,39.75,39.90,40.11,40.33,40.53,40.69,40.84,41.00,41.16,41.35,41.56,41.71,41.89,42.08,42.28,42.43,42.59,42.74,42.90,43.05,43.20,43.36,43.51,43.67,43.82,43.98,44.10,44.18,44.28,44.41,44.51,44.58,44.63,44.61,44.57
51.95,52.18,52.87,53.43,54.28,55.35,56.33,56.52,57.22,57.34,56.57,54.73,52.64,51.60,51.21,51.18,51.22,50.94,50.77,50.68,50.49,49.92,48.93,47.75,46.59,45.38,43.65,41.73,39.83,38.18,36.67,35.32,34.18,33.29,32.73,32.21,31.85,31.73,31.75,31.91,32.16,32.49,32.90,33.06,33.14,33.17,33.14,32.86,32.63,32.35,31.99,31.63,31.24,30.82,30.43,30.14,29.88,29.71,29.65,29.69,29.84,30.10,30.36,30.59,30.82,31.05,31.28,31.52,31.78,32.07,32.31,32.51,32.66,32.79,32.95,33.05,33.14,33.24,33.32,33.43,33.55,33.65,33.73,33.80,33.91,34.03,34.13,34.21,34.29,34.37,34.44,34.44,34.50,34.54,34.54,34.54,34.61,34.73,35.01,35.59,36.24,36.98,37.73,38.45,39.17,39.79,40.53,41.40,42.27,43.41,44.37,45.18,45.95,47.01,47.53,47.93,48.32,48.37,48.40,48.34,48.23,48.15,47.92,47.94,47.99,47.94,47.94,47.94,47.94,47.93,47.85,47.65,47.43,47.27,47.24,47.08,47.07,47.27,47.65,48.04,48.23,48.46,48.69,48.79,48.95,49.09,49.23,49.38,49.46,49.60,49.67,49.62,49.40,49.31,49.18,48.91,48.40,47.86,47.32,46.78,46.25,45.78,45.47,45.20,44.94,44.65,44.40,44.16,43.95,43.73,43.11,43.30,44.03,44.96,45.36,45.25,45.04,44.87,44.81,44.62,44.39,44.22,44.09,43.86,43.65,43.53,43.46,43.32,43.12,42.98,42.87,42.73,42.49,42.24,42.00,41.77,41.53,41.30,41.15,41.09,41.15,41.25,41.37,41.51,41.67,41.82,41.67,41.45,41.20,40.92,40.56,40.21,39.86,39.48,39.15,38.95,38.95,39.10,39.25,39.41,39.56,39.72,39.87,40.00,40.19,40.37,40.53,40.71,40.87,41.02,41.19,41.40,41.58,41.76,41.94,42.12,42.27,42.45,42.61,42.77,42.92,43.08,43.23,43.39,43.54,43.69,43.85,43.97,44.05,44.13,44.27,44.38,44.46,44.56,44.57,44.53
52.90,53.85,55.01,55.91,57.35,58.86,60.02,60.10,60.16,59.99,59.25,57.60,55.52,54.40,53.91,53.81,53.96,53.10,52.57,52.34,51.90,50.94,49.89,48.53,46.72,44.77,42.72,40.76,38.96,37.40,35.86,34.46,33.25,32.26,31.51,30.86,30.38,30.14,30.21,30.42,30.77,31.22,31.68,31.85,32.00,32.14,32.25,32.02,31.84,31.61,31.30,30.98,30.60,30.21,29.92,29.82,29.66,29.56,29.54,29.64,29.94,30.19,30.42,30.65,30.88,31.12,31.35,31.61,31.91,32.14,32.38,32.50,32.53,32.61,32.75,32.86,32.96,33.11,33.19,33.27,33.38,33.52,33.60,33.67,33.75,33.85,34.00,34.08,34.16,34.24,34.31,34.31,34.37,34.41,34.41,34.41,34.48,34.60,34.77,34.95,35.50,36.21,36.98,37.73,38.36,38.80,39.21,39.63,40.06,41.17,42.13,43.15,44.48,45.48,46.07,46.60,47.10,47.10,47.17,47.07,46.89,46.81,46.58,46.67,46.80,46.79,46.79,46.79,46.79,46.77,46.70,46.54,46.34,46.16,46.08,45.93,45.73,45.80,46.18,46.57,46.63,46.77,46.98,47.13,47.29,47.39,47.44,47.46,47.54,47.68,47.75,47.67,47.30,47.20,47.07,46.72,45.97,45.43,44.89,44.35,43.84,43.52,43.28,43.00,42.72,42.48,42.18,41.92,41.69,41.41,40.65,40.93,41.88,43.11,43.86,43.78,43.57,43.46,43.60,43.66,43.50,43.37,43.33,43.09,42.93,42.85,42.83,42.75,42.59,42.44,42.32,42.23,42.14,41.88,41.61,41.38,41.15,40.92,40.83,40.82,40.83,40.98,41.08,41.19,41.35,41.50,41.39,41.19,40.96,40.72,40.41,40.05,39.67,39.28,38.90,38.81,38.88,39.04,39.19,39.35,39.50,39.65,39.81,39.89,40.03,40.18,40.35,40.57,40.74,40.90,41.05,41.21,41.43,41.66,41.84,41.93,42.08,42.29,42.49,42.64,42.79,42.95,43.10,43.26,43.41,43.57,43.72,43.84,43.92,44.00,44.14,44.25,44.35,44.50,44.51,44.50
54.14,55.40,56.81,58.10,60.09,61.86,62.95,62.98,62.94,62.79,62.22,60.88,58.57,57.56,57.33,57.38,56.81,55.76,54.88,54.08,53.03,51.50,49.99,48.24,46.06,43.82,41.74,39.86,38.18,36.64,35.09,33.61,32.28,31.24,30.61,30.18,29.93,29.83,29.86,29.98,30.18,30.40,30.59,30.79,30.96,31.12,31.25,31.11,31.03,30.87,30.60,30.34,30.13,29.90,29.70,29.62,29.51,29.49,29.57,29.76,30.07,30.31,30.52,30.72,30.95,31.18,31.44,31.71,31.97,32.11,32.25,32.32,32.34,32.42,32.56,32.70,32.82,32.92,33.05,33.14,33.25,33.39,33.47,33.55,33.62,33.71,33.82,33.94,34.03,34.11,34.18,34.18,34.24,34.28,34.28,34.28,34.39,34.53,34.67,34.78,35.10,35.61,36.27,37.02,37.54,37.95,38.37,38.81,39.28,40.06,40.86,41.86,43.17,44.00,44.79,45.45,45.88,45.88,45.91,45.76,45.54,45.47,45.28,45.39,45.54,45.58,45.58,45.58,45.58,45.58,45.54,45.44,45.25,45.07,44.99,44.79,44.57,44.52,44.71,45.10,45.07,45.14,45.32,45.47,45.54,45.61,45.65,45.66,45.69,45.82,45.85,45.69,45.31,45.12,44.88,44.42,43.66,43.07,42.52,42.00,41.55,41.33,41.18,41.05,40.92,40.77,40.60,40.45,40.33,40.20,39.79,40.11,40.95,41.96,42.41,42.35,42.33,42.41,42.57,42.73,42.61,42.52,42.57,42.38,42.26,42.21,42.20,42.17,42.02,41.90,41.78,41.66,41.59,41.43,41.25,41.06,40.83,40.59,40.51,40.52,40.57,40.68,40.80,40.93,41.09,41.24,41.17,40.97,40.70,40.47,40.21,39.83,39.40,38.99,38.78,38.78,38.88,39.03,39.19,39.30,39.44,39.58,39.69,39.81,39.92,40.05,40.21,40.39,40.59,40.77,40.93,41.13,41.32,41.48,41.61,41.74,41.94,42.13,42.32,42.51,42.67,42.82,42.98,43.13,43.28,43.44,43.59,43.72,43.79,43.87,44.01,44.12,44.22,44.38,44.43,44.44
55.32,56.74,58.27,60.13,62.79,64.83,65.80,65.82,65.73,65.61,65.29,64.55,62.30,61.02,60.54,60.46,59.21,57.87,56.52,55.11,53.50,51.61,49.75,47.70,45.32,42.93,40.84,39.03,37.44,35.89,34.33,32.77,31.39,30.41,29.95,29.73,29.65,29.66,29.67,29.73,29.80,29.85,29.85,30.03,30.18,30.31,30.41,30.35,30.33,30.23,30.05,29.85,29.76,29.64,29.51,29.43,29.42,29.50,29.66,29.88,30.18,30.42,30.62,30.80,31.04,31.27,31.53,31.77,31.94,32.01,32.08,32.12,32.15,32.24,32.38,32.52,32.66,32.73,32.89,33.00,33.11,33.24,33.34,33.42,33.50,33.57,33.65,33.80,33.91,33.98,34.05,34.05,34.11,34.15,34.16,34.18,34.31,34.46,34.58,34.68,34.81,35.13,35.64,36.29,36.79,37.22,37.68,38.20,38.75,39.28,39.91,40.76,41.89,42.64,43.54,44.26,44.65,44.67,44.65,44.47,44.22,44.12,43.97,44.10,44.29,44.39,44.39,44.39,44.39,44.39,44.39,44.32,44.15,43.98,43.88,43.65,43.42,43.27,43.28,43.61,43.51,43.50,43.63,43.76,43.77,43.81,43.85,43.87,43.87,43.96,43.94,43.73,43.35,43.06,42.71,42.23,41.59,41.06,40.58,40.17,39.83,39.69,39.61,39.57,39.56,39.50,39.44,39.38,39.33,39.31,39.19,39.54,40.18,40.86,41.10,41.08,41.19,41.39,41.57,41.78,41.72,41.70,41.81,41.67,41.60,41.57,41.58,41.60,41.46,41.35,41.24,41.11,41.03,40.94,40.83,40.67,40.46,40.28,40.21,40.23,40.29,40.37,40.50,40.65,40.81,40.96,40.92,40.73,40.47,40.24,39.96,39.55,39.12,38.75,38.71,38.76,38.87,39.01,39.16,39.25,39.37,39.50,39.58,39.72,39.82,39.94,40.08,40.25,40.47,40.66,40.83,41.02,41.18,41.28,41.40,41.57,41.79,41.97,42.17,42.38,42.54,42.69,42.85,43.00,43.16,43.31,43.45,43.57,43.66,43.74,43.88,44.00,44.09,44.25,44.33,44.37
56.38,57.71,59.18,61.93,65.48,67.84,68.62,68.69,68.56,68.46,68.52,68.85,67.25,64.96,63.28,62.50,60.75,58.87,56.87,54.81,52.81,51.00,49.04,46.89,44.55,42.16,40.07,38.29,36.73,35.19,33.58,31.97,30.64,29.90,29.70,29.58,29.53,29.54,29.60,29.62,29.67,29.73,29.73,29.76,29.83,29.89,29.91,29.90,29.84,29.79,29.75,29.65,29.57,29.45,29.32,29.24,29.43,29.64,29.83,30.01,30.25,30.48,30.71,30.93,31.16,31.39,31.59,31.71,31.75,31.82,31.85,31.89,31.97,32.11,32.21,32.33,32.46,32.54,32.70,32.84,32.96,33.06,33.20,33.29,33.37,33.45,33.52,33.67,33.78,33.85,33.93,33.93,33.99,34.03,34.04,34.11,34.25,34.37,34.47,34.61,34.70,34.87,35.13,35.53,36.13,36.66,37.22,37.82,38.43,38.91,39.36,39.90,40.62,41.52,42.34,42.99,43.38,43.45,43.40,43.19,42.93,42.78,42.63,42.79,43.05,43.24,43.24,43.24,43.24,43.24,43.24,43.17,43.04,42.88,42.73,42.50,42.27,42.05,41.91,42.10,41.93,41.85,41.89,41.97,41.98,41.98,42.02,42.08,42.08,42.09,42.02,41.82,41.43,41.00,40.60,40.24,39.94,39.65,39.43,39.26,39.13,39.05,38.97,38.93,38.93,38.92,38.91,38.90,38.87,38.81,38.78,39.15,39.52,39.78,40.01,40.08,40.20,40.39,40.61,40.77,40.84,40.93,41.05,40.96,40.94,40.93,40.95,41.02,40.94,40.81,40.69,40.60,40.52,40.39,40.28,40.17,40.01,39.97,39.95,39.96,39.97,40.05,40.18,40.34,40.49,40.64,40.60,40.47,40.28,40.05,39.62,39.17,38.81,38.63,38.69,38.76,38.84,38.94,39.10,39.18,39.31,39.44,39.52,39.60,39.73,39.85,39.96,40.18,40.41,40.60,40.74,40.84,40.99,41.09,41.22,41.44,41.60,41.81,42.04,42.26,42.41,42.57,42.72,42.87,43.03,43.18,43.29,43.40,43.54,43.61,43.76,43.87,43.97,44.12,44.20,44.27
57.30,58.41,59.75,64.01,67.64,69.69,70.23,70.35,70.25,70.07,69.97,70.12,68.96,66.55,64.29,62.70,60.69,58.61,56.44,54.22,52.06,50.16,48.11,45.92,43.64,41.28,39.33,37.59,35.97,34.39,32.77,31.27,30.16,29.75,29.59,29.49,29.43,29.40,29.44,29.48,29.54,29.60,29.60,29.60,29.62,29.65,29.65,29.65,29.59,29.55,29.53,29.46,29.34,29.28,29.26,29.31,29.54,29.77,29.97,30.13,30.32,30.55,30.78,31.00,31.19,31.35,31.45,31.51,31.55,31.59,31.63,31.69,31.78,31.93,32.02,32.14,32.28,32.40,32.52,32.66,32.78,32.87,33.02,33.15,33.24,33.32,33.40,33.51,33.62,33.73,33.80,33.80,33.86,33.90,33.92,34.04,34.15,34.27,34.38,34.50,34.62,34.73,34.89,35.17,35.75,36.33,36.91,37.48,38.06,38.50,38.92,39.39,39.93,40.55,41.19,41.76,42.15,42.23,42.14,41.89,41.59,41.44,41.29,41.48,41.80,42.04,42.04,42.07,42.09,42.09,42.09,42.02,41.89,41.74,41.58,41.35,41.12,40.88,40.69,40.69,40.52,40.48,40.55,40.59,40.59,40.59,40.61,40.64,40.64,40.64,40.56,40.38,40.11,39.84,39.57,39.32,39.09,38.85,38.68,38.56,38.48,38.41,38.33,38.30,38.31,38.34,38.35,38.35,38.33,38.30,38.38,38.71,39.01,39.25,39.48,39.57,39.67,39.80,39.95,40.07,40.15,40.25,40.34,40.35,40.35,40.35,40.36,40.39,40.36,40.29,40.22,40.14,40.10,40.01,39.93,39.88,39.81,39.76,39.72,39.70,39.70,39.78,39.88,40.02,40.16,40.24,40.18,40.06,39.89,39.65,39.20,38.84,38.63,38.61,38.73,38.81,38.89,38.97,39.09,39.13,39.22,39.34,39.45,39.53,39.63,39.75,39.88,40.07,40.26,40.43,40.57,40.65,40.76,40.88,41.03,41.26,41.46,41.65,41.86,42.09,42.28,42.44,42.59,42.75,42.90,43.06,43.15,43.26,43.41,43.49,43.63,43.74,43.84,43.99,44.07,44.15
58.01,58.89,60.07,65.36,69.06,70.88,71.22,71.36,71.27,70.97,70.55,70.13,69.24,66.99,64.45,62.21,60.04,57.87,55.67,53.44,51.21,49.18,47.07,44.90,42.67,40.40,38.57,36.88,35.22,33.66,32.04,30.69,29.84,29.68,29.53,29.42,29.34,29.27,29.27,29.34,29.41,29.46,29.46,29.46,29.46,29.46,29.47,29.46,29.40,29.35,29.33,29.25,29.14,29.15,29.26,29.42,29.65,29.87,30.07,30.24,30.39,30.60,30.81,30.99,31.14,31.22,31.25,31.28,31.34,31.35,31.41,31.49,31.59,31.74,31.84,31.96,32.10,32.26,32.33,32.47,32.59,32.69,32.83,32.99,33.10,33.19,33.27,33.34,33.46,33.59,33.67,33.67,33.73,33.77,33.80,33.95,34.05,34.17,34.30,34.39,34.54,34.64,34.75,34.94,35.44,36.04,36.61,37.15,37.68,38.09,38.54,39.00,39.45,39.74,40.18,40.64,41.00,41.06,40.93,40.66,40.36,40.21,40.07,40.27,40.61,40.87,40.87,40.92,40.96,40.96,40.96,40.88,40.76,40.62,40.47,40.24,40.01,39.78,39.57,39.42,39.28,39.32,39.44,39.46,39.47,39.47,39.47,39.47,39.47,39.46,39.38,39.22,39.07,38.97,38.84,38.67,38.45,38.21,38.04,37.92,37.84,37.77,37.69,37.66,37.69,37.75,37.77,37.77,37.77,37.80,37.98,38.25,38.56,38.85,39.08,39.18,39.26,39.34,39.42,39.49,39.57,39.65,39.74,39.82,39.83,39.83,39.84,39.84,39.84,39.85,39.83,39.76,39.76,39.70,39.67,39.66,39.66,39.59,39.51,39.45,39.44,39.51,39.58,39.70,39.82,39.80,39.72,39.59,39.41,39.19,38.80,38.60,38.56,38.64,38.80,38.89,38.97,39.04,39.11,39.11,39.15,39.25,39.39,39.46,39.54,39.65,39.81,39.95,40.09,40.24,40.36,40.45,40.53,40.67,40.86,41.09,41.31,41.49,41.68,41.91,42.13,42.31,42.46,42.62,42.77,42.93,43.03,43.14,43.28,43.36,43.50,43.61,43.71,43.86,43.94,44.02
58.10,58.85,59.83,63.94,68.38,70.82,71.14,71.24,71.01,70.56,69.78,68.59,67.56,65.62,63.32,60.99,58.83,56.61,54.42,52.24,50.06,47.98,45.89,43.78,41.67,39.59,37.77,36.10,34.57,33.25,31.66,30.46,29.77,29.62,29.46,29.32,29.21,29.14,29.14,29.21,29.25,29.27,29.27,29.27,29.27,29.29,29.34,29.28,29.20,29.14,29.07,28.99,29.07,29.18,29.33,29.48,29.71,29.90,30.09,30.30,30.45,30.62,30.73,30.79,30.88,30.96,31.03,31.07,31.09,31.15,31.18,31.25,31.39,31.55,31.69,31.80,31.91,32.07,32.14,32.28,32.42,32.56,32.65,32.79,32.94,33.06,33.14,33.22,33.30,33.41,33.54,33.54,33.60,33.64,33.67,33.83,33.97,34.08,34.18,34.32,34.48,34.58,34.69,34.86,35.16,35.72,36.30,36.82,37.30,37.75,38.25,38.73,39.12,39.37,39.61,39.84,40.03,40.05,39.91,39.69,39.48,39.38,39.29,39.40,39.63,39.85,39.85,39.86,39.87,39.87,39.87,39.80,39.71,39.61,39.51,39.28,39.05,38.85,38.68,38.52,38.47,38.58,38.76,38.82,38.88,38.90,38.90,38.90,38.90,38.85,38.74,38.58,38.43,38.29,38.14,37.98,37.81,37.58,37.40,37.28,37.20,37.13,37.05,37.05,37.10,37.12,37.18,37.20,37.22,37.30,37.58,37.83,38.11,38.40,38.63,38.78,38.88,38.96,39.03,39.11,39.19,39.29,39.42,39.50,39.51,39.54,39.59,39.59,39.59,39.63,39.64,39.57,39.57,39.55,39.51,39.47,39.47,39.39,39.32,39.25,39.19,39.20,39.27,39.38,39.49,39.37,39.23,39.05,38.85,38.68,38.58,38.60,38.69,38.77,38.92,39.02,39.09,39.16,39.18,39.18,39.19,39.23,39.32,39.40,39.48,39.59,39.73,39.83,39.92,40.02,40.12,40.26,40.34,40.51,40.73,40.96,41.13,41.33,41.56,41.78,41.95,42.16,42.34,42.49,42.65,42.80,42.90,43.01,43.15,43.23,43.37,43.49,43.58,43.74,43.82,43.89
58.37,58.98,60.08,65.55,69.14,70.83,71.07,71.11,70.62,69.75,68.54,67.05,65.77,64.09,62.05,59.77,57.58,55.34,53.15,50.99,48.86,46.74,44.65,42.57,40.53,38.59,36.78,35.24,34.00,32.93,31.36,30.29,29.75,29.60,29.41,29.24,29.11,29.02,29.02,29.08,29.12,29.12,29.12,29.12,29.12,29.13,29.17,29.09,29.01,28.95,28.92,28.94,29.08,29.24,29.39,29.55,29.71,29.87,30.04,30.23,30.35,30.48,30.55,30.59,30.67,30.75,30.80,30.84,30.88,30.92,30.96,31.05,31.20,31.36,31.51,31.62,31.72,31.87,31.98,32.10,32.24,32.39,32.50,32.62,32.76,32.89,32.97,33.08,33.17,33.26,33.38,33.41,33.48,33.53,33.59,33.74,33.87,33.98,34.10,34.26,34.38,34.49,34.62,34.78,34.98,35.44,35.96,36.46,36.96,37.43,37.94,38.41,38.76,38.96,39.10,39.23,39.35,39.29,39.11,38.90,38.71,38.64,38.59,38.66,38.82,38.99,38.96,38.98,38.99,38.98,38.91,38.84,38.74,38.64,38.56,38.36,38.13,37.92,37.75,37.66,37.74,37.91,38.11,38.22,38.26,38.28,38.28,38.28,38.28,38.19,38.06,37.90,37.75,37.59,37.44,37.29,37.17,36.94,36.76,36.64,36.57,36.49,36.41,36.42,36.49,36.52,36.60,36.66,36.75,36.87,37.15,37.42,37.69,37.95,38.19,38.38,38.50,38.57,38.65,38.73,38.80,38.93,39.11,39.22,39.23,39.26,39.29,39.29,39.32,39.41,39.46,39.41,39.38,39.37,39.33,39.27,39.27,39.20,39.13,39.05,38.97,38.91,38.95,39.06,39.16,38.97,38.82,38.64,38.48,38.46,38.52,38.67,38.83,38.94,39.06,39.15,39.22,39.28,39.28,39.28,39.28,39.30,39.34,39.39,39.46,39.55,39.67,39.78,39.84,39.90,39.98,40.07,40.18,40.35,40.56,40.79,40.97,41.20,41.41,41.61,41.80,42.02,42.21,42.36,42.52,42.67,42.77,42.88,43.03,43.10,43.24,43.36,43.45,43.61,43.72,43.83
58.86,59.52,61.14,68.55,70.51,70.87,70.98,70.95,70.12,68.72,67.07,65.51,63.96,62.46,60.67,58.50,56.27,54.04,51.85,49.71,47.62,45.46,43.35,41.31,39.34,37.49,35.73,34.39,33.48,32.62,31.10,30.16,29.75,29.59,29.36,29.19,29.03,28.89,28.89,28.95,28.98,28.98,28.98,28.98,28.98,28.98,28.98,28.90,28.83,28.80,28.83,28.98,29.13,29.29,29.44,29.60,29.68,29.81,29.96,30.10,30.17,30.24,30.32,30.39,30.47,30.55,30.58,30.61,30.68,30.68,30.75,30.86,31.02,31.17,31.32,31.43,31.53,31.68,31.84,31.94,32.05,32.20,32.36,32.45,32.56,32.70,32.78,32.93,33.04,33.12,33.19,33.27,33.35,33.43,33.52,33.67,33.76,33.89,34.04,34.19,34.27,34.40,34.56,34.71,34.87,35.20,35.62,36.10,36.64,37.11,37.63,38.08,38.37,38.52,38.61,38.72,38.82,38.65,38.42,38.19,38.01,37.93,37.93,37.99,38.09,38.22,38.14,38.19,38.22,38.18,38.02,37.94,37.82,37.69,37.61,37.45,37.24,37.01,36.82,36.83,37.03,37.27,37.48,37.64,37.64,37.64,37.64,37.64,37.63,37.51,37.35,37.20,37.05,36.90,36.74,36.61,36.52,36.30,36.12,36.01,35.93,35.87,35.79,35.81,35.89,35.97,36.05,36.17,36.32,36.49,36.72,37.01,37.28,37.51,37.74,37.97,38.11,38.19,38.27,38.34,38.42,38.57,38.79,38.95,38.97,38.97,38.97,38.98,39.06,39.18,39.28,39.27,39.20,39.18,39.14,39.08,39.08,39.01,38.93,38.86,38.78,38.62,38.63,38.73,38.82,38.60,38.45,38.31,38.25,38.41,38.57,38.77,38.97,39.12,39.20,39.27,39.35,39.41,39.41,39.41,39.41,39.41,39.41,39.41,39.46,39.53,39.62,39.77,39.79,39.84,39.90,39.90,40.04,40.20,40.38,40.61,40.83,41.06,41.26,41.43,41.66,41.89,42.08,42.24,42.39,42.54,42.64,42.75,42.90,42.98,43.12,43.23,43.33,43.49,43.64,43.80
60.37,63.14,67.39,69.97,70.68,70.80,70.72,70.40,69.05,67.44,65.74,64.04,62.44,60.78,58.88,56.72,54.59,52.51,50.38,48.22,46.08,43.97,41.88,39.97,38.32,36.52,35.09,33.92,32.96,32.05,30.79,30.06,29.73,29.53,29.35,29.19,29.01,28.82,28.77,28.78,28.79,28.79,28.79,28.79,28.79,28.79,28.78,28.71,28.71,28.76,28.82,28.92,29.07,29.22,29.38,29.53,29.66,29.77,29.87,29.96,29.99,30.01,30.06,30.14,30.22,30.29,30.36,30.40,30.42,30.48,30.59,30.73,30.88,30.98,31.13,31.27,31.39,31.49,31.65,31.78,31.90,32.01,32.16,32.25,32.37,32.52,32.65,32.76,32.88,32.99,33.06,33.14,33.22,33.32,33.45,33.55,33.68,33.82,33.98,34.13,34.21,34.34,34.49,34.65,34.80,35.01,35.37,35.85,36.39,36.86,37.37,37.77,37.92,38.02,38.10,38.21,38.28,37.97,37.68,37.46,37.31,37.23,37.23,37.28,37.37,37.45,37.37,37.38,37.36,37.28,37.13,37.05,36.92,36.79,36.71,36.56,36.34,36.11,35.95,36.11,36.33,36.56,36.79,37.00,37.05,37.07,37.07,37.06,36.95,36.80,36.65,36.51,36.41,36.26,36.10,35.96,35.82,35.64,35.48,35.39,35.37,35.41,35.39,35.45,35.57,35.65,35.73,35.82,35.94,36.10,36.33,36.58,36.83,37.06,37.29,37.52,37.69,37.81,37.88,37.96,38.08,38.25,38.47,38.63,38.65,38.65,38.66,38.72,38.85,38.96,39.04,39.08,39.01,38.99,38.95,38.89,38.89,38.82,38.74,38.66,38.59,38.43,38.37,38.37,38.38,38.21,38.23,38.29,38.39,38.60,38.76,38.89,39.05,39.25,39.32,39.40,39.48,39.54,39.54,39.54,39.54,39.54,39.54,39.54,39.52,39.53,39.61,39.71,39.73,39.77,39.84,39.90,40.00,40.13,40.30,40.47,40.65,40.87,41.09,41.29,41.47,41.70,41.92,42.11,42.26,42.42,42.52,42.63,42.77,42.85,42.99,43.13,43.27,43.42,43.58,43.73
64.25,66.84,70.42,70.60,70.59,70.44,70.08,69.25,67.60,65.89,64.18,62.43,60.73,58.89,56.90,54.78,52.78,50.81,48.81,46.75,44.58,42.50,40.53,38.80,37.31,35.67,34.49,33.48,32.51,31.58,30.52,29.92,29.67,29.46,29.31,29.13,28.94,28.75,28.65,28.63,28.63,28.63,28.63,28.63,28.63,28.64,28.66,28.61,28.66,28.74,28.82,28.89,29.02,29.16,29.31,29.47,29.62,29.72,29.79,29.84,29.86,29.87,29.91,29.98,30.03,30.08,30.13,30.17,30.20,30.28,30.42,30.57,30.72,30.82,30.95,31.09,31.23,31.33,31.46,31.61,31.73,31.82,31.97,32.08,32.20,32.34,32.49,32.57,32.70,32.84,32.94,33.01,33.11,33.23,33.35,33.45,33.60,33.76,33.91,34.07,34.17,34.29,34.43,34.58,34.74,34.89,35.20,35.65,36.17,36.66,37.06,37.32,37.40,37.50,37.59,37.68,37.68,37.25,36.92,36.73,36.64,36.56,36.56,36.60,36.65,36.68,36.58,36.54,36.48,36.39,36.24,36.15,36.03,35.90,35.82,35.72,35.56,35.39,35.29,35.44,35.66,35.89,36.13,36.36,36.46,36.49,36.48,36.44,36.29,36.14,35.98,35.84,35.73,35.61,35.50,35.40,35.33,35.22,35.12,35.07,35.07,35.13,35.18,35.29,35.42,35.50,35.58,35.65,35.75,35.88,36.03,36.21,36.40,36.61,36.84,37.08,37.28,37.42,37.50,37.60,37.74,37.93,38.16,38.34,38.36,38.36,38.39,38.46,38.61,38.72,38.79,38.86,38.81,38.80,38.76,38.70,38.70,38.63,38.55,38.47,38.39,38.27,38.16,38.11,38.13,38.11,38.23,38.39,38.56,38.76,38.92,39.04,39.18,39.37,39.45,39.53,39.61,39.67,39.67,39.67,39.67,39.67,39.67,39.67,39.61,39.58,39.61,39.69,39.70,39.74,39.82,39.90,40.00,40.14,40.29,40.45,40.60,40.79,41.00,41.20,41.35,41.55,41.76,41.95,42.13,42.29,42.39,42.50,42.65,42.75,42.90,43.05,43.20,43.36,43.51,43.67
70.22,70.61,70.59,70.52,70.26,69.85,69.11,67.59,65.83,64.11,62.41,60.70,58.85,56.83,54.75,52.70,50.84,48.98,47.16,45.28,43.11,41.03,39.30,37.78,36.31,34.91,33.95,33.05,32.12,31.20,30.27,29.76,29.55,29.40,29.24,29.03,28.84,28.68,28.53,28.50,28.50,28.50,28.50,28.50,28.50,28.53,28.60,28.60,28.66,28.74,28.82,28.89,28.97,29.10,29.25,29.40,29.56,29.66,29.70,29.71,29.79,29.80,29.84,29.90,29.90,29.91,29.91,29.94,30.01,30.09,30.23,30.38,30.54,30.69,30.77,30.90,31.05,31.21,31.28,31.42,31.54,31.63,31.78,31.93,32.05,32.14,32.30,32.38,32.51,32.66,32.81,32.89,33.02,33.14,33.23,33.38,33.54,33.69,33.85,34.00,34.16,34.26,34.37,34.52,34.68,34.83,35.11,35.51,35.98,36.51,36.71,36.75,36.83,36.98,37.08,37.12,37.03,36.49,36.15,36.02,36.00,35.92,35.92,35.92,35.92,35.91,35.76,35.67,35.59,35.49,35.34,35.26,35.13,35.00,34.93,34.93,34.86,34.82,34.82,34.82,35.02,35.26,35.49,35.72,35.87,35.92,35.89,35.81,35.65,35.50,35.34,35.19,35.03,34.95,34.92,34.94,35.01,35.01,35.00,35.00,35.00,35.00,35.14,35.29,35.42,35.50,35.58,35.65,35.73,35.80,35.81,35.87,35.99,36.16,36.40,36.63,36.86,37.04,37.12,37.27,37.43,37.61,37.85,38.08,38.11,38.11,38.13,38.21,38.36,38.46,38.54,38.61,38.61,38.61,38.57,38.51,38.51,38.44,38.36,38.28,38.20,38.13,37.99,37.94,38.04,38.26,38.43,38.58,38.73,38.89,39.05,39.20,39.35,39.50,39.58,39.66,39.73,39.80,39.80,39.80,39.80,39.80,39.80,39.80,39.74,39.66,39.61,39.69,39.70,39.74,39.82,39.90,40.05,40.20,40.36,40.51,40.66,40.82,40.98,41.13,41.29,41.44,41.60,41.78,42.01,42.16,42.26,42.37,42.52,42.68,42.83,42.99,43.14,43.29,43.45,43.60
69.47,69.25,68.79,68.57,68.16,67.59,66.76,65.36,63.74,62.04,60.28,58.48,56.67,54.77,52.72,50.60,48.84,47.08,45.37,43.60,41.58,39.77,38.27,36.91,35.56,34.46,33.52,32.63,31.74,30.81,30.10,29.67,29.43,29.27,29.12,28.91,28.71,28.55,28.40,28.38,28.38,28.38,28.38,28.42,28.47,28.51,28.54,28.59,28.66,28.74,28.82,28.89,28.97,29.09,29.23,29.34,29.50,29.59,29.64,29.65,29.73,29.74,29.78,29.84,29.84,29.84,29.84,29.87,29.94,29.97,30.06,30.19,30.34,30.50,30.63,30.74,30.86,31.02,31.09,31.23,31.37,31.49,31.60,31.74,31.88,32.01,32.17,32.30,32.44,32.58,32.68,32.81,32.88,32.97,33.10,33.26,33.41,33.57,33.72,33.88,34.03,34.17,34.30,34.46,34.61,34.77,35.02,35.39,35.85,36.12,36.21,36.23,36.31,36.42,36.50,36.50,36.33,35.84,35.47,35.32,35.31,35.28,35.28,35.28,35.28,35.27,35.16,35.12,35.07,34.99,34.93,34.86,34.79,34.74,34.71,34.66,34.63,34.61,34.61,34.61,34.69,34.78,34.88,35.02,35.27,35.31,35.23,35.11,35.00,34.97,34.94,34.89,34.88,34.85,34.87,34.93,35.00,35.00,35.00,35.00,35.01,35.06,35.15,35.26,35.37,35.50,35.58,35.65,35.73,35.80,35.85,35.89,35.95,36.07,36.20,36.30,36.44,36.61,36.74,36.94,37.11,37.29,37.53,37.76,37.79,37.82,37.89,38.01,38.12,38.24,38.34,38.41,38.41,38.41,38.38,38.31,38.31,38.24,38.20,38.14,38.01,37.94,37.91,37.98,38.15,38.33,38.53,38.71,38.86,39.02,39.17,39.36,39.54,39.69,39.77,39.85,39.90,39.94,40.04,40.09,40.08,40.02,39.92,39.87,39.81,39.73,39.67,39.75,39.76,39.78,39.82,39.90,40.05,40.20,40.36,40.51,40.67,40.82,40.98,41.13,41.28,41.44,41.59,41.74,41.88,42.03,42.17,42.30,42.46,42.61,42.77,42.92,43.08,43.23,43.39,43.54
68.41,67.78,67.06,66.55,66.05,65.35,64.38,63.09,61.45,59.81,58.10,56.25,54.49,52.73,50.85,48.87,47.21,45.50,43.81,42.12,40.35,38.81,37.47,36.19,34.92,34.01,33.09,32.20,31.34,30.43,29.85,29.51,29.29,29.12,28.96,28.77,28.58,28.43,28.30,28.26,28.26,28.28,28.30,28.37,28.44,28.48,28.51,28.58,28.66,28.74,28.81,28.87,28.94,29.07,29.20,29.30,29.42,29.50,29.56,29.58,29.64,29.67,29.72,29.77,29.77,29.77,29.77,29.80,29.88,29.90,29.94,30.04,30.17,30.31,30.46,30.58,30.70,30.85,30.95,31.08,31.24,31.39,31.48,31.63,31.77,31.91,32.07,32.22,32.38,32.50,32.58,32.72,32.75,32.81,32.95,33.11,33.26,33.41,33.57,33.72,33.88,34.03,34.19,34.34,34.50,34.65,34.88,35.18,35.55,35.64,35.68,35.71,35.77,35.83,35.87,35.83,35.65,35.27,34.93,34.79,34.77,34.77,34.79,34.80,34.80,34.79,34.71,34.70,34.66,34.60,34.60,34.54,34.51,34.50,34.49,34.44,34.42,34.42,34.42,34.42,34.42,34.42,34.44,34.52,34.77,34.82,34.76,34.67,34.63,34.69,34.73,34.74,34.80,34.82,34.86,34.93,35.00,35.00,35.00,35.00,35.01,35.09,35.17,35.26,35.36,35.50,35.58,35.67,35.76,35.83,35.89,35.92,35.95,36.02,36.09,36.12,36.20,36.32,36.46,36.65,36.80,36.98,37.21,37.44,37.49,37.54,37.64,37.79,37.87,38.00,38.13,38.20,38.22,38.22,38.19,38.14,38.12,38.05,38.02,37.98,37.85,37.81,37.87,38.03,38.25,38.40,38.62,38.81,38.97,39.15,39.32,39.52,39.71,39.86,39.96,40.01,40.02,40.03,40.19,40.29,40.29,40.20,40.05,39.95,39.87,39.80,39.76,39.82,39.83,39.83,39.85,39.92,40.05,40.20,40.35,40.49,40.64,40.80,40.95,41.10,41.26,41.40,41.54,41.68,41.78,41.93,42.09,42.24,42.39,42.55,42.70,42.86,43.01,43.17,43.32,43.46
67.21,66.40,65.55,64.55,64.02,63.22,62.02,60.78,58.88,57.34,55.86,54.01,52.30,50.74,49.22,47.67,46.11,44.37,42.60,40.94,39.57,38.29,36.99,35.68,34.41,33.55,32.64,31.75,30.90,30.04,29.47,29.24,29.15,28.93,28.77,28.61,28.45,28.31,28.22,28.15,28.16,28.23,28.30,28.37,28.41,28.44,28.51,28.58,28.66,28.74,28.80,28.81,28.88,29.00,29.16,29.30,29.32,29.38,29.45,29.51,29.52,29.58,29.65,29.71,29.71,29.71,29.71,29.74,29.82,29.88,29.91,29.95,30.04,30.12,30.27,30.42,30.57,30.72,30.87,31.02,31.18,31.33,31.48,31.63,31.75,31.85,32.00,32.16,32.31,32.44,32.52,32.60,32.62,32.66,32.76,32.91,33.07,33.22,33.38,33.53,33.69,33.84,34.00,34.15,34.30,34.46,34.66,34.87,34.99,35.07,35.14,35.19,35.19,35.20,35.16,35.09,34.98,34.80,34.62,34.50,34.45,34.45,34.52,34.54,34.54,34.53,34.46,34.44,34.40,34.34,34.34,34.33,34.29,34.24,34.24,34.23,34.23,34.23,34.23,34.23,34.23,34.23,34.25,34.33,34.43,34.51,34.56,34.62,34.68,34.75,34.79,34.79,34.80,34.86,34.89,34.93,35.00,35.00,35.00,35.00,35.01,35.09,35.17,35.28,35.41,35.50,35.58,35.70,35.82,35.89,35.90,35.96,35.99,36.02,36.09,36.16,36.20,36.24,36.32,36.42,36.50,36.66,36.89,37.12,37.21,37.29,37.38,37.54,37.62,37.75,37.87,37.95,38.02,38.03,38.03,38.01,37.94,37.86,37.83,37.80,37.72,37.78,37.91,38.09,38.31,38.47,38.69,38.88,39.05,39.27,39.50,39.68,39.84,39.99,40.14,40.12,40.06,40.03,40.19,40.33,40.38,40.33,40.18,40.03,39.93,39.89,39.88,39.89,39.89,39.89,39.91,39.99,40.07,40.20,40.33,40.42,40.58,40.73,40.89,41.04,41.19,41.29,41.41,41.57,41.71,41.87,42.02,42.18,42.33,42.49,42.64,42.79,42.95,43.10,43.26,43.37
66.14,65.26,64.39,63.26,62.40,61.07,59.13,56.91,55.10,53.70,52.54,51.47,50.35,49.25,47.97,46.46,44.96,43.26,41.57,40.06,38.95,37.84,36.59,35.22,33.79,32.90,32.01,31.14,30.29,29.44,29.06,28.86,28.74,28.63,28.56,28.43,28.29,28.18,28.10,28.10,28.14,28.22,28.30,28.33,28.37,28.43,28.51,28.58,28.66,28.72,28.75,28.80,28.87,28.97,29.08,29.19,29.24,29.30,29.38,29.45,29.45,29.51,29.59,29.65,29.65,29.69,29.73,29.77,29.81,29.88,29.90,29.92,29.97,30.09,30.24,30.39,30.55,30.70,30.86,30.98,31.11,31.27,31.42,31.58,31.71,31.83,31.94,32.09,32.22,32.32,32.40,32.48,32.52,32.56,32.61,32.73,32.88,33.03,33.19,33.34,33.49,33.65,33.80,33.96,34.11,34.27,34.42,34.55,34.63,34.67,34.70,34.73,34.73,34.73,34.67,34.59,34.51,34.39,34.32,34.24,34.19,34.19,34.22,34.26,34.29,34.28,34.20,34.19,34.17,34.13,34.09,34.09,34.04,33.99,33.99,33.99,34.05,34.11,34.15,34.19,34.24,34.30,34.38,34.46,34.50,34.53,34.58,34.66,34.74,34.78,34.80,34.80,34.80,34.87,34.90,34.93,35.00,35.00,35.00,35.00,35.01,35.09,35.20,35.32,35.42,35.50,35.62,35.73,35.83,35.90,35.95,35.98,36.02,36.06,36.10,36.17,36.23,36.27,36.30,36.38,36.46,36.55,36.66,36.81,36.93,37.05,37.17,37.28,37.40,37.52,37.62,37.69,37.77,37.82,37.84,37.82,37.75,37.71,37.67,37.64,37.65,37.81,38.00,38.19,38.38,38.53,38.75,38.94,39.11,39.35,39.58,39.76,39.90,40.01,40.12,40.12,40.08,40.08,40.19,40.34,40.40,40.35,40.20,40.08,40.00,39.95,39.95,39.95,39.99,40.03,40.08,40.16,40.19,40.31,40.44,40.52,40.63,40.74,40.86,40.97,41.08,41.20,41.34,41.49,41.65,41.76,41.90,42.06,42.21,42.37,42.52,42.68,42.83,42.99,43.10,43.19
65.12,64.20,63.26,62.13,60.75,58.65,55.90,53.09,51.61,50.47,49.66,49.27,48.61,47.87,46.77,45.27,43.79,42.14,40.61,39.32,38.39,37.40,36.19,34.76,33.18,32.20,31.33,30.49,29.64,28.80,28.59,28.40,28.27,28.28,28.28,28.19,28.11,28.08,28.03,28.08,28.15,28.22,28.30,28.31,28.37,28.45,28.52,28.60,28.68,28.72,28.73,28.81,28.89,28.97,29.07,29.17,29.26,29.34,29.43,29.50,29.50,29.56,29.62,29.67,29.69,29.75,29.81,29.85,29.86,29.92,29.93,29.93,29.96,30.09,30.23,30.38,30.53,30.68,30.84,30.95,31.07,31.22,31.37,31.52,31.67,31.80,31.88,32.02,32.12,32.21,32.27,32.35,32.42,32.47,32.48,32.56,32.68,32.82,32.98,33.13,33.29,33.45,33.61,33.77,33.92,34.06,34.16,34.23,34.31,34.31,34.31,34.31,34.29,34.28,34.23,34.16,34.08,34.00,34.00,33.96,33.92,33.93,33.93,33.98,34.01,34.01,33.94,33.93,33.93,33.92,33.85,33.85,33.82,33.81,33.84,33.85,33.97,34.09,34.17,34.24,34.32,34.44,34.57,34.63,34.63,34.63,34.66,34.73,34.80,34.82,34.82,34.82,34.82,34.88,34.91,34.94,35.00,35.00,35.00,35.00,35.01,35.11,35.24,35.34,35.42,35.50,35.65,35.75,35.83,35.91,35.98,36.01,36.05,36.10,36.12,36.18,36.25,36.30,36.32,36.40,36.47,36.52,36.55,36.64,36.77,36.91,37.02,37.08,37.19,37.29,37.38,37.45,37.53,37.60,37.63,37.62,37.57,37.58,37.54,37.53,37.62,37.86,38.08,38.27,38.44,38.61,38.82,39.00,39.18,39.41,39.64,39.82,39.95,40.02,40.09,40.11,40.12,40.13,40.21,40.35,40.40,40.35,40.20,40.15,40.08,40.04,40.05,40.05,40.12,40.19,40.27,40.33,40.35,40.45,40.56,40.64,40.72,40.80,40.87,40.95,41.03,41.16,41.31,41.46,41.60,41.68,41.80,41.95,42.10,42.24,42.39,42.54,42.69,42.84,42.92,43.01
64.19,63.21,62.06,61.03,58.84,55.58,52.02,50.25,49.49,48.95,48.51,48.11,47.30,46.52,45.49,44.11,42.58,41.01,39.77,38.80,37.88,36.94,35.74,34.29,32.65,31.47,30.60,29.78,28.95,28.16,27.95,27.82,27.77,27.83,27.83,27.86,27.92,28.03,28.07,28.15,28.19,28.22,28.30,28.36,28.43,28.51,28.59,28.66,28.74,28.78,28.80,28.87,28.95,29.07,29.23,29.43,29.57,29.66,29.77,29.89,29.89,29.90,29.91,29.94,30.00,30.02,30.03,30.04,30.04,30.06,30.06,30.06,30.07,30.10,30.18,30.31,30.47,30.62,30.77,30.92,31.07,31.22,31.37,31.48,31.60,31.74,31.81,31.91,32.03,32.12,32.14,32.22,32.30,32.34,32.35,32.43,32.46,32.57,32.72,32.88,33.03,33.23,33.42,33.57,33.73,33.83,33.88,33.91,33.99,33.99,33.99,33.97,33.91,33.85,33.82,33.78,33.70,33.62,33.61,33.60,33.61,33.67,33.67,33.68,33.69,33.69,33.68,33.67,33.67,33.67,33.66,33.66,33.73,33.84,33.97,34.03,34.16,34.28,34.36,34.43,34.51,34.63,34.75,34.76,34.76,34.76,34.77,34.79,34.87,34.88,34.88,34.88,34.88,34.89,34.94,34.99,35.00,35.00,35.00,35.00,35.02,35.16,35.26,35.34,35.42,35.50,35.65,35.75,35.83,35.91,35.98,36.05,36.09,36.11,36.18,36.19,36.25,36.32,36.38,36.46,36.54,36.61,36.68,36.82,36.92,36.98,37.00,37.02,36.99,37.07,37.19,37.26,37.34,37.37,37.37,37.38,37.43,37.49,37.51,37.55,37.69,37.92,38.11,38.30,38.51,38.73,38.91,39.07,39.24,39.47,39.71,39.89,40.01,40.08,40.10,40.15,40.18,40.20,40.27,40.36,40.40,40.35,40.20,40.25,40.21,40.19,40.24,40.24,40.31,40.39,40.45,40.46,40.52,40.60,40.69,40.77,40.85,40.92,41.00,41.08,41.15,41.24,41.37,41.51,41.60,41.68,41.77,41.88,42.03,42.12,42.27,42.39,42.49,42.65,42.73,42.85
63.26,62.25,61.11,59.59,56.81,53.39,50.16,48.87,48.24,47.79,47.35,46.78,45.96,45.18,44.22,42.98,41.57,40.32,39.26,38.33,37.37,36.47,35.27,33.79,32.12,30.74,29.62,28.74,28.10,27.71,27.60,27.56,27.58,27.65,27.65,27.76,27.91,28.06,28.13,28.21,28.26,28.31,28.39,28.46,28.54,28.62,28.69,28.74,28.81,28.86,28.91,29.02,29.14,29.27,29.45,29.68,29.91,30.13,30.30,30.41,30.45,30.45,30.45,30.46,30.51,30.51,30.55,30.61,30.64,30.64,30.62,30.60,30.56,30.39,30.28,30.32,30.45,30.60,30.76,30.89,31.02,31.17,31.29,31.40,31.52,31.64,31.75,31.83,31.93,32.02,32.06,32.10,32.17,32.23,32.26,32.30,32.34,32.40,32.51,32.66,32.82,33.00,33.18,33.34,33.53,33.60,33.60,33.59,33.67,33.64,33.63,33.59,33.48,33.44,33.40,33.36,33.32,33.28,33.27,33.29,33.33,33.37,33.37,33.40,33.42,33.42,33.46,33.52,33.57,33.61,33.64,33.71,33.83,33.98,34.10,34.21,34.35,34.47,34.55,34.63,34.70,34.80,34.89,34.89,34.89,34.89,34.89,34.89,34.90,34.90,34.90,34.90,34.90,34.90,34.95,35.00,35.00,35.00,35.00,35.02,35.07,35.22,35.31,35.39,35.47,35.54,35.66,35.75,35.84,35.95,35.99,36.06,36.14,36.21,36.28,36.32,36.38,36.46,36.54,36.65,36.74,36.82,36.90,37.02,37.10,37.18,37.24,37.27,37.20,37.23,37.30,37.34,37.38,37.36,37.33,37.32,37.39,37.47,37.52,37.58,37.71,37.94,38.14,38.33,38.53,38.77,38.96,39.15,39.34,39.54,39.77,39.93,40.03,40.10,40.14,40.18,40.22,40.25,40.30,40.37,40.40,40.37,40.29,40.33,40.31,40.32,40.39,40.39,40.46,40.53,40.59,40.59,40.66,40.74,40.82,40.90,40.97,41.05,41.13,41.21,41.28,41.39,41.51,41.60,41.65,41.69,41.73,41.81,41.92,42.00,42.11,42.21,42.30,42.46,42.54,42.67
62.48,61.41,60.28,58.06,54.88,51.74,49.25,48.16,47.40,46.83,46.27,45.51,44.77,44.00,43.09,41.98,40.76,39.84,38.90,37.89,36.88,36.02,34.77,33.23,31.52,29.91,28.57,27.68,27.31,27.38,27.39,27.44,27.52,27.59,27.60,27.77,27.97,28.12,28.21,28.28,28.36,28.44,28.52,28.59,28.67,28.74,28.81,28.82,28.88,28.97,29.06,29.21,29.37,29.53,29.72,29.97,30.29,30.65,30.91,31.00,31.07,31.08,31.09,31.09,31.09,31.10,31.20,31.33,31.40,31.40,31.35,31.31,31.24,30.84,30.51,30.40,30.47,30.59,30.75,30.85,30.96,31.10,31.18,31.32,31.43,31.53,31.67,31.76,31.83,31.91,31.98,31.99,32.04,32.12,32.18,32.18,32.25,32.28,32.33,32.47,32.63,32.78,32.94,33.10,33.32,33.35,33.31,33.27,33.34,33.28,33.25,33.19,33.05,33.05,33.00,32.97,32.97,32.98,32.99,33.03,33.08,33.09,33.10,33.15,33.19,33.21,33.29,33.43,33.54,33.63,33.72,33.87,34.01,34.14,34.23,34.39,34.54,34.66,34.74,34.81,34.88,34.95,35.00,35.00,35.01,35.01,35.01,35.00,34.93,34.91,34.91,34.92,34.92,34.92,34.96,35.01,35.01,35.02,35.02,35.05,35.14,35.29,35.38,35.45,35.53,35.61,35.69,35.77,35.87,36.00,36.02,36.09,36.21,36.34,36.42,36.50,36.58,36.66,36.74,36.89,36.98,37.07,37.15,37.23,37.30,37.42,37.55,37.63,37.57,37.55,37.55,37.56,37.56,37.50,37.42,37.36,37.40,37.47,37.55,37.63,37.71,37.94,38.17,38.37,38.54,38.77,39.00,39.23,39.44,39.60,39.83,39.96,40.03,40.11,40.18,40.20,40.24,40.30,40.30,40.37,40.40,40.41,40.42,40.42,40.42,40.45,40.52,40.53,40.59,40.66,40.73,40.73,40.79,40.87,40.95,41.02,41.10,41.17,41.25,41.32,41.39,41.53,41.62,41.67,41.68,41.68,41.69,41.72,41.79,41.86,41.94,42.02,42.12,42.27,42.35,42.48
62.63,61.18,59.47,56.80,53.85,51.15,49.05,47.97,46.93,46.25,45.73,45.07,44.52,43.81,42.88,41.74,40.62,39.63,38.61,37.57,36.56,35.60,34.12,32.34,30.46,28.46,27.66,27.34,27.24,27.32,27.33,27.37,27.45,27.53,27.58,27.77,27.99,28.19,28.33,28.41,28.49,28.57,28.64,28.72,28.76,28.80,28.88,28.93,29.05,29.16,29.25,29.40,29.56,29.75,30.02,30.42,30.78,31.16,31.47,31.63,31.65,31.66,31.69,31.73,31.73,31.78,31.91,32.03,32.10,32.10,32.09,32.08,31.99,31.55,31.13,30.80,30.60,30.53,30.68,30.78,30.89,31.04,31.11,31.26,31.37,31.45,31.55,31.63,31.70,31.78,31.86,31.91,31.94,31.99,32.05,32.05,32.12,32.15,32.18,32.28,32.44,32.59,32.74,32.90,33.01,33.03,32.99,32.94,32.96,32.94,32.90,32.83,32.73,32.73,32.72,32.73,32.79,32.85,32.90,32.94,32.97,33.03,33.08,33.11,33.15,33.21,33.29,33.43,33.57,33.72,33.91,34.01,34.11,34.22,34.36,34.57,34.69,34.81,34.92,34.94,34.96,34.99,35.00,35.00,35.06,35.07,35.07,35.07,35.05,35.00,35.00,35.05,35.05,35.05,35.06,35.07,35.08,35.13,35.15,35.18,35.26,35.36,35.44,35.52,35.59,35.67,35.80,35.86,35.91,36.01,36.12,36.30,36.44,36.54,36.61,36.69,36.80,36.92,37.00,37.09,37.18,37.28,37.40,37.48,37.56,37.65,37.76,37.89,37.93,37.90,37.91,38.01,38.01,37.95,37.82,37.63,37.49,37.49,37.55,37.63,37.71,37.94,38.17,38.39,38.61,38.84,39.02,39.23,39.46,39.67,39.90,39.99,40.03,40.10,40.12,40.17,40.24,40.30,40.30,40.37,40.43,40.49,40.55,40.55,40.55,40.58,40.65,40.71,40.74,40.82,40.92,40.92,40.94,41.00,41.07,41.15,41.23,41.26,41.31,41.38,41.40,41.44,41.47,41.50,41.55,41.55,41.59,41.64,41.66,41.68,41.75,41.85,41.98,42.08,42.21,42.32
62.70,61.04,58.90,55.90,52.92,50.54,48.92,47.92,47.14,46.58,46.12,45.59,45.24,44.58,43.60,42.32,40.81,39.61,38.45,37.30,36.21,35.04,33.39,31.43,29.38,27.62,27.20,27.16,27.18,27.26,27.26,27.31,27.39,27.47,27.60,27.81,28.04,28.26,28.41,28.50,28.58,28.66,28.73,28.81,28.86,28.90,28.98,29.09,29.21,29.33,29.44,29.60,29.72,29.98,30.38,30.87,31.28,31.67,32.01,32.24,32.26,32.27,32.30,32.34,32.37,32.47,32.61,32.73,32.81,32.84,32.84,32.84,32.76,32.29,31.80,31.43,31.12,30.79,30.69,30.72,30.83,30.97,31.05,31.17,31.28,31.38,31.46,31.51,31.58,31.65,31.73,31.81,31.83,31.86,31.93,31.96,32.01,32.03,32.05,32.13,32.25,32.40,32.54,32.66,32.71,32.72,32.67,32.62,32.62,32.62,32.60,32.58,32.56,32.59,32.60,32.64,32.71,32.79,32.87,32.90,32.92,33.00,33.08,33.10,33.13,33.21,33.29,33.45,33.62,33.78,33.99,34.10,34.20,34.33,34.48,34.69,34.82,34.92,35.00,35.00,35.02,35.04,35.04,35.04,35.11,35.12,35.11,35.14,35.14,35.10,35.10,35.14,35.14,35.14,35.15,35.17,35.18,35.22,35.24,35.27,35.35,35.43,35.50,35.60,35.69,35.74,35.83,35.86,35.89,35.98,36.16,36.39,36.55,36.67,36.80,36.91,37.03,37.14,37.21,37.32,37.41,37.50,37.62,37.70,37.78,37.87,37.99,38.14,38.28,38.27,38.29,38.46,38.46,38.40,38.26,38.06,37.88,37.71,37.62,37.63,37.74,37.98,38.19,38.40,38.63,38.87,39.03,39.23,39.46,39.69,39.90,39.98,40.02,40.07,40.09,40.14,40.20,40.27,40.30,40.37,40.43,40.49,40.56,40.56,40.58,40.62,40.67,40.75,40.76,40.82,40.90,40.96,40.99,41.03,41.09,41.17,41.22,41.23,41.25,41.29,41.32,41.33,41.33,41.35,41.43,41.43,41.48,41.51,41.49,41.52,41.57,41.67,41.81,41.89,42.04,42.14
62.72,60.98,58.51,55.27,52.09,49.93,48.83,47.99,47.84,47.57,47.19,46.81,46.66,46.05,45.00,43.48,41.24,39.72,38.37,37.08,35.84,34.37,32.59,30.52,28.31,27.22,27.06,27.10,27.11,27.19,27.20,27.25,27.32,27.41,27.64,27.87,28.10,28.32,28.48,28.57,28.64,28.72,28.80,28.88,28.95,29.03,29.11,29.27,29.36,29.48,29.63,29.79,29.87,30.23,30.77,31.31,31.78,32.18,32.54,32.82,32.90,32.91,32.91,32.93,33.01,33.16,33.31,33.44,33.51,33.59,33.61,33.61,33.52,33.06,32.53,32.22,31.92,31.31,30.77,30.67,30.77,30.91,30.99,31.06,31.18,31.32,31.39,31.40,31.45,31.53,31.60,31.68,31.70,31.74,31.81,31.89,31.90,31.90,31.92,32.00,32.08,32.21,32.33,32.40,32.40,32.40,32.36,32.31,32.31,32.31,32.36,32.43,32.51,32.58,32.60,32.64,32.71,32.79,32.87,32.90,32.92,33.00,33.08,33.10,33.13,33.21,33.29,33.49,33.68,33.84,33.99,34.14,34.30,34.45,34.61,34.76,34.92,35.00,35.00,35.00,35.07,35.10,35.10,35.10,35.18,35.15,35.13,35.20,35.20,35.20,35.20,35.20,35.20,35.20,35.25,35.30,35.30,35.30,35.30,35.34,35.41,35.49,35.57,35.69,35.80,35.80,35.80,35.80,35.83,35.92,36.15,36.39,36.58,36.75,36.98,37.14,37.25,37.33,37.41,37.56,37.66,37.74,37.82,37.89,37.97,38.09,38.24,38.40,38.63,38.65,38.69,38.91,38.91,38.84,38.73,38.59,38.51,38.09,37.76,37.65,37.81,38.04,38.21,38.40,38.63,38.86,39.03,39.23,39.46,39.69,39.85,39.95,40.00,40.01,40.08,40.10,40.14,40.21,40.29,40.37,40.40,40.42,40.50,40.50,40.55,40.60,40.61,40.69,40.70,40.70,40.74,40.89,40.97,41.00,41.03,41.10,41.10,41.10,41.10,41.11,41.19,41.20,41.20,41.22,41.30,41.30,41.35,41.36,41.31,41.38,41.40,41.48,41.62,41.69,41.84,41.95
63.98,61.88,59.43,56.43,53.50,51.14,49.61,49.11,48.90,48.63,48.32,48.09,47.99,47.50,46.45,44.74,42.35,40.22,38.59,37.27,35.78,34.21,32.50,30.50,28.24,27.16,27.00,27.04,27.05,27.13,27.14,27.18,27.29,27.47,27.70,27.90,28.10,28.33,28.53,28.67,28.77,28.85,28.93,28.96,29.02,29.11,29.23,29.29,29.40,29.54,29.69,29.85,30.11,30.55,31.09,31.63,32.15,32.60,33.01,33.34,33.46,33.52,33.57,33.64,33.77,33.88,34.01,34.14,34.22,34.35,34.38,34.35,34.22,33.76,33.32,33.11,32.88,32.27,31.67,31.53,31.31,30.85,30.92,31.00,31.09,31.19,31.27,31.32,31.39,31.45,31.48,31.55,31.61,31.65,31.68,31.76,31.77,31.80,31.84,31.87,31.95,32.01,32.07,32.16,32.36,32.57,32.75,32.91,33.01,32.97,32.93,32.93,32.94,32.66,32.60,32.64,32.71,32.79,32.82,32.86,32.92,33.00,33.03,33.07,33.13,33.21,33.34,33.51,33.68,33.84,33.99,34.14,34.30,34.47,34.67,34.83,34.94,35.00,35.01,35.06,35.09,35.10,35.11,35.16,35.19,35.22,35.24,35.26,35.26,35.26,35.29,35.33,35.33,35.33,35.35,35.38,35.43,35.43,35.43,35.46,35.54,35.62,35.65,35.70,35.74,35.74,35.69,35.70,35.79,35.92,36.15,36.35,36.54,36.74,36.92,37.12,37.31,37.47,37.60,37.75,37.85,37.95,38.07,38.15,38.23,38.32,38.42,38.53,38.80,38.94,39.08,39.29,39.34,39.33,39.29,39.22,39.09,38.71,38.28,37.93,37.74,37.97,38.15,38.34,38.56,38.74,38.94,39.14,39.32,39.50,39.66,39.83,39.95,40.00,40.03,40.07,40.11,40.15,40.23,40.26,40.30,40.34,40.37,40.37,40.43,40.47,40.47,40.50,40.55,40.57,40.60,40.70,40.83,40.87,40.88,40.91,40.96,40.97,40.97,40.98,41.00,41.05,41.10,41.14,41.17,41.22,41.22,41.19,41.17,41.20,41.25,41.33,41.42,41.50,41.65,41.76
64.18,62.74,60.65,58.10,55.44,53.06,51.33,50.91,50.56,50.13,49.74,49.54,49.44,49.02,47.91,45.95,43.28,40.64,38.72,37.28,35.66,34.06,32.44,30.56,28.37,27.15,26.94,26.97,26.99,27.06,27.07,27.15,27.30,27.51,27.74,27.93,28.13,28.36,28.57,28.75,28.87,28.95,29.03,29.05,29.11,29.21,29.33,29.35,29.46,29.60,29.76,29.91,30.32,30.83,31.38,31.92,32.46,32.97,33.43,33.83,34.05,34.15,34.24,34.35,34.51,34.59,34.72,34.84,34.93,35.08,35.12,35.08,34.93,34.46,34.17,34.03,33.82,33.22,32.72,32.62,32.35,31.69,31.50,31.43,31.43,31.44,31.32,31.26,31.29,31.34,31.35,31.42,31.52,31.61,31.71,31.86,31.87,31.98,32.14,32.20,32.30,32.36,32.45,32.59,32.77,33.06,33.35,33.61,33.79,33.73,33.65,33.61,33.60,33.00,32.74,32.67,32.71,32.79,32.80,32.85,32.92,33.00,33.00,33.05,33.13,33.22,33.37,33.53,33.68,33.84,33.99,34.17,34.33,34.50,34.71,34.84,34.95,35.00,35.01,35.06,35.09,35.10,35.12,35.17,35.17,35.22,35.27,35.27,35.27,35.29,35.33,35.37,35.37,35.39,35.40,35.43,35.50,35.50,35.52,35.55,35.61,35.66,35.67,35.67,35.67,35.64,35.61,35.65,35.76,35.92,36.13,36.31,36.51,36.71,36.89,37.11,37.33,37.53,37.71,37.88,38.00,38.14,38.30,38.38,38.47,38.56,38.64,38.71,38.97,39.21,39.46,39.75,40.03,40.18,40.22,40.17,39.99,39.52,38.97,38.43,37.99,37.95,38.06,38.24,38.47,38.62,38.82,39.00,39.15,39.31,39.46,39.67,39.85,39.95,39.99,40.04,40.07,40.09,40.16,40.17,40.25,40.31,40.24,40.24,40.30,40.34,40.34,40.34,40.39,40.41,40.44,40.54,40.67,40.73,40.74,40.75,40.80,40.81,40.82,40.84,40.84,40.91,40.99,41.04,41.04,41.12,41.09,41.04,41.04,41.04,41.11,41.17,41.24,41.34,41.47,41.58
63.09,63.56,62.25,60.39,58.02,55.84,54.22,53.55,52.96,52.19,51.50,51.20,51.05,50.62,49.37,47.10,43.98,40.99,38.75,37.09,35.47,33.92,32.41,30.72,28.72,27.21,26.90,26.91,26.92,27.00,27.01,27.14,27.34,27.51,27.74,27.97,28.19,28.42,28.58,28.79,28.94,29.01,29.09,29.16,29.24,29.32,29.40,29.47,29.55,29.67,29.82,29.98,30.47,31.05,31.64,32.18,32.72,33.26,33.79,34.30,34.67,34.79,34.91,35.06,35.21,35.29,35.42,35.55,35.63,35.78,35.82,35.78,35.63,35.17,35.09,35.00,34.73,34.19,33.93,34.01,34.01,33.66,32.88,32.46,32.30,32.17,31.60,31.24,31.17,31.21,31.22,31.30,31.43,31.64,31.93,32.22,32.26,32.51,32.88,33.10,33.25,33.39,33.59,33.84,33.72,33.95,34.22,34.46,34.68,34.62,34.55,34.52,34.54,33.64,33.05,32.75,32.71,32.79,32.80,32.85,32.92,33.00,33.00,33.05,33.13,33.22,33.37,33.53,33.68,33.84,33.99,34.21,34.39,34.55,34.70,34.79,34.92,35.00,35.00,35.01,35.07,35.10,35.10,35.11,35.11,35.16,35.21,35.21,35.21,35.27,35.30,35.31,35.31,35.37,35.40,35.43,35.50,35.50,35.55,35.60,35.60,35.61,35.61,35.61,35.59,35.52,35.58,35.65,35.76,35.92,36.08,36.29,36.48,36.66,36.88,37.11,37.30,37.48,37.71,37.93,38.10,38.29,38.49,38.57,38.71,38.81,38.89,38.97,39.13,39.44,39.83,40.31,41.03,41.46,41.60,41.50,41.27,40.57,39.87,39.21,38.61,37.98,37.93,38.12,38.34,38.49,38.65,38.81,38.96,39.12,39.27,39.48,39.68,39.83,39.97,40.00,40.01,40.02,40.10,40.11,40.24,40.32,40.11,40.11,40.17,40.21,40.21,40.21,40.22,40.22,40.26,40.41,40.49,40.57,40.61,40.62,40.62,40.62,40.66,40.71,40.71,40.78,40.86,40.91,40.92,40.99,40.96,40.91,40.91,40.91,40.98,41.02,41.06,41.21,41.29,41.42
61.11,62.58,62.89,61.72,60.00,58.36,57.08,56.30,55.42,54.51,53.73,53.25,52.88,51.90,50.32,48.01,44.41,41.09,38.74,37.15,35.62,34.11,32.63,31.08,29.34,27.23,26.82,26.84,26.86,26.94,26.98,27.14,27.36,27.56,27.79,28.03,28.24,28.43,28.63,28.85,29.02,29.13,29.21,29.25,29.31,29.40,29.52,29.60,29.67,29.77,29.93,30.30,30.83,31.41,32.02,32.60,33.15,33.72,34.30,34.86,35.25,35.45,35.61,35.76,35.91,36.00,36.12,36.27,36.39,36.50,36.56,36.54,36.40,35.98,36.05,35.98,35.71,35.26,35.29,35.50,35.69,35.67,35.04,35.08,35.31,35.55,35.71,35.56,35.53,35.44,35.13,34.82,34.36,34.25,34.48,34.40,34.08,34.21,34.54,34.56,34.62,34.69,34.84,35.04,34.75,34.85,35.08,35.34,35.52,35.46,35.44,35.49,35.54,34.44,33.67,33.23,33.09,33.03,32.95,32.91,32.91,32.94,32.99,33.05,33.13,33.22,33.37,33.56,33.74,33.88,33.99,34.18,34.34,34.48,34.59,34.71,34.83,34.93,35.00,35.00,35.03,35.04,35.04,35.04,35.04,35.10,35.14,35.14,35.14,35.17,35.19,35.20,35.24,35.27,35.29,35.31,35.39,35.39,35.44,35.51,35.54,35.54,35.54,35.52,35.49,35.50,35.58,35.65,35.74,35.86,36.06,36.25,36.44,36.65,36.88,37.07,37.27,37.48,37.71,37.89,38.09,38.28,38.47,38.63,38.83,38.98,39.09,39.17,39.32,39.60,40.19,41.19,42.31,42.99,43.34,43.43,43.33,42.77,41.93,40.94,39.97,38.97,38.43,38.21,38.20,38.31,38.46,38.62,38.76,38.87,39.07,39.23,39.38,39.53,39.64,39.73,39.82,39.91,40.03,40.12,40.16,40.13,39.99,39.99,40.01,40.03,40.03,40.03,40.03,40.05,40.12,40.23,40.35,40.41,40.45,40.49,40.49,40.49,40.52,40.60,40.64,40.67,40.73,40.79,40.79,40.87,40.83,40.79,40.79,40.79,40.82,40.85,40.91,41.03,41.10,41.23
59.08,61.22,62.76,62.41,61.45,60.39,59.43,58.65,57.73,56.73,55.73,54.82,54.07,52.66,50.84,48.53,44.56,41.05,38.68,37.18,35.72,34.29,32.84,31.39,29.84,27.22,26.74,26.78,26.80,26.87,26.98,27.16,27.39,27.63,27.84,28.07,28.27,28.45,28.68,28.90,29.09,29.24,29.32,29.34,29.39,29.49,29.63,29.72,29.79,29.90,30.16,30.75,31.32,31.92,32.53,33.13,33.69,34.29,34.90,35.47,35.83,36.08,36.27,36.42,36.58,36.69,36.83,36.98,37.13,37.21,37.30,37.30,37.17,36.86,37.03,36.99,36.74,36.47,36.70,36.99,37.31,37.56,37.30,37.86,38.45,38.98,39.72,39.77,39.77,39.57,39.06,38.46,37.60,37.14,37.09,36.62,36.04,36.02,36.24,36.09,36.07,36.05,36.10,36.22,35.83,35.79,35.96,36.22,36.38,36.31,36.35,36.46,36.53,35.25,34.32,33.78,33.58,33.42,33.28,33.17,33.10,33.08,33.11,33.12,33.15,33.24,33.37,33.58,33.76,33.90,33.99,34.13,34.27,34.39,34.47,34.62,34.72,34.83,34.96,34.98,34.98,34.99,35.00,35.00,35.00,35.04,35.08,35.08,35.08,35.08,35.08,35.09,35.15,35.16,35.17,35.20,35.26,35.28,35.33,35.39,35.46,35.48,35.47,35.42,35.40,35.48,35.56,35.63,35.72,35.82,36.04,36.22,36.42,36.65,36.86,37.04,37.24,37.47,37.69,37.86,38.06,38.26,38.44,38.67,38.89,39.08,39.23,39.34,39.49,39.74,40.52,42.06,43.49,44.24,44.65,44.86,44.86,44.52,43.77,42.77,41.78,40.58,39.56,38.83,38.44,38.37,38.39,38.46,38.55,38.62,38.81,38.93,39.03,39.17,39.26,39.39,39.53,39.69,39.84,39.97,39.96,39.87,39.80,39.81,39.83,39.85,39.86,39.86,39.86,39.90,39.98,40.06,40.19,40.25,40.28,40.34,40.36,40.37,40.42,40.49,40.55,40.57,40.62,40.66,40.68,40.73,40.69,40.66,40.66,40.66,40.66,40.70,40.77,40.84,40.93,41.05
57.21,59.53,61.26,62.00,61.97,61.45,60.69,60.17,59.67,58.62,57.09,55.25,53.86,52.39,50.63,48.26,44.19,40.79,38.52,37.06,35.66,34.32,32.94,31.53,30.01,27.20,26.68,26.72,26.73,26.81,27.00,27.23,27.46,27.69,27.86,28.07,28.30,28.52,28.75,28.93,29.12,29.30,29.38,29.45,29.52,29.60,29.70,29.84,29.88,30.11,30.63,31.37,32.05,32.69,33.28,33.84,34.44,35.06,35.65,36.16,36.42,36.65,36.84,37.00,37.15,37.36,37.53,37.68,37.83,37.91,38.04,38.04,37.92,37.86,38.06,38.01,37.87,37.94,38.17,38.46,38.80,39.17,39.55,40.51,41.26,41.77,42.41,42.50,42.48,42.29,41.87,41.32,40.67,39.94,39.15,38.44,37.87,37.73,37.78,37.62,37.56,37.45,37.39,37.37,36.99,36.82,36.89,37.12,37.27,37.21,37.27,37.42,37.48,36.05,34.97,34.38,34.22,34.06,33.96,33.84,33.72,33.66,33.54,33.33,33.22,33.29,33.38,33.54,33.70,33.85,33.99,34.08,34.17,34.26,34.34,34.49,34.59,34.70,34.84,34.91,34.92,34.95,35.00,35.00,35.00,35.01,35.02,35.02,35.02,35.02,35.02,35.02,35.03,35.03,35.07,35.12,35.13,35.20,35.22,35.27,35.34,35.41,35.36,35.32,35.34,35.41,35.49,35.57,35.67,35.82,35.98,36.19,36.42,36.64,36.80,37.02,37.24,37.46,37.62,37.84,38.02,38.21,38.44,38.67,38.84,39.04,39.26,39.46,39.62,39.83,40.77,42.77,44.36,44.82,44.96,45.05,45.05,44.99,44.80,44.56,44.34,43.23,41.85,40.51,39.46,38.95,38.56,38.38,38.35,38.36,38.46,38.55,38.63,38.72,38.86,38.96,39.09,39.24,39.40,39.43,39.51,39.55,39.48,39.55,39.61,39.68,39.73,39.73,39.73,39.77,39.85,39.93,40.02,40.09,40.14,40.15,40.22,40.28,40.35,40.42,40.43,40.49,40.52,40.55,40.61,40.56,40.54,40.53,40.53,40.53,40.53,40.57,40.63,40.65,40.78,40.89
54.28,56.69,58.86,60.75,61.31,61.20,60.79,60.43,59.91,58.68,56.88,54.77,53.15,51.70,49.85,47.21,43.30,40.44,38.51,37.18,35.79,34.43,33.06,31.70,30.27,27.71,26.83,26.62,26.68,26.83,27.06,27.27,27.47,27.70,27.90,28.12,28.33,28.53,28.76,28.96,29.18,29.37,29.45,29.52,29.62,29.73,29.82,30.16,30.47,30.91,31.49,32.12,32.77,33.41,34.01,34.59,35.21,35.80,36.35,36.81,37.00,37.23,37.42,37.57,37.73,37.96,38.14,38.30,38.49,38.60,38.75,38.79,38.75,38.86,39.21,39.45,39.65,39.99,40.33,40.87,41.46,42.02,42.53,43.45,44.07,44.41,44.95,44.98,44.91,44.71,44.35,43.81,43.27,42.54,41.62,40.73,39.99,39.65,39.54,39.35,39.16,38.89,38.65,38.47,38.09,37.86,37.85,38.00,38.12,38.12,38.22,38.38,38.46,37.29,36.50,35.98,35.64,35.30,34.96,34.62,34.35,34.23,34.08,33.82,33.51,33.26,33.38,33.50,33.63,33.78,33.90,34.01,34.08,34.14,34.26,34.37,34.46,34.56,34.67,34.75,34.79,34.83,34.86,34.86,34.86,34.86,34.86,34.86,34.90,34.90,34.90,34.91,34.95,34.95,34.98,35.00,35.01,35.08,35.13,35.19,35.26,35.30,35.27,35.27,35.32,35.40,35.48,35.55,35.65,35.77,35.96,36.19,36.40,36.59,36.78,36.98,37.20,37.42,37.61,37.80,37.99,38.20,38.43,38.62,38.82,39.03,39.25,39.45,39.64,39.83,40.81,43.00,44.62,45.01,45.09,45.15,45.15,45.15,45.12,45.10,45.08,44.48,43.68,42.74,41.75,40.91,40.14,39.59,39.26,39.08,39.07,39.08,39.08,39.09,39.13,39.11,39.10,39.11,39.15,39.12,39.18,39.25,39.21,39.29,39.39,39.49,39.56,39.60,39.60,39.65,39.72,39.80,39.88,39.96,40.02,40.06,40.13,40.18,40.24,40.30,40.30,40.37,40.40,40.43,40.50,40.43,40.38,40.36,40.36,40.40,40.40,40.43,40.46,40.50,40.62,40.71
50.85,53.19,55.72,58.56,59.72,60.17,60.26,60.03,59.36,57.99,56.10,54.01,52.29,50.78,48.72,45.79,42.19,40.00,38.52,37.33,35.97,34.58,33.20,31.88,30.56,28.40,27.05,26.54,26.66,26.88,27.11,27.30,27.49,27.72,27.95,28.17,28.37,28.54,28.78,29.01,29.23,29.42,29.52,29.60,29.72,29.88,30.10,30.65,31.27,31.90,32.48,32.95,33.54,34.14,34.74,35.36,35.96,36.53,37.03,37.43,37.57,37.79,37.99,38.15,38.30,38.53,38.71,38.89,39.13,39.36,39.64,39.85,40.02,40.34,40.90,41.47,42.04,42.57,43.04,43.81,44.62,45.31,45.77,46.49,46.89,47.04,47.42,47.35,47.22,47.02,46.71,46.19,45.72,45.08,44.23,43.24,42.32,41.80,41.55,41.32,40.99,40.60,40.22,39.90,39.41,39.06,38.95,39.01,39.02,39.13,39.28,39.46,39.57,38.84,38.42,38.01,37.48,36.96,36.37,35.79,35.33,35.11,34.87,34.53,34.00,33.37,33.39,33.45,33.57,33.71,33.78,33.92,33.98,34.04,34.18,34.26,34.33,34.41,34.48,34.55,34.63,34.66,34.67,34.68,34.68,34.68,34.68,34.68,34.76,34.78,34.78,34.80,34.87,34.88,34.89,34.89,34.90,34.97,35.04,35.11,35.18,35.19,35.19,35.23,35.31,35.39,35.46,35.54,35.62,35.72,35.95,36.18,36.37,36.55,36.77,36.94,37.14,37.37,37.59,37.76,37.97,38.20,38.41,38.58,38.80,39.03,39.23,39.38,39.61,39.79,40.75,42.92,44.60,45.03,45.13,45.19,45.20,45.21,45.22,45.22,45.22,45.14,45.07,44.76,44.09,43.13,42.17,41.40,40.83,40.43,40.33,40.23,40.12,39.96,39.82,39.62,39.40,39.19,39.09,39.00,38.99,39.02,39.03,39.10,39.22,39.33,39.40,39.48,39.49,39.53,39.60,39.67,39.75,39.83,39.90,39.98,40.06,40.08,40.12,40.18,40.19,40.25,40.28,40.31,40.36,40.29,40.21,40.18,40.18,40.25,40.27,40.28,40.29,40.37,40.44,40.51
46.74,48.48,50.73,53.47,55.75,57.58,58.73,58.49,57.78,56.60,55.06,53.31,51.49,49.44,46.91,43.89,40.83,39.40,38.35,37.30,36.09,34.76,33.43,32.13,30.85,29.08,27.31,26.52,26.71,26.88,27.11,27.33,27.55,27.78,28.01,28.20,28.39,28.61,28.84,29.07,29.27,29.45,29.64,29.73,29.82,30.17,30.94,31.54,32.24,32.92,33.51,33.97,34.52,35.01,35.51,36.12,36.68,37.27,37.74,38.00,38.09,38.30,38.52,38.72,38.88,39.11,39.29,39.47,39.73,40.35,41.30,42.23,43.05,43.87,44.65,45.43,46.11,46.60,47.12,47.72,48.29,48.76,49.16,49.55,49.76,49.81,49.74,49.61,49.46,49.29,49.09,48.66,48.21,47.64,46.93,46.05,45.18,44.61,44.30,44.07,43.64,43.36,43.12,42.77,41.74,40.93,40.59,40.52,40.19,40.46,40.79,41.08,41.27,41.12,40.85,40.46,39.99,39.57,39.08,38.48,37.85,37.29,36.60,35.81,34.99,34.18,33.46,33.39,33.50,33.64,33.72,33.81,33.89,33.96,34.05,34.13,34.21,34.26,34.28,34.36,34.44,34.47,34.49,34.55,34.55,34.55,34.55,34.56,34.63,34.65,34.68,34.73,34.75,34.80,34.82,34.84,34.90,34.92,34.94,34.98,35.06,35.12,35.12,35.17,35.25,35.32,35.40,35.48,35.58,35.72,35.95,36.14,36.33,36.54,36.71,36.92,37.14,37.36,37.53,37.74,37.97,38.18,38.36,38.57,38.80,39.00,39.17,39.32,39.55,39.73,40.49,42.24,44.22,44.87,45.06,45.14,45.19,45.25,45.31,45.35,45.35,45.27,45.20,45.08,44.89,44.57,44.25,43.96,43.63,43.18,42.98,42.79,42.46,41.92,41.43,40.92,40.33,39.75,39.55,39.36,39.22,39.15,39.15,39.23,39.28,39.31,39.33,39.41,39.42,39.43,39.47,39.54,39.62,39.70,39.78,39.85,39.93,39.99,40.03,40.06,40.12,40.14,40.18,40.21,40.17,40.09,40.06,40.05,40.05,40.07,40.12,40.15,40.17,40.24,40.27,40.32
43.00,44.31,46.53,49.21,51.98,54.56,56.47,56.61,56.06,55.06,53.74,52.20,50.38,48.04,45.31,42.41,40.05,39.03,38.16,37.19,36.09,34.88,33.66,32.44,31.22,29.78,27.57,26.49,26.74,26.96,27.16,27.38,27.61,27.84,28.05,28.24,28.44,28.67,28.87,29.10,29.30,29.50,29.73,29.84,30.20,30.90,31.93,32.55,33.24,33.92,34.53,34.99,35.47,35.93,36.38,36.85,37.42,38.00,38.41,38.57,38.65,38.85,39.09,39.34,39.68,40.30,40.91,41.51,42.17,43.12,44.33,45.53,46.61,47.52,48.32,49.09,49.71,50.02,50.50,50.98,51.42,51.81,52.19,52.40,52.52,52.47,52.02,51.71,51.42,51.33,51.56,51.67,51.46,51.02,50.35,49.31,48.20,47.44,47.02,46.82,46.54,46.37,46.24,45.98,44.87,43.94,43.25,42.73,42.11,42.44,42.81,43.10,43.26,43.31,43.11,42.74,42.29,41.90,41.45,40.91,40.28,39.62,38.89,38.06,37.22,36.40,35.33,34.72,34.20,33.77,33.63,33.69,33.77,33.85,33.92,34.00,34.06,34.09,34.13,34.17,34.25,34.28,34.30,34.38,34.38,34.40,34.42,34.43,34.51,34.55,34.60,34.66,34.66,34.73,34.78,34.82,34.86,34.89,34.90,34.92,34.97,35.05,35.09,35.14,35.22,35.30,35.38,35.45,35.56,35.72,35.92,36.11,36.30,36.50,36.69,36.91,37.13,37.32,37.51,37.74,37.95,38.14,38.33,38.53,38.73,38.92,39.10,39.26,39.49,39.67,40.20,41.42,43.42,44.45,44.93,45.08,45.15,45.23,45.31,45.38,45.44,45.42,45.36,45.32,45.31,45.23,45.15,45.07,44.92,44.61,44.43,44.29,44.04,43.62,43.22,42.58,41.74,40.86,40.35,39.81,39.49,39.35,39.32,39.37,39.38,39.38,39.39,39.47,39.48,39.48,39.50,39.58,39.62,39.67,39.73,39.81,39.88,39.94,39.96,39.97,40.02,40.02,40.05,40.07,40.02,39.97,39.96,39.96,39.96,39.96,40.00,40.02,40.03,40.08,40.11,40.17
39.63,40.61,42.90,45.48,48.35,51.30,53.78,54.51,54.23,53.42,52.25,50.84,49.06,46.60,43.85,41.20,39.61,38.79,37.96,37.02,36.02,34.95,33.87,32.76,31.61,30.46,27.86,26.49,26.75,27.06,27.24,27.44,27.68,27.91,28.07,28.28,28.51,28.73,28.89,29.11,29.34,29.57,29.80,30.00,30.79,31.90,33.01,33.64,34.25,34.90,35.55,36.02,36.41,36.89,37.33,37.58,38.18,38.73,39.06,39.15,39.25,39.52,39.80,40.14,40.75,41.96,43.20,44.44,45.68,46.92,48.18,49.39,50.47,51.22,51.92,52.55,53.00,53.08,53.45,53.84,54.22,54.61,55.00,55.13,55.20,55.05,54.27,53.72,53.23,53.25,54.11,54.96,55.12,54.86,54.21,52.93,51.38,50.28,49.70,49.57,49.60,49.55,49.51,49.39,48.46,47.56,46.50,45.35,44.49,44.80,45.13,45.36,45.43,45.43,45.25,44.91,44.46,44.08,43.63,43.16,42.66,42.04,41.50,40.85,40.16,39.41,38.27,36.95,35.51,34.24,33.76,33.74,33.77,33.82,33.88,33.93,33.93,33.95,34.00,34.00,34.07,34.11,34.13,34.21,34.20,34.26,34.30,34.31,34.39,34.46,34.54,34.60,34.60,34.67,34.75,34.80,34.80,34.88,34.90,34.90,34.91,34.99,35.06,35.14,35.22,35.29,35.37,35.45,35.56,35.71,35.87,36.08,36.28,36.45,36.68,36.91,37.09,37.28,37.51,37.74,37.91,38.10,38.32,38.47,38.63,38.83,39.04,39.19,39.42,39.60,39.90,40.54,42.36,43.83,44.69,44.98,45.09,45.16,45.24,45.35,45.49,45.57,45.55,45.51,45.50,45.42,45.35,45.31,45.29,45.21,45.14,45.11,45.11,45.10,45.03,44.36,43.39,42.29,41.35,40.36,39.80,39.58,39.51,39.51,39.51,39.51,39.52,39.60,39.61,39.61,39.63,39.70,39.70,39.70,39.73,39.81,39.88,39.90,39.90,39.90,39.90,39.90,39.90,39.90,39.90,39.90,39.90,39.90,39.90,39.90,39.90,39.90,39.90,39.90,39.97,40.05
38.36,39.09,40.47,42.36,45.13,48.22,51.04,52.42,52.32,51.66,50.58,49.18,47.24,44.90,42.43,40.20,39.21,38.47,37.67,36.78,35.83,34.85,33.84,32.82,31.81,30.76,28.57,27.03,26.63,26.94,27.20,27.47,27.76,28.04,28.25,28.43,28.64,28.86,29.07,29.26,29.46,29.70,29.93,30.89,31.94,33.03,34.11,34.78,35.36,35.97,36.59,37.10,37.50,37.92,38.32,38.66,39.01,39.35,39.58,39.72,40.32,41.58,42.59,43.25,43.76,44.97,46.24,47.53,48.82,50.21,51.77,53.16,54.17,54.58,55.15,55.60,55.87,55.95,56.18,56.49,56.86,57.30,57.74,57.92,57.83,57.39,56.52,55.86,55.44,55.62,56.67,57.57,58.12,58.42,58.40,57.67,55.61,53.48,52.13,52.45,52.92,53.00,52.94,52.76,51.68,50.31,49.04,47.92,46.80,47.10,47.37,47.53,47.60,47.55,47.36,47.04,46.65,46.31,45.86,45.40,44.89,44.27,43.73,43.12,42.46,41.74,40.84,40.01,39.14,38.27,37.55,36.59,35.86,35.40,35.20,34.70,34.38,34.18,34.07,34.07,34.14,34.20,34.26,34.33,34.28,34.29,34.32,34.37,34.40,34.42,34.47,34.53,34.53,34.60,34.68,34.75,34.80,34.83,34.83,34.86,34.90,34.93,35.00,35.08,35.15,35.23,35.31,35.39,35.49,35.65,35.86,36.04,36.24,36.45,36.68,36.87,37.06,37.28,37.51,37.69,37.85,38.01,38.19,38.34,38.54,38.76,38.97,39.13,39.31,39.51,39.74,40.10,41.27,42.58,43.64,44.38,44.98,45.05,45.14,45.27,45.37,45.50,45.59,45.64,45.63,45.61,45.54,45.50,45.48,45.41,45.33,45.30,45.28,45.23,45.21,44.90,44.37,43.60,42.46,41.49,40.47,39.71,39.64,39.64,39.64,39.64,39.65,39.72,39.74,39.74,39.74,39.77,39.77,39.77,39.78,39.81,39.88,39.90,39.90,39.90,39.90,39.90,39.90,39.90,39.90,39.90,39.90,39.90,39.90,39.90,39.90,39.90,39.90,39.90,39.92,39.95
37.08,37.73,38.63,40.00,42.35,45.39,48.53,50.42,50.40,49.78,48.74,47.35,45.37,43.16,41.09,39.48,38.81,38.12,37.38,36.56,35.63,34.68,33.71,32.74,31.79,30.81,29.02,27.40,26.47,26.78,27.09,27.39,27.70,28.01,28.27,28.49,28.71,28.97,29.22,29.41,29.61,29.92,30.52,31.92,33.09,34.14,35.20,35.92,36.49,37.06,37.64,38.19,38.59,39.12,39.77,40.44,40.92,41.47,41.94,42.37,43.29,44.73,45.83,46.46,46.81,47.81,49.15,50.59,51.96,53.45,55.28,56.73,57.53,57.74,58.22,58.70,59.03,59.11,59.27,59.60,60.03,60.51,61.04,61.14,60.76,59.90,58.59,57.70,57.53,58.19,59.60,60.48,61.29,61.83,61.85,60.90,58.40,55.83,54.31,55.04,55.86,56.27,56.34,56.02,54.64,52.96,51.48,50.33,49.41,49.81,50.10,50.27,50.42,50.51,50.34,49.97,49.48,48.95,48.29,47.68,47.10,46.51,45.97,45.38,44.72,43.99,43.19,42.56,41.93,41.25,40.49,39.30,38.36,37.72,37.31,36.44,35.66,34.93,34.34,34.24,34.29,34.37,34.43,34.46,34.39,34.36,34.38,34.43,34.43,34.43,34.47,34.53,34.53,34.60,34.67,34.73,34.80,34.83,34.83,34.86,34.90,34.93,34.98,35.04,35.12,35.20,35.28,35.35,35.46,35.62,35.83,36.01,36.22,36.44,36.65,36.83,37.03,37.24,37.44,37.60,37.75,37.92,38.09,38.25,38.47,38.69,38.88,39.06,39.22,39.41,39.60,39.79,40.42,41.44,42.49,43.44,44.29,44.61,44.92,45.17,45.27,45.40,45.55,45.66,45.71,45.76,45.72,45.68,45.65,45.60,45.52,45.50,45.47,45.39,45.37,45.24,44.98,44.51,43.62,42.67,41.30,40.08,39.76,39.76,39.76,39.76,39.77,39.85,39.90,39.94,39.96,39.99,39.99,39.97,39.94,39.90,39.90,39.90,39.90,39.90,39.90,39.90,39.90,39.90,39.90,39.90,39.90,39.90,39.90,39.90,39.90,39.90,39.90,39.90,39.90,39.90
35.81,36.51,37.38,38.41,40.02,42.79,46.24,48.53,48.45,47.76,46.71,45.38,43.44,41.38,39.84,39.04,38.42,37.73,37.08,36.37,35.44,34.44,33.49,32.53,31.54,30.61,29.22,27.60,26.28,26.58,26.89,27.20,27.51,27.82,28.13,28.43,28.73,29.04,29.34,29.58,29.77,30.24,31.58,33.11,34.24,35.23,36.29,37.05,37.64,38.19,38.73,39.27,39.67,40.51,41.68,42.94,43.91,45.10,46.20,47.12,48.19,48.99,49.51,49.79,49.88,50.50,51.93,53.63,55.09,56.64,58.71,60.09,60.52,60.68,61.11,61.84,62.49,62.56,62.72,63.19,63.74,64.23,64.92,64.79,64.01,62.59,60.48,59.22,59.52,60.96,62.92,63.70,64.64,65.07,64.55,62.61,59.74,57.31,56.21,57.34,58.41,59.34,59.71,59.16,57.34,55.49,53.82,52.59,52.31,52.94,53.33,53.58,53.89,54.33,54.20,53.72,52.98,52.01,50.90,49.99,49.29,48.75,48.21,47.61,46.93,46.15,45.31,44.59,43.86,43.15,42.59,41.87,41.30,40.80,40.24,39.17,37.79,36.23,34.82,34.52,34.55,34.63,34.66,34.59,34.51,34.49,34.49,34.50,34.50,34.50,34.54,34.60,34.60,34.67,34.70,34.73,34.80,34.88,34.90,34.90,34.91,34.99,35.00,35.04,35.12,35.20,35.28,35.35,35.46,35.62,35.77,35.99,36.22,36.43,36.59,36.81,37.00,37.16,37.31,37.47,37.62,37.81,38.03,38.18,38.40,38.59,38.77,39.00,39.15,39.31,39.47,39.63,39.81,40.42,41.25,42.16,43.01,43.83,44.55,45.06,45.21,45.29,45.42,45.57,45.72,45.87,45.89,45.85,45.79,45.79,45.71,45.69,45.66,45.58,45.51,45.37,45.21,45.03,44.83,43.91,42.30,40.69,39.89,39.89,39.89,39.89,39.90,39.98,40.12,40.22,40.30,40.37,40.37,40.32,40.22,40.08,39.93,39.90,39.90,39.90,39.90,39.90,39.90,39.90,39.90,39.90,39.90,39.90,39.90,39.90,39.90,39.90,39.90,39.90,39.90,39.90
34.51,35.28,36.15,37.66,39.43,41.84,44.62,46.75,46.48,45.81,44.80,43.34,41.55,39.98,38.79,38.00,37.38,36.70,36.04,35.45,34.94,34.26,33.38,32.42,31.46,30.53,29.03,27.41,26.22,26.62,26.98,27.31,27.62,27.93,28.24,28.51,28.79,29.10,29.41,29.69,30.28,31.27,32.66,34.20,35.45,36.48,37.38,38.19,38.80,39.43,40.17,40.99,42.08,43.42,44.84,46.16,47.48,48.60,49.55,50.36,51.03,51.22,51.23,51.21,51.29,52.36,53.97,55.77,57.48,59.39,61.27,62.47,62.81,62.64,63.25,64.13,65.09,65.90,66.65,67.61,68.32,68.57,68.57,68.20,67.08,65.16,62.54,61.45,62.49,64.65,66.79,67.65,68.13,67.90,66.61,63.45,60.50,59.02,59.04,60.24,61.41,62.28,62.56,61.95,59.68,57.56,56.03,55.34,55.75,56.56,57.18,57.65,58.05,58.37,58.46,58.27,57.80,57.12,55.98,54.62,53.27,52.18,51.31,50.20,49.11,48.21,47.36,46.52,45.75,45.01,44.24,43.58,42.99,42.39,41.70,40.76,39.64,38.24,36.69,35.64,35.02,34.77,34.74,34.66,34.63,34.59,34.56,34.56,34.56,34.60,34.64,34.67,34.72,34.75,34.79,34.83,34.86,34.99,35.05,35.12,35.20,35.23,35.28,35.29,35.27,35.26,35.25,35.33,35.44,35.56,35.76,35.99,36.19,36.37,36.53,36.71,36.88,37.03,37.19,37.39,37.56,37.74,37.96,38.12,38.30,38.49,38.69,38.88,39.03,39.19,39.34,39.50,39.65,39.98,40.40,40.95,41.80,42.73,43.66,44.48,45.08,45.21,45.35,45.51,45.66,45.82,45.92,45.97,45.98,45.98,45.90,45.88,45.87,45.83,45.70,45.56,45.42,45.31,45.15,44.60,43.34,41.79,40.55,40.55,40.55,40.55,40.57,40.64,40.78,40.90,40.97,41.05,41.05,41.00,40.90,40.74,40.49,40.33,40.21,40.13,40.08,40.00,39.93,39.90,39.90,39.90,39.90,39.90,39.90,39.90,39.90,39.90,39.90,39.90,39.90,39.90
33.12,34.07,35.22,37.18,39.15,41.25,43.35,44.96,44.57,43.88,42.90,41.44,39.92,38.73,37.73,36.88,36.23,35.55,34.90,34.38,34.16,33.81,33.18,32.34,31.40,30.49,28.89,27.27,26.19,26.66,27.07,27.41,27.73,28.05,28.38,28.65,28.93,29.24,29.55,30.08,31.09,32.45,33.86,35.35,36.69,37.79,38.61,39.57,40.26,41.01,41.92,42.92,44.43,46.09,47.65,48.88,50.46,51.57,52.43,53.17,53.52,53.31,52.98,52.70,52.60,53.98,55.66,57.48,59.37,61.79,63.64,64.80,65.22,64.91,65.20,66.13,67.57,69.26,70.81,72.01,72.69,72.75,72.10,71.32,69.70,67.21,64.21,63.62,65.31,67.85,69.85,70.83,71.08,70.32,68.32,64.60,61.85,61.19,62.04,63.27,64.47,65.21,65.37,64.72,62.16,59.95,58.62,58.35,59.24,60.19,60.91,61.44,61.84,62.05,62.24,62.21,61.92,61.40,60.28,58.75,57.07,55.60,54.35,52.78,51.36,50.36,49.46,48.48,47.59,46.76,45.80,45.18,44.52,43.78,42.95,42.07,41.15,39.96,38.46,36.91,35.71,35.05,34.80,34.72,34.72,34.67,34.62,34.62,34.62,34.69,34.72,34.74,34.82,34.84,34.91,34.99,35.05,35.18,35.29,35.40,35.52,35.52,35.55,35.54,35.47,35.40,35.30,35.34,35.43,35.52,35.73,35.95,36.13,36.29,36.44,36.60,36.76,36.93,37.08,37.30,37.48,37.67,37.88,38.03,38.20,38.40,38.59,38.75,38.90,39.06,39.21,39.37,39.52,39.68,39.82,40.07,40.76,41.57,42.54,43.57,44.52,45.02,45.27,45.42,45.58,45.73,45.90,46.03,46.10,46.12,46.08,46.07,46.07,46.06,45.90,45.76,45.66,45.57,45.43,45.15,44.14,42.68,41.26,41.26,41.26,41.26,41.27,41.35,41.49,41.60,41.68,41.75,41.76,41.72,41.62,41.46,41.15,40.90,40.71,40.59,40.53,40.39,40.27,40.18,40.11,40.02,39.94,39.90,39.90,39.90,39.90,39.90,39.90,39.90,39.90,39.90
31.59,32.91,34.80,37.06,39.16,41.09,42.61,43.14,42.74,42.00,41.00,39.80,38.77,37.71,36.67,35.72,34.96,34.32,33.66,33.11,32.95,32.88,32.78,32.32,31.34,30.48,28.89,27.27,26.19,26.66,27.11,27.48,27.81,28.18,28.56,28.88,29.18,29.49,29.80,30.97,32.36,33.81,35.27,36.61,37.98,39.17,40.11,41.36,42.27,43.16,44.15,45.16,46.54,48.17,49.69,50.67,52.35,53.63,54.63,55.39,55.64,55.42,55.04,54.56,53.96,55.27,56.84,58.56,60.51,63.62,65.78,67.21,67.95,67.83,66.95,67.73,69.93,72.66,75.30,76.31,76.59,76.58,75.44,73.96,71.55,68.38,65.17,65.61,67.74,70.10,71.46,72.59,73.10,72.10,69.52,66.39,64.28,64.11,65.23,66.47,67.57,68.14,68.18,67.53,64.91,62.94,61.85,61.76,62.74,63.80,64.36,64.65,64.90,65.06,65.13,65.00,64.64,63.97,62.92,61.69,60.33,58.86,57.17,55.29,53.72,52.71,51.66,50.49,49.38,48.34,47.28,46.69,45.93,45.01,44.03,43.05,42.11,41.08,39.86,38.32,36.77,35.57,34.87,34.79,34.79,34.73,34.69,34.69,34.69,34.75,34.79,34.80,34.88,34.95,35.07,35.23,35.43,35.51,35.64,35.76,35.84,35.84,35.79,35.76,35.73,35.65,35.51,35.43,35.43,35.52,35.68,35.84,36.00,36.16,36.31,36.47,36.66,36.86,37.02,37.18,37.39,37.59,37.75,37.90,38.12,38.31,38.47,38.62,38.78,38.93,39.08,39.24,39.39,39.55,39.67,39.79,40.03,40.35,41.11,42.14,43.21,44.64,45.14,45.29,45.45,45.60,45.81,45.99,46.12,46.19,46.24,46.26,46.26,46.25,46.09,45.99,45.91,45.83,45.74,45.52,44.53,43.14,41.96,41.96,41.96,41.96,41.97,42.05,42.19,42.30,42.38,42.46,42.46,42.45,42.39,42.22,41.92,41.67,41.51,41.43,41.42,41.28,41.14,40.95,40.68,40.34,40.05,39.90,39.90,39.90,39.90,39.90,39.90,39.90,39.90,39.90
30.69,31.91,33.94,36.14,38.15,39.88,41.13,41.44,41.12,40.47,39.62,38.70,37.73,36.68,35.62,34.61,33.80,33.08,32.39,31.83,31.68,31.68,31.81,31.68,31.02,30.13,28.69,27.19,26.14,26.61,27.11,27.54,27.95,28.41,28.76,29.08,29.39,29.77,30.59,32.06,33.61,35.11,36.62,37.98,39.59,41.20,42.56,44.00,44.94,45.73,46.51,47.36,48.45,49.58,50.69,51.75,53.57,55.19,56.57,57.58,57.85,57.50,56.93,56.24,55.46,56.27,57.58,59.41,61.84,65.44,67.83,69.38,70.13,69.82,68.75,70.20,73.47,76.91,78.85,79.49,79.57,79.44,78.21,75.10,71.65,68.60,66.78,67.72,69.99,72.44,74.07,75.03,75.33,73.75,70.41,67.64,66.56,66.89,68.12,69.51,70.51,71.05,71.18,70.77,68.78,67.00,66.08,66.10,66.79,67.55,67.94,68.12,68.27,68.26,68.14,67.80,67.21,66.44,65.33,64.12,62.82,61.35,59.53,57.61,55.99,54.84,53.48,52.12,50.91,49.82,48.70,47.90,47.00,46.02,45.02,44.01,43.01,41.95,40.79,39.44,37.79,36.33,35.29,34.86,34.85,34.80,34.75,34.75,34.75,34.78,34.82,34.87,34.95,35.13,35.33,35.53,35.76,35.84,35.97,36.09,36.15,36.11,36.04,35.98,35.93,35.86,35.74,35.68,35.64,35.60,35.60,35.72,35.90,36.08,36.24,36.39,36.57,36.75,36.90,37.10,37.29,37.47,37.63,37.82,38.01,38.18,38.34,38.49,38.65,38.80,38.96,39.11,39.27,39.39,39.50,39.62,39.74,39.89,40.30,40.92,41.67,43.29,44.50,45.17,45.33,45.52,45.71,45.86,45.98,46.09,46.25,46.38,46.45,46.44,46.33,46.24,46.19,46.14,46.06,45.88,44.91,43.62,42.71,42.71,42.69,42.65,42.63,42.75,42.89,43.01,43.08,43.16,43.16,43.16,43.12,42.99,42.72,42.48,42.35,42.32,42.32,42.21,42.05,41.82,41.51,41.13,40.82,40.63,40.57,40.57,40.37,40.15,39.98,39.90,39.90,39.90
30.04,31.02,32.86,34.91,36.78,38.35,39.45,39.78,39.53,39.04,38.41,37.74,36.74,35.68,34.59,33.54,32.66,31.87,31.17,30.66,30.48,30.47,30.71,30.83,30.51,29.63,28.36,27.02,26.08,26.56,27.09,27.58,28.07,28.61,28.95,29.28,29.65,30.21,31.58,33.23,34.84,36.39,37.93,39.52,41.47,43.50,45.31,46.80,47.69,48.31,48.85,49.49,50.17,50.73,51.43,52.65,54.58,56.50,58.22,59.56,60.06,59.60,58.80,57.89,57.02,57.21,58.26,60.27,63.29,67.23,69.75,71.40,72.21,71.69,70.84,72.99,77.03,80.72,81.81,82.11,82.01,81.67,80.29,75.80,71.56,68.91,68.82,70.31,72.65,75.10,76.96,77.65,77.61,75.56,71.78,69.16,68.92,69.64,70.91,72.44,73.35,73.94,74.25,74.18,73.00,71.62,70.94,70.98,71.21,71.56,71.75,71.82,71.81,71.61,71.28,70.71,69.88,68.92,67.68,66.41,65.09,63.56,61.71,59.76,58.04,56.69,55.07,53.62,52.36,51.23,50.05,48.99,47.97,46.97,45.96,44.93,43.86,42.73,41.56,40.40,38.76,37.17,35.86,35.03,34.93,34.85,34.82,34.82,34.82,34.82,34.88,34.97,35.05,35.35,35.61,35.84,36.06,36.17,36.30,36.41,36.45,36.37,36.29,36.22,36.16,36.09,36.01,35.99,35.93,35.76,35.59,35.65,35.81,36.00,36.16,36.31,36.47,36.62,36.79,37.01,37.18,37.34,37.52,37.74,37.90,38.06,38.21,38.37,38.52,38.67,38.82,38.97,39.12,39.23,39.34,39.47,39.56,39.64,39.76,39.97,40.35,41.74,43.53,44.80,45.20,45.42,45.60,45.71,45.81,45.98,46.22,46.46,46.62,46.66,46.59,46.51,46.48,46.46,46.38,46.25,45.29,44.09,43.47,43.47,43.41,43.33,43.29,43.44,43.59,43.70,43.79,43.86,43.87,43.87,43.85,43.75,43.53,43.30,43.19,43.21,43.21,43.14,42.98,42.73,42.41,42.02,41.75,41.56,41.43,41.47,41.10,40.69,40.34,40.17,40.12,40.09
29.72,30.33,31.44,33.34,35.11,36.60,37.68,38.11,37.92,37.66,37.31,36.78,35.78,34.72,33.64,32.56,31.53,30.72,30.16,29.80,29.52,29.51,29.65,29.75,29.63,28.95,27.76,26.64,26.03,26.55,27.09,27.58,28.07,28.61,29.10,29.51,30.12,31.13,32.75,34.44,36.05,37.60,39.14,41.54,43.90,46.16,48.23,49.47,50.16,50.63,51.04,51.43,51.47,51.57,52.13,53.54,55.47,57.36,59.18,60.88,62.23,61.77,60.75,59.59,58.62,58.24,59.06,61.30,65.02,68.96,71.33,73.13,74.40,73.92,73.83,76.14,79.68,82.45,83.59,83.83,83.47,82.62,80.65,76.26,72.30,70.25,71.74,74.39,76.80,78.71,79.94,80.28,79.87,78.03,74.92,72.01,71.69,72.39,73.64,75.12,75.99,76.77,77.39,77.73,77.44,77.20,77.02,76.83,76.43,76.32,76.19,75.99,75.70,75.30,74.74,73.96,72.93,71.53,70.06,68.69,67.25,65.48,63.62,61.50,59.50,57.84,56.22,54.97,53.76,52.49,51.21,49.96,48.86,47.86,46.85,45.72,44.58,43.41,42.20,41.04,39.66,38.11,36.62,35.54,35.05,34.89,34.88,34.88,34.88,34.93,35.03,35.17,35.31,35.60,35.86,36.09,36.32,36.52,36.64,36.70,36.70,36.63,36.55,36.51,36.49,36.47,36.40,36.37,36.29,36.07,35.86,35.74,35.76,35.88,36.03,36.18,36.34,36.51,36.73,36.90,37.06,37.24,37.45,37.62,37.77,37.93,38.08,38.24,38.39,38.55,38.68,38.78,38.93,39.07,39.19,39.29,39.43,39.51,39.60,39.73,39.94,40.34,41.86,43.66,45.07,45.24,45.45,45.58,45.70,45.91,46.20,46.46,46.69,46.91,46.90,46.83,46.80,46.78,46.70,46.61,45.68,44.55,44.17,44.17,44.11,44.04,43.99,44.15,44.25,44.37,44.49,44.57,44.57,44.61,44.60,44.46,44.29,44.07,44.01,44.11,44.11,44.04,43.90,43.67,43.30,42.91,42.68,42.52,42.41,42.59,42.34,41.94,41.53,41.26,41.07,40.89
29.39,29.78,30.46,31.88,33.45,34.85,35.90,36.40,36.26,36.09,35.88,35.53,34.79,33.78,32.66,31.57,30.62,30.00,29.55,29.22,28.91,28.80,28.83,28.81,28.58,27.99,27.07,26.32,26.05,26.55,27.06,27.56,28.07,28.61,29.15,29.61,30.34,31.56,33.19,35.19,37.00,38.68,40.56,43.43,46.21,48.68,50.64,51.67,52.23,52.60,52.91,53.15,52.97,52.80,53.03,54.05,55.88,57.70,59.48,61.25,63.34,64.02,63.58,62.39,61.09,59.95,60.70,63.11,66.72,70.33,72.78,74.83,76.46,76.53,76.95,79.10,82.15,84.64,85.50,85.54,84.65,82.87,80.65,76.64,74.09,73.83,75.87,78.50,80.29,81.51,82.51,82.81,82.25,80.55,77.87,75.22,75.01,75.62,76.65,77.85,78.83,79.82,80.75,81.54,81.71,81.84,81.76,81.41,80.76,80.35,79.95,79.57,79.20,78.67,77.97,77.01,75.78,74.23,72.60,70.99,69.33,67.44,65.42,63.21,61.04,59.08,57.53,56.25,54.99,53.67,52.32,50.97,49.78,48.69,47.61,46.46,45.27,44.04,42.79,41.60,40.30,38.86,37.41,36.19,35.53,35.28,35.20,35.12,35.15,35.25,35.38,35.53,35.69,35.96,36.18,36.39,36.62,36.86,36.95,36.97,36.96,36.92,36.88,36.86,36.86,36.86,36.81,36.76,36.62,36.39,36.16,35.99,35.87,35.82,35.91,36.06,36.23,36.42,36.62,36.81,36.97,37.15,37.34,37.49,37.65,37.80,37.96,38.11,38.26,38.40,38.51,38.63,38.78,38.91,39.03,39.14,39.26,39.37,39.46,39.55,39.67,39.78,40.65,42.17,44.02,44.97,45.28,45.45,45.63,45.89,46.20,46.46,46.72,47.01,47.14,47.14,47.11,47.11,47.06,46.99,46.10,45.09,44.91,44.88,44.82,44.74,44.69,44.85,44.94,45.06,45.19,45.27,45.27,45.32,45.33,45.20,45.05,44.89,44.86,44.96,45.00,44.93,44.81,44.59,44.24,43.85,43.63,43.48,43.38,43.64,43.51,43.18,42.80,42.56,42.36,42.14
29.08,29.33,29.75,30.56,31.83,33.10,34.13,34.68,34.58,34.44,34.31,34.17,33.80,32.86,31.72,30.63,29.89,29.51,29.16,28.80,28.48,28.24,28.14,27.95,27.48,26.94,26.37,26.05,26.11,26.56,27.03,27.53,28.06,28.60,29.13,29.61,30.39,31.67,33.29,35.69,37.80,39.71,42.07,45.20,48.38,51.05,52.78,53.64,54.12,54.42,54.61,54.76,54.55,54.22,54.04,54.39,56.04,57.75,59.40,61.09,63.86,66.20,66.76,65.71,64.00,62.04,62.73,65.19,68.31,71.47,74.14,76.53,78.53,79.49,80.33,82.13,84.59,87.05,87.46,87.19,85.67,82.85,80.48,77.16,76.54,78.46,80.52,82.55,83.46,83.99,84.89,85.26,84.68,83.07,80.71,78.63,78.60,79.11,79.86,80.70,81.85,83.02,84.26,85.48,85.85,85.97,85.79,85.32,84.62,83.98,83.34,82.80,82.44,81.79,80.97,79.86,78.45,76.92,75.15,73.27,71.33,69.39,67.15,64.89,62.60,60.37,58.85,57.44,56.09,54.75,53.37,51.98,50.69,49.48,48.31,47.14,45.92,44.64,43.33,42.09,40.77,39.47,38.18,36.89,36.18,35.85,35.66,35.46,35.53,35.67,35.83,35.98,36.14,36.36,36.55,36.73,36.96,37.18,37.25,37.25,37.24,37.24,37.24,37.24,37.24,37.24,37.24,37.12,36.94,36.71,36.48,36.30,36.07,35.83,35.81,35.94,36.13,36.34,36.50,36.73,36.90,37.06,37.21,37.36,37.52,37.67,37.83,37.98,38.13,38.24,38.35,38.50,38.65,38.75,38.86,39.00,39.08,39.22,39.33,39.41,39.49,39.65,39.75,40.64,42.57,44.60,45.09,45.32,45.57,45.88,46.19,46.44,46.70,47.01,47.32,47.40,47.42,47.43,47.43,47.36,46.55,45.68,45.67,45.60,45.52,45.44,45.40,45.55,45.64,45.76,45.90,45.98,45.98,46.03,46.05,45.97,45.82,45.73,45.73,45.81,45.89,45.83,45.71,45.51,45.19,44.81,44.59,44.44,44.34,44.66,44.66,44.42,44.10,43.96,43.80,43.59
28.83,29.12,29.46,29.87,30.51,31.42,32.41,33.01,32.92,32.90,32.98,33.09,32.81,32.09,31.10,30.10,29.65,29.28,28.93,28.59,28.23,27.89,27.59,27.24,26.78,26.29,25.96,25.94,26.22,26.63,27.09,27.54,27.98,28.47,28.90,29.32,29.99,31.19,33.50,36.01,38.36,40.71,43.52,46.62,49.92,52.81,54.77,55.67,56.17,56.34,56.32,56.36,56.06,55.63,55.20,54.96,56.11,57.44,58.80,60.41,63.82,67.54,69.27,68.82,67.01,64.66,64.64,66.37,69.07,72.19,75.23,78.25,81.23,83.91,85.33,86.33,87.47,89.35,89.21,88.37,86.38,83.24,80.43,79.13,80.12,82.63,84.49,86.05,86.75,87.03,87.37,87.60,86.87,85.39,83.53,82.19,82.29,82.85,83.61,84.41,85.46,86.74,88.16,89.49,89.77,89.70,89.43,88.94,88.14,87.36,86.47,85.65,85.05,84.10,83.02,81.80,80.45,79.07,77.15,75.13,73.09,71.05,68.81,66.42,63.97,61.59,59.57,58.12,56.76,55.40,54.07,52.73,51.46,50.21,48.94,47.68,46.39,45.06,43.70,42.35,40.94,39.71,38.63,37.59,36.84,36.42,36.15,35.90,35.98,36.12,36.28,36.43,36.58,36.81,36.99,37.17,37.40,37.58,37.67,37.67,37.62,37.62,37.62,37.62,37.62,37.62,37.57,37.41,37.21,37.03,36.80,36.54,36.28,36.06,35.95,35.93,36.04,36.23,36.44,36.61,36.77,36.93,37.08,37.24,37.39,37.55,37.70,37.85,37.96,38.08,38.22,38.37,38.47,38.59,38.74,38.87,38.95,39.05,39.17,39.28,39.36,39.52,39.66,40.20,41.44,43.61,44.72,45.26,45.51,45.82,46.08,46.31,46.55,46.82,47.18,47.43,47.62,47.75,47.75,47.68,47.05,46.38,46.38,46.30,46.22,46.15,46.09,46.19,46.32,46.46,46.61,46.74,46.75,46.76,46.77,46.74,46.64,46.60,46.63,46.71,46.78,46.72,46.63,46.45,46.09,45.75,45.55,45.40,45.31,45.67,45.81,45.64,45.35,45.36,45.21,44.97
28.59,28.87,29.15,29.41,29.73,30.28,30.97,31.43,31.47,31.57,31.74,31.93,31.73,31.19,30.45,29.71,29.38,29.00,28.65,28.32,27.94,27.55,27.17,26.75,26.29,25.82,25.75,25.97,26.39,26.80,27.26,27.69,28.10,28.51,28.90,29.29,30.01,31.38,33.98,36.54,39.12,41.86,44.95,48.09,51.47,54.61,57.00,57.98,58.43,58.42,58.10,57.92,57.50,57.00,56.45,55.90,56.29,57.27,58.48,60.08,64.22,68.62,71.11,71.30,69.52,67.06,66.49,67.60,69.94,73.03,76.24,79.95,84.01,87.43,89.06,89.65,90.05,91.23,90.71,89.41,87.10,84.02,82.22,82.73,84.60,86.98,88.54,89.69,90.26,90.49,90.61,90.52,89.73,88.35,86.70,85.75,85.96,86.63,87.52,88.43,89.43,90.73,92.12,93.34,93.54,93.34,92.95,92.37,91.52,90.54,89.41,88.28,87.31,86.15,84.87,83.55,82.22,80.77,78.88,76.85,74.74,72.57,70.23,67.75,65.25,62.80,60.48,58.85,57.45,56.12,54.80,53.54,52.23,50.86,49.44,48.10,46.74,45.35,43.94,42.55,41.11,39.91,38.91,38.01,37.37,36.94,36.62,36.35,36.43,36.57,36.72,36.88,37.03,37.23,37.42,37.61,37.81,37.97,38.05,38.06,38.04,38.01,38.01,38.01,38.01,38.01,37.91,37.71,37.51,37.35,37.09,36.79,36.51,36.28,36.15,36.04,36.03,36.13,36.34,36.49,36.65,36.80,36.95,37.11,37.26,37.42,37.56,37.69,37.80,37.94,38.08,38.21,38.31,38.45,38.59,38.72,38.82,38.90,39.01,39.14,39.27,39.42,39.58,39.90,40.63,42.52,43.99,44.92,45.40,45.69,45.92,46.15,46.39,46.66,47.05,47.37,47.67,47.92,48.03,47.99,47.57,47.11,47.08,47.00,46.93,46.85,46.79,46.84,47.00,47.17,47.32,47.48,47.48,47.50,47.51,47.48,47.43,47.44,47.49,47.57,47.68,47.62,47.54,47.37,47.02,46.71,46.51,46.37,46.31,46.69,46.95,46.89,46.68,46.76,46.62,46.36
28.36,28.60,28.84,29.14,29.39,29.59,29.76,29.92,30.21,30.42,30.58,30.72,30.57,30.18,29.78,29.45,29.06,28.68,28.33,28.00,27.62,27.23,26.85,26.43,25.97,25.50,25.71,26.13,26.59,27.05,27.52,27.98,28.39,28.71,29.09,29.48,30.40,32.14,34.69,37.24,40.04,43.11,46.35,49.59,53.04,56.44,59.43,60.51,60.87,60.61,59.95,59.42,58.88,58.34,57.78,57.16,56.57,57.24,58.40,60.06,64.99,69.48,72.40,73.25,71.63,69.26,68.31,68.88,70.90,73.99,77.20,81.62,86.86,90.19,91.72,92.24,92.37,92.76,91.99,90.34,87.85,85.13,85.55,87.71,89.84,91.48,92.65,93.45,93.97,94.30,94.48,93.95,93.17,91.84,90.17,89.32,89.63,90.46,91.56,92.71,93.71,94.94,96.13,97.04,97.19,96.90,96.36,95.63,94.78,93.57,92.19,90.73,89.28,87.97,86.54,85.15,83.77,82.08,80.37,78.44,76.29,73.98,71.43,68.94,66.47,64.00,61.53,59.63,58.14,56.88,55.57,54.40,52.99,51.43,49.82,48.43,46.98,45.52,44.06,42.67,41.28,40.07,39.06,38.21,37.81,37.42,37.07,36.80,36.88,37.02,37.17,37.32,37.48,37.63,37.84,38.04,38.20,38.35,38.39,38.43,38.48,38.40,38.39,38.39,38.39,38.39,38.24,38.03,37.83,37.66,37.35,37.05,36.74,36.48,36.40,36.25,36.10,36.05,36.21,36.36,36.52,36.67,36.83,36.98,37.14,37.29,37.42,37.50,37.65,37.81,37.93,38.02,38.17,38.33,38.44,38.54,38.69,38.77,38.85,38.98,39.21,39.36,39.51,39.71,40.09,41.34,42.97,44.36,45.26,45.50,45.73,45.96,46.22,46.54,46.92,47.25,47.59,47.96,48.27,48.29,48.10,47.86,47.78,47.71,47.63,47.55,47.48,47.49,47.68,47.87,48.02,48.18,48.18,48.24,48.25,48.18,48.18,48.24,48.32,48.41,48.56,48.51,48.43,48.28,47.97,47.67,47.47,47.35,47.33,47.71,48.10,48.19,48.09,48.17,48.02,47.77
28.08,28.28,28.51,28.77,29.05,29.27,29.41,29.52,29.68,29.80,29.91,30.01,29.90,29.68,29.39,29.07,28.74,28.36,27.99,27.64,27.30,26.91,26.53,26.11,25.68,25.60,25.93,26.38,26.85,27.37,27.83,28.30,28.71,29.02,29.41,30.18,31.53,33.53,36.03,38.61,41.46,44.56,47.76,51.88,56.06,59.88,62.99,64.84,65.44,65.03,63.94,62.82,61.57,60.25,59.07,58.31,57.70,57.84,58.56,60.19,65.19,69.76,73.05,74.56,73.76,71.71,70.53,70.68,72.40,75.20,78.46,83.23,88.79,91.39,93.14,93.97,94.22,94.35,93.00,91.07,88.78,86.82,88.59,90.73,92.71,94.44,96.03,97.07,97.84,98.27,98.32,97.77,97.14,96.31,95.40,95.03,95.10,95.76,96.78,97.74,98.70,99.70,100.48,100.85,100.81,100.36,99.69,98.82,97.68,96.18,94.53,92.86,91.24,89.59,88.12,86.63,85.05,83.35,81.70,79.82,77.67,75.26,72.71,70.08,67.47,64.97,62.60,60.55,58.99,57.77,56.46,55.02,53.48,51.88,50.26,48.83,47.37,45.92,44.51,43.11,41.68,40.34,39.25,38.64,38.26,37.90,37.56,37.25,37.38,37.53,37.65,37.77,37.93,38.08,38.28,38.49,38.64,38.75,38.78,38.81,38.87,38.84,38.80,38.78,38.78,38.78,38.58,38.35,38.11,37.86,37.55,37.28,36.99,36.72,36.60,36.45,36.29,36.19,36.20,36.26,36.39,36.54,36.70,36.85,36.97,37.10,37.25,37.37,37.48,37.62,37.76,37.88,37.99,38.14,38.28,38.40,38.50,38.63,38.75,38.91,39.14,39.30,39.45,39.62,39.86,40.42,41.62,43.25,44.77,45.30,45.54,45.80,46.09,46.41,46.79,47.12,47.47,47.84,48.15,48.39,48.51,48.52,48.49,48.41,48.33,48.25,48.19,48.19,48.38,48.57,48.71,48.82,48.87,48.94,48.99,49.01,49.01,49.11,49.21,49.30,49.40,49.43,49.39,49.23,48.87,48.61,48.39,48.28,48.35,48.74,49.12,49.32,49.36,49.39,49.29,49.05
27.81,27.96,28.19,28.42,28.70,28.92,29.06,29.13,29.21,29.29,29.36,29.41,29.36,29.21,29.00,28.72,28.39,28.01,27.64,27.28,26.95,26.59,26.19,25.80,25.50,25.75,26.19,26.66,27.14,27.66,28.13,28.59,29.01,29.35,30.02,31.46,33.31,35.36,37.71,40.24,43.05,46.14,49.45,54.23,58.94,63.13,66.40,68.33,68.94,68.52,67.38,66.07,64.50,63.03,61.64,60.22,58.99,58.62,59.16,60.97,65.87,70.33,73.81,75.94,76.18,74.77,73.59,73.21,74.04,76.51,80.00,84.94,90.37,92.62,94.68,95.71,95.95,95.89,94.19,92.12,90.11,88.91,91.28,93.43,95.38,97.26,99.32,100.66,101.60,102.06,102.00,101.52,101.01,100.54,100.20,100.13,100.09,100.62,101.52,102.39,103.42,104.25,104.71,104.73,104.43,103.77,102.89,101.81,100.41,98.62,96.76,94.92,93.13,91.24,89.65,88.06,86.34,84.56,82.89,81.06,78.98,76.59,73.94,71.16,68.45,65.96,63.67,61.51,59.93,58.83,57.64,56.12,54.58,52.93,51.10,49.40,47.91,46.50,45.10,43.65,42.20,40.79,39.64,39.09,38.68,38.34,38.01,37.70,37.83,38.00,38.14,38.25,38.40,38.54,38.72,38.91,39.06,39.14,39.16,39.18,39.24,39.26,39.21,39.17,39.15,39.13,38.88,38.65,38.38,38.08,37.77,37.50,37.24,37.00,36.87,36.74,36.60,36.49,36.41,36.35,36.36,36.43,36.57,36.70,36.80,36.93,37.09,37.24,37.32,37.45,37.61,37.75,37.83,37.97,38.12,38.27,38.37,38.51,38.67,38.84,39.05,39.23,39.39,39.54,39.70,39.85,40.57,42.07,43.89,45.06,45.36,45.66,45.96,46.28,46.67,46.99,47.33,47.69,48.02,48.40,48.73,48.95,49.00,48.97,48.95,48.92,48.89,48.87,49.06,49.25,49.38,49.46,49.54,49.60,49.66,49.71,49.71,49.80,49.90,49.97,50.03,50.10,50.09,49.94,49.63,49.44,49.25,49.17,49.26,49.58,49.89,50.12,50.23,50.23,50.14,49.94
