83.65,84.72,85.18,84.66,83.53,82.13,81.05,81.53,86.27,91.49,96.55,101.04,102.53,100.78,97.95,95.61,95.56,96.83,98.73,100.43,100.65,100.75,100.57,100.58,101.13,101.78,101.05,99.50,97.26,94.09,95.09,96.48,97.49,97.63,95.41,93.36,92.94,94.81,98.24,100.98,102.57,103.18,103.31,101.47,99.11,96.41,93.51,91.13,89.27,87.60,86.05,84.90,84.49,83.99,83.52,83.40,83.77,84.70,84.56,82.74,81.18,80.82,80.73,80.52,79.87,78.36,76.71,75.14,73.75,72.14,69.35,65.70,61.80,59.33,57.80,57.75,58.88,60.66,65.15,70.04,75.00,79.32,79.91,79.21,76.62,72.84,69.67,68.73,68.53,69.12,70.61,73.26,73.55,72.46,71.19,72.47,75.47,78.46,81.10,83.26,83.15,81.45,78.66,75.26,71.91,68.87,67.29,67.47,69.32,69.89,69.14,67.62,66.17,68.03,69.89,71.13,71.54,71.28,69.95,68.97,68.43,68.09,67.51,67.27,67.44,68.06,69.23,69.88,73.13,78.81,84.27,88.57,91.49,93.34,94.59,96.43,97.99,98.10,96.31,93.11,90.35,88.66,87.71,86.77,86.41,86.15,86.45,87.61,89.50,93.36,97.42,100.57,101.40,99.61,96.83,93.57,90.33,88.66,89.42,91.15,92.98,94.46,95.66,96.86,97.95,98.66,98.70,98.38,97.84,97.09,95.55,93.95,92.34,90.47,87.68,88.31,89.44,90.47,91.03,90.57,89.39,88.13,87.55,89.48,90.09,90.40,90.62,90.77,90.70,90.51,90.25,89.89,88.99,86.95,84.52,81.58,77.04,71.95,69.48,68.63,67.76,66.67,66.94,67.80,68.86,70.22,74.24,77.89,80.34,81.26,81.50,81.23,80.31,78.71,77.32,76.07,74.77,73.68,73.82,76.28,78.48,80.31,82.15,86.32,90.47,94.40,97.83,99.99,100.51,100.43,99.80,98.26,95.33,92.33,89.76,88.00,87.27,86.90,85.88,84.09,82.34,80.60,78.23,75.17,71.52,69.48,67.72,65.94,64.00,62.04,60.41,59.24,58.52,58.18,58.83,59.57
79.65,80.92,81.63,81.40,80.57,79.62,79.28,81.10,86.26,91.86,96.99,100.89,101.69,100.09,97.29,94.28,92.61,93.00,94.52,96.37,97.43,97.74,98.33,99.36,100.84,101.83,101.10,99.50,97.47,95.34,96.70,98.15,99.27,100.00,98.08,96.32,96.03,97.73,100.57,103.01,104.52,104.81,103.55,101.80,100.03,98.16,96.14,93.91,92.01,90.62,89.65,88.59,88.02,87.44,86.76,85.94,85.02,84.06,82.67,80.72,78.91,78.81,78.98,78.82,77.78,76.15,74.54,73.12,71.97,70.51,66.68,62.93,60.26,58.78,57.97,58.25,59.68,62.20,66.84,71.90,76.52,79.86,80.16,79.81,77.69,74.26,71.14,69.59,68.98,69.45,71.14,74.09,75.74,75.65,74.31,74.11,76.68,79.41,81.87,84.02,83.52,82.09,79.97,77.27,73.63,70.13,68.61,69.44,72.33,73.29,72.24,70.17,68.35,70.31,72.94,75.22,76.65,77.14,76.59,74.78,72.40,70.52,69.50,68.92,68.97,69.86,72.27,73.78,76.56,80.90,85.96,89.91,92.93,95.25,97.14,98.78,99.62,99.52,98.15,94.45,90.94,88.66,87.33,86.19,85.24,85.02,85.83,87.79,90.23,94.07,97.73,100.31,100.84,99.22,96.57,93.42,90.26,86.96,86.91,88.61,90.95,92.52,93.83,94.99,96.03,96.99,96.36,95.76,95.33,95.09,94.69,93.39,91.88,89.84,85.92,85.55,86.98,89.00,90.29,88.90,86.26,84.83,85.63,87.56,89.06,89.93,90.30,90.45,90.38,90.13,89.44,88.17,86.63,85.04,83.21,80.86,77.45,72.96,70.20,68.75,67.63,66.49,66.57,67.27,68.24,69.31,71.60,74.16,76.31,77.24,77.18,76.48,75.31,73.94,73.53,72.72,72.57,73.46,75.38,78.05,80.36,82.31,84.19,88.37,92.27,96.02,99.34,100.47,100.66,100.44,99.74,98.19,95.60,92.85,90.05,87.32,85.16,84.05,83.57,83.40,83.03,81.92,80.33,78.04,74.76,71.34,68.87,66.80,64.72,62.42,60.48,59.20,58.43,57.75,58.43,59.13
75.33,76.52,77.31,77.26,76.97,76.96,77.81,80.66,85.70,91.26,96.52,100.61,100.90,98.89,95.79,92.51,90.19,89.99,90.94,92.51,94.05,95.63,97.38,99.22,100.98,102.02,101.23,99.70,97.98,96.61,98.33,100.28,102.07,103.56,102.39,100.69,100.23,101.80,104.27,105.67,106.11,105.44,103.38,101.45,99.78,98.25,96.71,94.92,93.40,92.33,91.61,90.66,89.85,88.91,87.78,86.42,84.72,82.74,80.62,78.46,76.53,76.29,76.33,76.11,75.20,73.68,72.05,70.43,68.86,66.78,63.48,60.75,59.21,58.54,58.41,58.90,60.32,63.04,67.22,72.10,76.71,80.13,80.33,80.21,78.88,76.34,73.20,70.88,69.62,69.84,71.82,75.37,77.65,78.21,77.23,76.08,77.99,80.27,82.47,84.50,84.18,82.99,81.22,78.93,75.12,71.29,70.23,72.16,75.78,76.92,75.94,73.88,71.99,73.82,76.66,79.35,81.27,81.92,81.57,79.29,76.00,73.35,72.28,71.83,72.20,73.56,76.35,78.49,81.20,84.63,88.33,91.47,94.27,96.78,99.01,100.15,100.53,100.31,99.18,95.47,91.71,88.76,86.55,84.71,83.52,83.84,85.44,87.99,90.77,94.27,97.48,99.76,100.27,98.80,96.41,93.55,90.62,86.71,84.75,85.13,87.55,90.06,91.92,93.28,94.27,95.07,94.00,93.18,92.83,93.02,93.41,92.55,90.97,88.36,83.43,82.56,84.20,86.79,88.53,85.79,82.89,81.97,83.61,85.55,87.33,88.42,88.93,89.21,89.05,88.54,87.51,85.90,84.18,82.80,81.29,79.41,76.93,73.23,70.51,68.74,67.53,66.35,66.15,66.64,67.53,68.38,69.54,71.09,72.61,73.31,73.16,72.51,71.61,70.76,70.94,70.81,71.60,73.65,76.61,79.48,82.00,84.21,86.24,90.26,93.99,97.42,100.20,100.72,100.67,100.08,98.95,97.28,95.13,92.93,90.49,87.64,84.46,82.16,81.33,81.78,82.24,81.89,81.11,79.66,77.13,73.08,69.99,67.46,65.16,62.59,60.49,59.13,58.32,57.47,58.03,58.65
70.68,71.56,72.26,72.26,72.77,74.18,76.62,80.22,84.59,89.73,95.18,100.22,100.16,97.23,93.51,90.32,88.29,87.75,87.96,88.84,90.53,94.36,97.67,100.11,101.54,102.32,101.45,100.09,98.79,97.91,99.99,102.86,105.82,108.26,108.27,106.39,105.50,106.96,109.28,108.94,107.36,105.12,102.82,100.45,98.43,96.73,95.29,94.25,93.51,92.80,92.01,91.16,90.05,88.50,86.70,84.94,82.95,80.78,78.42,75.97,74.04,73.30,72.83,72.43,72.17,70.96,69.27,67.11,64.48,61.07,59.77,59.12,58.63,58.60,59.12,59.68,60.80,63.22,66.37,70.70,75.64,80.14,80.44,80.42,80.17,79.07,75.83,72.56,70.45,70.28,72.65,77.08,79.30,80.17,79.96,78.36,79.39,81.06,82.91,84.69,85.12,84.15,82.44,80.27,76.41,72.37,72.16,75.59,79.66,80.77,80.23,78.70,77.02,78.51,81.00,83.53,85.42,85.68,84.98,82.55,79.25,76.54,75.82,75.96,77.06,79.07,81.41,83.96,86.98,89.92,91.36,93.24,95.52,97.96,100.25,100.60,100.75,100.50,99.44,96.18,92.65,88.96,85.38,82.36,81.25,82.63,85.28,88.20,91.13,93.97,96.70,98.92,99.67,98.36,96.34,93.94,91.40,87.83,82.93,80.76,82.84,87.07,89.94,91.74,92.65,92.91,91.63,90.65,90.34,90.89,91.72,91.42,89.64,86.06,80.24,79.34,81.09,83.87,85.78,81.31,79.29,79.53,81.51,83.44,84.92,85.92,86.57,87.10,86.74,85.80,84.52,83.11,81.63,80.23,78.79,77.26,75.52,72.78,70.42,68.63,67.47,66.23,65.70,65.91,66.74,67.45,68.04,68.67,69.24,69.49,69.42,69.27,69.13,69.12,69.49,70.26,71.80,74.23,77.54,80.57,83.43,86.02,88.28,92.00,95.65,98.61,100.43,100.75,100.55,99.38,97.48,95.57,93.98,92.59,91.05,88.94,85.11,81.21,79.17,79.28,80.04,80.56,80.63,80.07,78.66,74.72,71.08,67.96,65.33,62.56,60.42,59.04,58.20,57.35,57.62,58.13
68.60,69.17,69.65,70.40,71.89,74.08,76.93,80.28,84.81,89.55,94.26,98.58,97.24,94.41,91.30,88.63,86.67,86.52,87.50,89.25,91.37,95.51,98.74,101.01,102.39,102.93,102.01,100.91,100.00,98.96,101.72,105.07,108.12,110.20,110.28,109.40,108.92,109.41,109.99,107.36,104.50,101.95,99.40,97.63,96.28,94.93,93.27,92.07,91.30,90.72,90.21,89.64,88.63,87.14,85.37,83.59,81.68,79.26,76.57,73.85,71.55,70.53,70.00,69.70,69.47,68.05,66.34,64.23,61.72,60.16,59.62,59.40,59.30,59.49,59.77,60.24,61.39,63.83,66.60,69.74,73.80,78.48,80.00,80.39,80.47,80.09,78.49,75.48,72.69,71.92,74.54,78.55,80.23,80.89,80.99,80.21,80.74,81.99,83.66,85.43,86.03,85.21,83.51,81.28,78.22,75.00,75.36,78.88,82.32,84.06,84.03,83.21,82.71,83.66,85.72,87.57,88.58,88.62,87.84,85.39,82.26,80.16,80.53,81.72,83.59,85.83,86.98,88.27,89.86,91.65,93.20,94.72,96.79,98.92,100.49,100.71,100.57,99.91,98.52,95.84,92.60,89.10,85.36,81.34,80.36,81.71,84.40,87.54,90.48,92.79,94.86,96.51,97.00,95.85,94.68,93.37,91.57,88.01,82.92,79.79,80.04,82.45,86.09,89.16,91.04,91.22,89.80,88.50,87.77,87.87,88.72,88.61,87.00,83.80,79.24,77.59,78.70,81.19,83.20,80.00,77.81,77.64,79.45,80.96,81.97,82.68,83.17,83.48,83.20,82.36,81.06,79.45,77.93,76.89,75.69,74.26,72.93,71.17,69.60,68.28,67.16,65.97,65.19,65.12,65.78,66.38,66.73,67.13,67.58,67.95,68.44,68.90,69.25,69.56,71.16,72.42,73.76,75.42,77.58,80.59,83.61,86.62,89.71,93.04,96.49,99.09,100.34,100.37,99.36,97.38,94.96,93.17,91.84,90.76,89.64,88.10,85.08,81.79,79.10,77.43,77.12,77.83,78.09,77.81,77.12,74.21,71.07,67.84,64.60,61.30,59.75,58.71,57.84,57.03,57.29,57.74
67.05,67.54,68.23,69.62,71.85,74.57,77.65,81.12,85.86,90.10,93.67,96.48,94.33,91.65,89.05,86.86,84.97,85.47,87.34,89.96,92.59,96.58,99.61,101.77,103.22,103.53,103.04,102.39,101.77,100.99,104.01,107.30,110.04,111.71,111.49,111.17,110.88,110.50,109.09,104.97,101.30,98.46,95.78,94.69,93.98,93.00,91.29,89.77,88.88,88.39,88.10,87.73,86.86,85.54,83.93,82.20,80.25,77.73,74.93,72.12,69.74,68.47,67.69,67.22,66.93,65.40,64.00,62.48,60.71,60.73,60.76,60.93,61.24,61.47,61.19,61.09,61.88,64.35,66.84,69.21,72.51,76.83,78.96,79.98,80.56,80.73,80.22,77.74,75.04,74.17,76.68,79.78,81.02,81.55,81.86,81.78,82.09,83.02,84.41,85.98,86.67,86.25,84.82,82.55,79.94,77.60,78.51,82.06,85.03,87.06,87.47,87.24,87.45,87.94,89.36,90.50,90.90,90.80,90.04,88.07,85.72,84.42,85.28,86.75,88.62,90.51,90.92,91.32,91.92,92.91,94.61,96.03,97.87,99.56,100.50,100.54,99.96,98.79,97.09,95.00,92.24,88.80,84.81,80.48,79.66,80.72,83.07,86.14,88.94,90.99,92.67,93.91,94.22,93.40,92.90,92.32,90.99,87.69,82.96,79.43,78.26,78.97,82.37,85.80,88.19,88.57,87.23,85.92,84.97,84.60,85.13,85.05,83.81,81.38,78.17,76.06,76.59,78.64,80.52,78.49,76.32,75.78,77.27,78.43,79.12,79.60,79.91,80.04,79.38,78.32,76.94,75.35,74.11,73.45,72.63,71.56,70.69,69.69,68.70,67.69,66.65,65.55,64.69,64.53,65.17,65.80,66.26,66.71,67.20,67.70,68.74,69.86,70.85,71.70,73.95,75.35,76.34,77.19,78.22,81.04,84.15,87.41,90.86,93.78,96.88,99.01,99.60,99.12,97.35,94.89,92.37,90.78,89.66,88.78,87.94,86.89,84.69,82.06,79.07,76.14,74.53,75.01,75.29,75.22,75.02,73.04,70.20,66.75,63.07,60.18,59.12,58.32,57.48,56.76,57.02,57.41
66.08,66.90,68.52,70.30,72.90,75.73,78.90,83.16,88.15,91.70,93.55,93.73,91.63,89.07,86.73,84.89,83.10,84.63,87.46,90.82,94.04,97.34,100.08,102.31,103.97,104.08,104.80,104.90,104.40,104.61,107.18,109.58,111.46,112.78,111.76,111.16,110.67,109.67,105.99,101.72,97.90,94.70,92.07,91.69,91.50,90.89,89.46,87.39,86.35,85.88,85.68,85.36,84.67,83.64,82.31,80.73,78.53,76.15,73.58,70.96,69.03,67.54,66.17,65.07,64.63,63.20,62.65,62.52,62.37,63.23,63.67,64.31,65.10,65.14,63.87,62.44,62.20,64.67,67.01,69.34,72.13,75.36,76.99,79.00,80.39,80.88,80.47,78.84,77.41,77.28,79.14,80.66,81.64,82.26,82.63,82.95,83.44,84.19,85.14,86.17,86.86,87.25,86.50,84.26,81.51,80.03,81.47,85.04,87.91,89.66,90.38,90.53,90.63,90.77,91.20,91.67,91.98,91.83,91.24,90.53,89.92,89.66,89.98,90.50,91.11,91.73,92.19,92.48,92.91,93.74,95.44,97.10,98.61,99.73,100.23,99.98,98.69,96.88,94.95,93.46,91.46,87.78,83.31,79.77,79.16,79.59,81.11,83.61,86.07,88.25,90.00,91.16,91.47,91.25,91.08,90.59,89.30,86.63,82.92,79.76,77.95,77.46,79.04,81.28,83.37,84.34,83.45,82.62,81.81,81.00,80.69,80.44,79.86,78.72,76.79,74.78,74.88,76.28,77.67,76.38,74.58,73.92,74.87,75.84,76.50,76.84,76.95,77.04,75.22,73.38,71.78,70.62,70.17,69.91,69.69,69.44,69.11,68.52,67.71,66.77,65.82,64.87,64.19,64.26,65.14,66.02,67.10,68.00,68.69,69.29,70.86,72.69,74.59,76.40,78.25,79.30,79.75,79.81,79.90,82.29,85.36,88.61,91.62,94.09,96.64,98.07,97.82,96.50,94.10,91.72,89.76,88.47,87.50,86.67,85.96,85.28,83.77,81.68,78.94,75.71,72.52,72.17,72.24,72.32,72.28,70.99,68.02,64.13,60.32,59.35,58.61,57.86,57.13,56.56,56.83,57.15
65.28,66.57,68.50,70.63,73.67,76.87,80.24,84.48,88.77,91.20,91.83,91.02,88.70,86.27,84.04,82.24,81.23,82.44,85.47,89.44,92.88,95.82,98.58,101.02,103.06,104.91,106.89,108.40,109.02,108.11,110.00,111.61,112.37,112.07,110.51,109.21,108.01,106.49,103.16,99.47,95.73,92.32,89.77,89.37,89.11,88.36,86.75,84.99,83.85,83.32,83.20,82.89,82.34,81.29,79.73,77.74,75.58,73.72,71.85,69.90,68.33,66.78,65.80,65.34,65.00,64.43,64.26,64.37,64.64,65.36,66.93,68.67,69.93,69.32,67.01,64.60,63.18,63.89,66.53,69.14,71.78,74.40,76.68,78.99,80.45,81.00,81.02,80.06,79.34,79.37,80.45,81.41,82.12,82.45,82.47,82.66,83.01,83.50,84.07,84.63,85.33,86.20,86.78,86.53,83.95,83.77,85.53,88.27,90.12,91.37,91.92,92.11,92.30,92.34,92.52,92.77,92.97,92.85,92.37,91.96,91.77,91.86,92.05,92.35,92.53,92.47,92.41,92.52,92.89,93.67,95.08,96.61,97.62,97.88,97.27,96.31,95.23,93.90,92.38,91.07,89.08,85.36,81.29,79.31,78.75,79.01,79.92,81.26,82.56,84.20,85.64,86.62,86.84,86.87,86.80,86.38,85.35,83.45,81.14,78.95,77.21,76.24,77.02,78.47,79.95,80.70,79.84,79.06,78.28,77.50,77.28,77.11,76.77,76.03,74.53,72.97,72.80,73.63,74.71,74.00,72.65,71.95,72.39,73.23,73.85,74.12,74.11,73.99,72.31,70.80,69.66,68.98,68.63,68.44,68.30,68.17,67.98,67.47,66.69,65.77,64.89,64.13,63.67,64.09,65.44,66.69,67.86,69.37,71.17,73.00,75.37,77.58,79.65,81.59,83.24,83.98,84.21,84.17,84.13,85.60,87.86,90.43,92.79,94.49,96.34,96.88,95.55,93.68,91.35,89.38,87.85,86.53,85.40,84.56,83.94,83.39,82.24,80.39,77.77,74.50,71.14,69.94,69.58,69.51,69.21,67.65,64.57,61.41,59.21,58.71,58.05,57.33,56.70,56.36,56.64,56.95
64.52,66.24,68.27,70.59,74.30,78.04,81.57,85.44,88.54,89.73,89.35,88.02,85.51,83.41,81.53,79.97,79.78,80.57,83.46,87.56,90.85,93.49,96.36,99.16,101.75,105.37,108.47,111.25,112.91,110.99,112.18,113.01,112.72,110.94,108.82,106.74,104.77,102.82,100.33,97.27,93.77,90.36,87.98,87.27,86.75,85.77,83.93,82.46,81.22,80.60,80.48,80.05,79.52,78.39,76.65,74.40,72.56,71.30,70.17,68.92,67.66,66.37,66.04,66.38,66.28,66.49,66.52,66.60,66.96,67.49,70.13,73.00,74.76,73.57,70.01,66.69,64.25,63.05,66.00,68.81,71.33,73.61,76.40,78.71,80.14,80.85,81.36,81.09,80.90,80.98,81.40,81.92,82.28,82.27,81.95,81.90,82.03,82.24,82.48,82.68,83.29,84.41,86.13,87.95,86.48,87.45,89.27,91.09,92.02,92.66,92.92,93.04,93.23,93.18,93.26,93.36,93.42,93.42,93.11,92.85,92.76,92.90,92.98,93.12,93.05,92.62,92.11,92.10,92.46,93.20,94.33,95.46,95.78,95.14,93.53,92.09,91.36,90.63,89.60,88.40,86.25,82.84,79.61,78.93,78.37,78.54,78.98,79.33,79.60,80.54,81.49,82.18,82.31,82.44,82.37,82.02,81.33,80.16,79.07,77.77,76.24,75.12,75.39,76.19,77.04,77.37,76.48,75.55,74.72,74.10,74.10,74.05,73.84,73.34,72.23,71.24,70.94,71.28,72.03,71.76,70.90,70.26,70.29,70.96,71.45,71.64,71.56,71.25,70.05,69.03,68.34,68.00,67.62,67.42,67.26,67.11,66.95,66.46,65.68,64.80,64.04,63.46,63.16,63.82,65.53,67.12,68.35,70.39,73.28,76.58,79.62,82.11,84.28,86.28,87.80,88.33,88.52,88.59,88.55,89.18,90.62,92.48,94.21,95.30,96.31,95.91,93.70,91.42,89.30,87.66,86.33,84.82,83.41,82.46,81.83,81.27,80.07,78.43,76.07,73.07,70.00,68.10,67.18,66.70,65.99,64.12,61.32,59.17,58.45,58.04,57.43,56.77,56.23,56.15,56.45,56.75
63.83,65.71,67.67,69.69,74.68,79.33,82.79,85.77,86.95,86.75,85.64,84.13,81.76,80.54,79.80,79.27,79.52,80.51,82.77,85.69,87.94,90.21,93.34,96.85,100.39,104.55,108.36,111.55,113.42,112.14,112.72,112.75,111.80,109.70,106.84,103.99,101.42,99.25,97.31,94.58,91.59,88.79,86.75,85.39,84.44,83.25,81.35,79.59,78.20,77.46,77.12,76.20,75.35,74.20,72.73,71.03,70.12,69.48,68.87,68.11,67.05,66.87,67.35,68.10,68.49,68.73,68.76,68.78,69.02,69.80,73.00,76.58,78.96,77.67,72.30,68.08,65.15,62.73,65.73,68.27,70.63,72.96,75.22,77.06,78.60,79.88,80.89,81.48,81.70,81.80,81.99,81.82,81.61,81.31,80.95,80.70,80.55,80.53,80.59,80.63,80.89,81.78,83.67,86.53,88.66,90.10,91.38,92.57,93.49,93.30,93.21,93.16,92.96,92.72,92.63,92.52,92.39,92.68,92.80,92.81,92.72,92.52,92.30,91.97,91.64,91.35,91.00,91.05,91.44,92.15,93.19,93.34,92.60,91.14,89.27,88.22,87.70,87.21,86.49,85.44,83.14,80.90,79.24,78.61,78.00,78.02,78.30,78.55,78.67,78.86,79.05,79.21,79.24,79.28,79.11,78.83,78.54,77.91,77.25,76.21,74.85,74.17,74.02,74.34,74.73,74.57,73.72,72.36,71.27,70.97,70.97,70.95,70.88,70.70,70.38,70.09,69.96,70.02,70.25,70.12,69.77,69.47,69.40,69.68,69.81,69.85,69.77,69.46,68.88,68.11,67.41,66.98,66.59,66.39,66.24,66.08,65.93,65.48,64.72,63.94,63.46,63.03,62.67,63.18,64.79,66.52,68.07,70.35,73.72,78.45,81.58,84.29,86.81,89.21,90.63,91.26,91.72,92.08,91.89,92.24,93.32,94.78,96.13,97.21,97.08,95.72,93.36,90.94,88.99,87.25,85.50,83.49,81.74,80.41,79.47,78.69,76.40,75.07,73.55,71.47,69.10,67.05,65.31,63.83,62.54,60.92,59.50,58.41,57.67,57.16,56.70,56.15,55.73,55.95,56.25,56.56
63.86,66.13,67.99,70.20,75.69,80.32,83.07,85.09,84.86,83.83,82.47,81.22,79.59,78.97,78.95,79.29,80.05,82.41,85.16,87.64,89.09,91.30,94.43,97.84,100.99,104.29,108.04,111.35,113.43,112.89,113.02,112.48,111.18,109.19,106.17,103.07,100.21,97.73,95.51,92.76,89.92,87.33,85.40,83.58,82.27,80.94,79.14,77.25,76.56,76.33,76.18,75.82,75.29,74.38,73.11,71.57,70.06,69.26,68.75,68.21,67.48,67.63,68.41,69.72,71.42,72.21,72.46,72.36,72.18,72.96,75.86,79.13,81.26,79.68,73.58,69.03,66.00,63.33,65.14,67.21,69.32,71.31,73.09,74.91,77.08,79.28,80.64,81.36,81.55,81.52,81.51,81.09,80.17,79.02,77.81,76.75,76.24,76.29,76.91,78.10,79.14,80.89,83.85,87.90,90.39,91.96,92.65,92.78,93.06,92.56,92.42,92.36,92.08,91.74,91.55,91.37,91.27,91.66,91.82,91.83,91.70,91.43,90.95,90.12,89.33,88.85,88.61,88.89,89.47,90.20,90.87,90.34,89.05,87.34,85.62,84.83,84.45,84.07,83.47,82.53,80.93,79.61,78.70,78.15,77.64,77.47,77.52,77.63,77.57,77.47,77.36,77.27,77.20,77.07,76.82,76.55,76.35,75.89,75.39,74.61,73.60,73.23,72.98,72.99,73.02,72.65,71.74,70.72,70.01,69.87,69.87,69.84,69.78,69.71,69.63,69.55,69.47,69.43,69.43,69.28,69.05,68.82,68.68,68.80,68.76,68.69,68.55,68.24,67.86,67.23,66.68,66.45,66.17,65.85,65.60,65.40,65.18,64.73,64.07,63.41,63.02,62.64,62.23,62.54,63.84,65.51,67.11,69.05,71.55,74.85,81.12,84.97,87.49,89.75,91.01,91.96,92.99,94.06,94.58,95.00,95.94,97.15,98.17,98.78,98.00,96.24,93.85,91.52,89.62,87.83,85.98,83.92,82.09,80.46,78.91,77.22,73.88,72.06,70.83,69.63,67.77,65.74,63.82,62.08,60.55,59.14,58.27,57.58,56.89,56.32,56.02,55.68,55.44,55.75,56.03,56.30
64.14,66.88,68.79,71.44,76.90,80.99,82.83,83.85,82.62,81.11,79.79,78.95,78.22,78.10,78.63,79.74,81.10,85.07,88.66,91.10,92.14,94.41,97.38,100.28,102.52,104.48,107.72,110.89,113.13,113.24,113.14,112.23,110.73,108.99,106.08,103.02,100.06,97.29,94.50,91.60,88.73,86.09,84.01,81.85,80.24,78.85,77.35,75.68,76.02,76.56,76.83,77.43,77.43,76.80,75.61,73.94,71.31,69.96,69.28,68.84,68.39,68.47,69.36,71.29,74.58,76.11,76.68,76.48,75.84,76.49,78.69,81.20,82.73,80.68,74.46,69.84,66.86,64.44,64.61,66.01,67.76,69.28,70.69,72.72,75.68,78.84,80.44,80.93,80.86,80.56,80.26,79.64,78.00,75.95,73.86,72.02,71.42,71.91,73.50,76.18,78.43,81.39,85.50,90.36,91.91,93.26,93.28,92.27,91.65,91.15,91.07,91.07,90.76,90.27,89.91,89.71,89.74,90.17,90.20,90.09,89.88,89.61,88.90,87.65,86.42,85.67,85.53,86.03,86.78,87.48,87.69,86.78,85.32,83.73,82.41,81.83,81.58,81.26,80.69,79.88,79.25,78.67,78.16,77.75,77.38,77.05,76.82,76.74,76.50,76.36,76.19,75.97,75.83,75.53,75.22,74.94,74.69,74.24,73.80,73.26,72.66,72.47,72.21,71.97,71.68,71.23,70.29,69.89,69.77,69.69,69.68,69.62,69.54,69.47,69.40,69.32,69.24,69.16,69.08,68.86,68.58,68.32,68.14,68.18,68.05,67.90,67.70,67.41,67.06,66.56,66.25,66.31,66.14,65.67,65.27,64.99,64.68,64.20,63.63,63.06,62.65,62.25,61.81,61.89,62.79,64.33,65.86,67.25,68.44,69.36,78.86,84.21,86.97,88.95,90.10,91.53,93.25,95.11,96.58,97.39,98.35,99.32,100.02,100.01,98.91,97.03,94.71,92.56,90.66,88.83,87.00,85.00,83.17,81.32,79.16,76.41,72.18,69.59,68.30,67.71,66.27,64.35,62.57,60.92,59.31,58.03,57.26,56.68,56.10,55.53,55.38,55.27,55.24,55.55,55.78,56.01
63.91,67.03,69.95,73.39,77.47,80.48,81.90,81.89,80.80,79.69,78.72,77.93,77.55,78.11,79.30,80.97,83.32,86.97,90.35,93.23,95.80,98.07,100.39,102.57,104.47,106.03,107.86,110.19,112.35,112.06,112.73,112.11,110.51,108.67,106.02,103.31,100.61,97.92,95.08,92.26,89.21,85.99,82.78,80.52,78.80,77.72,77.39,77.80,78.77,79.87,80.94,81.99,82.12,81.23,79.45,77.01,74.27,72.01,70.69,70.31,69.42,69.06,70.15,72.87,77.10,79.14,80.08,80.13,79.65,79.95,81.27,83.13,84.28,81.29,75.50,70.91,67.93,66.28,65.36,65.36,66.22,67.77,69.33,71.83,75.15,78.42,79.88,80.07,79.42,78.30,77.05,75.19,73.15,71.66,70.90,70.40,71.70,74.31,77.41,79.89,82.83,86.07,89.17,91.77,93.32,93.16,92.14,90.72,89.45,89.24,89.28,89.10,88.28,86.95,85.86,85.39,85.64,86.36,86.25,85.97,85.56,84.94,84.13,83.16,82.27,81.65,81.61,81.76,81.99,82.20,82.27,81.99,81.48,80.89,80.38,80.10,79.95,79.73,79.34,78.88,78.38,78.13,78.08,78.06,77.90,77.52,77.01,76.48,76.13,76.26,76.22,75.99,75.95,75.66,75.35,75.05,74.76,74.46,74.21,73.84,73.31,72.83,72.32,71.63,70.94,70.59,70.09,69.86,69.75,69.62,69.57,69.49,69.42,69.35,69.33,69.26,69.14,69.03,68.95,68.83,68.69,68.54,68.35,68.09,67.92,67.77,67.60,67.41,67.35,67.22,67.18,67.32,67.00,66.46,65.91,65.43,65.06,64.41,63.69,62.98,62.33,61.83,61.40,61.27,61.70,63.24,64.60,65.79,66.83,67.70,71.80,78.28,83.90,86.25,88.00,90.21,92.43,94.41,95.94,98.18,99.42,99.88,100.14,100.09,99.15,97.56,95.56,93.56,91.59,89.70,87.69,85.15,83.02,81.32,79.41,76.68,72.59,69.72,67.64,66.09,64.84,63.21,61.76,60.35,58.73,57.16,56.09,55.47,55.19,54.96,54.91,54.90,54.97,55.23,55.46,55.69
64.14,67.40,70.71,74.13,77.11,79.25,80.31,79.98,79.12,78.28,77.51,76.83,77.12,78.05,79.34,81.02,83.92,87.25,90.39,93.44,96.82,99.15,100.90,102.30,103.55,104.86,106.42,108.50,110.49,110.36,111.25,110.91,109.48,107.53,105.07,102.66,100.20,97.59,94.76,91.92,88.78,85.34,81.80,79.62,78.33,77.97,78.58,80.23,81.77,83.35,84.91,86.21,86.45,85.79,83.99,80.79,77.28,74.82,73.87,74.19,73.02,71.30,71.65,74.41,78.99,81.13,82.46,83.07,83.04,83.25,84.16,85.20,85.34,81.89,77.25,73.46,70.54,68.09,66.53,65.45,65.50,66.94,68.92,71.51,74.25,76.64,77.80,77.49,76.43,75.00,73.53,71.92,70.44,69.65,69.80,70.91,73.87,77.43,80.81,83.20,86.34,89.09,91.21,92.65,94.03,93.07,91.50,89.76,87.79,86.84,86.43,85.87,84.57,83.48,82.56,82.17,82.39,82.93,82.83,82.58,82.24,81.71,81.11,80.52,79.99,79.61,79.58,79.55,79.53,79.50,79.47,79.44,79.35,79.22,79.10,78.94,78.85,78.74,78.61,78.52,78.35,78.39,78.57,78.67,78.56,78.00,77.21,76.47,76.41,76.88,77.04,76.86,76.86,76.71,76.45,76.16,75.91,75.70,75.50,75.17,74.69,74.16,73.55,72.43,71.11,70.24,69.98,69.83,69.73,69.63,69.58,69.53,69.48,69.44,69.44,69.37,69.25,69.14,69.11,69.06,69.04,68.96,68.77,68.44,68.31,68.21,68.10,67.94,68.04,68.11,68.19,68.27,67.85,67.28,66.63,66.06,65.90,65.31,64.62,63.93,63.29,62.24,61.30,60.75,60.85,62.06,63.20,64.24,65.19,66.04,67.81,72.90,78.90,83.56,86.07,88.93,91.34,93.18,94.95,98.15,99.74,100.09,100.15,99.54,98.03,96.20,94.45,93.02,91.34,89.34,86.98,84.17,81.80,79.88,77.86,75.24,71.67,69.02,66.77,64.86,63.65,62.34,61.06,59.59,57.61,56.11,55.20,54.78,54.68,54.60,54.59,54.65,54.77,54.95,55.15,55.35
64.71,67.96,71.16,73.94,76.04,77.47,78.19,78.11,77.54,76.87,76.20,75.64,76.88,77.94,78.91,80.16,83.25,86.27,89.16,92.16,95.79,98.22,99.47,100.02,100.40,101.56,103.76,106.04,107.80,108.26,108.93,108.87,107.84,105.74,103.43,101.28,99.02,96.51,93.73,90.82,87.62,84.27,81.02,79.04,78.61,79.29,80.68,82.92,84.97,86.94,88.77,90.16,90.51,90.46,89.07,85.11,80.32,78.22,78.42,79.92,78.61,74.83,73.70,75.92,80.40,82.30,84.07,85.45,86.12,86.43,87.28,87.39,86.03,82.48,79.54,77.15,74.33,69.88,68.03,66.12,65.42,66.63,69.26,71.63,73.07,73.79,74.56,73.58,72.24,70.89,69.79,69.56,69.38,69.41,70.13,73.07,77.51,81.09,83.81,86.21,89.14,90.82,91.98,93.13,94.21,93.00,91.26,89.26,86.56,84.08,82.75,81.65,79.90,79.90,79.84,79.80,79.80,79.80,79.80,79.76,79.68,79.60,79.45,79.29,79.17,79.09,79.01,78.94,78.86,78.78,78.71,78.63,78.55,78.47,78.39,78.24,78.14,78.17,78.35,78.66,78.97,79.28,79.50,79.50,79.35,78.50,77.43,76.66,77.20,78.05,78.46,78.40,78.40,78.47,78.30,78.05,77.89,77.74,77.47,77.09,76.64,76.25,75.66,74.12,71.99,70.13,69.95,69.79,69.70,69.70,69.70,69.70,69.70,69.70,69.70,69.63,69.50,69.43,69.50,69.50,69.56,69.53,69.36,69.13,69.10,69.10,69.06,68.90,69.05,69.20,69.27,69.16,68.69,68.11,67.41,66.85,67.08,66.75,66.22,65.67,65.24,63.31,61.44,60.30,60.19,60.81,61.69,62.62,63.52,64.37,66.19,67.95,72.40,80.89,84.29,87.68,90.05,91.53,93.70,97.47,99.47,100.02,100.07,98.52,95.85,93.37,91.83,91.29,90.16,88.03,85.17,82.31,79.75,77.31,74.91,72.49,69.71,67.65,65.76,63.95,62.63,61.67,60.46,58.69,56.08,54.92,54.54,54.50,54.49,54.41,54.40,54.48,54.62,54.70,54.85,55.00
63.09,66.53,70.10,72.43,74.21,75.41,76.04,76.11,75.69,75.17,75.12,76.09,77.42,78.66,80.16,82.09,84.44,86.77,89.02,91.21,93.41,95.60,97.25,98.30,98.88,100.24,101.97,103.83,105.30,105.12,105.11,104.99,104.35,102.75,100.68,98.63,96.45,94.05,91.52,88.98,86.18,83.24,80.49,79.24,79.48,80.88,83.06,85.49,87.83,89.68,91.05,92.34,92.68,92.03,90.20,86.97,82.18,80.53,81.11,82.58,81.07,78.09,76.57,77.45,81.14,83.28,85.39,87.17,88.31,88.81,89.25,89.22,88.24,85.23,82.58,80.10,76.81,71.47,68.78,66.63,65.77,66.47,67.81,69.47,70.59,71.12,71.45,70.91,70.33,69.75,69.22,69.14,69.26,69.52,70.57,74.83,79.12,82.53,85.31,88.00,90.24,91.68,92.85,93.94,93.79,92.60,90.98,88.86,85.81,82.89,81.31,80.53,79.90,79.90,79.88,79.84,79.79,79.74,79.69,79.63,79.58,79.60,79.59,79.59,79.61,79.69,79.86,79.87,79.87,79.89,79.91,79.56,79.22,78.88,78.52,78.31,78.43,78.73,79.13,79.48,80.62,81.52,81.92,81.67,80.64,79.35,78.01,77.02,78.01,79.35,80.17,80.39,80.44,80.56,80.91,81.14,80.89,80.59,80.13,79.42,78.59,78.40,77.62,75.75,73.18,70.78,70.10,69.86,69.83,69.87,70.26,71.21,72.05,72.46,72.21,70.67,69.83,69.63,69.83,71.80,72.81,73.04,72.67,71.89,71.70,71.63,71.68,72.02,72.66,73.07,72.89,71.82,69.78,68.68,67.81,67.24,67.82,68.19,68.16,67.75,67.03,65.05,62.66,60.80,60.00,60.17,60.61,61.37,62.37,63.47,65.16,66.86,69.47,73.74,79.50,83.79,86.63,88.58,91.28,94.03,96.30,97.93,98.76,96.03,93.04,90.64,89.26,88.67,87.70,85.96,83.49,80.53,77.25,74.33,71.86,69.86,67.87,66.03,64.16,62.41,61.39,60.19,58.24,56.19,55.00,54.34,54.13,54.12,54.12,54.14,54.19,54.27,54.38,54.50,54.66,54.78
61.53,64.58,68.29,70.62,72.22,73.29,73.89,74.04,73.88,73.94,74.71,76.60,78.07,79.84,82.03,84.51,86.33,88.08,89.82,91.46,92.81,94.56,96.19,97.51,98.48,100.06,101.36,102.58,103.41,102.67,101.92,101.38,100.75,99.61,97.74,95.82,93.76,91.53,89.18,86.93,84.63,82.36,80.31,79.64,80.53,82.57,85.28,87.98,90.56,92.45,93.61,94.65,94.23,92.84,90.67,87.86,83.67,82.88,83.83,84.94,83.11,80.61,78.86,78.91,82.19,84.54,86.83,88.73,89.96,90.53,90.60,90.36,89.49,86.79,84.21,81.66,78.14,72.45,69.22,67.10,66.42,67.11,67.77,68.55,69.08,69.28,69.23,69.06,68.99,68.97,68.96,69.05,69.38,70.00,71.50,75.85,79.99,83.60,86.70,89.45,91.22,92.53,93.59,94.32,93.32,92.11,90.49,88.28,85.16,82.02,80.65,80.68,81.49,82.48,82.63,81.94,80.68,79.83,79.68,79.62,79.69,80.07,80.56,80.88,81.13,81.40,81.68,81.75,81.81,81.90,81.96,81.18,80.18,79.28,78.75,78.46,78.71,79.23,79.93,81.00,82.78,84.11,84.62,84.13,82.47,80.68,78.94,77.64,78.51,80.17,81.72,82.80,83.26,83.74,84.43,84.90,84.67,84.40,83.99,83.34,82.57,82.40,80.81,78.17,75.03,72.15,70.64,70.43,70.87,71.48,72.57,74.41,75.80,76.28,75.65,73.14,71.27,70.60,71.50,74.91,76.73,77.32,77.01,76.32,76.03,76.15,76.56,77.07,77.90,78.27,77.63,75.55,71.88,69.65,68.27,67.71,68.48,69.49,70.10,69.96,68.76,66.60,63.86,61.44,59.94,59.82,59.92,60.44,61.36,62.57,64.20,65.84,67.40,69.18,74.74,79.57,83.14,85.75,88.95,91.47,93.94,96.03,97.19,93.86,90.87,88.59,87.14,86.24,85.30,83.77,81.50,78.49,74.79,71.72,69.34,67.60,66.01,64.33,62.56,60.85,59.59,58.15,56.13,54.41,54.17,53.81,53.72,53.74,53.77,53.87,53.95,54.04,54.15,54.31,54.44,54.54
60.06,61.95,65.53,68.40,70.03,71.08,71.71,71.87,72.11,73.33,75.19,77.18,78.85,81.62,84.72,87.54,89.11,90.45,91.86,93.29,94.54,95.57,96.62,97.90,99.53,101.35,102.27,102.58,102.29,101.11,99.56,98.12,96.99,96.29,94.57,92.79,90.92,88.92,86.67,84.60,82.94,81.65,80.60,80.29,81.79,84.37,87.29,90.33,93.15,95.26,96.53,97.13,94.97,92.66,90.28,87.50,84.70,85.25,86.61,86.92,84.59,82.19,80.39,80.27,83.66,86.15,88.42,90.11,90.91,91.39,91.17,90.60,89.49,86.79,84.04,81.40,77.99,72.64,69.26,67.53,67.48,68.78,69.54,69.23,68.83,68.51,68.16,68.25,68.38,68.64,69.10,69.39,69.80,70.97,73.07,75.90,79.91,84.18,87.97,90.47,92.04,93.37,94.16,94.16,92.81,91.50,89.75,87.45,84.63,81.55,81.00,82.48,85.13,88.40,88.90,86.71,82.74,80.11,79.79,79.78,80.09,81.16,82.58,83.46,84.04,84.52,84.76,84.86,84.97,85.09,85.10,83.66,81.50,79.66,79.13,78.68,78.97,79.64,80.77,83.42,85.62,87.13,87.69,86.95,84.99,82.62,80.32,78.57,78.60,80.39,83.04,85.75,87.10,88.33,89.14,89.51,89.48,89.45,89.40,89.33,89.18,88.82,85.58,81.63,77.73,74.46,71.68,71.65,73.10,74.98,77.15,79.80,81.38,81.47,80.30,77.47,74.16,72.57,74.91,79.07,81.52,82.59,82.71,82.91,82.62,83.25,84.36,84.62,85.25,85.19,83.81,80.64,75.29,71.15,68.80,68.29,69.06,70.61,72.06,72.34,70.41,67.91,65.03,62.24,60.05,59.83,59.76,59.94,60.51,61.68,63.35,64.91,66.41,67.98,69.99,74.93,79.56,83.09,86.74,90.06,92.64,94.40,95.28,92.09,89.54,87.42,85.58,84.04,82.95,81.40,79.14,76.12,72.38,69.58,67.51,65.80,64.11,62.52,60.95,59.26,57.06,55.40,54.18,53.56,53.66,53.35,53.31,53.38,53.46,53.61,53.70,53.81,53.96,54.12,54.20,54.28
60.30,61.64,63.70,65.13,66.77,68.27,69.52,70.67,71.95,73.72,75.77,77.84,80.40,84.22,87.58,89.69,91.06,92.35,93.35,94.19,95.21,96.48,97.74,99.14,100.78,102.72,103.72,103.74,102.85,101.23,99.22,97.16,95.19,93.41,91.80,90.25,88.85,87.67,86.85,85.97,84.77,83.36,82.04,81.64,83.18,85.73,88.47,91.99,95.34,97.71,98.76,98.27,95.44,92.50,89.72,87.11,86.89,88.16,89.14,88.64,85.95,83.21,81.67,82.05,85.14,87.85,89.82,91.15,91.92,91.61,90.95,89.83,88.14,85.65,83.17,80.42,76.83,71.78,69.03,67.89,68.23,69.65,70.77,70.81,70.38,69.68,68.82,68.64,68.72,69.04,69.63,70.88,72.22,73.95,76.08,78.19,81.25,85.10,89.21,92.83,93.17,93.81,93.98,93.27,92.09,90.95,89.01,86.32,83.45,82.97,84.31,86.45,88.40,90.28,90.30,88.03,83.93,80.29,79.86,80.46,81.70,83.46,85.31,86.47,87.15,87.54,87.78,87.88,87.98,88.01,87.80,85.70,82.43,79.71,79.18,78.85,79.18,80.28,82.24,85.27,87.70,89.11,89.48,88.92,87.01,84.18,81.25,79.00,78.71,80.47,83.45,86.78,88.94,89.95,90.47,90.67,90.71,90.71,90.71,90.71,90.66,90.31,88.46,84.67,79.92,76.00,72.71,73.11,75.31,77.74,80.92,84.29,85.70,84.94,83.27,80.64,77.18,74.95,76.25,80.76,84.06,86.49,88.30,89.77,89.76,89.67,89.63,89.39,89.61,89.17,87.45,84.03,78.55,72.53,69.15,68.79,69.47,71.79,74.12,75.03,73.10,69.56,66.44,63.68,61.36,60.05,59.75,59.78,60.07,60.80,62.38,63.95,65.50,67.04,68.46,71.83,75.84,80.01,84.28,88.39,91.33,93.09,93.81,91.08,88.70,86.54,84.51,82.67,81.18,79.17,76.54,73.48,70.47,68.09,66.14,64.39,62.61,60.61,58.57,56.63,55.05,53.85,53.22,53.04,53.15,53.02,53.06,53.17,53.25,53.41,53.50,53.59,53.72,53.87,53.95,54.03
62.10,63.09,63.79,63.95,65.16,66.50,67.84,69.63,71.76,73.95,76.16,78.39,81.89,86.44,89.79,91.13,92.12,93.14,93.64,93.89,94.62,96.37,98.27,100.22,102.16,104.11,105.23,105.08,103.71,101.72,99.35,96.84,94.23,91.54,90.18,89.00,88.15,87.77,88.11,88.10,87.11,85.39,83.69,82.98,84.36,86.75,89.27,93.13,96.96,99.63,100.56,99.28,96.10,92.69,89.67,87.62,89.36,90.90,91.24,89.87,86.93,84.06,83.01,84.07,86.88,89.48,91.13,92.12,92.68,91.65,90.48,88.77,86.53,84.22,81.90,79.01,75.33,70.76,68.72,68.13,68.71,70.10,71.52,72.23,72.11,71.25,69.94,69.29,69.20,69.65,70.67,72.81,74.98,77.04,78.91,80.47,82.73,85.95,89.83,93.85,93.86,93.84,93.37,92.28,91.26,90.12,88.01,85.24,82.98,84.78,87.42,89.75,90.88,91.31,90.82,88.58,84.65,80.46,80.24,81.54,83.62,85.92,87.82,89.01,89.64,89.90,90.08,90.18,90.25,90.21,89.82,87.28,83.17,79.76,79.21,78.99,79.35,80.89,83.69,87.04,89.33,90.52,90.76,90.34,88.64,85.40,81.91,79.29,78.83,80.41,83.59,87.49,90.14,90.97,91.26,91.34,91.40,91.41,91.42,91.42,91.35,90.97,90.36,86.93,81.68,77.16,73.62,74.43,77.22,80.14,84.12,87.74,88.93,87.64,85.52,83.04,79.64,76.96,76.98,81.82,85.93,89.60,92.92,95.53,95.79,95.05,93.95,93.15,92.70,91.76,89.74,86.18,80.86,73.93,69.84,69.38,70.36,73.54,76.49,77.77,76.05,71.54,68.03,65.24,62.91,60.75,59.98,59.71,59.75,60.09,61.48,63.02,64.58,66.08,67.39,69.40,72.59,76.88,81.50,86.23,89.70,91.75,92.44,90.18,87.95,85.74,83.58,81.54,79.55,77.10,74.21,71.15,68.77,66.71,64.84,63.04,61.08,58.65,56.31,54.42,53.48,52.84,52.65,52.72,52.80,52.80,52.90,53.01,53.10,53.24,53.31,53.38,53.48,53.63,53.71,53.78
66.87,67.73,67.92,67.83,67.61,67.30,67.30,68.65,70.97,73.50,76.08,78.67,83.01,87.52,90.47,91.26,91.47,91.57,91.38,91.16,91.50,94.01,97.23,100.64,103.74,105.49,106.73,106.46,104.69,102.50,99.85,97.20,94.53,91.82,91.04,90.49,90.29,90.47,90.91,90.70,89.41,87.37,85.43,84.04,85.02,87.17,89.46,93.32,97.47,100.46,101.61,100.42,97.30,93.70,90.87,90.18,92.07,93.07,92.46,90.06,87.12,84.66,84.54,86.53,89.19,90.93,92.31,93.05,92.85,91.47,89.68,87.41,84.81,82.49,79.95,76.90,73.43,69.75,68.35,68.08,68.67,69.86,71.38,73.01,73.63,73.04,71.49,70.12,69.68,70.50,72.74,75.33,77.83,79.70,80.88,82.00,84.07,86.52,89.07,91.43,93.46,93.09,92.02,91.32,90.25,88.65,86.42,84.35,84.32,86.86,89.11,90.77,91.69,91.78,90.98,88.56,84.62,80.63,81.34,83.33,85.78,88.28,89.60,90.33,90.67,90.77,90.81,90.88,90.93,90.85,90.46,87.97,83.62,79.92,79.28,79.11,79.48,81.36,84.88,88.82,90.24,91.03,91.31,90.79,89.53,85.98,82.08,79.42,78.95,80.06,83.46,88.09,90.60,91.60,91.97,92.02,92.04,92.10,92.12,92.12,92.02,91.39,90.65,87.55,82.66,77.74,74.29,75.30,78.47,81.97,86.35,89.17,90.10,89.16,86.70,84.05,80.78,77.96,76.99,82.29,87.02,91.38,95.40,98.69,99.14,98.33,96.92,95.53,93.91,92.22,89.79,86.08,81.06,75.36,71.40,70.20,72.37,76.56,79.52,80.54,79.23,74.13,69.95,66.84,64.64,62.48,60.65,59.72,59.58,59.78,60.78,62.12,63.58,64.99,66.30,68.00,70.43,73.76,78.08,83.09,87.36,90.21,91.11,89.29,87.21,85.02,82.80,80.66,78.07,75.36,72.57,69.61,67.38,65.40,63.55,61.67,59.36,56.62,54.59,53.50,52.76,52.62,52.65,52.72,52.80,52.80,52.86,52.95,53.03,53.12,53.14,53.19,53.29,53.44,53.52,53.56
71.06,71.89,72.20,71.90,70.96,69.68,68.48,68.32,70.07,72.52,75.39,78.50,82.69,86.79,89.42,90.09,89.90,89.34,88.94,89.15,90.52,93.58,97.27,101.16,104.79,107.33,108.43,107.82,105.78,103.43,100.69,98.02,95.84,94.55,94.34,93.95,93.57,93.35,93.44,92.29,90.44,88.31,86.49,84.97,85.61,87.40,89.43,92.89,97.26,100.62,102.16,101.47,98.91,96.14,94.23,94.19,94.94,94.37,92.60,89.84,86.73,85.95,86.85,88.82,90.85,92.21,93.30,93.65,92.85,91.46,89.67,87.06,83.74,80.66,77.75,74.62,71.57,69.07,68.57,68.59,68.96,69.60,70.74,72.79,74.50,75.09,73.54,71.96,71.10,71.81,74.62,77.47,79.72,81.39,82.56,83.53,85.10,86.60,88.12,89.91,92.49,92.85,91.81,90.13,88.76,86.93,85.51,85.06,86.34,88.58,90.31,91.56,92.45,92.08,91.00,88.75,85.41,81.95,83.09,85.33,87.76,89.79,90.63,91.15,91.42,91.53,91.56,91.60,91.64,91.52,90.88,88.62,84.12,80.11,79.34,79.22,79.58,81.85,86.05,89.67,90.84,91.60,91.91,91.15,90.03,86.36,82.27,79.51,79.16,80.12,83.57,88.37,90.73,92.03,92.60,92.73,92.77,92.81,92.82,92.72,92.40,91.56,90.75,87.75,83.01,77.99,75.10,76.23,79.50,83.34,87.78,90.16,90.77,89.76,87.28,84.46,81.33,78.54,77.03,81.96,87.57,92.84,97.10,99.81,100.16,99.44,98.03,96.19,94.09,92.07,89.30,85.16,80.36,75.69,72.69,72.15,74.73,78.81,81.76,82.76,81.26,76.74,72.26,68.69,66.26,63.98,61.65,60.17,59.59,59.56,60.17,61.22,62.52,63.89,65.10,66.37,68.08,70.65,75.00,80.17,84.46,87.42,88.74,87.88,86.21,84.18,82.05,79.66,76.69,73.74,70.95,68.35,66.13,64.07,62.08,60.06,57.33,55.13,53.64,52.86,52.53,52.57,52.62,52.68,52.75,52.79,52.86,52.93,53.01,53.13,53.18,53.22,53.27,53.35,53.43,53.48
74.92,75.90,76.60,76.02,74.53,72.51,70.31,68.61,69.42,71.51,74.50,77.99,81.64,85.13,87.40,88.03,87.67,86.83,86.76,87.90,90.58,94.01,97.83,101.86,105.86,109.10,109.98,109.12,107.06,104.69,101.93,99.33,97.74,98.05,98.30,97.86,97.01,96.01,95.32,93.13,90.80,88.74,87.11,85.85,86.26,87.62,89.27,92.16,96.73,100.53,102.55,102.57,100.70,99.01,98.08,98.23,97.46,95.19,92.34,89.49,86.59,87.57,89.30,90.95,92.34,93.50,94.17,93.97,92.69,91.42,89.78,86.97,83.03,79.10,75.75,72.57,69.99,68.67,69.06,69.39,69.54,69.59,70.27,72.49,75.18,77.02,75.81,74.23,72.93,73.29,76.32,79.27,81.16,82.69,84.07,85.06,86.14,86.88,87.71,89.34,91.63,92.53,91.54,88.85,87.25,85.61,85.31,86.49,88.51,90.25,91.47,92.40,93.20,92.28,90.92,88.89,86.27,83.68,85.07,87.34,89.53,90.94,91.41,91.79,92.07,92.23,92.31,92.33,92.34,92.15,91.21,89.24,84.62,80.32,79.41,79.34,79.70,82.37,87.20,90.16,91.30,92.17,92.50,91.49,90.38,86.74,82.57,79.61,79.39,80.41,83.80,88.49,90.81,92.45,93.23,93.46,93.54,93.54,93.53,93.29,92.68,91.64,90.73,87.72,83.03,78.14,75.92,77.12,80.39,84.52,88.85,90.94,91.24,90.02,87.65,84.67,81.64,78.96,77.21,81.52,88.00,94.16,98.50,100.21,100.38,99.76,98.44,96.26,93.93,91.70,88.58,83.95,79.36,75.52,73.73,74.34,77.14,80.85,83.80,84.85,82.98,79.29,74.75,70.75,67.91,65.45,62.84,60.83,59.67,59.42,59.66,60.37,61.44,62.73,63.72,64.46,65.49,67.46,71.78,76.97,81.16,84.14,85.93,86.15,85.01,83.25,81.24,78.56,75.33,72.18,69.36,67.10,64.87,62.68,60.52,58.31,55.42,53.95,53.02,52.41,52.49,52.56,52.59,52.62,52.69,52.78,52.86,52.95,53.04,53.19,53.28,53.32,53.32,53.32,53.40,53.47
78.21,79.98,81.34,80.12,77.71,74.94,72.35,70.66,70.06,71.18,73.60,76.69,79.60,82.09,83.63,84.02,83.81,84.13,86.03,89.07,92.04,95.34,99.04,103.29,107.86,109.82,110.50,110.21,109.09,107.26,104.51,102.10,100.76,101.12,101.41,100.70,99.33,97.44,94.63,92.15,90.14,88.48,86.86,86.79,87.31,88.07,88.90,91.10,95.90,100.27,103.00,104.01,102.63,101.51,100.77,100.12,98.07,95.20,91.98,89.10,88.57,89.69,91.15,92.61,94.00,95.17,94.79,93.51,92.07,90.99,89.20,86.46,82.85,79.03,75.12,71.82,69.64,69.06,69.89,70.63,70.91,70.73,71.31,73.43,75.97,78.01,78.23,76.87,75.10,74.84,77.58,80.18,82.10,83.73,85.22,86.56,87.72,88.83,90.09,91.77,92.18,91.06,89.25,87.45,86.45,86.54,87.35,88.71,90.39,92.20,93.26,93.79,93.98,92.28,90.58,88.44,86.16,85.49,87.16,89.05,90.66,91.78,92.24,92.49,92.69,92.94,93.01,93.03,92.92,92.51,91.47,89.72,85.04,80.52,79.47,79.46,79.98,83.03,88.23,90.44,91.62,92.61,93.00,91.94,90.69,87.41,83.34,79.81,79.63,80.98,84.21,88.46,91.23,93.08,93.96,94.23,94.30,94.30,94.26,93.83,92.90,91.67,90.56,87.30,82.58,78.38,76.62,77.75,81.03,85.57,89.51,91.52,91.67,90.24,87.96,84.90,81.81,79.27,78.02,81.84,88.75,95.38,99.72,100.65,100.61,99.93,98.54,96.26,93.88,91.27,87.66,82.70,78.35,74.84,73.99,75.93,79.27,83.07,86.13,87.21,85.16,81.57,77.45,73.43,69.90,67.10,64.35,61.75,59.83,59.49,59.44,59.75,60.39,61.28,61.72,61.61,62.14,63.89,67.33,72.16,76.87,80.65,82.75,83.76,83.34,82.06,80.17,77.14,73.86,70.71,67.87,65.51,63.32,61.11,58.79,56.35,54.54,53.35,52.66,52.41,52.49,52.52,52.56,52.61,52.63,52.76,52.90,53.03,53.16,53.26,53.39,53.45,53.45,53.45,53.52,53.60
82.39,84.86,86.17,84.13,80.28,76.76,74.26,72.62,71.32,71.54,72.98,75.08,77.49,79.39,80.55,80.96,81.20,82.96,86.18,90.16,93.58,97.04,100.62,104.69,109.11,110.31,110.94,110.97,110.40,109.27,107.36,105.44,104.10,103.89,102.98,101.64,99.74,97.18,93.64,91.14,89.40,88.22,87.36,87.98,88.70,89.25,89.61,91.39,95.71,99.99,103.23,105.32,104.56,103.66,102.65,101.13,98.49,95.29,92.03,89.55,90.84,92.25,93.57,94.78,96.02,96.46,95.10,92.95,91.06,89.75,87.84,85.28,82.04,78.08,73.68,70.76,69.45,69.49,70.55,71.57,72.13,72.17,72.83,74.83,77.12,79.09,79.98,79.02,77.29,76.56,78.29,80.67,82.84,84.69,86.23,87.76,89.33,91.10,92.33,91.99,91.26,89.69,88.14,87.23,87.19,88.10,89.44,90.99,92.60,94.38,95.50,95.75,94.98,92.69,90.54,88.47,86.90,87.43,88.97,90.43,91.63,92.61,93.10,93.28,93.41,93.64,93.72,93.73,93.52,92.94,91.74,90.07,85.22,80.51,79.50,79.53,80.12,83.49,89.13,91.03,92.27,93.28,93.69,92.82,91.36,88.39,84.67,81.18,80.66,81.97,84.88,88.64,91.55,93.64,94.68,95.01,95.11,95.08,94.95,94.34,93.18,91.80,90.48,87.00,82.32,78.74,77.31,78.28,81.40,86.10,89.94,92.04,92.15,90.59,88.32,85.28,82.26,79.90,78.95,82.34,89.17,95.85,100.21,100.92,100.79,99.98,98.41,95.91,93.39,90.35,86.36,81.40,77.76,74.91,74.72,77.29,81.09,85.34,88.41,89.39,87.53,83.98,80.20,76.38,72.67,69.40,66.42,63.47,60.97,59.70,59.42,59.40,59.68,60.20,60.37,60.07,60.29,61.38,63.32,67.50,72.40,76.82,79.49,81.17,81.39,80.43,78.48,75.44,72.21,69.13,66.32,63.80,61.56,59.39,57.22,55.09,53.86,52.92,52.44,52.38,52.45,52.49,52.55,52.61,52.64,52.80,52.95,53.11,53.25,53.33,53.47,53.56,53.58,53.58,53.65,53.73
87.02,90.07,90.89,87.94,82.44,78.23,76.08,74.53,72.98,72.38,72.60,73.41,75.46,77.03,78.06,78.66,79.57,82.85,86.92,91.18,95.11,98.89,102.36,106.00,109.84,110.62,111.28,111.49,111.26,110.88,110.28,109.01,107.49,106.30,103.48,101.30,98.90,95.85,92.49,90.19,88.68,88.02,88.32,89.33,90.32,90.93,91.07,92.58,95.95,99.74,103.33,106.51,106.44,105.55,103.97,101.55,98.78,95.47,92.42,90.69,93.38,95.15,96.37,97.29,98.24,97.49,95.21,92.34,89.82,88.01,85.98,83.67,80.80,76.59,71.83,69.58,69.38,69.92,71.08,72.29,73.22,73.77,74.64,76.49,78.46,80.17,81.27,80.84,79.47,78.37,78.71,80.97,83.50,85.61,87.17,88.79,90.98,93.46,94.30,90.86,89.49,88.45,87.84,87.79,88.88,90.05,91.55,93.32,95.03,96.70,97.98,98.01,96.13,93.39,90.74,88.85,88.19,89.41,90.57,91.60,92.52,93.45,93.97,94.12,94.18,94.32,94.38,94.39,94.11,93.40,92.00,90.32,85.25,80.38,79.51,79.59,80.18,83.81,89.93,91.77,93.10,94.07,94.47,93.94,92.27,89.57,86.39,83.35,82.30,83.33,85.77,88.98,91.80,94.15,95.34,95.76,95.90,95.83,95.58,94.81,93.48,92.01,90.47,86.80,82.15,79.15,77.99,78.73,81.59,86.32,90.25,92.51,92.68,91.03,88.71,85.77,82.91,80.76,80.04,83.03,89.43,95.86,100.24,101.10,100.94,99.96,98.13,95.33,92.62,89.12,84.84,80.13,77.43,75.46,75.77,78.54,82.71,87.57,90.61,91.42,89.94,86.42,82.95,79.46,75.90,72.13,68.85,65.71,62.73,60.10,59.57,59.26,59.19,59.39,59.46,59.36,59.39,59.61,59.76,63.03,67.77,72.63,76.16,78.39,79.17,78.45,76.35,73.51,70.41,67.46,64.70,62.03,59.74,57.64,55.81,54.31,53.31,52.61,52.30,52.31,52.39,52.47,52.55,52.63,52.71,52.86,53.01,53.17,53.31,53.39,53.53,53.65,53.71,53.71,53.78,53.85
89.36,91.79,92.14,88.95,84.07,80.25,78.05,76.45,74.90,73.86,73.61,74.35,75.71,77.21,78.42,79.42,81.51,84.58,88.13,91.89,95.63,99.31,102.75,106.14,109.41,110.34,111.02,111.60,111.99,111.76,111.13,110.05,108.28,105.58,102.17,99.58,97.15,94.55,91.87,90.51,89.45,88.76,88.96,90.59,92.28,93.51,93.95,94.77,97.15,100.24,103.62,106.94,107.60,106.57,104.38,101.62,98.89,96.17,94.72,95.26,97.65,98.79,99.53,99.98,99.95,98.12,95.24,91.94,88.81,86.31,84.09,81.70,78.89,75.36,71.43,69.66,69.63,70.18,71.23,72.49,73.79,75.02,76.18,77.55,78.91,80.26,81.76,81.92,81.07,80.07,79.88,82.59,85.08,87.10,88.71,90.33,92.77,93.80,92.94,90.09,89.12,88.62,88.53,88.90,90.24,91.86,93.67,95.60,97.51,98.78,99.51,99.34,97.88,94.34,91.62,90.02,89.68,90.66,91.66,92.65,93.60,94.47,94.60,94.60,94.55,94.49,94.36,94.12,94.07,93.80,92.21,90.51,85.29,80.32,79.64,79.66,80.09,83.82,90.29,91.99,93.51,94.49,94.89,94.71,93.18,91.01,88.68,86.67,86.10,86.75,88.12,89.95,91.92,94.12,95.37,95.89,96.03,95.95,95.70,94.98,93.73,92.21,90.62,86.70,81.84,79.08,78.46,79.07,81.85,86.99,90.62,92.91,93.15,91.53,89.16,86.53,83.83,82.11,82.52,85.22,90.55,96.20,100.51,101.47,100.98,99.69,97.61,94.57,91.81,87.98,83.68,79.57,77.13,76.19,77.14,79.96,84.24,88.70,91.81,92.74,90.85,87.92,84.97,82.01,78.94,75.36,71.78,68.35,65.16,62.28,60.35,59.51,59.23,59.07,59.09,58.98,58.99,59.15,59.25,60.55,62.37,65.87,72.38,74.36,75.30,74.98,73.40,70.90,68.02,65.15,62.55,60.47,59.01,57.23,55.46,54.05,53.05,52.47,52.26,52.30,52.33,52.45,52.58,52.71,52.84,52.94,53.08,53.23,53.38,53.51,53.62,53.74,53.83,53.83,53.86,53.92
91.39,93.50,93.63,90.31,86.21,82.82,80.39,78.29,76.69,75.33,74.76,75.58,76.78,78.50,80.06,81.43,84.18,86.95,89.92,93.13,96.52,99.70,102.62,105.47,108.29,109.68,110.55,111.45,112.34,112.53,111.67,110.38,108.12,104.25,100.81,98.28,96.33,94.69,93.07,92.09,90.77,89.51,89.52,91.68,93.97,95.81,96.83,97.22,98.84,101.40,104.63,108.01,109.01,107.77,105.07,102.00,99.34,97.87,97.93,99.48,101.36,101.93,101.94,101.51,100.56,98.20,95.22,91.90,88.50,85.52,82.88,80.20,77.33,74.23,71.35,70.27,70.40,70.59,71.42,72.69,74.17,75.68,77.14,78.29,79.35,80.54,82.17,82.99,82.80,82.20,81.97,84.66,87.22,89.30,90.88,92.24,93.59,93.35,91.84,89.92,89.22,89.08,89.43,90.24,91.85,93.73,95.70,97.63,99.30,100.12,100.44,100.12,98.90,95.06,92.47,91.12,90.95,91.80,92.69,93.60,94.41,94.97,94.92,94.81,94.66,94.45,94.24,93.99,94.14,94.15,92.38,90.63,85.50,80.59,79.73,79.73,80.21,84.01,90.53,92.13,93.73,94.74,95.16,95.16,94.00,92.29,90.64,89.52,89.26,89.62,90.25,91.11,92.29,94.10,95.31,95.94,96.13,96.08,95.83,95.14,93.92,92.37,90.82,87.09,82.40,79.46,79.20,79.90,82.58,87.53,91.00,93.40,93.66,91.94,89.52,87.07,84.63,83.42,84.75,87.16,91.85,96.87,100.78,101.81,101.06,99.45,97.10,93.93,90.91,86.81,82.58,79.09,76.94,76.96,78.59,81.55,85.66,89.70,92.95,94.16,92.11,89.70,87.25,84.69,81.91,78.53,74.84,71.23,67.82,64.74,62.00,60.35,59.48,59.08,59.01,58.80,58.65,58.64,58.71,59.02,59.34,61.38,67.09,69.11,70.62,70.98,69.93,67.90,65.25,62.80,60.79,59.38,58.40,56.91,55.28,53.92,52.89,52.39,52.24,52.30,52.33,52.47,52.62,52.78,52.93,53.01,53.14,53.30,53.45,53.61,53.70,53.81,53.94,53.96,53.96,54.01
93.08,95.18,95.36,92.03,88.89,85.95,83.12,80.03,78.36,76.78,76.05,77.13,78.72,80.99,83.05,84.76,87.62,89.98,92.35,94.92,97.81,100.07,101.95,103.96,106.44,108.62,109.85,111.02,112.29,113.17,111.88,109.96,106.96,102.28,99.38,97.44,96.49,96.36,96.17,95.00,92.66,90.26,89.98,92.61,95.35,97.82,99.70,99.94,101.06,103.27,106.41,109.74,110.70,109.16,106.06,102.70,100.14,100.63,102.11,103.35,104.48,104.57,103.56,101.81,100.02,97.72,95.17,92.25,88.93,85.71,82.39,79.19,76.14,73.19,71.61,71.43,71.71,71.16,71.65,72.89,74.34,75.72,77.48,78.67,79.79,81.02,82.50,84.06,84.66,84.76,85.01,87.21,89.95,92.24,93.72,94.53,93.38,92.07,91.00,90.36,89.81,89.86,90.53,91.81,93.72,95.64,97.62,99.38,100.36,100.67,100.73,100.33,99.17,95.52,93.28,92.14,91.97,92.82,93.67,94.44,94.94,94.91,94.90,94.74,94.49,94.20,94.04,94.00,94.35,94.44,92.52,90.67,85.92,81.22,79.80,79.80,80.53,84.39,90.65,92.20,93.75,94.80,95.29,95.29,94.71,93.39,92.25,91.90,91.74,91.91,92.17,92.48,92.92,94.08,95.15,95.91,96.19,96.19,95.96,95.26,94.04,92.50,91.08,88.00,83.88,80.30,80.22,81.26,83.81,87.91,91.39,93.98,94.21,92.25,89.78,87.37,85.29,84.69,86.72,88.83,93.34,97.88,101.04,102.12,101.16,99.22,96.59,93.42,89.91,85.59,81.55,78.67,76.87,77.79,80.13,83.32,86.98,90.58,94.02,95.66,93.72,91.75,89.78,87.52,84.81,81.63,78.06,74.35,70.72,67.49,64.56,61.82,59.96,59.45,59.23,58.83,58.39,58.06,58.14,58.49,58.83,59.31,60.19,62.56,65.10,66.42,65.92,64.48,62.09,60.38,59.45,58.77,57.92,56.69,55.28,53.92,52.84,52.36,52.24,52.31,52.39,52.53,52.69,52.84,53.00,53.07,53.21,53.36,53.52,53.67,53.76,53.88,54.01,54.09,54.09,54.14
96.41,98.08,98.03,95.39,92.35,89.15,85.76,81.77,79.52,77.75,76.93,77.72,79.16,82.22,85.52,88.27,90.35,92.18,94.38,96.95,99.63,101.32,102.90,104.58,106.48,108.13,109.44,111.07,112.89,113.86,111.97,109.27,106.01,102.27,100.23,99.28,99.14,99.39,98.94,96.77,93.72,90.99,90.55,93.16,95.93,98.62,101.07,102.44,104.12,106.23,108.73,111.41,112.14,110.65,108.28,106.86,106.32,106.62,106.72,106.11,105.32,104.07,102.45,100.51,98.29,96.28,93.99,91.37,88.44,85.29,82.09,78.89,75.86,73.52,73.93,74.45,74.48,73.73,73.15,73.34,74.23,75.73,77.50,79.00,80.44,81.84,83.12,84.47,85.60,86.51,87.27,88.89,91.66,93.65,94.39,95.02,94.06,92.85,91.76,90.99,90.95,91.51,92.40,93.51,95.30,97.25,98.97,100.25,100.76,100.80,100.75,100.19,98.63,95.45,93.59,92.70,92.64,93.49,94.30,94.82,95.02,94.90,94.85,94.65,94.41,94.26,94.29,94.37,94.61,94.46,92.53,90.63,86.76,82.57,79.98,79.98,81.60,85.48,90.64,92.10,93.59,94.84,95.59,95.59,95.24,94.51,93.91,93.74,93.68,93.71,93.83,94.02,94.22,94.68,95.32,95.89,96.14,96.19,96.04,95.39,94.20,92.84,91.49,89.37,86.60,83.66,82.17,82.93,85.31,88.60,91.62,94.29,94.70,92.83,90.22,88.06,86.53,86.41,88.44,91.34,95.54,99.24,101.49,102.25,101.11,98.83,95.79,92.44,88.80,84.46,80.71,78.55,77.78,79.16,81.85,85.34,88.97,92.70,95.97,97.44,95.73,93.94,91.91,89.85,87.69,84.53,81.08,77.47,73.76,69.96,67.05,64.29,61.93,60.21,59.57,59.03,58.50,57.99,57.66,57.94,58.29,58.65,59.04,60.25,61.52,62.23,62.11,61.45,60.31,59.40,58.76,58.19,57.31,56.27,55.12,53.91,52.79,52.33,52.26,52.38,52.51,52.62,52.75,52.91,53.06,53.18,53.30,53.42,53.58,53.73,53.86,53.98,54.08,54.16,54.20,54.27
99.36,100.44,100.25,98.32,95.28,91.75,87.85,83.40,80.49,78.56,77.76,78.27,79.47,82.93,87.03,90.59,92.24,93.80,95.90,98.44,100.92,102.42,103.96,105.53,107.07,108.38,109.74,111.59,113.66,114.74,112.39,109.33,106.26,103.70,102.46,102.15,102.15,101.96,100.84,97.89,94.46,91.75,91.44,93.67,96.32,99.22,102.24,104.78,106.93,108.98,111.07,113.32,113.85,112.56,110.92,110.83,111.20,110.61,109.19,107.13,105.05,102.97,100.94,98.83,96.35,94.44,92.40,90.11,87.51,84.51,81.51,78.46,75.76,74.80,76.67,77.52,77.18,76.15,74.87,74.14,74.36,75.65,77.39,79.06,80.59,81.93,82.93,84.10,85.63,87.21,88.51,89.92,92.39,94.05,94.52,95.24,94.63,93.62,92.54,91.65,92.03,92.98,94.06,95.08,96.76,98.58,99.94,100.71,100.94,100.84,100.74,100.03,98.15,95.36,93.82,93.19,93.30,94.13,94.78,95.08,95.07,94.90,94.81,94.57,94.37,94.31,94.43,94.57,94.72,94.42,92.52,90.58,87.48,83.86,80.68,80.75,82.90,86.55,90.61,92.00,93.43,94.77,95.73,95.87,95.69,95.41,95.17,95.08,95.06,95.01,95.04,95.15,95.19,95.19,95.47,95.83,96.06,96.15,96.06,95.47,94.35,93.09,91.85,90.47,88.75,86.40,84.05,84.33,86.30,89.03,91.65,94.39,95.15,93.64,90.95,88.89,87.74,87.95,89.92,93.61,97.48,100.43,101.98,102.29,100.99,98.43,95.03,91.45,87.67,83.48,80.14,78.62,78.68,80.67,83.84,87.68,91.42,95.22,98.02,99.01,97.53,95.74,93.65,91.72,89.96,86.98,83.69,80.24,76.54,72.38,69.36,66.61,63.95,61.37,60.00,59.26,58.66,58.04,57.41,57.42,57.67,58.03,58.36,58.71,59.03,59.28,59.41,59.31,59.00,58.58,58.09,57.57,56.76,55.89,54.95,53.91,52.77,52.31,52.25,52.41,52.58,52.69,52.82,52.97,53.13,53.28,53.39,53.50,53.64,53.80,53.95,54.07,54.16,54.24,54.32,54.40
101.39,101.65,101.53,100.24,97.17,93.27,89.00,84.85,81.19,79.15,78.54,78.90,79.81,82.90,86.91,90.76,92.71,94.48,96.56,98.90,101.18,103.11,104.99,106.76,108.37,109.87,111.23,112.86,114.66,115.93,113.42,110.74,108.62,107.42,106.83,106.44,105.45,103.52,101.21,98.00,94.77,92.55,92.89,94.14,96.48,99.63,103.29,106.86,109.16,111.20,113.38,115.69,116.08,115.21,114.10,113.94,112.98,110.55,107.74,105.22,103.13,101.26,99.13,96.72,94.24,92.05,90.27,88.38,85.93,83.18,80.42,77.69,75.82,77.58,79.82,80.39,79.52,78.01,76.83,75.56,74.94,75.45,77.09,78.61,79.82,80.67,81.23,82.42,84.17,86.14,88.03,89.94,91.53,92.87,94.04,95.25,94.87,94.06,93.15,92.36,92.93,93.97,95.18,96.42,98.05,99.50,100.31,100.58,100.81,100.81,100.71,99.92,97.90,95.31,94.01,93.65,93.99,94.77,95.08,95.18,95.12,94.90,94.76,94.54,94.37,94.30,94.32,94.40,94.56,94.32,92.52,90.53,87.89,84.94,82.28,82.55,84.53,87.47,90.55,91.94,93.28,94.52,95.52,96.05,96.03,95.89,95.72,95.59,95.52,95.50,95.51,95.51,95.45,95.45,95.53,95.70,95.93,96.08,96.00,95.48,94.47,93.16,92.08,91.01,89.68,87.67,85.67,85.17,86.33,88.95,91.31,94.17,95.52,94.80,92.16,89.93,88.79,89.08,91.03,95.31,98.82,101.28,102.52,102.19,100.76,98.03,94.37,90.50,86.52,82.74,80.01,78.98,79.44,82.37,86.30,90.56,94.59,98.28,100.11,100.16,98.86,96.83,94.74,92.85,91.12,88.69,85.61,82.36,78.85,74.75,71.39,68.49,65.82,63.19,60.58,59.50,58.85,58.22,57.54,56.96,56.94,57.28,57.65,57.90,58.20,58.47,58.66,58.71,58.34,57.85,57.34,56.86,56.34,55.64,54.81,53.92,52.82,52.30,52.19,52.36,52.58,52.73,52.88,53.03,53.19,53.34,53.49,53.61,53.71,53.86,54.02,54.17,54.29,54.37,54.45,54.52
101.96,102.02,101.88,101.11,97.99,93.82,89.37,85.67,82.07,79.97,79.32,79.84,80.77,82.65,85.61,89.24,91.37,92.93,95.04,97.66,100.26,102.13,104.25,106.63,109.17,111.07,112.63,114.27,115.99,117.34,115.16,113.02,111.47,110.62,109.88,108.57,106.60,104.03,101.36,97.94,95.40,94.28,94.90,95.40,96.95,99.59,103.26,107.87,110.81,113.23,115.59,117.94,118.28,117.77,116.57,114.75,111.99,108.99,106.05,103.39,101.22,99.19,97.10,94.90,92.58,90.60,88.86,87.19,85.35,82.56,80.06,78.08,77.38,80.09,82.31,82.71,81.49,79.25,77.82,76.47,75.79,76.06,76.86,77.79,78.69,79.48,80.06,81.41,83.38,85.67,87.93,89.98,91.46,92.81,94.11,94.95,95.09,94.60,93.82,93.21,93.87,94.94,96.17,97.41,98.68,99.54,100.02,100.27,100.58,100.67,100.50,99.59,97.57,95.46,94.54,94.37,94.62,95.01,95.19,95.25,95.18,94.95,94.80,94.59,94.37,94.19,94.07,94.30,94.47,94.10,92.36,90.55,88.32,85.97,83.94,84.25,85.51,87.74,90.47,91.78,93.09,94.36,95.45,96.14,96.15,96.07,95.92,95.75,95.71,95.67,95.65,95.62,95.51,95.46,95.47,95.58,95.80,95.92,95.83,95.40,94.57,93.41,92.42,91.43,90.33,88.99,87.22,86.21,86.61,88.65,90.69,93.54,95.78,96.45,94.25,92.05,90.84,91.16,93.43,97.48,100.24,102.10,103.05,102.00,100.18,97.16,93.34,89.63,86.47,83.09,80.71,80.30,82.29,85.80,89.78,93.78,97.56,100.05,101.05,100.73,99.39,97.35,95.16,93.10,91.22,88.94,86.07,83.10,80.01,76.58,73.49,70.47,67.57,64.77,61.75,60.04,59.03,58.36,57.67,56.94,56.55,56.54,56.84,57.08,57.34,57.59,57.81,57.92,57.61,57.12,56.56,56.06,55.75,55.21,54.49,53.68,52.75,52.25,52.12,52.29,52.53,52.69,52.87,53.05,53.20,53.36,53.54,53.68,53.77,53.93,54.08,54.23,54.37,54.45,54.52,54.60
102.10,102.15,101.99,101.59,98.33,93.87,89.32,86.15,82.91,80.88,80.31,81.18,82.18,83.02,84.83,87.75,89.69,90.88,92.90,95.75,98.78,100.62,102.92,105.88,109.41,111.78,113.69,115.52,117.31,118.76,117.19,115.62,114.39,113.44,112.15,109.85,107.10,104.25,101.46,97.95,96.17,96.21,97.07,96.97,97.66,99.59,103.07,108.48,112.03,114.87,117.44,119.71,120.01,119.79,118.42,114.92,110.60,107.42,104.71,102.09,99.90,97.81,95.94,94.12,91.94,90.09,88.31,86.72,85.31,82.41,80.04,78.85,79.39,82.57,84.74,85.05,83.51,80.43,78.55,77.33,76.88,77.10,77.15,77.53,78.16,78.92,79.65,81.17,83.28,85.71,88.16,90.15,91.68,93.12,94.35,94.56,95.13,95.04,94.51,94.11,94.81,95.82,96.94,98.01,98.85,99.17,99.43,99.79,100.25,100.46,100.21,99.23,97.35,95.75,95.19,95.12,95.23,95.22,95.30,95.32,95.23,95.00,94.87,94.67,94.40,94.08,93.82,94.16,94.30,93.81,92.21,90.65,88.80,86.98,85.61,85.93,86.50,88.06,90.43,91.65,92.94,94.24,95.39,96.16,96.18,96.14,96.01,95.80,95.79,95.73,95.68,95.62,95.47,95.35,95.30,95.36,95.59,95.65,95.54,95.20,94.57,93.63,92.72,91.78,90.87,90.10,88.65,87.35,87.11,88.41,90.11,92.88,95.79,97.74,96.54,94.75,93.64,93.95,96.26,99.63,101.62,102.84,103.32,101.70,99.45,96.11,92.21,88.82,86.47,83.67,81.84,82.17,85.51,89.79,93.74,97.08,100.18,101.48,101.73,101.05,99.57,97.51,95.22,92.98,90.89,88.60,85.90,83.16,80.47,77.80,75.08,72.08,69.01,66.02,62.81,60.53,59.15,58.44,57.74,56.98,56.30,55.92,56.06,56.25,56.48,56.70,56.92,57.07,56.90,56.45,55.84,55.30,55.11,54.73,54.14,53.38,52.65,52.17,52.05,52.23,52.46,52.63,52.84,53.05,53.20,53.36,53.56,53.72,53.82,53.99,54.14,54.30,54.44,54.53,54.60,54.68
102.07,102.19,102.12,101.67,97.96,93.10,88.50,86.03,83.43,81.96,81.95,83.54,84.55,85.68,86.81,87.81,88.47,89.09,90.56,93.04,96.47,98.75,101.16,104.24,108.18,111.09,113.70,116.13,118.32,120.02,119.59,118.56,117.16,115.45,112.93,110.16,107.29,104.44,101.59,98.33,97.18,97.97,99.23,98.91,98.89,100.10,103.26,108.67,112.30,115.38,118.16,119.89,120.18,120.10,118.76,114.92,110.24,107.11,104.71,102.50,100.51,99.07,97.89,96.53,94.31,91.89,89.97,88.23,86.26,83.15,80.55,79.88,81.57,85.15,87.54,87.89,86.02,81.96,79.29,78.44,78.52,78.85,79.10,79.47,79.89,80.42,81.30,82.93,84.84,86.96,89.16,90.70,92.17,93.63,94.72,94.14,94.62,95.03,95.16,95.00,95.76,96.47,97.08,97.58,98.02,98.19,98.44,98.91,99.72,100.09,99.83,98.96,97.57,96.42,95.92,95.78,95.80,95.74,95.60,95.43,95.23,95.00,94.97,94.79,94.51,94.13,93.72,93.79,93.79,93.39,92.18,90.92,89.37,88.00,87.34,87.71,88.14,89.09,90.54,91.66,92.89,94.15,95.26,96.03,96.10,96.11,96.01,95.79,95.73,95.71,95.61,95.43,95.28,95.02,94.85,94.85,95.07,95.09,94.93,94.67,94.29,93.59,92.80,92.02,91.26,90.49,89.71,88.67,88.10,88.57,89.92,92.42,95.09,97.38,98.70,98.39,98.11,98.34,99.40,101.29,102.78,103.35,102.74,101.12,98.45,94.90,91.10,88.11,85.72,84.05,83.68,85.02,88.12,94.07,98.44,100.39,101.86,102.88,102.49,101.07,99.24,96.99,94.68,92.38,90.09,87.61,84.87,82.14,79.57,77.40,74.93,72.35,69.53,66.39,62.98,60.58,59.13,58.37,57.61,56.90,56.21,55.66,55.41,55.46,55.65,55.85,56.02,56.17,56.30,55.98,55.33,54.79,54.51,54.26,53.84,53.14,52.55,52.07,51.95,52.17,52.40,52.61,52.84,53.05,53.20,53.36,53.52,53.68,53.83,54.04,54.21,54.36,54.51,54.65,54.73,54.81
101.91,102.14,102.07,101.61,97.85,92.95,88.34,86.04,84.04,83.08,83.37,84.99,86.52,88.11,89.29,89.90,90.26,90.60,91.57,93.27,95.64,97.43,99.61,102.68,106.82,110.27,113.30,116.12,118.89,121.82,122.48,121.56,119.49,116.77,113.83,111.02,108.18,105.20,101.88,98.82,98.45,100.24,102.02,101.55,101.34,102.08,104.28,108.76,112.24,115.38,118.18,119.89,120.20,120.16,119.12,116.07,111.48,108.35,106.08,104.26,102.66,101.83,100.89,99.39,96.86,94.14,92.04,90.08,87.76,84.49,81.71,81.43,83.95,87.63,89.68,89.98,88.42,84.93,81.14,80.24,80.98,82.33,83.23,83.53,83.31,83.03,83.66,85.18,86.90,88.68,90.41,91.54,92.75,93.97,94.76,93.68,94.08,94.68,95.11,95.13,95.67,96.17,96.56,96.83,97.08,97.18,97.53,98.15,98.92,99.20,98.91,98.20,97.27,96.53,96.17,95.98,95.84,95.67,95.47,95.27,95.03,94.70,94.47,94.33,94.34,94.46,94.09,93.93,93.69,93.20,92.25,91.29,90.09,89.13,88.89,89.11,89.36,89.96,90.93,91.82,92.89,94.03,95.08,95.82,95.97,96.04,95.98,95.79,95.71,95.65,95.48,95.17,94.72,94.31,94.06,93.95,93.92,93.89,93.78,93.73,93.72,93.26,92.65,91.96,91.26,90.65,90.21,89.61,89.28,89.58,91.08,93.00,95.16,97.44,99.64,100.36,100.70,101.03,101.64,102.90,103.44,103.09,101.87,100.25,97.24,93.62,90.07,87.44,85.97,85.45,85.96,87.56,90.71,96.65,100.86,102.49,103.48,103.66,102.62,100.76,98.61,96.07,93.62,91.19,88.70,86.02,83.28,80.63,78.18,76.08,73.91,71.67,69.04,65.78,62.24,60.20,59.01,58.27,57.53,56.83,56.13,55.51,55.07,55.00,55.08,55.18,55.26,55.44,55.64,55.44,54.93,54.49,54.14,53.88,53.55,53.02,52.55,52.08,51.91,52.07,52.33,52.57,52.80,53.02,53.20,53.39,53.58,53.75,53.91,54.11,54.27,54.43,54.58,54.74,54.85,55.07
101.60,102.00,101.91,101.41,97.82,93.06,88.51,86.18,84.73,84.22,84.67,86.00,88.22,90.36,91.99,92.95,93.50,93.73,94.28,95.09,95.85,96.79,98.61,101.50,105.44,109.33,112.61,115.81,119.35,123.96,125.58,124.60,121.68,117.73,114.82,112.18,109.47,106.37,102.38,99.53,99.97,102.77,105.13,104.62,104.52,104.91,105.88,108.95,112.09,115.12,117.82,119.76,120.11,120.05,119.35,117.56,113.58,110.54,108.31,106.76,105.65,105.35,104.41,102.44,99.42,96.52,94.18,91.95,89.39,86.01,83.17,83.25,86.37,89.90,91.40,91.64,90.65,88.45,83.69,82.55,83.88,86.51,88.16,88.36,87.40,86.15,86.36,87.64,89.15,90.60,91.78,92.57,93.42,94.23,94.60,93.21,93.52,94.14,94.66,94.81,95.05,95.39,95.70,95.92,96.08,96.18,96.66,97.41,97.94,98.05,97.73,97.19,96.68,96.31,96.10,95.87,95.56,95.25,95.05,94.86,94.60,94.13,93.57,93.39,93.77,94.59,94.52,94.26,93.82,93.20,92.40,91.67,90.83,90.24,90.23,90.23,90.29,90.68,91.40,92.03,92.92,93.92,94.88,95.57,95.81,95.94,95.93,95.79,95.71,95.57,95.34,94.91,94.06,93.46,93.11,92.83,92.45,92.37,92.38,92.61,92.98,92.75,92.33,91.73,91.11,90.73,90.45,90.37,90.49,90.94,92.77,94.02,95.63,97.74,99.97,101.44,102.29,102.81,103.38,104.29,103.69,102.37,100.81,99.16,95.91,92.37,89.18,87.02,86.88,87.48,88.56,90.05,93.27,98.32,102.11,103.98,104.98,104.05,102.37,100.22,97.77,94.91,92.27,89.67,86.99,84.14,81.42,78.90,76.55,74.30,72.43,70.47,67.97,64.68,61.14,59.67,58.87,58.18,57.49,56.80,56.11,55.47,54.93,54.75,54.70,54.65,54.60,54.81,54.98,54.89,54.60,54.29,53.91,53.57,53.27,52.96,52.58,52.14,51.90,51.95,52.26,52.50,52.73,52.97,53.20,53.42,53.65,53.85,54.01,54.17,54.33,54.49,54.65,54.80,54.96,55.38
100.37,101.28,101.43,100.64,97.23,92.79,88.65,86.96,85.69,85.43,86.04,87.27,89.30,92.11,94.40,95.59,96.23,96.65,97.23,97.93,98.54,99.62,101.52,103.32,104.50,107.84,111.29,115.54,120.76,126.66,128.44,127.72,124.48,118.76,116.04,113.61,111.26,108.60,104.06,101.63,102.42,105.43,108.18,108.45,108.58,108.71,109.00,110.40,112.56,114.94,117.27,119.31,119.84,119.47,118.42,116.98,116.30,114.36,111.98,109.89,109.16,109.10,107.84,105.10,101.24,98.03,95.23,92.55,89.72,86.54,84.52,85.15,88.16,90.71,92.37,92.75,91.98,90.38,87.51,86.19,86.91,89.39,90.54,90.58,89.89,89.03,88.99,89.84,90.97,92.11,93.07,94.01,94.47,94.53,94.08,92.69,92.97,93.45,93.81,93.91,94.20,94.52,94.79,94.96,95.12,95.39,95.80,96.29,96.67,96.81,96.51,96.05,95.73,95.51,95.29,95.04,94.72,94.36,93.89,93.44,92.97,92.40,91.70,90.85,90.74,91.82,93.28,93.98,94.20,93.91,92.86,91.84,91.05,90.60,90.55,90.50,90.58,90.86,91.36,92.14,93.00,93.90,94.74,95.38,95.67,95.85,95.89,95.79,95.71,95.57,95.34,94.91,94.06,93.09,92.23,91.50,90.98,90.90,91.16,91.66,92.15,91.92,91.62,91.46,91.32,90.99,91.00,91.08,91.20,91.49,93.07,94.56,96.31,98.35,100.43,102.07,103.24,104.07,104.72,103.95,102.63,101.05,99.37,97.53,94.55,91.51,89.22,88.65,89.17,90.48,92.03,93.48,95.71,99.53,103.11,105.49,105.75,103.72,101.55,99.18,96.30,93.44,90.73,87.99,85.14,82.28,79.69,77.27,74.92,72.57,70.76,68.67,66.26,63.54,60.95,59.71,58.98,58.38,57.74,57.10,56.46,55.83,55.24,54.87,54.65,54.45,54.26,54.33,54.47,54.52,54.41,54.10,53.72,53.38,53.09,52.84,52.56,52.18,51.92,51.88,52.13,52.37,52.63,52.90,53.13,53.31,53.53,53.75,53.96,54.17,54.37,54.58,54.77,54.87,55.12,55.60
98.76,99.95,100.20,99.14,95.95,92.13,88.74,87.35,86.37,86.43,87.26,88.46,90.87,94.12,96.77,98.14,98.78,99.40,100.17,101.01,101.71,103.75,105.53,106.39,106.21,108.21,111.31,116.11,122.33,128.55,129.95,129.34,126.34,120.36,117.50,115.17,113.05,110.69,106.59,104.68,105.62,108.36,110.55,110.89,111.11,111.20,111.20,111.74,113.16,114.87,116.57,118.02,118.53,117.99,116.61,114.78,115.02,114.46,113.59,112.68,111.72,110.95,109.22,106.26,102.12,98.23,95.00,92.20,89.52,86.78,85.62,86.63,89.37,91.61,93.54,93.96,93.22,92.01,90.34,89.17,89.53,91.56,92.59,92.39,91.76,91.14,91.06,91.77,92.65,93.36,93.66,94.08,94.26,94.09,93.48,92.17,92.37,92.70,92.94,93.02,93.33,93.62,93.85,94.01,94.19,94.49,94.80,95.08,95.39,95.61,95.31,94.79,94.36,94.18,94.02,93.82,93.55,93.19,92.62,92.03,91.27,90.09,88.68,87.17,87.11,89.29,91.90,93.33,94.01,93.96,92.93,91.90,91.26,90.93,90.80,90.78,90.89,91.09,91.43,92.17,93.01,93.86,94.62,95.16,95.55,95.77,95.86,95.82,95.72,95.57,95.35,94.95,94.10,92.91,91.75,90.74,90.02,89.81,90.12,90.71,91.29,91.14,91.08,91.21,91.41,91.44,91.65,91.84,91.97,92.15,93.54,95.09,96.83,98.69,100.52,102.25,103.87,104.98,105.09,103.26,101.50,99.74,97.91,95.95,93.66,91.59,90.50,91.51,92.75,94.66,96.56,97.98,99.70,102.27,104.87,106.54,105.38,102.86,100.39,97.81,94.76,91.95,89.28,86.54,83.67,80.84,78.18,75.72,73.40,71.09,69.42,67.54,65.40,63.07,61.09,60.07,59.38,58.78,58.10,57.46,56.83,56.22,55.63,55.17,54.83,54.53,54.21,54.03,54.04,54.09,54.07,53.87,53.52,53.19,52.91,52.68,52.45,52.14,51.88,51.78,52.01,52.24,52.52,52.80,53.03,53.21,53.45,53.70,53.93,54.16,54.42,54.66,54.87,55.03,55.33,55.81
96.82,98.10,98.33,97.02,94.09,91.14,88.81,87.42,86.79,87.25,88.35,89.58,92.88,96.36,99.09,100.62,101.16,102.02,103.11,104.28,105.28,109.01,110.48,110.54,110.19,110.17,112.49,117.39,124.02,129.74,130.29,129.67,127.39,122.46,119.15,116.85,114.84,112.66,109.84,108.55,109.46,111.52,112.33,112.14,112.33,112.56,112.59,112.98,113.87,114.89,115.77,116.03,116.34,115.76,114.05,111.18,110.28,111.38,113.43,115.20,113.44,111.18,108.85,106.12,102.17,97.30,93.69,91.04,88.87,86.76,86.52,87.75,90.06,92.60,94.87,95.26,94.36,93.35,92.33,91.59,91.79,93.12,94.35,93.85,93.09,92.58,92.65,93.46,94.21,94.40,93.65,92.99,92.95,93.03,92.81,91.64,91.72,91.91,92.05,92.12,92.43,92.69,92.89,93.05,93.28,93.52,93.67,93.81,94.12,94.42,94.13,93.44,92.63,92.40,92.34,92.27,92.08,91.77,91.26,90.63,89.50,87.28,84.69,82.51,82.97,86.95,90.41,92.35,93.32,93.44,92.66,91.88,91.45,91.21,91.00,91.07,91.21,91.36,91.59,92.13,92.94,93.79,94.51,94.90,95.44,95.71,95.83,95.88,95.73,95.57,95.38,95.01,94.16,92.88,91.62,90.47,89.49,89.04,89.21,89.78,90.42,90.42,90.68,90.98,91.39,92.07,92.38,92.64,92.78,92.90,94.14,95.63,97.22,98.81,100.29,102.04,104.24,105.58,104.63,102.24,100.31,98.44,96.43,94.42,93.18,92.46,92.85,95.43,97.44,99.85,101.99,103.41,105.03,106.32,107.29,107.21,104.02,101.55,98.97,96.17,93.16,90.46,87.92,85.31,82.52,79.74,76.84,74.25,71.97,69.80,68.38,66.98,65.28,63.16,61.53,60.70,60.04,59.33,58.56,57.86,57.21,56.62,56.08,55.61,55.21,54.82,54.42,53.89,53.68,53.61,53.61,53.61,53.31,53.00,52.72,52.49,52.26,52.02,51.79,51.65,51.88,52.11,52.39,52.68,52.91,53.14,53.42,53.70,53.93,54.16,54.46,54.72,54.97,55.28,55.59,56.00
94.82,95.60,95.05,93.83,91.62,89.44,87.76,86.99,87.40,88.33,89.64,91.30,95.06,98.24,100.46,101.70,102.82,103.81,104.80,105.90,107.29,109.68,111.26,112.26,112.95,113.35,115.31,118.86,123.66,128.66,129.38,129.41,128.07,124.21,121.12,118.99,117.18,115.31,113.35,112.65,113.19,114.19,114.15,113.87,113.24,112.58,112.22,112.12,112.63,113.22,113.68,113.86,114.07,113.60,112.29,110.15,109.08,109.55,111.12,113.10,113.35,110.77,107.93,105.21,102.14,97.05,92.78,89.75,88.13,87.24,87.25,88.28,90.27,92.82,95.73,96.84,96.46,95.51,94.79,94.36,94.58,95.47,95.79,95.14,94.53,94.23,94.26,93.56,93.16,92.74,91.99,91.48,91.45,91.51,91.43,91.05,90.99,91.05,91.15,91.23,91.49,91.73,91.95,92.16,92.39,92.66,92.88,93.05,93.22,93.38,92.89,92.00,91.07,90.50,90.37,90.34,90.23,89.87,88.98,87.69,85.95,83.66,80.99,80.26,82.23,86.77,90.30,92.11,92.76,92.57,91.90,91.40,91.14,91.05,91.08,91.35,91.53,91.68,91.86,92.16,92.90,93.70,94.37,94.71,95.11,95.53,95.85,95.95,95.84,95.66,95.44,95.10,94.34,93.07,91.77,90.54,89.40,88.65,88.50,88.86,89.56,90.14,90.44,90.92,91.62,92.46,93.06,93.44,93.61,93.71,94.70,96.06,97.26,98.29,99.61,100.95,102.67,104.33,105.29,102.55,100.21,98.46,97.28,96.19,95.56,95.23,95.98,99.13,103.33,105.87,107.25,108.00,108.56,108.83,108.22,106.32,102.59,99.82,97.12,94.33,91.40,89.42,87.50,85.21,82.38,79.27,75.94,73.02,70.69,69.01,67.61,66.18,64.65,63.02,61.88,61.11,60.41,59.68,59.00,58.31,57.66,57.08,56.59,56.12,55.58,55.02,54.51,54.11,53.80,53.56,53.38,53.23,53.07,52.81,52.53,52.30,52.12,51.93,51.72,51.59,51.87,52.15,52.45,52.75,53.03,53.31,53.57,53.84,54.12,54.35,54.61,54.88,55.16,55.47,55.78,56.13
92.79,93.07,92.07,90.89,89.38,88.01,87.11,87.19,88.28,89.52,91.03,93.08,96.71,99.31,101.00,102.01,103.17,103.91,104.60,105.53,107.12,108.88,110.72,112.45,113.87,114.81,116.50,118.96,122.24,126.49,127.60,128.36,128.13,125.81,123.16,121.19,119.56,118.07,116.81,116.42,116.41,116.38,115.70,115.06,113.82,112.53,111.69,111.08,111.15,111.38,111.56,111.70,111.83,111.50,110.62,109.19,108.09,108.15,109.32,111.34,113.13,110.69,107.70,104.95,102.28,97.24,92.54,89.30,88.27,88.13,88.24,89.11,90.95,93.77,96.94,98.41,98.43,97.77,97.37,97.14,97.23,97.56,97.19,96.48,95.88,95.42,94.91,93.23,92.01,91.13,90.40,90.10,90.07,90.11,90.14,90.20,90.12,90.14,90.23,90.31,90.56,90.80,91.03,91.26,91.49,91.79,92.07,92.29,92.40,92.33,91.61,90.44,89.10,88.14,87.92,87.89,87.76,87.34,86.20,84.50,82.37,80.02,78.06,78.93,82.15,86.86,90.23,91.69,92.02,91.66,91.15,90.90,90.81,90.86,91.07,91.45,91.71,91.93,92.13,92.31,92.90,93.60,94.21,94.52,94.83,95.29,95.73,95.97,95.89,95.72,95.51,95.18,94.53,93.28,91.99,90.71,89.49,88.50,87.89,87.97,88.74,89.68,90.24,90.97,91.89,92.81,93.63,94.14,94.37,94.45,95.05,95.98,96.76,97.46,98.65,99.65,100.86,102.38,104.16,103.07,101.27,99.83,99.19,98.71,98.41,98.47,99.64,103.09,107.54,109.61,110.32,110.59,110.53,110.25,108.21,104.49,100.78,97.96,95.25,92.57,89.94,88.43,86.93,84.96,82.29,78.97,75.13,71.93,69.65,68.26,66.87,65.60,64.41,63.24,62.09,61.33,60.64,59.93,59.31,58.62,57.94,57.30,56.76,56.25,55.65,55.07,54.58,54.27,53.90,53.56,53.26,53.01,52.87,52.63,52.37,52.16,52.01,51.85,51.67,51.56,51.84,52.15,52.47,52.80,53.10,53.43,53.69,53.96,54.26,54.51,54.81,55.14,55.47,55.82,56.17,56.51
90.68,90.53,89.57,88.34,87.50,87.01,87.09,88.31,89.54,90.86,92.55,94.90,97.59,99.26,100.40,101.26,101.68,101.59,101.72,102.38,103.86,106.14,108.47,110.54,112.20,113.73,115.31,117.07,119.34,122.85,124.60,126.22,127.32,127.23,125.27,123.45,121.99,120.96,120.19,119.70,118.93,117.89,116.86,115.45,113.95,112.44,111.01,109.85,109.42,109.35,109.44,109.53,109.61,109.47,109.03,108.23,107.28,107.31,108.32,110.23,112.81,111.12,108.47,105.64,102.67,98.05,93.27,90.07,89.68,89.59,89.59,90.39,92.35,95.81,98.65,99.95,100.16,100.13,100.08,99.96,99.69,99.24,98.52,97.93,97.13,95.95,94.21,92.37,90.82,89.67,89.01,88.90,88.88,88.92,88.98,88.99,89.04,89.14,89.27,89.35,89.65,89.90,90.13,90.37,90.60,90.89,91.20,91.48,91.70,91.26,90.30,88.72,86.51,85.11,84.78,84.68,84.42,83.90,82.74,81.02,78.83,76.37,76.24,78.83,82.91,87.26,90.19,91.00,91.00,90.70,90.43,90.38,90.45,90.64,90.94,91.33,91.69,92.06,92.40,92.62,92.96,93.48,94.02,94.33,94.64,94.97,95.40,95.90,95.82,95.73,95.57,95.27,94.71,93.52,92.27,91.03,89.80,88.67,87.43,87.12,87.98,88.97,90.09,91.18,92.21,93.13,94.05,94.69,95.03,95.09,95.11,95.16,95.51,96.22,97.32,98.08,98.76,99.48,100.42,103.83,103.96,103.12,102.54,102.21,101.84,102.31,104.04,107.44,109.29,110.04,110.24,110.34,110.33,110.13,106.91,101.39,98.41,95.93,93.37,90.93,88.92,87.51,86.11,84.43,82.23,78.90,74.43,71.05,68.94,67.55,66.16,65.33,64.74,64.01,62.12,61.28,60.69,60.06,59.44,58.75,57.97,57.17,56.44,55.83,55.32,54.92,54.65,54.34,53.96,53.62,53.31,53.01,52.73,52.47,52.26,52.10,51.94,51.79,51.63,51.55,51.79,52.09,52.44,52.80,53.11,53.48,53.76,54.02,54.33,54.63,55.11,55.55,55.94,56.39,56.84,57.24
88.28,87.67,86.67,85.73,85.78,86.60,87.98,89.50,90.87,92.38,93.85,95.03,96.29,97.47,98.08,98.02,98.04,96.63,96.36,97.54,99.76,102.48,105.01,107.31,109.37,111.28,112.94,114.70,116.85,119.79,122.06,124.41,126.48,127.68,126.24,124.65,123.26,122.26,121.48,120.68,119.53,118.09,116.67,115.17,113.61,112.03,110.45,108.92,107.95,107.50,107.44,107.52,107.44,107.49,107.46,107.00,106.16,106.36,107.49,109.41,111.65,111.26,109.66,107.25,104.20,100.95,97.65,95.05,93.77,93.40,92.93,93.43,95.31,98.49,100.68,101.80,102.14,102.18,102.05,101.84,101.43,100.73,99.83,98.81,97.55,95.99,94.10,91.96,90.26,88.92,87.88,87.84,87.83,87.85,87.88,87.88,87.99,88.10,88.23,88.39,88.66,88.90,89.17,89.48,89.75,90.05,90.38,90.71,90.94,90.56,88.97,86.60,84.04,82.24,81.59,81.31,81.00,80.54,78.92,76.99,74.97,73.00,75.68,79.45,83.64,87.59,89.99,89.42,88.48,88.03,88.38,89.46,90.10,90.44,90.76,91.14,91.56,91.97,92.34,92.66,93.01,93.41,93.83,94.13,94.44,94.75,95.15,95.64,95.73,95.72,95.60,95.36,94.95,93.81,92.59,91.35,90.12,88.96,87.47,86.64,86.89,87.94,89.29,90.59,91.77,92.91,94.04,94.83,95.34,95.63,95.59,95.52,95.57,95.80,96.29,97.13,97.92,98.46,98.66,101.16,103.16,104.36,104.71,104.61,103.69,103.22,103.72,105.61,107.05,108.30,109.22,109.69,109.52,108.27,104.61,99.48,96.79,94.26,91.85,89.76,88.16,86.69,85.28,83.78,81.92,78.81,73.81,70.32,68.49,67.22,66.65,66.29,65.74,64.61,62.52,61.29,60.52,59.94,59.20,58.42,57.58,56.72,55.95,55.38,54.95,54.63,54.40,54.17,53.85,53.52,53.21,52.90,52.60,52.34,52.15,52.03,51.88,51.73,51.57,51.51,51.87,52.19,52.52,52.85,53.16,53.50,53.80,54.09,54.40,54.75,55.51,56.23,56.81,57.19,57.64,58.00
85.85,84.81,83.73,83.28,84.28,86.28,88.71,90.38,91.76,93.20,94.22,94.31,94.39,94.99,94.99,94.08,93.71,91.58,91.18,92.79,95.56,98.58,101.27,103.75,106.14,108.24,110.10,112.12,114.45,117.07,119.87,122.83,125.63,127.80,126.46,124.86,123.45,122.44,121.56,120.46,119.06,117.47,115.91,114.42,112.91,111.36,109.74,107.99,106.61,105.84,105.65,105.58,105.41,105.61,105.86,105.62,104.94,105.40,106.72,108.63,110.50,111.18,110.60,108.76,105.76,103.75,101.79,99.83,97.99,97.30,96.48,96.68,98.26,100.85,102.58,103.67,104.17,104.16,103.88,103.54,102.95,102.02,100.99,99.56,97.85,95.94,93.97,91.62,89.80,88.27,86.85,86.80,86.79,86.79,86.80,86.81,86.94,87.06,87.19,87.41,87.64,87.88,88.18,88.57,88.89,89.21,89.57,89.91,90.10,89.65,87.52,84.55,81.70,79.51,78.45,77.91,77.57,77.14,75.26,73.32,71.68,70.48,75.63,80.27,84.45,87.96,88.93,86.94,85.28,84.92,86.03,88.08,89.42,90.15,90.57,90.95,91.39,91.80,92.18,92.59,92.93,93.19,93.42,93.73,94.08,94.44,94.86,95.36,95.61,95.68,95.61,95.43,95.14,94.08,92.89,91.66,90.44,89.25,87.63,86.33,85.87,86.89,88.37,89.80,91.15,92.46,93.88,94.84,95.52,96.04,96.08,95.95,95.75,95.58,95.58,96.40,97.18,97.52,97.19,98.31,101.31,103.87,104.89,104.89,103.59,102.36,101.75,102.24,103.85,105.72,107.35,108.29,108.03,105.95,102.29,97.98,95.43,92.84,90.58,88.78,87.46,85.95,84.53,83.14,81.51,78.54,73.19,69.73,68.29,67.35,67.51,67.50,66.82,65.18,63.02,61.37,60.33,59.72,58.86,58.00,57.11,56.22,55.45,54.96,54.60,54.32,54.09,53.93,53.67,53.38,53.09,52.78,52.47,52.21,52.03,51.94,51.79,51.64,51.51,51.51,51.97,52.32,52.65,52.97,53.28,53.59,53.89,54.20,54.53,55.00,56.03,57.02,57.75,58.06,58.49,58.77
83.47,82.10,80.87,81.32,83.28,85.92,88.62,90.43,91.46,92.10,92.35,92.19,92.03,91.58,90.72,89.54,88.67,87.52,87.58,89.00,91.48,94.54,97.38,100.00,102.41,104.32,106.61,109.22,112.07,114.93,118.39,121.71,124.80,127.52,125.30,123.06,121.41,120.50,119.53,118.25,116.79,115.36,114.29,112.78,111.48,110.16,108.59,106.94,105.47,104.63,104.33,103.78,103.69,103.95,104.20,103.96,103.63,104.47,106.00,107.87,109.79,110.69,110.70,109.61,106.90,105.33,103.61,102.15,101.29,100.36,99.68,99.65,100.44,102.10,104.00,105.44,106.20,106.14,105.71,105.19,104.27,102.90,101.77,100.20,98.21,95.91,93.55,91.21,89.28,87.56,85.94,85.75,85.71,85.71,85.72,85.78,85.87,86.03,86.22,86.39,86.62,86.85,87.17,87.62,87.99,88.36,88.74,89.04,89.09,88.02,85.83,82.87,79.63,77.10,75.46,74.56,74.16,73.58,72.15,70.82,69.99,70.03,76.26,81.26,85.43,88.44,85.70,82.56,81.02,81.48,83.47,85.73,87.91,89.58,90.37,90.76,91.16,91.52,91.88,92.39,92.57,92.51,92.46,92.77,93.26,93.81,94.43,95.11,95.47,95.59,95.57,95.45,95.20,94.28,93.15,91.93,90.75,89.47,87.86,86.25,85.13,85.96,87.41,88.93,90.38,91.69,93.50,94.72,95.56,96.18,96.37,95.99,95.65,95.52,95.52,95.98,96.11,95.92,95.59,96.56,98.39,99.93,100.56,100.26,99.26,98.34,97.80,97.84,100.02,102.01,103.77,105.17,105.05,103.24,100.33,96.96,94.41,91.91,89.78,88.07,86.76,85.40,84.02,82.60,80.92,77.85,72.58,69.46,68.63,68.48,68.81,68.74,67.80,65.76,63.59,61.59,60.18,59.33,58.41,57.56,56.66,55.76,54.94,54.65,54.35,54.04,53.77,53.61,53.44,53.22,52.96,52.65,52.34,52.08,51.88,51.75,51.66,51.52,51.45,51.57,52.03,52.47,52.87,53.22,53.53,53.84,54.15,54.46,54.83,55.59,56.84,57.94,58.71,59.01,59.35,59.53
81.43,79.88,78.32,80.01,82.45,85.23,87.92,89.67,90.14,90.29,90.17,89.80,89.39,88.55,87.45,86.28,85.27,84.43,84.63,85.92,88.00,90.33,92.64,95.16,98.03,100.63,103.97,107.41,110.78,114.28,118.23,121.67,124.56,126.88,124.16,121.58,119.48,118.00,116.78,115.33,113.83,112.54,111.90,110.86,109.82,108.62,107.25,106.58,106.01,105.63,105.33,104.60,103.67,102.99,102.62,102.53,102.41,102.89,103.88,105.30,107.13,108.52,109.10,108.77,107.52,106.41,105.14,104.16,103.82,103.20,102.89,102.98,103.51,104.47,106.02,107.37,108.10,107.83,106.56,105.29,103.91,102.40,101.06,99.57,97.58,95.17,92.74,90.75,88.86,87.00,85.21,84.73,84.62,84.62,84.63,84.71,84.82,85.00,85.21,85.37,85.60,85.86,86.19,86.62,87.04,87.46,87.86,88.05,87.59,86.26,84.18,81.38,77.97,74.92,72.91,71.80,71.35,70.94,70.20,69.56,69.62,71.18,77.51,82.43,85.59,86.51,82.68,79.70,78.64,79.51,81.57,84.04,86.47,88.52,89.87,90.43,90.89,91.31,91.73,92.20,92.14,91.87,91.63,91.76,92.23,92.75,93.46,94.39,95.17,95.41,95.44,95.36,95.17,94.33,93.24,92.05,90.89,89.58,87.95,86.23,84.82,84.91,86.33,87.94,89.52,91.01,92.97,94.47,95.54,96.24,96.69,96.34,95.84,95.42,95.03,94.89,94.66,94.34,94.03,94.81,96.04,97.19,97.90,97.69,96.65,95.58,94.68,94.00,95.90,98.52,101.02,102.69,102.69,101.13,98.82,96.17,93.66,91.22,89.21,87.54,86.06,84.78,83.45,82.06,80.43,77.70,72.98,70.15,69.46,69.71,70.16,69.77,68.34,65.90,63.49,61.25,59.66,58.72,57.83,56.94,56.05,55.24,54.61,54.38,54.09,53.78,53.49,53.30,53.17,53.01,52.79,52.52,52.21,51.93,51.72,51.60,51.53,51.39,51.43,51.72,52.15,52.61,53.03,53.41,53.79,54.10,54.41,54.90,55.69,56.86,58.09,59.32,60.49,61.55,62.43,63.01
79.09,77.67,76.28,79.19,81.82,84.51,87.04,88.44,88.31,88.08,87.77,87.23,86.60,85.66,84.59,83.53,82.54,81.80,82.18,83.58,85.49,87.08,88.82,91.27,94.73,98.21,102.62,106.83,110.66,114.78,118.81,122.13,124.63,126.22,123.28,120.56,118.07,115.86,114.27,112.60,111.04,109.86,109.51,109.04,108.31,107.35,106.34,106.81,107.32,107.51,107.24,106.45,104.52,102.66,101.42,101.27,101.26,101.20,101.45,102.26,103.79,105.51,106.52,106.93,107.42,106.90,106.36,106.03,106.05,105.99,106.15,106.50,106.97,107.40,108.36,109.33,109.77,109.12,106.63,104.47,102.68,101.23,99.73,98.40,96.52,94.15,91.85,90.29,88.50,86.51,84.52,83.73,83.54,83.54,83.56,83.63,83.79,83.99,84.19,84.34,84.58,84.87,85.21,85.61,86.07,86.53,86.96,87.00,85.96,84.48,82.56,79.94,76.43,72.89,70.71,69.51,69.01,68.83,68.81,68.86,69.84,72.93,78.95,83.57,85.39,83.75,79.94,77.53,77.03,78.18,80.03,82.64,85.07,87.24,89.11,90.02,90.61,91.12,91.64,91.98,91.68,91.24,90.88,90.77,91.11,91.51,92.24,93.41,94.67,95.08,95.21,95.22,95.08,94.28,93.25,92.10,90.94,89.63,87.95,86.17,84.61,83.89,85.25,86.93,88.60,90.31,92.31,94.08,95.41,96.20,96.89,96.67,96.08,95.30,94.45,93.72,93.21,92.84,92.50,93.01,93.90,94.96,95.90,95.97,94.80,93.45,92.08,90.59,91.85,95.00,98.30,100.29,100.46,99.25,97.48,95.42,93.00,90.64,88.74,87.09,85.40,84.12,82.82,81.49,80.00,77.81,73.93,71.46,70.69,70.93,71.23,70.33,68.36,65.60,62.90,60.60,59.00,58.02,57.16,56.25,55.40,54.73,54.35,54.11,53.83,53.53,53.23,53.00,52.89,52.77,52.59,52.37,52.07,51.76,51.54,51.46,51.39,51.29,51.47,51.91,52.30,52.75,53.17,53.58,54.03,54.35,54.74,55.53,56.86,58.42,59.61,60.99,62.68,64.64,66.25,67.35
74.42,74.42,76.38,79.64,81.93,84.31,86.41,86.33,85.85,85.34,84.83,84.29,83.61,82.76,81.80,80.80,79.91,79.60,80.97,83.75,87.05,89.40,91.91,95.00,98.83,102.36,106.47,110.65,114.69,118.46,120.66,122.98,125.05,126.17,123.72,121.46,119.24,116.97,114.59,112.41,110.68,109.48,108.88,108.31,108.21,108.29,108.33,108.85,109.25,109.39,109.14,108.25,106.44,104.22,102.04,100.44,100.33,100.24,100.28,100.52,100.96,101.51,102.27,103.26,104.38,105.22,106.48,107.69,108.39,108.92,109.60,110.26,110.77,111.01,111.15,111.13,110.51,108.72,104.65,101.90,100.26,99.42,98.27,97.08,95.24,93.02,91.37,89.98,88.24,86.10,83.68,82.74,82.48,82.47,82.53,82.61,82.81,83.00,83.17,83.32,83.55,83.88,84.25,84.65,85.11,85.58,86.00,85.98,84.63,82.95,81.03,78.40,74.71,71.27,69.56,68.61,67.96,67.64,67.98,68.63,70.40,74.53,80.06,84.18,84.95,81.68,78.21,75.83,75.61,77.22,79.07,81.40,83.66,85.75,87.62,89.42,90.34,90.95,91.46,91.50,91.12,90.67,90.25,89.94,89.98,90.16,90.77,91.96,93.42,94.15,94.62,94.92,94.88,94.09,93.12,92.05,90.94,89.63,87.80,85.83,84.07,83.21,84.46,85.98,87.53,89.29,91.24,93.20,94.78,95.75,96.38,96.32,95.87,95.17,94.32,93.46,92.62,91.81,91.07,90.89,91.67,92.83,93.93,94.50,93.48,92.12,90.50,88.37,88.75,90.87,93.93,96.96,97.72,97.29,96.09,94.34,92.27,90.16,88.35,86.71,85.01,83.43,82.09,80.85,79.61,78.26,75.77,74.06,73.06,71.87,70.59,68.78,66.48,63.81,61.17,59.50,58.29,57.31,56.40,55.53,54.88,54.41,54.02,53.74,53.52,53.27,52.97,52.74,52.59,52.45,52.29,52.11,51.86,51.57,51.35,51.27,51.20,51.37,51.72,52.17,52.56,52.96,53.39,53.82,54.23,54.59,55.49,56.85,58.54,60.19,61.56,63.25,65.29,67.44,69.34,70.55
71.44,73.02,77.03,80.17,82.26,84.12,85.42,84.46,83.52,82.71,82.02,81.42,80.75,80.00,79.11,78.29,78.52,79.59,82.13,85.74,89.46,92.23,95.09,98.40,102.37,106.07,109.57,113.33,117.19,120.18,121.55,123.08,124.58,125.53,124.16,122.37,120.42,118.39,115.86,113.56,111.52,109.89,108.94,108.56,109.02,109.88,110.73,111.27,111.63,111.69,111.32,110.25,108.45,106.03,103.33,100.80,100.04,99.66,99.51,99.46,99.43,99.44,99.89,100.76,101.80,103.37,105.55,107.82,109.64,110.74,111.86,112.80,113.41,113.51,112.92,111.96,110.25,107.23,102.73,100.10,98.68,97.88,96.84,95.75,94.18,92.36,91.09,89.75,87.81,85.38,82.73,81.70,81.42,81.42,81.48,81.62,81.81,81.99,82.14,82.30,82.53,82.89,83.29,83.68,84.09,84.54,84.98,85.00,83.73,82.04,79.99,77.22,73.53,70.39,68.87,67.93,67.22,67.18,67.87,68.89,71.12,75.94,80.80,84.11,84.08,80.17,76.42,74.22,74.32,76.19,78.07,80.18,82.24,84.22,86.14,88.18,89.71,90.69,91.14,91.15,90.74,90.18,89.51,88.74,88.69,88.92,89.62,90.86,92.26,93.18,93.90,94.44,94.71,93.94,92.99,91.96,90.86,89.46,87.40,85.25,83.42,82.37,83.52,84.97,86.50,88.30,90.17,92.15,93.88,95.08,95.78,95.94,95.66,95.04,94.16,93.21,92.22,91.23,90.27,89.20,89.61,90.70,91.91,92.65,92.05,90.63,88.55,85.92,86.07,87.78,90.48,93.47,94.83,95.00,94.34,93.02,91.24,89.14,87.24,85.57,84.10,82.55,81.12,79.81,78.61,77.49,75.79,74.39,73.08,71.13,69.06,66.84,64.47,62.00,59.92,58.65,57.63,56.63,55.68,54.97,54.48,54.09,53.70,53.40,53.18,52.97,52.71,52.45,52.28,52.13,51.97,51.82,51.62,51.38,51.21,51.17,51.27,51.57,51.98,52.43,52.85,53.24,53.65,54.07,54.46,54.93,55.96,57.51,59.46,61.28,62.96,64.87,67.00,69.13,71.06,72.52
69.70,72.94,78.07,80.76,82.71,83.93,84.17,82.78,81.32,80.17,79.31,78.62,78.00,77.33,76.52,76.03,78.06,81.13,84.93,88.97,92.44,95.39,98.27,101.53,105.46,109.39,112.10,115.17,118.55,120.48,121.71,122.64,123.48,124.46,124.56,123.26,121.59,120.01,117.79,115.62,113.20,110.89,109.50,109.54,110.50,111.95,113.42,113.96,114.31,114.27,113.69,112.37,110.50,108.02,105.11,102.06,100.24,99.39,99.04,98.89,98.82,98.74,98.82,99.10,99.56,101.41,103.88,106.85,110.06,111.71,113.22,114.44,115.20,115.20,113.97,112.12,109.31,105.06,100.90,98.88,97.72,96.57,95.49,94.48,93.30,92.04,90.95,89.56,87.25,84.44,81.70,80.62,80.37,80.37,80.41,80.64,80.81,80.96,81.12,81.27,81.51,81.90,82.33,82.71,83.02,83.46,83.92,84.06,83.14,81.57,79.30,76.32,72.75,70.04,68.51,67.42,66.68,67.23,68.25,69.48,71.95,77.19,81.29,83.58,82.94,79.07,74.57,72.69,73.12,75.11,77.04,78.96,80.78,82.63,84.63,86.50,88.83,90.35,90.72,90.87,90.49,89.76,88.69,87.29,87.27,87.75,88.70,90.00,91.16,92.19,93.08,93.83,94.53,93.81,92.86,91.83,90.73,89.18,86.83,84.51,82.68,81.45,82.48,83.91,85.49,87.34,89.12,91.00,92.78,94.26,95.11,95.53,95.45,94.89,93.97,92.97,91.97,90.96,89.91,87.82,87.65,88.55,89.83,90.54,90.51,89.01,86.32,83.31,83.69,85.42,87.71,89.92,91.84,92.48,92.33,91.54,90.01,87.75,85.62,83.90,82.79,81.48,79.95,78.46,77.15,75.84,74.53,73.13,71.46,69.22,66.91,64.65,62.39,60.18,59.02,57.99,56.98,55.98,54.99,54.54,54.16,53.77,53.39,53.08,52.82,52.62,52.45,52.14,51.96,51.81,51.65,51.50,51.34,51.19,51.10,51.14,51.52,51.85,52.23,52.70,53.16,53.55,53.94,54.33,54.72,55.34,56.24,57.73,59.86,61.87,63.94,66.03,68.08,70.01,71.80,73.62
71.04,74.49,78.72,80.81,82.37,83.07,82.79,81.50,79.77,78.17,76.95,76.25,75.58,74.93,75.32,77.17,80.04,83.41,87.13,90.91,94.24,97.18,99.83,102.67,106.08,109.87,112.27,114.53,116.86,118.64,120.22,121.11,121.81,123.01,123.90,123.60,122.57,121.14,119.66,117.52,115.11,112.89,111.55,112.06,113.35,114.94,116.35,116.79,116.97,116.64,115.68,114.06,112.21,110.26,108.16,105.80,102.15,100.18,99.32,99.09,99.01,98.76,98.43,98.28,98.79,99.84,101.43,104.02,107.78,110.67,112.53,113.99,115.10,115.25,114.61,112.60,109.37,105.32,101.45,99.35,98.06,96.96,95.93,94.97,93.57,91.96,90.83,88.92,86.23,83.23,80.49,79.46,79.14,79.09,79.13,79.36,79.57,79.78,79.98,80.19,80.47,80.84,81.22,81.56,81.92,82.41,82.90,83.14,82.67,81.35,79.27,76.39,72.80,70.00,68.33,67.07,66.21,67.01,68.19,69.88,72.74,77.64,81.59,83.35,82.20,78.03,72.79,71.13,71.75,73.70,75.63,77.18,78.67,80.25,82.03,84.44,87.21,89.33,90.41,90.61,90.32,89.43,88.02,86.27,85.90,86.52,87.68,88.98,90.24,91.30,92.18,92.99,93.94,93.60,92.80,91.77,90.66,88.96,86.57,84.05,81.86,80.67,81.45,82.84,84.51,86.32,88.10,89.98,91.74,93.17,94.07,94.78,94.95,94.53,93.70,92.71,91.74,90.72,89.52,87.18,85.70,85.63,86.90,88.10,88.45,86.75,83.66,80.75,81.23,83.19,85.59,87.59,89.21,89.99,90.17,89.80,88.87,86.53,84.13,81.93,80.11,78.90,77.50,76.10,74.81,73.70,72.42,70.93,69.21,67.17,65.10,63.02,61.04,59.29,58.18,57.15,56.18,55.29,54.69,54.29,53.90,53.52,53.13,52.77,52.50,52.31,52.14,51.88,51.66,51.49,51.33,51.18,51.07,51.07,51.19,51.46,51.84,52.21,52.57,52.94,53.35,53.79,54.20,54.63,55.17,55.94,56.81,57.97,59.55,61.66,63.88,66.14,68.33,70.21,71.94,73.72
72.31,75.72,79.17,80.76,81.83,82.13,81.63,80.53,78.40,76.26,74.63,73.89,73.33,73.54,75.17,78.30,81.64,85.07,88.71,92.42,95.85,98.82,101.31,103.79,106.61,109.45,111.31,112.88,114.37,115.70,117.68,118.95,120.01,121.70,123.08,123.66,123.39,122.40,121.34,119.43,117.24,115.25,114.12,114.94,116.27,117.66,118.72,118.99,119.03,118.61,117.56,115.69,113.80,112.21,110.75,109.10,104.96,101.97,100.33,99.94,99.72,99.19,98.55,98.05,98.13,98.57,99.54,101.48,104.72,108.93,111.45,113.28,114.69,115.21,115.01,113.18,110.01,106.14,102.46,100.06,98.52,97.47,96.51,95.58,93.96,91.98,90.73,88.50,85.53,82.37,79.66,78.63,78.06,77.84,77.87,78.03,78.26,78.46,78.63,78.77,79.04,79.44,79.86,80.26,80.83,81.39,81.92,82.26,82.14,81.12,79.28,76.56,73.04,70.09,68.26,66.80,65.80,66.79,68.17,70.31,73.52,78.12,81.78,83.04,81.45,77.06,71.52,69.89,70.47,72.22,73.86,74.98,76.18,77.69,79.70,82.56,85.55,88.09,89.83,90.29,89.88,88.76,87.11,85.25,84.67,85.36,86.61,87.90,89.20,90.38,91.40,92.34,93.47,93.44,92.74,91.68,90.59,88.77,86.33,83.66,81.20,80.00,80.52,81.83,83.55,85.35,87.18,89.10,90.88,92.29,93.20,94.02,94.38,94.16,93.38,92.46,91.53,90.47,89.10,86.56,84.10,83.09,83.97,85.62,86.61,85.23,82.19,79.40,79.22,81.08,83.48,85.24,86.68,87.50,87.84,87.83,87.57,85.41,82.94,80.39,77.86,76.34,74.93,73.60,72.38,71.42,70.26,68.82,67.11,65.18,63.25,61.39,59.75,58.45,57.35,56.32,55.44,54.75,54.36,53.97,53.60,53.23,52.84,52.46,52.18,51.98,51.79,51.59,51.36,51.17,51.04,50.97,50.96,51.08,51.33,51.72,52.10,52.49,52.86,53.22,53.61,54.04,54.48,54.99,55.68,56.53,57.39,58.34,59.54,61.75,64.22,66.65,68.92,70.98,72.74,74.39
73.49,76.55,79.39,80.59,81.06,81.09,80.73,79.93,77.23,74.46,72.36,71.53,71.27,73.30,76.26,79.39,82.79,86.01,89.57,93.42,97.24,100.27,102.72,104.91,107.02,107.99,109.03,110.05,110.94,111.49,113.94,116.04,118.04,120.56,122.09,123.39,124.03,123.81,122.80,121.36,119.63,118.04,117.30,118.23,119.26,120.07,120.43,120.45,120.40,120.12,119.31,117.25,115.24,113.83,112.82,111.86,108.82,104.92,102.21,101.56,101.05,100.10,99.25,98.50,97.60,97.67,98.29,99.27,100.73,106.37,109.90,112.26,113.91,115.08,115.12,113.87,111.33,107.61,103.98,101.06,99.12,98.13,97.27,96.35,94.49,92.13,90.68,88.34,85.21,81.94,79.27,78.19,77.16,76.62,76.63,76.64,76.85,77.00,77.04,76.98,77.15,77.62,78.19,78.77,79.74,80.41,80.98,81.42,81.55,80.87,79.34,76.87,73.47,70.33,68.30,66.62,65.44,66.58,68.19,70.75,74.28,78.63,81.85,82.63,80.69,76.19,70.84,69.01,69.29,70.67,71.66,72.28,73.24,74.94,77.67,80.88,83.84,86.60,88.96,89.91,89.13,87.68,85.94,84.22,83.60,84.27,85.51,86.75,87.99,89.45,90.76,91.92,93.14,93.35,92.67,91.57,90.52,88.60,86.10,83.33,80.74,79.43,79.69,80.87,82.61,84.46,86.38,88.41,90.24,91.65,92.50,93.24,93.72,93.77,93.00,92.21,91.34,90.22,88.65,85.96,82.91,81.01,81.02,83.07,85.05,84.56,82.10,79.46,77.74,79.09,81.38,82.87,84.26,84.99,85.33,85.56,86.10,84.41,82.11,79.33,76.11,73.80,72.21,70.96,69.84,68.98,68.04,66.79,65.19,63.26,61.33,59.73,58.53,57.68,56.53,55.49,54.78,54.36,53.98,53.59,53.25,52.91,52.52,52.14,51.86,51.63,51.42,51.26,51.04,50.85,50.77,50.90,51.04,51.24,51.52,51.91,52.30,52.68,53.10,53.54,53.93,54.32,54.79,55.42,56.25,57.10,58.01,58.87,59.87,62.18,65.04,67.62,69.93,72.43,74.31,75.73
73.07,75.44,77.69,78.85,79.30,79.21,78.59,77.38,74.91,72.40,70.60,70.24,71.25,73.73,76.73,79.76,82.99,86.12,89.66,93.67,98.11,100.91,102.72,103.78,104.31,104.37,105.11,106.30,107.71,108.92,111.73,115.00,118.13,120.55,121.96,123.14,123.76,123.68,123.12,122.58,121.65,120.54,119.75,120.26,120.71,121.04,121.29,121.24,121.10,120.75,119.99,118.39,116.86,115.79,114.92,113.82,111.28,108.42,106.42,105.74,105.20,103.73,101.51,99.24,98.23,97.58,97.52,98.02,99.15,102.24,106.30,109.87,112.41,114.00,114.77,114.31,112.42,109.03,105.66,102.58,100.25,98.89,98.08,97.10,95.18,92.65,90.65,88.14,84.86,81.58,79.11,77.94,76.80,75.90,75.35,75.35,75.24,75.19,75.16,75.08,75.14,75.60,76.19,76.79,77.89,78.81,79.70,80.44,80.68,80.13,78.60,76.30,73.48,70.67,68.50,66.54,65.11,66.27,68.14,70.96,74.66,79.03,81.76,82.01,79.78,75.39,70.37,68.35,68.25,69.19,69.85,70.23,71.05,73.12,77.08,80.59,83.30,85.85,88.08,88.15,87.26,85.92,84.33,82.63,81.95,82.61,83.92,85.36,87.04,88.89,90.46,91.70,92.94,93.29,92.70,91.59,90.45,88.34,85.72,82.90,80.29,78.98,79.20,80.24,81.86,83.85,85.87,87.93,89.76,91.12,91.97,92.70,93.24,93.40,92.67,91.90,91.09,89.90,87.97,85.27,82.19,79.84,79.07,81.29,83.25,83.42,81.98,79.80,76.47,76.86,78.79,80.34,81.77,82.42,82.79,83.20,84.09,83.69,81.96,78.87,74.48,71.74,70.20,69.18,68.20,67.00,65.81,64.63,63.27,61.34,59.80,58.45,57.39,56.64,55.66,54.94,54.42,54.03,53.60,53.21,52.87,52.55,52.20,51.82,51.51,51.27,51.09,50.89,50.85,50.86,50.91,51.07,51.22,51.43,51.72,52.10,52.49,52.91,53.33,53.75,54.13,54.56,55.32,56.27,57.12,58.01,58.90,60.34,62.63,65.56,67.90,69.86,71.90,74.80,76.96,78.12
72.07,73.78,75.48,76.54,77.04,76.94,76.19,74.69,72.55,70.52,69.32,69.65,71.58,74.20,77.03,79.88,82.91,85.96,89.45,93.49,98.11,100.69,102.00,102.18,101.46,100.81,101.61,103.28,105.42,107.46,110.57,114.58,118.38,120.65,121.87,122.81,123.21,123.00,122.66,122.64,122.35,121.81,121.28,121.59,121.64,121.63,121.73,121.65,121.48,121.13,120.52,119.43,118.44,117.75,117.01,115.74,113.54,111.54,110.17,109.54,108.98,107.37,104.37,100.91,99.08,97.86,97.15,97.14,97.94,99.05,102.75,106.79,110.11,112.20,113.63,114.00,112.98,110.29,107.30,104.23,101.64,99.85,98.93,97.85,95.88,93.24,90.80,87.94,84.45,81.18,78.96,77.72,76.51,75.29,74.26,74.09,73.79,73.55,73.37,73.18,73.15,73.57,74.16,74.80,75.94,76.99,78.02,78.89,79.23,78.94,77.59,75.55,73.25,70.83,68.58,66.37,64.75,66.01,68.10,71.12,74.93,79.28,81.59,81.46,79.00,74.60,69.96,67.73,67.22,67.77,68.28,68.76,69.72,72.22,77.08,80.64,83.12,85.25,86.90,86.17,85.16,83.94,82.53,80.96,80.37,81.12,82.59,84.29,86.35,88.53,90.27,91.55,92.77,93.20,92.65,91.54,90.34,88.06,85.35,82.50,79.90,78.59,78.73,79.66,81.21,83.31,85.41,87.52,89.35,90.69,91.49,92.21,92.80,93.04,92.35,91.61,90.87,89.72,87.69,84.90,81.75,78.95,77.41,79.61,81.46,82.24,81.72,79.83,75.32,74.67,76.01,77.58,78.93,79.62,80.19,80.94,82.14,82.77,81.64,78.35,72.86,70.03,68.54,67.63,66.76,65.31,63.90,62.69,61.45,59.65,58.40,57.24,56.29,55.64,54.89,54.45,54.08,53.68,53.24,52.84,52.48,52.16,51.86,51.49,51.17,50.94,50.82,50.67,50.77,50.94,51.10,51.26,51.41,51.62,51.91,52.29,52.70,53.13,53.55,53.94,54.32,54.87,55.92,57.18,58.15,59.42,60.72,62.80,65.89,68.82,70.61,72.09,73.92,76.99,79.01,79.86
70.30,71.48,72.71,73.47,74.03,74.10,73.54,72.19,70.38,69.06,68.84,70.23,72.16,74.59,77.14,79.66,82.49,85.43,88.82,92.59,96.47,98.93,100.15,100.13,99.04,97.85,99.32,101.96,105.01,107.84,111.15,114.97,118.49,120.71,121.63,122.31,122.33,121.61,120.92,120.55,120.50,120.71,121.11,121.80,121.93,121.76,121.54,121.46,121.37,121.24,120.99,120.34,119.89,119.62,119.11,117.79,115.68,113.75,112.47,111.96,111.35,110.44,108.09,104.38,100.08,98.66,97.46,96.76,96.92,98.14,99.79,102.64,106.41,109.18,111.00,112.25,112.52,111.25,108.81,106.04,103.39,101.20,99.84,98.60,96.58,93.91,91.32,87.75,83.94,80.71,78.76,77.53,76.20,74.81,73.53,72.87,72.69,72.36,71.86,71.33,71.20,71.55,72.15,72.87,73.97,74.89,75.64,76.22,76.66,76.99,76.22,74.63,72.63,70.61,68.38,66.02,64.29,65.84,68.11,71.24,75.08,79.28,81.29,81.08,78.47,73.82,69.62,67.11,66.18,66.46,67.12,68.30,69.93,72.92,77.95,81.07,83.36,84.76,85.12,84.04,82.85,81.66,80.47,79.30,79.05,80.11,81.89,83.92,86.13,88.46,90.24,91.47,92.64,93.03,92.46,91.35,90.14,87.77,85.03,82.20,79.65,78.34,78.22,79.07,80.71,82.86,85.02,87.17,89.05,90.42,91.08,91.76,92.41,92.72,92.03,91.38,90.74,89.82,88.26,85.22,81.75,78.38,76.08,77.93,79.78,81.08,81.18,79.20,74.40,72.60,72.97,74.41,75.42,76.35,77.50,78.91,80.45,81.43,80.79,77.60,71.22,68.93,67.40,66.35,65.49,64.09,62.64,61.22,59.83,58.43,57.18,56.09,55.26,54.77,54.31,54.02,53.70,53.31,52.91,52.52,52.10,51.73,51.48,51.16,50.85,50.66,50.66,50.76,50.90,51.09,51.30,51.45,51.60,51.81,52.10,52.49,52.94,53.35,53.74,54.13,54.52,55.33,56.62,58.11,59.44,61.75,64.34,67.04,69.61,71.16,72.55,74.00,75.83,78.60,79.62,80.01
68.28,69.19,70.09,70.67,71.13,71.28,70.98,70.01,68.58,68.11,68.78,70.55,72.29,74.38,76.57,78.77,81.17,83.96,87.00,90.02,92.63,94.11,94.89,95.04,94.77,95.39,98.26,101.67,105.00,108.20,111.48,114.77,117.73,119.94,121.02,121.87,121.85,120.72,119.04,117.71,117.27,117.74,118.89,120.34,120.97,121.04,120.86,120.82,120.84,120.89,120.93,120.81,120.52,120.33,119.99,119.16,117.53,115.85,114.61,113.96,113.07,111.93,109.72,106.29,101.73,99.51,97.90,96.75,96.10,97.38,98.65,100.90,104.14,107.15,108.99,110.51,111.44,111.34,109.74,107.57,105.17,102.87,101.25,99.60,97.22,94.19,91.07,87.28,83.41,80.21,78.32,77.01,75.61,74.18,72.86,72.05,71.65,71.24,70.76,70.26,70.03,70.21,70.56,70.96,71.70,72.47,73.12,73.66,74.20,74.77,74.65,73.75,72.15,70.25,67.98,65.55,63.82,65.59,68.01,71.15,74.90,79.04,80.90,80.54,77.72,72.84,69.05,66.68,65.68,65.95,67.26,68.85,71.23,74.66,79.15,81.40,82.86,83.47,83.21,82.20,81.03,79.85,78.71,77.63,78.18,79.59,81.56,83.86,86.29,88.69,90.43,91.55,92.67,92.82,92.19,91.11,89.89,87.39,84.67,81.94,79.46,77.91,77.74,78.62,80.28,82.37,84.60,86.95,88.99,90.41,90.99,91.60,92.14,92.40,91.94,91.37,90.79,89.98,88.62,85.15,81.50,77.80,74.85,76.10,77.83,79.24,79.33,76.75,72.57,70.80,70.77,71.68,72.76,73.99,75.40,76.97,78.63,79.66,78.91,75.83,70.20,68.23,66.57,65.24,64.14,62.90,61.47,59.98,58.50,57.11,56.02,55.17,54.56,54.17,53.79,53.52,53.23,52.88,52.49,52.11,51.72,51.36,51.05,50.74,50.65,50.70,50.82,50.97,51.13,51.30,51.49,51.64,51.80,52.00,52.29,52.68,53.11,53.47,53.84,54.22,54.61,55.48,56.94,58.79,60.72,63.43,66.30,68.94,71.06,72.37,73.66,74.93,76.40,78.42,79.43,79.91
66.17,66.91,67.60,68.05,68.32,68.48,68.47,68.01,67.17,67.45,68.71,70.48,71.93,73.68,75.58,77.53,79.53,82.06,84.59,86.78,88.28,88.85,89.30,89.79,90.60,93.42,97.67,101.63,104.93,108.23,111.30,114.01,116.42,118.66,120.17,121.38,121.47,120.04,117.16,114.71,113.71,114.20,115.72,117.71,118.82,119.27,119.35,119.38,119.67,120.09,120.55,120.94,120.77,120.59,120.41,120.12,119.07,117.73,116.41,115.29,114.07,112.54,110.37,107.34,103.20,100.21,98.29,96.84,95.50,96.73,98.10,99.96,102.43,105.37,107.17,108.78,110.11,110.86,110.06,108.48,106.40,104.14,102.43,100.42,97.64,94.20,90.56,86.72,82.90,79.74,77.80,76.37,74.92,73.50,72.22,71.39,70.76,70.29,69.91,69.53,69.19,69.15,69.19,69.22,69.59,70.17,70.74,71.29,71.88,72.56,72.96,72.71,71.56,69.76,67.46,65.00,63.32,65.33,67.89,71.02,74.65,78.67,80.45,79.82,76.72,71.69,68.34,66.14,65.22,65.69,67.74,69.75,72.75,76.37,80.01,81.42,81.98,81.85,81.19,80.31,79.21,78.06,77.02,76.23,77.59,79.31,81.44,83.97,86.61,89.01,90.66,91.67,92.74,92.61,91.90,90.83,89.58,86.95,84.28,81.65,79.24,77.45,77.26,78.18,79.87,81.92,84.28,86.82,89.02,90.45,90.99,91.53,91.93,92.08,91.85,91.36,90.85,90.11,88.78,84.84,81.03,77.08,73.63,74.12,75.64,77.00,77.00,74.01,70.76,69.31,69.05,69.42,70.59,71.97,73.47,75.03,76.65,77.52,76.54,73.70,69.40,67.64,65.88,64.27,62.89,61.74,60.31,58.78,57.27,55.86,54.98,54.39,53.98,53.65,53.26,53.00,52.73,52.42,52.04,51.66,51.31,50.99,50.66,50.43,50.58,50.85,51.08,51.24,51.40,51.55,51.71,51.86,52.01,52.21,52.48,52.82,53.20,53.53,53.88,54.26,54.65,55.49,57.06,59.20,61.64,64.46,67.29,69.72,71.52,72.81,74.05,75.12,76.16,77.46,78.52,79.14
63.93,64.70,65.42,65.82,65.77,65.78,66.01,66.34,66.84,67.37,68.10,69.19,70.14,71.80,73.75,75.73,77.68,79.58,81.28,82.86,84.50,85.46,86.34,87.40,89.02,92.78,97.45,101.32,104.13,107.00,109.49,111.78,114.02,116.39,118.83,120.61,121.05,119.61,115.50,111.98,110.43,110.59,111.28,112.47,113.48,114.38,115.20,115.38,116.48,118.01,119.54,120.33,120.50,120.52,120.46,120.32,119.82,118.91,117.12,114.55,113.03,111.58,109.61,106.89,103.24,100.27,98.32,96.86,95.54,96.37,97.69,99.32,101.20,103.40,105.30,107.08,108.51,109.27,108.72,107.35,105.48,103.48,102.12,100.21,97.29,93.61,89.92,86.18,82.51,79.41,77.28,75.65,74.19,72.82,71.60,70.87,70.29,69.87,69.54,69.21,68.73,68.40,68.19,68.12,68.39,68.67,69.05,69.54,70.04,70.66,71.04,71.00,70.42,68.87,66.70,64.32,62.75,65.16,67.81,70.96,74.47,78.09,79.88,78.62,75.03,70.16,67.40,64.94,64.22,65.44,68.09,70.83,73.84,76.77,79.23,80.34,80.45,79.90,78.93,77.90,76.86,75.79,75.19,75.83,77.55,79.45,81.71,84.42,87.11,89.32,90.85,91.84,92.81,92.40,91.58,90.46,89.07,86.44,83.80,81.23,78.84,77.01,76.72,77.66,79.48,81.73,84.28,86.88,89.06,90.45,90.99,91.53,91.81,91.76,91.53,91.18,90.82,90.06,88.38,84.10,79.98,75.87,72.26,71.76,72.81,74.05,74.35,72.20,70.03,68.73,68.25,68.50,69.31,70.24,71.49,72.96,74.19,74.49,73.49,71.42,68.70,66.98,65.31,63.69,62.13,60.64,59.11,57.54,56.07,54.96,54.37,53.91,53.50,53.07,52.69,52.42,52.18,51.92,51.59,51.21,50.84,50.56,50.47,50.64,50.87,51.11,51.34,51.55,51.72,51.87,52.02,52.18,52.33,52.50,52.64,52.75,53.14,53.46,53.81,54.20,54.58,55.30,56.80,58.88,61.12,63.80,66.48,68.89,70.76,71.55,72.67,73.56,74.35,75.61,75.82,76.13
